žVERSION 0.7
FIELDS x y z
SIZE 8 8 8
TYPE F F F
COUNT 1 1 1
WIDTH 2271
HEIGHT 1
VIEWPOINT 324.09, 7.21, 396.58 1 328.99, 2.30, 377.16
POINTS 2271
DATA ascii
323.74, 0.15, 376.23
323.55, 0.15, 376.05
323.35, 0.16, 375.86
323.12, 0.16, 375.65
322.88, 0.16, 375.42
322.62, 0.16, 375.17
322.34, 0.17, 374.91
322.10, 0.19, 374.67
321.86, 0.23, 374.44
321.59, 0.26, 374.19
321.31, 0.30, 373.92
321.01, 0.34, 373.63
320.68, 0.39, 373.32
320.28, 0.43, 372.95
318.40, 0.17, 371.15
316.96, 0.06, 369.78
315.59, 0.01, 368.48
314.18, 0.00, 367.14
312.51, 0.00, 365.55
310.40, 0.00, 363.54
323.86, 0.15, 376.46
323.69, 0.15, 376.29
323.49, 0.15, 376.11
323.29, 0.16, 375.92
323.06, 0.16, 375.71
322.82, 0.16, 375.49
322.56, 0.16, 375.24
322.27, 0.17, 374.98
322.04, 0.20, 374.76
321.79, 0.23, 374.53
321.53, 0.27, 374.28
321.24, 0.30, 374.02
320.92, 0.35, 373.73
320.58, 0.39, 373.41
320.11, 0.42, 372.97
¯318.24, 0.16, 371.23
316.75, 0.04, 369.85
315.44, 0.01, 368.63
314.02, 0.00, 367.31
312.33, 0.00, 365.75
310.20, 0.00, 363.77
323.81, 0.15, 376.51
323.63, 0.15, 376.35
323.44, 0.15, 376.17
323.23, 0.16, 375.98
323.00, 0.16, 375.78
322.76, 0.16, 375.55
322.49, 0.16, 375.31
322.20, 0.17, 375.05
321.95, 0.19, 374.83
321.70, 0.22, 374.60
321.43, 0.26, 374.35
321.13, 0.30, 374.08
320.82, 0.34, 373.80
320.47, 0.38, 373.48
319.96, 0.40, 373.02
318.09, 0.15, 371.32
316.54, 0.03, 369.92
315.29, 0.01, 368.79
313.86, 0.00, 367.49
312.16, 0.00, 365.95
310.00, 0.00, 364.00
323.76, 0.15, 376.57
323.58, 0.15, 376.40
323.38, 0.15, 376.23
323.17, 0.16, 376.04
322.94, 0.16, 375.84
322.69, 0.16, 375.62
322.42, 0.16, 375.38
322.14, 0.17, 375.13
321.87, 0.19, 374.89
321.61, 0.22, 374.66
321.33, 0.25, 374.42
321.03, 0.29, 374.15
320.71, 0.33, 373.87
320.36, 0.38, 373.56
319.79, 0.38, 373.06
317.94, 0.15, 371.42
316.36, 0.02, 370.02
315.14, 0.01, 368.94
313.71, 0.00, 367.67
311.98, 0.00, 366.15
309.81, 0.00, 364.23
323.71, 0.15, 376.62
323.53, 0.15, 376.46
323.33, 0.15, 376.29
¯323.12, 0.15, 376.11
322.88, 0.16, 375.91
322.63, 0.16, 375.69
322.36, 0.16, 375.45
322.07, 0.17, 375.21
321.78, 0.18, 374.95
321.52, 0.21, 374.73
321.24, 0.25, 374.48
320.93, 0.28, 374.22
320.60, 0.33, 373.94
320.21, 0.36, 373.60
319.60, 0.36, 373.08
317.80, 0.14, 371.52
316.22, 0.02, 370.16
315.00, 0.01, 369.10
313.55, 0.00, 367.86
311.81, 0.00, 366.36
309.62, 0.00, 364.46
323.66, 0.15, 376.68
323.48, 0.15, 376.52
323.28, 0.15, 376.35
323.06, 0.15, 376.17
322.83, 0.16, 375.97
322.57, 0.16, 375.76
322.30, 0.16, 375.53
322.01, 0.17, 375.29
321.70, 0.18, 375.02
321.43, 0.21, 374.79
321.14, 0.24, 374.55
320.83, 0.28, 374.29
320.50, 0.32, 374.01
320.04, 0.34, 373.63
319.41, 0.34, 373.10
317.66, 0.13, 371.62
316.09, 0.02, 370.31
314.85, 0.00, 369.26
313.40, 0.00, 368.04
311.65, 0.00, 366.56
309.43, 0.00, 364.70
323.62, 0.15, 376.73
323.43, 0.15, 376.58
323.22, 0.15, 376.41
323.00, 0.15, 376.23
322.77, 0.16, 376.04
322.51, 0.16, 375.83
322.24, 0.16, 375.60
321.95, 0.17, 375.36
321.63, 0.18, 375.11
321.33, 0.20, 374.86
321.04, 0.23, 374.62
320.73, 0.27, 374.37
¯320.39, 0.31, 374.09
319.86, 0.32, 373.65
319.21, 0.32, 373.12
317.52, 0.13, 371.73
315.97, 0.01, 370.45
314.71, 0.00, 369.42
313.26, 0.00, 368.23
311.48, 0.00, 366.77
309.24, 0.00, 364.93
323.57, 0.15, 376.79
323.38, 0.15, 376.64
323.17, 0.15, 376.48
322.95, 0.15, 376.30
322.71, 0.15, 376.11
322.45, 0.16, 375.90
322.18, 0.16, 375.68
321.89, 0.17, 375.44
321.57, 0.18, 375.19
321.24, 0.19, 374.93
320.95, 0.23, 374.69
320.63, 0.26, 374.44
320.27, 0.30, 374.15
319.68, 0.30, 373.68
319.01, 0.29, 373.15
317.39, 0.12, 371.84
315.84, 0.01, 370.60
314.57, 0.00, 369.59
313.11, 0.00, 368.42
311.32, 0.00, 366.98
309.06, 0.00, 365.17
323.52, 0.15, 376.85
323.33, 0.15, 376.70
323.12, 0.15, 376.54
322.90, 0.15, 376.36
322.66, 0.15, 376.18
322.40, 0.16, 375.97
322.12, 0.16, 375.76
321.82, 0.17, 375.53
321.50, 0.18, 375.28
321.15, 0.19, 375.00
320.85, 0.22, 374.77
320.53, 0.26, 374.51
320.10, 0.28, 374.18
319.50, 0.27, 373.71
318.81, 0.27, 373.17
317.25, 0.11, 371.95
315.72, 0.01, 370.75
314.43, 0.00, 369.75
312.97, 0.00, 368.61
311.16, 0.00, 367.20
308.88, 0.00, 365.42
¯323.47, 0.15, 376.91
323.28, 0.15, 376.76
323.07, 0.15, 376.60
322.85, 0.15, 376.43
322.60, 0.15, 376.24
322.34, 0.16, 376.04
322.06, 0.16, 375.83
321.77, 0.17, 375.61
321.44, 0.18, 375.36
321.09, 0.19, 375.09
320.76, 0.21, 374.84
320.43, 0.25, 374.59
319.94, 0.26, 374.22
319.32, 0.25, 373.75
318.61, 0.24, 373.20
317.04, 0.09, 372.01
315.59, 0.01, 370.91
314.31, 0.00, 369.93
312.83, 0.00, 368.80
311.01, 0.00, 367.41
308.70, 0.00, 365.66
323.43, 0.15, 376.97
323.23, 0.15, 376.82
323.02, 0.15, 376.67
322.79, 0.15, 376.50
322.55, 0.15, 376.31
322.28, 0.15, 376.12
322.01, 0.16, 375.91
321.71, 0.17, 375.69
321.38, 0.18, 375.45
321.02, 0.19, 375.18
320.66, 0.21, 374.91
320.33, 0.24, 374.67
319.77, 0.24, 374.26
319.14, 0.23, 373.78
318.50, 0.24, 373.31
316.83, 0.07, 372.07
315.47, 0.01, 371.06
314.18, 0.00, 370.10
312.69, 0.00, 369.00
310.85, 0.00, 367.63
308.53, 0.00, 365.91
323.38, 0.15, 377.03
323.19, 0.15, 376.88
322.97, 0.15, 376.73
322.74, 0.15, 376.56
322.50, 0.15, 376.38
322.23, 0.15, 376.19
321.95, 0.16, 375.99
321.65, 0.17, 375.77
321.32, 0.18, 375.53
¯320.96, 0.19, 375.27
320.57, 0.20, 374.99
320.18, 0.22, 374.71
319.61, 0.21, 374.30
319.07, 0.23, 373.91
318.47, 0.25, 373.47
316.62, 0.05, 372.13
315.36, 0.01, 371.22
314.06, 0.00, 370.28
312.56, 0.00, 369.19
310.70, 0.00, 367.85
308.36, 0.00, 366.16
323.34, 0.15, 377.09
323.14, 0.15, 376.95
322.92, 0.15, 376.80
322.69, 0.15, 376.63
322.44, 0.15, 376.46
322.18, 0.15, 376.27
321.90, 0.16, 376.07
321.59, 0.17, 375.86
321.26, 0.18, 375.62
320.90, 0.19, 375.37
320.50, 0.20, 375.08
320.05, 0.21, 374.77
319.57, 0.22, 374.43
319.03, 0.24, 374.05
318.43, 0.26, 373.63
316.41, 0.03, 372.20
315.26, 0.01, 371.39
313.94, 0.00, 370.46
312.42, 0.00, 369.39
310.56, 0.00, 368.07
308.20, 0.00, 366.41
323.30, 0.14, 377.15
323.09, 0.15, 377.01
322.88, 0.15, 376.86
322.64, 0.15, 376.70
322.39, 0.15, 376.53
322.13, 0.15, 376.34
321.84, 0.16, 376.15
321.54, 0.17, 375.94
321.20, 0.18, 375.71
320.84, 0.19, 375.46
320.42, 0.20, 375.18
320.02, 0.22, 374.90
319.53, 0.23, 374.57
319.00, 0.25, 374.20
318.39, 0.27, 373.78
316.31, 0.03, 372.35
315.15, 0.01, 371.55
313.82, 0.00, 370.64
¯312.29, 0.00, 369.59
310.41, 0.00, 368.30
308.04, 0.00, 366.67
323.25, 0.14, 377.21
323.05, 0.15, 377.07
322.83, 0.15, 376.93
322.60, 0.15, 376.77
322.34, 0.15, 376.60
322.08, 0.16, 376.42
321.79, 0.16, 376.23
321.48, 0.17, 376.03
321.15, 0.18, 375.80
320.76, 0.18, 375.55
320.34, 0.19, 375.26
319.97, 0.22, 375.02
319.50, 0.24, 374.70
318.96, 0.26, 374.34
318.36, 0.28, 373.94
316.22, 0.03, 372.50
315.05, 0.01, 371.72
313.71, 0.00, 370.82
312.17, 0.00, 369.79
310.27, 0.00, 368.52
307.88, 0.00, 366.92
323.21, 0.14, 377.27
323.01, 0.14, 377.14
322.79, 0.15, 377.00
322.55, 0.15, 376.84
322.29, 0.15, 376.67
322.03, 0.16, 376.50
321.74, 0.16, 376.31
321.43, 0.17, 376.11
321.08, 0.17, 375.88
320.69, 0.18, 375.63
320.27, 0.19, 375.35
319.91, 0.22, 375.12
319.47, 0.25, 374.83
318.93, 0.27, 374.48
318.26, 0.27, 374.05
316.13, 0.03, 372.66
314.93, 0.01, 371.88
313.60, 0.00, 371.01
312.04, 0.00, 370.00
310.13, 0.00, 368.75
307.73, 0.00, 367.18
323.17, 0.14, 377.34
322.96, 0.14, 377.20
322.74, 0.15, 377.06
322.50, 0.15, 376.91
322.24, 0.15, 376.75
321.98, 0.16, 376.58
¯321.69, 0.16, 376.39
321.36, 0.17, 376.19
321.00, 0.17, 375.96
320.61, 0.17, 375.71
320.21, 0.19, 375.45
319.84, 0.22, 375.22
319.44, 0.26, 374.97
318.90, 0.28, 374.63
318.15, 0.27, 374.15
316.03, 0.03, 372.81
314.82, 0.01, 372.04
313.49, 0.00, 371.19
311.92, 0.00, 370.20
310.00, 0.00, 368.98
307.58, 0.00, 367.44
323.13, 0.14, 377.40
322.92, 0.14, 377.27
322.70, 0.14, 377.13
322.46, 0.15, 376.98
322.20, 0.15, 376.82
321.93, 0.15, 376.65
321.62, 0.16, 376.47
321.29, 0.16, 376.26
320.93, 0.16, 376.04
320.53, 0.17, 375.79
320.14, 0.19, 375.55
319.78, 0.22, 375.33
319.38, 0.26, 375.08
318.87, 0.29, 374.77
318.05, 0.26, 374.26
315.93, 0.03, 372.95
314.71, 0.00, 372.20
313.38, 0.00, 371.38
311.80, 0.00, 370.41
309.87, 0.00, 369.21
307.43, 0.00, 367.71
323.09, 0.14, 377.46
322.88, 0.14, 377.34
322.66, 0.14, 377.20
322.41, 0.15, 377.05
322.15, 0.15, 376.90
321.87, 0.15, 376.73
321.56, 0.15, 376.54
321.23, 0.16, 376.34
320.86, 0.16, 376.12
320.45, 0.16, 375.88
320.08, 0.19, 375.65
319.71, 0.22, 375.43
319.31, 0.26, 375.19
318.84, 0.29, 374.91
317.95, 0.26, 374.38
¯315.84, 0.03, 373.10
314.60, 0.00, 372.36
313.27, 0.00, 371.56
311.69, 0.00, 370.61
309.74, 0.00, 369.44
307.29, 0.00, 367.97
323.05, 0.14, 377.53
322.84, 0.14, 377.40
322.61, 0.14, 377.27
322.37, 0.14, 377.13
322.09, 0.14, 376.97
321.81, 0.15, 376.80
321.50, 0.15, 376.62
321.16, 0.15, 376.42
320.79, 0.15, 376.20
320.38, 0.16, 375.96
320.02, 0.19, 375.75
319.65, 0.22, 375.54
319.24, 0.26, 375.30
318.80, 0.30, 375.04
317.86, 0.25, 374.49
315.75, 0.03, 373.26
314.50, 0.00, 372.53
313.17, 0.00, 371.75
311.58, 0.00, 370.82
309.62, 0.00, 369.68
307.15, 0.00, 368.24
323.02, 0.14, 377.59
322.80, 0.14, 377.47
322.57, 0.14, 377.34
322.33, 0.14, 377.20
322.05, 0.14, 377.04
321.75, 0.14, 376.87
321.44, 0.14, 376.69
321.09, 0.15, 376.50
320.72, 0.15, 376.29
320.31, 0.15, 376.05
319.96, 0.18, 375.86
319.59, 0.22, 375.64
319.18, 0.26, 375.41
318.73, 0.30, 375.16
317.61, 0.22, 374.52
315.66, 0.03, 373.42
314.40, 0.00, 372.70
313.07, 0.00, 371.94
311.47, 0.00, 371.03
309.50, 0.00, 369.91
307.01, 0.00, 368.50
322.98, 0.14, 377.66
322.76, 0.14, 377.54
322.53, 0.14, 377.41
¯322.28, 0.14, 377.27
322.00, 0.14, 377.12
321.69, 0.14, 376.95
321.37, 0.14, 376.77
321.03, 0.14, 376.58
320.65, 0.14, 376.37
320.25, 0.15, 376.15
319.90, 0.18, 375.96
319.52, 0.22, 375.75
319.11, 0.26, 375.52
318.67, 0.30, 375.28
317.36, 0.18, 374.56
315.58, 0.03, 373.57
314.31, 0.00, 372.87
312.97, 0.00, 372.13
311.36, 0.00, 371.25
309.38, 0.00, 370.15
306.88, 0.00, 368.77
322.94, 0.14, 377.72
322.73, 0.14, 377.60
322.49, 0.14, 377.48
322.24, 0.14, 377.35
321.95, 0.14, 377.19
321.64, 0.13, 377.02
321.31, 0.13, 376.85
320.96, 0.14, 376.66
320.58, 0.14, 376.46
320.19, 0.15, 376.25
319.84, 0.18, 376.06
319.46, 0.22, 375.86
319.05, 0.25, 375.64
318.63, 0.30, 375.41
317.11, 0.15, 374.59
315.50, 0.03, 373.73
314.22, 0.00, 373.05
312.88, 0.00, 372.33
311.26, 0.00, 371.46
309.26, 0.00, 370.39
306.75, 0.00, 369.04
322.91, 0.14, 377.79
322.69, 0.14, 377.67
322.45, 0.14, 377.55
322.20, 0.14, 377.42
321.91, 0.14, 377.27
321.60, 0.13, 377.10
321.25, 0.13, 376.93
320.90, 0.13, 376.74
320.51, 0.13, 376.54
320.14, 0.15, 376.35
319.79, 0.18, 376.16
319.40, 0.22, 375.97
¯319.01, 0.26, 375.76
318.60, 0.31, 375.55
316.85, 0.11, 374.64
315.43, 0.03, 373.89
314.14, 0.00, 373.22
312.79, 0.00, 372.52
311.16, 0.00, 371.67
309.15, 0.00, 370.63
306.63, 0.00, 369.32
322.87, 0.14, 377.85
322.65, 0.14, 377.74
322.42, 0.14, 377.62
322.16, 0.14, 377.49
321.87, 0.14, 377.35
321.55, 0.13, 377.19
321.20, 0.13, 377.01
320.84, 0.13, 376.83
320.45, 0.13, 376.63
320.09, 0.15, 376.45
319.73, 0.18, 376.27
319.36, 0.22, 376.08
318.98, 0.26, 375.89
318.57, 0.31, 375.68
316.60, 0.08, 374.69
315.34, 0.03, 374.05
314.05, 0.00, 373.40
312.70, 0.00, 372.72
311.06, 0.00, 371.89
309.04, 0.00, 370.87
306.50, 0.00, 369.59
322.84, 0.14, 377.92
322.62, 0.14, 377.81
322.38, 0.14, 377.70
322.12, 0.14, 377.57
321.82, 0.13, 377.42
321.50, 0.13, 377.27
321.16, 0.12, 377.10
320.78, 0.12, 376.91
320.38, 0.12, 376.72
320.03, 0.15, 376.55
319.69, 0.18, 376.38
319.34, 0.22, 376.21
318.96, 0.27, 376.02
318.55, 0.32, 375.82
316.39, 0.05, 374.76
315.26, 0.02, 374.21
313.97, 0.00, 373.58
312.61, 0.00, 372.91
310.96, 0.00, 372.11
308.94, 0.00, 371.11
306.39, 0.00, 369.87
¯322.80, 0.14, 377.99
322.58, 0.14, 377.88
322.34, 0.14, 377.77
322.08, 0.14, 377.64
321.78, 0.13, 377.50
321.46, 0.13, 377.35
321.11, 0.12, 377.18
320.72, 0.12, 377.00
320.32, 0.12, 376.81
319.99, 0.15, 376.65
319.66, 0.19, 376.50
319.31, 0.23, 376.33
318.93, 0.28, 376.15
318.52, 0.33, 375.96
316.33, 0.05, 374.91
315.17, 0.02, 374.36
313.90, 0.00, 373.76
312.52, 0.00, 373.11
310.87, 0.00, 372.32
308.84, 0.00, 371.36
306.27, 0.00, 370.14
322.77, 0.14, 378.05
322.55, 0.14, 377.95
322.31, 0.14, 377.84
322.04, 0.14, 377.72
321.74, 0.13, 377.58
321.42, 0.13, 377.43
321.06, 0.12, 377.27
320.68, 0.12, 377.09
320.27, 0.12, 376.90
319.96, 0.15, 376.76
319.64, 0.19, 376.61
319.29, 0.24, 376.45
318.91, 0.28, 376.28
318.50, 0.33, 376.09
316.26, 0.05, 375.06
315.09, 0.02, 374.52
313.82, 0.00, 373.94
312.44, 0.00, 373.31
310.78, 0.00, 372.54
308.74, 0.00, 371.60
306.17, 0.00, 370.42
322.74, 0.14, 378.12
322.52, 0.14, 378.02
322.28, 0.14, 377.92
322.00, 0.13, 377.79
321.70, 0.13, 377.66
321.38, 0.12, 377.52
321.02, 0.12, 377.36
320.63, 0.11, 377.18
320.25, 0.12, 377.01
¯319.94, 0.16, 376.88
319.61, 0.20, 376.73
319.26, 0.24, 376.58
318.88, 0.29, 376.41
318.48, 0.34, 376.23
316.20, 0.05, 375.21
315.01, 0.02, 374.68
313.75, 0.00, 374.12
312.36, 0.00, 373.50
310.69, 0.00, 372.76
308.64, 0.00, 371.85
306.06, 0.00, 370.70
322.71, 0.13, 378.19
322.48, 0.14, 378.09
322.24, 0.14, 377.99
321.96, 0.13, 377.87
321.66, 0.13, 377.74
321.34, 0.12, 377.60
320.98, 0.12, 377.45
320.60, 0.12, 377.28
320.24, 0.13, 377.13
319.92, 0.16, 376.99
319.59, 0.20, 376.85
319.24, 0.25, 376.70
318.86, 0.29, 376.54
318.46, 0.34, 376.36
316.15, 0.05, 375.37
314.93, 0.01, 374.84
313.68, 0.00, 374.30
312.29, 0.00, 373.70
310.61, 0.00, 372.98
308.55, 0.00, 372.10
305.96, 0.00, 370.98
333.99, 0.21, 380.87
334.22, 0.20, 380.88
334.46, 0.20, 380.90
334.72, 0.20, 380.92
335.01, 0.19, 380.93
335.32, 0.19, 380.95
335.66, 0.18, 380.97
336.03, 0.17, 381.00
336.43, 0.16, 381.02
336.88, 0.16, 381.05
337.37, 0.15, 381.08
337.92, 0.14, 381.12
339.15, 0.00, 381.19
339.83, 0.00, 381.23
340.60, 0.00, 381.28
341.48, 0.00, 381.34
342.49, 0.00, 381.40
343.67, 0.00, 381.47
¯344.33, 0.10, 381.52
345.44, 0.16, 381.59
346.64, 0.23, 381.66
346.69, 0.45, 381.67
346.85, 0.67, 381.68
349.11, 0.72, 381.82
349.11, 0.98, 381.83
349.11, 1.23, 381.83
349.11, 1.49, 381.83
349.12, 1.74, 381.83
349.12, 1.99, 381.84
334.00, 0.21, 380.80
334.22, 0.20, 380.81
334.47, 0.20, 380.83
334.73, 0.20, 380.84
335.02, 0.19, 380.85
335.33, 0.18, 380.87
335.67, 0.18, 380.89
336.04, 0.17, 380.90
336.44, 0.16, 380.92
336.89, 0.16, 380.95
337.38, 0.15, 380.97
337.93, 0.14, 381.00
339.16, 0.00, 381.06
339.85, 0.00, 381.09
340.62, 0.00, 381.13
341.50, 0.00, 381.18
342.51, 0.00, 381.23
343.69, 0.00, 381.29
344.44, 0.09, 381.33
345.62, 0.14, 381.39
346.68, 0.23, 381.44
346.92, 0.44, 381.46
346.92, 0.66, 381.46
347.56, 0.84, 381.49
349.06, 0.98, 381.57
349.07, 1.24, 381.57
349.07, 1.49, 381.57
349.07, 1.74, 381.58
349.07, 2.00, 381.58
334.00, 0.21, 380.73
334.23, 0.20, 380.74
334.48, 0.20, 380.75
334.74, 0.19, 380.76
335.03, 0.19, 380.77
335.34, 0.18, 380.78
335.68, 0.18, 380.80
336.05, 0.17, 380.81
336.45, 0.16, 380.83
336.90, 0.16, 380.84
337.39, 0.15, 380.86
¯337.94, 0.14, 380.88
339.17, 0.00, 380.93
339.86, 0.00, 380.95
340.63, 0.00, 380.98
341.52, 0.00, 381.02
342.53, 0.00, 381.06
343.71, 0.00, 381.10
344.60, 0.07, 381.14
345.80, 0.12, 381.18
346.73, 0.23, 381.22
347.42, 0.39, 381.25
347.42, 0.62, 381.25
347.42, 0.86, 381.25
349.09, 0.98, 381.32
349.08, 1.24, 381.32
349.07, 1.49, 381.32
349.06, 1.75, 381.32
349.05, 2.00, 381.33
334.01, 0.21, 380.66
334.24, 0.20, 380.67
334.48, 0.20, 380.68
334.75, 0.19, 380.68
335.03, 0.19, 380.69
335.35, 0.18, 380.70
335.69, 0.18, 380.71
336.06, 0.17, 380.72
336.46, 0.16, 380.73
336.90, 0.16, 380.74
337.40, 0.15, 380.75
337.95, 0.14, 380.77
339.19, 0.00, 380.80
339.87, 0.00, 380.81
340.65, 0.00, 380.83
341.53, 0.00, 380.86
342.55, 0.00, 380.88
343.73, 0.00, 380.91
344.76, 0.05, 380.94
345.92, 0.11, 380.97
346.77, 0.23, 381.00
347.52, 0.38, 381.02
347.52, 0.62, 381.02
347.52, 0.85, 381.02
350.26, 0.91, 381.09
350.25, 1.18, 381.10
350.24, 1.45, 381.10
350.22, 1.72, 381.10
350.21, 1.99, 381.10
334.01, 0.21, 380.60
334.24, 0.20, 380.60
334.49, 0.20, 380.60
334.75, 0.19, 380.61
¯335.04, 0.19, 380.61
335.35, 0.18, 380.61
335.69, 0.18, 380.62
336.06, 0.17, 380.62
336.46, 0.16, 380.63
336.91, 0.16, 380.63
337.40, 0.15, 380.64
337.95, 0.14, 380.65
339.19, 0.00, 380.66
339.88, 0.00, 380.67
340.66, 0.00, 380.68
341.54, 0.00, 380.70
342.56, 0.00, 380.71
343.75, 0.00, 380.73
344.84, 0.04, 380.74
345.96, 0.11, 380.76
346.81, 0.23, 380.77
348.18, 0.32, 380.79
348.18, 0.56, 380.79
348.18, 0.81, 380.80
351.57, 0.83, 380.84
351.55, 1.12, 380.85
351.54, 1.40, 380.85
351.52, 1.69, 380.85
351.51, 1.97, 380.85
334.02, 0.21, 380.53
334.25, 0.20, 380.53
334.49, 0.20, 380.53
334.76, 0.19, 380.53
335.05, 0.19, 380.53
335.36, 0.18, 380.53
335.70, 0.18, 380.53
336.06, 0.17, 380.53
336.47, 0.16, 380.53
336.91, 0.16, 380.53
337.40, 0.15, 380.53
337.95, 0.14, 380.53
339.20, 0.00, 380.53
339.89, 0.00, 380.53
340.67, 0.00, 380.53
341.55, 0.00, 380.54
342.57, 0.00, 380.54
343.76, 0.00, 380.54
344.85, 0.04, 380.54
345.99, 0.10, 380.54
346.85, 0.23, 380.55
349.60, 0.18, 380.55
334.02, 0.21, 380.46
334.25, 0.20, 380.46
334.50, 0.20, 380.45
334.76, 0.19, 380.45
¯335.05, 0.19, 380.45
335.36, 0.18, 380.44
335.70, 0.18, 380.44
336.06, 0.17, 380.44
336.47, 0.17, 380.43
336.91, 0.16, 380.43
337.41, 0.15, 380.42
337.96, 0.14, 380.41
339.21, 0.00, 380.40
339.90, 0.00, 380.39
340.68, 0.00, 380.38
341.56, 0.00, 380.37
342.58, 0.00, 380.36
343.77, 0.00, 380.35
344.87, 0.04, 380.34
346.02, 0.10, 380.33
346.88, 0.22, 380.32
349.34, 0.21, 380.29
334.02, 0.21, 380.39
334.25, 0.20, 380.38
334.50, 0.20, 380.38
334.77, 0.19, 380.37
335.05, 0.19, 380.36
335.36, 0.18, 380.36
335.70, 0.18, 380.35
336.07, 0.17, 380.34
336.47, 0.17, 380.33
336.92, 0.16, 380.32
337.42, 0.15, 380.31
337.97, 0.14, 380.30
339.21, 0.00, 380.27
339.90, 0.00, 380.25
340.68, 0.00, 380.23
341.57, 0.00, 380.21
342.59, 0.00, 380.19
343.78, 0.00, 380.16
344.88, 0.04, 380.14
346.05, 0.10, 380.11
346.91, 0.22, 380.09
349.08, 0.24, 380.04
352.02, 0.23, 379.98
352.05, 0.52, 379.98
334.02, 0.20, 380.32
334.25, 0.20, 380.31
334.50, 0.20, 380.30
334.77, 0.19, 380.29
335.05, 0.19, 380.28
335.36, 0.18, 380.27
335.70, 0.18, 380.26
336.06, 0.17, 380.25
336.47, 0.17, 380.23
¯336.92, 0.16, 380.22
337.42, 0.15, 380.20
337.97, 0.14, 380.18
339.21, 0.00, 380.13
339.91, 0.00, 380.11
340.69, 0.00, 380.08
341.58, 0.00, 380.05
342.60, 0.00, 380.02
343.78, 0.00, 379.97
344.90, 0.04, 379.93
346.08, 0.10, 379.89
346.91, 0.22, 379.87
348.82, 0.26, 379.80
351.94, 0.24, 379.69
351.98, 0.53, 379.69
334.02, 0.20, 380.25
334.25, 0.20, 380.24
334.50, 0.20, 380.23
334.77, 0.19, 380.21
335.05, 0.19, 380.20
335.36, 0.18, 380.19
335.69, 0.18, 380.17
336.07, 0.17, 380.15
336.48, 0.16, 380.13
336.93, 0.15, 380.11
337.42, 0.15, 380.09
337.96, 0.14, 380.06
339.22, 0.00, 380.00
339.91, 0.00, 379.97
340.69, 0.00, 379.93
341.58, 0.00, 379.89
342.60, 0.00, 379.84
343.79, 0.00, 379.78
344.95, 0.03, 379.73
346.11, 0.10, 379.68
346.91, 0.23, 379.64
347.01, 0.45, 379.64
347.01, 0.68, 379.64
347.04, 0.90, 379.64
349.63, 0.97, 379.52
349.63, 1.23, 379.52
334.02, 0.20, 380.18
334.25, 0.20, 380.17
334.50, 0.20, 380.15
334.76, 0.19, 380.14
335.05, 0.19, 380.12
335.36, 0.18, 380.10
335.70, 0.18, 380.08
336.07, 0.17, 380.06
336.48, 0.16, 380.03
336.93, 0.15, 380.01
¯337.42, 0.15, 379.98
337.96, 0.14, 379.94
339.22, 0.00, 379.87
339.91, 0.00, 379.83
340.69, 0.00, 379.78
341.58, 0.00, 379.73
342.61, 0.00, 379.67
343.79, 0.00, 379.60
344.99, 0.03, 379.52
346.13, 0.09, 379.46
346.83, 0.24, 379.42
346.83, 0.46, 379.42
346.83, 0.69, 379.42
347.06, 0.90, 379.41
349.63, 0.97, 379.26
349.63, 1.23, 379.26
334.02, 0.20, 380.11
334.25, 0.20, 380.09
334.49, 0.20, 380.08
334.76, 0.19, 380.06
335.04, 0.19, 380.04
335.36, 0.18, 380.02
335.70, 0.18, 379.99
336.08, 0.17, 379.96
336.49, 0.16, 379.93
336.93, 0.16, 379.90
337.42, 0.15, 379.87
337.96, 0.14, 379.83
338.57, 0.14, 379.78
339.91, 0.00, 379.69
340.69, 0.00, 379.63
341.58, 0.00, 379.57
342.61, 0.00, 379.49
343.79, 0.00, 379.41
345.04, 0.02, 379.32
346.14, 0.09, 379.24
346.66, 0.26, 379.20
346.66, 0.48, 379.21
346.66, 0.71, 379.21
347.08, 0.90, 379.18
349.63, 0.97, 379.00
349.63, 1.23, 379.00
334.02, 0.20, 380.04
334.25, 0.20, 380.02
334.49, 0.20, 380.00
334.75, 0.19, 379.98
335.04, 0.19, 379.96
335.36, 0.18, 379.93
335.70, 0.17, 379.90
336.08, 0.17, 379.87
336.48, 0.16, 379.83
¯336.92, 0.16, 379.80
337.41, 0.15, 379.76
337.95, 0.14, 379.71
338.56, 0.14, 379.66
339.90, 0.00, 379.54
340.69, 0.00, 379.48
341.58, 0.00, 379.40
342.60, 0.00, 379.32
343.79, 0.00, 379.22
345.08, 0.02, 379.11
346.14, 0.09, 379.02
346.68, 0.25, 378.98
346.67, 0.48, 378.98
346.67, 0.71, 378.98
347.09, 0.90, 378.95
349.63, 0.97, 378.74
349.63, 1.24, 378.74
334.01, 0.20, 379.97
334.24, 0.20, 379.95
334.49, 0.20, 379.93
334.75, 0.19, 379.90
335.04, 0.19, 379.87
335.36, 0.18, 379.84
335.70, 0.17, 379.81
336.08, 0.16, 379.77
336.48, 0.16, 379.73
336.92, 0.16, 379.69
337.40, 0.15, 379.65
337.94, 0.15, 379.59
338.55, 0.14, 379.53
339.90, 0.00, 379.40
340.68, 0.00, 379.33
341.57, 0.00, 379.24
342.60, 0.00, 379.14
343.79, 0.00, 379.03
345.11, 0.01, 378.90
346.14, 0.09, 378.80
346.90, 0.23, 378.73
346.99, 0.45, 378.72
346.99, 0.68, 378.73
347.16, 0.90, 378.71
349.63, 0.98, 378.47
349.63, 1.24, 378.48
334.01, 0.20, 379.90
334.24, 0.20, 379.88
334.48, 0.20, 379.85
334.75, 0.19, 379.82
335.04, 0.18, 379.79
335.36, 0.18, 379.76
335.70, 0.17, 379.72
336.07, 0.17, 379.68
¯336.47, 0.16, 379.64
336.91, 0.16, 379.59
337.39, 0.15, 379.53
337.92, 0.15, 379.48
338.54, 0.14, 379.41
339.89, 0.00, 379.26
340.67, 0.00, 379.18
341.57, 0.00, 379.08
342.60, 0.00, 378.97
343.79, 0.00, 378.84
345.11, 0.01, 378.69
346.14, 0.09, 378.58
346.91, 0.23, 378.50
347.32, 0.42, 378.46
347.32, 0.65, 378.46
347.45, 0.88, 378.45
334.00, 0.20, 379.83
334.23, 0.20, 379.81
334.48, 0.19, 379.78
334.75, 0.19, 379.74
335.04, 0.18, 379.71
335.36, 0.18, 379.67
335.70, 0.17, 379.63
336.06, 0.17, 379.58
336.46, 0.16, 379.54
336.90, 0.16, 379.48
337.37, 0.15, 379.43
337.91, 0.15, 379.36
338.53, 0.14, 379.29
339.88, 0.00, 379.12
340.67, 0.00, 379.02
341.56, 0.00, 378.92
342.59, 0.00, 378.79
343.78, 0.00, 378.65
345.10, 0.01, 378.49
346.15, 0.09, 378.36
346.91, 0.23, 378.27
347.66, 0.38, 378.18
347.66, 0.62, 378.18
347.75, 0.86, 378.17
334.00, 0.20, 379.77
334.23, 0.20, 379.73
334.48, 0.19, 379.70
334.75, 0.19, 379.67
335.04, 0.18, 379.63
335.35, 0.17, 379.58
335.69, 0.17, 379.54
336.05, 0.17, 379.49
336.45, 0.16, 379.44
336.88, 0.16, 379.38
337.35, 0.16, 379.32
¯337.90, 0.15, 379.24
338.51, 0.14, 379.16
339.87, 0.00, 378.98
340.66, 0.00, 378.87
341.55, 0.00, 378.75
342.58, 0.00, 378.62
343.77, 0.00, 378.46
345.10, 0.01, 378.28
346.15, 0.09, 378.14
346.95, 0.22, 378.03
348.02, 0.35, 377.89
348.01, 0.59, 377.90
348.07, 0.83, 377.89
333.99, 0.20, 379.70
334.22, 0.20, 379.66
334.47, 0.19, 379.63
334.74, 0.19, 379.59
335.03, 0.18, 379.54
335.35, 0.17, 379.50
335.68, 0.17, 379.45
336.04, 0.17, 379.40
336.44, 0.16, 379.34
336.86, 0.16, 379.28
337.34, 0.16, 379.21
337.88, 0.15, 379.13
338.50, 0.14, 379.04
339.86, 0.00, 378.84
340.64, 0.00, 378.72
341.54, 0.00, 378.59
342.57, 0.00, 378.44
343.76, 0.00, 378.27
345.10, 0.01, 378.07
346.15, 0.09, 377.92
347.02, 0.21, 377.79
348.39, 0.31, 377.59
348.38, 0.56, 377.60
348.39, 0.81, 377.60
333.99, 0.20, 379.63
334.22, 0.20, 379.59
334.47, 0.19, 379.55
334.74, 0.18, 379.51
335.03, 0.18, 379.46
335.34, 0.17, 379.41
335.67, 0.17, 379.36
336.03, 0.17, 379.30
336.41, 0.17, 379.24
336.84, 0.17, 379.17
337.32, 0.16, 379.10
337.87, 0.15, 379.01
338.48, 0.14, 378.91
339.85, 0.00, 378.69
¯340.63, 0.00, 378.57
341.52, 0.00, 378.43
342.55, 0.00, 378.27
343.75, 0.00, 378.08
345.10, 0.01, 377.86
346.15, 0.09, 377.69
347.08, 0.21, 377.55
348.53, 0.30, 377.32
348.77, 0.53, 377.28
348.76, 0.78, 377.29
333.98, 0.20, 379.56
334.21, 0.19, 379.52
334.46, 0.19, 379.47
334.73, 0.18, 379.43
335.02, 0.18, 379.38
335.32, 0.17, 379.33
335.65, 0.17, 379.27
336.01, 0.17, 379.21
336.39, 0.17, 379.14
336.81, 0.17, 379.07
337.30, 0.16, 378.99
337.85, 0.15, 378.89
338.45, 0.15, 378.79
339.83, 0.00, 378.55
340.61, 0.00, 378.42
341.51, 0.00, 378.27
342.53, 0.00, 378.09
343.73, 0.00, 377.89
345.10, 0.01, 377.65
346.15, 0.09, 377.47
347.14, 0.20, 377.30
348.49, 0.30, 377.07
349.17, 0.49, 376.96
349.17, 0.75, 376.96
333.98, 0.20, 379.49
334.21, 0.19, 379.44
334.46, 0.19, 379.40
334.72, 0.18, 379.35
335.01, 0.18, 379.30
335.31, 0.18, 379.24
335.64, 0.17, 379.18
335.99, 0.17, 379.12
336.37, 0.17, 379.05
336.80, 0.17, 378.97
337.29, 0.16, 378.88
337.83, 0.15, 378.78
338.41, 0.15, 378.67
339.82, 0.00, 378.41
340.60, 0.00, 378.27
341.49, 0.00, 378.10
342.52, 0.00, 377.91
¯343.71, 0.00, 377.69
345.09, 0.00, 377.44
346.19, 0.08, 377.24
347.20, 0.19, 377.06
348.57, 0.29, 376.81
349.59, 0.45, 376.62
349.59, 0.72, 376.62
333.97, 0.20, 379.42
334.20, 0.19, 379.37
334.45, 0.19, 379.32
334.71, 0.18, 379.27
334.99, 0.18, 379.22
335.30, 0.18, 379.16
335.61, 0.18, 379.09
335.96, 0.18, 379.03
336.34, 0.17, 378.95
336.78, 0.17, 378.86
337.27, 0.16, 378.77
337.80, 0.16, 378.66
338.38, 0.16, 378.55
339.80, 0.00, 378.27
340.58, 0.00, 378.12
341.47, 0.00, 377.94
342.50, 0.00, 377.74
343.69, 0.00, 377.50
345.09, 0.00, 377.23
346.24, 0.07, 377.00
347.22, 0.18, 376.81
348.74, 0.27, 376.52
333.96, 0.20, 379.35
334.19, 0.19, 379.30
334.44, 0.19, 379.25
334.70, 0.18, 379.19
334.98, 0.18, 379.13
335.27, 0.18, 379.07
335.59, 0.18, 379.01
335.94, 0.18, 378.93
336.32, 0.18, 378.85
336.76, 0.17, 378.76
337.25, 0.16, 378.66
337.74, 0.17, 378.56
338.35, 0.16, 378.43
339.09, 0.14, 378.27
340.56, 0.00, 377.97
341.45, 0.00, 377.78
342.47, 0.00, 377.56
343.67, 0.00, 377.31
345.08, 0.00, 377.02
346.25, 0.07, 376.78
347.21, 0.18, 376.58
348.90, 0.25, 376.22
¯333.95, 0.19, 379.28
334.18, 0.19, 379.23
334.43, 0.19, 379.17
334.68, 0.18, 379.12
334.96, 0.18, 379.05
335.25, 0.18, 378.99
335.57, 0.18, 378.92
335.91, 0.18, 378.84
336.30, 0.18, 378.76
336.74, 0.17, 378.66
337.21, 0.17, 378.55
337.68, 0.18, 378.45
338.32, 0.16, 378.31
339.06, 0.14, 378.14
340.54, 0.00, 377.81
341.42, 0.00, 377.62
342.45, 0.00, 377.39
343.64, 0.00, 377.12
345.05, 0.00, 376.81
346.23, 0.06, 376.55
347.38, 0.16, 376.30
348.89, 0.25, 375.96
333.94, 0.19, 379.21
334.17, 0.19, 379.16
334.41, 0.19, 379.10
334.67, 0.18, 379.04
334.94, 0.18, 378.98
335.23, 0.18, 378.91
335.54, 0.18, 378.83
335.89, 0.18, 378.75
336.28, 0.18, 378.66
336.72, 0.17, 378.56
337.16, 0.18, 378.45
337.65, 0.18, 378.34
338.29, 0.16, 378.19
339.02, 0.14, 378.01
340.51, 0.00, 377.66
341.40, 0.00, 377.46
342.42, 0.00, 377.21
343.62, 0.00, 376.93
345.03, 0.00, 376.60
346.22, 0.06, 376.32
347.63, 0.13, 375.99
348.89, 0.25, 375.70
351.35, 0.29, 375.12
333.93, 0.19, 379.14
334.15, 0.19, 379.08
334.39, 0.19, 379.02
334.64, 0.19, 378.96
334.91, 0.19, 378.90
335.20, 0.19, 378.82
¯335.52, 0.19, 378.75
335.86, 0.18, 378.66
336.26, 0.18, 378.56
336.68, 0.18, 378.46
337.10, 0.18, 378.35
337.62, 0.18, 378.22
338.26, 0.16, 378.07
338.99, 0.15, 377.89
340.48, 0.00, 377.51
341.37, 0.00, 377.29
342.39, 0.00, 377.04
343.59, 0.00, 376.74
345.00, 0.00, 376.40
346.20, 0.06, 376.10
347.80, 0.11, 375.70
348.87, 0.25, 375.44
351.44, 0.28, 374.80
333.91, 0.19, 379.07
334.14, 0.19, 379.01
334.37, 0.19, 378.95
334.62, 0.19, 378.89
334.89, 0.19, 378.82
335.17, 0.19, 378.74
335.49, 0.19, 378.66
335.84, 0.18, 378.57
336.24, 0.18, 378.47
336.63, 0.18, 378.36
337.05, 0.19, 378.25
337.59, 0.18, 378.11
338.23, 0.17, 377.95
338.95, 0.15, 377.76
340.46, 0.00, 377.36
341.34, 0.00, 377.13
342.36, 0.00, 376.87
343.55, 0.00, 376.56
344.96, 0.00, 376.19
346.18, 0.06, 375.87
347.95, 0.09, 375.41
348.86, 0.24, 375.17
351.39, 0.28, 374.52
333.90, 0.19, 379.00
334.12, 0.19, 378.94
334.35, 0.19, 378.88
334.60, 0.19, 378.81
334.86, 0.19, 378.74
335.15, 0.19, 378.66
335.46, 0.19, 378.58
335.82, 0.19, 378.48
336.20, 0.18, 378.37
336.58, 0.19, 378.27
337.00, 0.20, 378.15
¯337.56, 0.18, 378.00
338.19, 0.17, 377.83
338.91, 0.15, 377.63
340.43, 0.00, 377.21
341.31, 0.00, 376.97
342.33, 0.00, 376.69
343.52, 0.00, 376.37
344.93, 0.00, 375.98
346.17, 0.06, 375.64
347.98, 0.08, 375.15
348.85, 0.24, 374.91
351.33, 0.29, 374.23
333.88, 0.19, 378.94
334.10, 0.19, 378.87
334.32, 0.19, 378.81
334.57, 0.19, 378.74
334.83, 0.19, 378.66
335.12, 0.19, 378.58
335.44, 0.19, 378.49
335.79, 0.19, 378.39
336.15, 0.19, 378.28
336.52, 0.20, 378.18
336.97, 0.20, 378.05
337.52, 0.19, 377.89
338.16, 0.17, 377.71
338.87, 0.15, 377.50
340.39, 0.00, 377.06
341.28, 0.00, 376.81
342.30, 0.00, 376.52
343.48, 0.00, 376.18
344.89, 0.00, 375.77
346.18, 0.05, 375.40
347.97, 0.08, 374.89
348.85, 0.24, 374.64
351.28, 0.29, 373.94
333.86, 0.19, 378.87
334.07, 0.19, 378.80
334.30, 0.19, 378.74
334.54, 0.19, 378.66
334.81, 0.20, 378.58
335.09, 0.20, 378.50
335.41, 0.19, 378.40
335.76, 0.19, 378.30
336.10, 0.20, 378.20
336.47, 0.21, 378.09
336.93, 0.20, 377.94
337.49, 0.19, 377.78
338.12, 0.17, 377.59
338.83, 0.16, 377.38
340.36, 0.00, 376.91
341.24, 0.00, 376.65
¯342.26, 0.00, 376.34
343.44, 0.00, 375.99
344.85, 0.00, 375.57
346.39, 0.02, 375.10
347.96, 0.07, 374.63
348.84, 0.23, 374.37
351.22, 0.29, 373.66
333.84, 0.20, 378.80
334.05, 0.20, 378.74
334.27, 0.20, 378.67
334.52, 0.20, 378.59
334.78, 0.20, 378.51
335.06, 0.20, 378.42
335.39, 0.19, 378.32
335.71, 0.20, 378.21
336.05, 0.21, 378.11
336.41, 0.22, 377.99
336.90, 0.20, 377.84
337.45, 0.19, 377.67
338.08, 0.18, 377.47
338.79, 0.16, 377.25
339.61, 0.14, 376.99
341.21, 0.00, 376.49
342.22, 0.00, 376.17
343.40, 0.00, 375.80
344.80, 0.00, 375.36
346.43, 0.01, 374.85
347.95, 0.07, 374.37
349.10, 0.20, 374.01
351.16, 0.29, 373.37
333.81, 0.20, 378.74
334.02, 0.20, 378.67
334.25, 0.20, 378.59
334.49, 0.20, 378.52
334.75, 0.20, 378.43
335.04, 0.20, 378.34
335.36, 0.20, 378.23
335.66, 0.20, 378.13
336.00, 0.21, 378.02
336.37, 0.22, 377.90
336.86, 0.21, 377.74
337.41, 0.19, 377.56
338.03, 0.18, 377.36
338.74, 0.16, 377.12
339.56, 0.14, 376.86
341.17, 0.00, 376.33
342.18, 0.00, 376.00
343.36, 0.00, 375.61
344.76, 0.00, 375.15
346.38, 0.01, 374.62
347.94, 0.06, 374.11
¯350.02, 0.11, 373.43
351.10, 0.29, 373.08
333.79, 0.20, 378.67
334.00, 0.20, 378.60
334.22, 0.20, 378.52
334.46, 0.20, 378.44
334.72, 0.20, 378.35
335.01, 0.20, 378.25
335.31, 0.20, 378.15
335.61, 0.21, 378.05
335.94, 0.22, 377.94
336.34, 0.22, 377.80
336.83, 0.21, 377.64
337.37, 0.20, 377.45
337.99, 0.18, 377.24
338.71, 0.16, 376.99
339.51, 0.14, 376.72
341.13, 0.00, 376.17
342.14, 0.00, 375.82
343.31, 0.00, 375.42
344.71, 0.00, 374.95
346.34, 0.01, 374.39
347.93, 0.06, 373.85
349.96, 0.11, 373.16
351.10, 0.29, 372.77
333.76, 0.20, 378.61
333.97, 0.20, 378.53
334.19, 0.20, 378.45
334.43, 0.20, 378.37
334.69, 0.20, 378.28
334.98, 0.20, 378.17
335.26, 0.21, 378.07
335.56, 0.22, 377.97
335.89, 0.23, 377.85
336.30, 0.22, 377.71
336.79, 0.21, 377.53
337.33, 0.20, 377.34
337.95, 0.18, 377.12
338.67, 0.16, 376.87
339.46, 0.15, 376.59
341.08, 0.00, 376.01
342.09, 0.00, 375.65
343.27, 0.00, 375.23
344.66, 0.00, 374.74
346.29, 0.01, 374.16
347.91, 0.05, 373.59
349.94, 0.10, 372.87
333.73, 0.20, 378.54
333.94, 0.20, 378.47
334.16, 0.21, 378.38
334.40, 0.21, 378.30
¯334.66, 0.20, 378.20
334.94, 0.21, 378.10
335.21, 0.22, 378.00
335.51, 0.22, 377.89
335.83, 0.23, 377.77
336.26, 0.22, 377.61
336.75, 0.21, 377.43
337.29, 0.20, 377.23
337.90, 0.19, 377.01
338.62, 0.16, 376.74
339.41, 0.15, 376.45
341.04, 0.00, 375.85
342.04, 0.00, 375.48
343.22, 0.00, 375.05
344.60, 0.00, 374.54
346.23, 0.00, 373.94
347.90, 0.05, 373.32
349.95, 0.10, 372.57
333.71, 0.21, 378.48
333.91, 0.21, 378.40
334.13, 0.21, 378.31
334.37, 0.21, 378.22
334.64, 0.21, 378.12
334.89, 0.21, 378.02
335.16, 0.22, 377.92
335.46, 0.23, 377.81
335.80, 0.24, 377.68
336.23, 0.23, 377.52
336.71, 0.22, 377.33
337.24, 0.20, 377.13
337.85, 0.19, 376.89
338.57, 0.17, 376.62
339.35, 0.15, 376.32
340.99, 0.00, 375.69
341.99, 0.00, 375.31
343.16, 0.00, 374.86
344.55, 0.00, 374.33
346.18, 0.00, 373.71
348.14, 0.01, 372.96
349.95, 0.09, 372.27
333.68, 0.21, 378.41
333.88, 0.21, 378.33
334.10, 0.21, 378.25
334.34, 0.21, 378.15
334.59, 0.21, 378.05
334.84, 0.22, 377.95
335.12, 0.23, 377.84
335.41, 0.24, 377.73
335.76, 0.24, 377.59
336.19, 0.23, 377.42
336.66, 0.22, 377.23
¯337.20, 0.20, 377.02
337.82, 0.19, 376.77
338.52, 0.17, 376.50
339.32, 0.15, 376.18
340.94, 0.00, 375.53
341.94, 0.00, 375.14
343.11, 0.00, 374.67
344.49, 0.00, 374.13
346.12, 0.00, 373.48
348.08, 0.01, 372.70
349.96, 0.08, 371.96
333.65, 0.21, 378.35
333.85, 0.21, 378.27
334.07, 0.21, 378.18
334.31, 0.21, 378.08
334.55, 0.22, 377.98
334.80, 0.23, 377.88
335.06, 0.23, 377.77
335.35, 0.24, 377.65
335.72, 0.24, 377.50
336.14, 0.23, 377.33
336.62, 0.22, 377.13
337.15, 0.21, 376.91
337.78, 0.19, 376.65
338.46, 0.17, 376.37
339.26, 0.15, 376.05
340.14, 0.14, 375.69
341.89, 0.00, 374.97
343.05, 0.00, 374.49
344.43, 0.00, 373.92
346.07, 0.00, 373.25
348.03, 0.01, 372.45
349.96, 0.07, 371.65
333.62, 0.21, 378.29
333.82, 0.21, 378.20
334.04, 0.21, 378.11
334.27, 0.21, 378.01
334.50, 0.22, 377.91
334.75, 0.23, 377.81
335.01, 0.24, 377.69
335.30, 0.25, 377.57
335.68, 0.24, 377.41
336.10, 0.23, 377.23
336.57, 0.22, 377.03
337.10, 0.21, 376.81
337.74, 0.19, 376.54
338.41, 0.17, 376.25
339.20, 0.15, 375.91
340.08, 0.14, 375.54
341.83, 0.00, 374.80
342.99, 0.00, 374.30
¯344.36, 0.00, 373.72
346.02, 0.00, 373.02
347.97, 0.01, 372.19
350.59, 0.00, 371.08
333.59, 0.21, 378.22
333.79, 0.21, 378.14
334.01, 0.22, 378.04
334.23, 0.22, 377.94
334.46, 0.23, 377.84
334.70, 0.24, 377.74
334.96, 0.25, 377.62
335.26, 0.25, 377.49
335.64, 0.25, 377.32
336.06, 0.23, 377.14
336.53, 0.22, 376.93
337.05, 0.21, 376.70
337.69, 0.19, 376.42
338.35, 0.18, 376.13
339.14, 0.16, 375.78
340.02, 0.14, 375.40
341.77, 0.00, 374.63
342.93, 0.00, 374.12
344.30, 0.00, 373.52
345.95, 0.00, 372.79
347.91, 0.01, 371.93
350.50, 0.00, 370.79
333.56, 0.22, 378.16
333.76, 0.22, 378.07
333.97, 0.22, 377.97
334.18, 0.23, 377.88
334.41, 0.23, 377.78
334.65, 0.24, 377.67
334.91, 0.25, 377.55
335.22, 0.26, 377.41
335.60, 0.25, 377.24
336.01, 0.24, 377.05
336.48, 0.23, 376.84
337.01, 0.21, 376.59
337.63, 0.19, 376.31
338.31, 0.18, 376.01
339.08, 0.16, 375.65
339.96, 0.14, 375.25
341.71, 0.00, 374.46
342.87, 0.00, 373.93
344.23, 0.00, 373.31
345.87, 0.00, 372.57
347.84, 0.01, 371.67
350.42, 0.00, 370.50
333.53, 0.22, 378.10
333.72, 0.22, 378.01
333.93, 0.22, 377.91
¯334.14, 0.23, 377.81
334.36, 0.24, 377.71
334.60, 0.25, 377.60
334.86, 0.26, 377.48
335.18, 0.26, 377.33
335.55, 0.25, 377.15
335.97, 0.24, 376.96
336.43, 0.23, 376.74
336.97, 0.21, 376.48
337.58, 0.19, 376.20
338.26, 0.17, 375.88
339.02, 0.16, 375.52
339.90, 0.14, 375.11
341.65, 0.00, 374.29
342.80, 0.00, 373.75
344.16, 0.00, 373.11
345.80, 0.00, 372.34
347.78, 0.00, 371.42
350.33, 0.00, 370.22
333.49, 0.22, 378.04
333.69, 0.22, 377.94
333.89, 0.23, 377.85
334.09, 0.24, 377.75
334.31, 0.25, 377.64
334.55, 0.26, 377.53
334.80, 0.27, 377.40
335.14, 0.26, 377.24
335.51, 0.25, 377.06
335.92, 0.24, 376.86
336.38, 0.23, 376.64
336.93, 0.21, 376.38
337.52, 0.20, 376.09
338.22, 0.17, 375.75
338.96, 0.16, 375.39
339.83, 0.15, 374.97
341.59, 0.00, 374.12
342.73, 0.00, 373.57
344.09, 0.00, 372.91
345.72, 0.00, 372.12
347.71, 0.00, 371.16
350.24, 0.00, 369.93
333.50, 0.20, 377.95
333.65, 0.23, 377.88
333.84, 0.23, 377.79
334.05, 0.24, 377.69
334.26, 0.25, 377.58
334.50, 0.26, 377.46
334.76, 0.27, 377.33
335.09, 0.26, 377.16
335.46, 0.25, 376.98
335.87, 0.24, 376.77
¯336.33, 0.23, 376.55
336.88, 0.21, 376.27
337.46, 0.20, 375.98
338.16, 0.18, 375.63
338.90, 0.16, 375.26
339.77, 0.15, 374.83
340.73, 0.14, 374.35
342.66, 0.00, 373.38
344.01, 0.00, 372.71
345.64, 0.00, 371.90
347.63, 0.00, 370.90
350.14, 0.00, 369.65
333.51, 0.19, 377.87
333.61, 0.23, 377.82
333.80, 0.24, 377.73
334.00, 0.25, 377.62
334.22, 0.26, 377.51
334.45, 0.27, 377.39
334.72, 0.27, 377.25
335.05, 0.26, 377.08
335.41, 0.26, 376.89
335.82, 0.25, 376.69
336.29, 0.23, 376.45
336.84, 0.21, 376.16
337.40, 0.20, 375.87
338.10, 0.18, 375.51
338.86, 0.16, 375.12
339.70, 0.15, 374.69
340.66, 0.14, 374.19
342.59, 0.00, 373.20
343.93, 0.00, 372.51
345.55, 0.00, 371.68
347.54, 0.00, 370.65
350.04, 0.00, 369.37
333.53, 0.17, 377.78
333.59, 0.23, 377.75
333.75, 0.24, 377.67
333.95, 0.25, 377.56
334.17, 0.26, 377.45
334.39, 0.27, 377.33
334.67, 0.27, 377.18
335.00, 0.27, 377.00
335.37, 0.26, 376.81
335.77, 0.25, 376.60
336.24, 0.23, 376.35
336.78, 0.21, 376.06
337.36, 0.20, 375.75
338.04, 0.18, 375.40
338.81, 0.16, 374.98
339.63, 0.15, 374.55
340.59, 0.14, 374.04
¯342.51, 0.00, 373.02
343.85, 0.00, 372.31
345.46, 0.00, 371.46
347.45, 0.00, 370.41
349.94, 0.00, 369.08
333.57, 0.14, 377.68
333.59, 0.21, 377.67
333.70, 0.25, 377.61
333.90, 0.26, 377.50
334.12, 0.27, 377.38
334.34, 0.28, 377.26
334.63, 0.28, 377.10
334.96, 0.27, 376.92
335.32, 0.26, 376.73
335.72, 0.25, 376.51
336.19, 0.23, 376.25
336.72, 0.22, 375.96
337.31, 0.20, 375.64
337.97, 0.18, 375.28
338.74, 0.16, 374.86
339.57, 0.15, 374.40
340.51, 0.14, 373.89
342.43, 0.00, 372.84
343.77, 0.00, 372.11
345.37, 0.00, 371.24
347.35, 0.00, 370.16
349.84, 0.00, 368.80
333.60, 0.11, 377.58
333.60, 0.19, 377.58
333.67, 0.25, 377.54
333.85, 0.26, 377.44
334.06, 0.27, 377.32
334.29, 0.28, 377.19
334.58, 0.28, 377.03
334.91, 0.27, 376.85
335.27, 0.26, 376.64
335.67, 0.25, 376.42
336.14, 0.23, 376.15
336.66, 0.22, 375.86
337.26, 0.20, 375.53
337.90, 0.18, 375.16
338.68, 0.16, 374.73
339.51, 0.15, 374.26
340.40, 0.15, 373.76
342.35, 0.00, 372.66
343.68, 0.00, 371.91
345.28, 0.00, 371.02
347.25, 0.00, 369.91
349.73, 0.00, 368.52
333.55, 0.12, 377.52
333.64, 0.16, 377.47
¯333.68, 0.23, 377.45
333.81, 0.27, 377.38
334.01, 0.28, 377.26
334.24, 0.29, 377.12
334.54, 0.28, 376.95
334.86, 0.27, 376.77
335.22, 0.26, 376.56
335.62, 0.25, 376.33
336.09, 0.23, 376.05
336.60, 0.22, 375.76
337.20, 0.20, 375.41
337.84, 0.19, 375.05
338.61, 0.16, 374.60
339.43, 0.15, 374.12
340.27, 0.16, 373.64
341.44, 0.14, 372.96
343.59, 0.00, 371.72
345.19, 0.00, 370.80
347.15, 0.00, 369.67
349.61, 0.00, 368.24
333.51, 0.12, 377.46
333.68, 0.13, 377.36
333.69, 0.22, 377.36
333.76, 0.27, 377.32
333.96, 0.28, 377.20
334.20, 0.29, 377.05
334.49, 0.28, 376.88
334.81, 0.27, 376.69
335.16, 0.27, 376.48
335.57, 0.25, 376.24
336.04, 0.23, 375.96
336.54, 0.22, 375.66
337.15, 0.20, 375.30
337.78, 0.18, 374.92
338.53, 0.16, 374.48
339.36, 0.15, 373.99
340.18, 0.16, 373.50
341.33, 0.14, 372.81
343.50, 0.00, 371.52
345.09, 0.00, 370.58
347.04, 0.00, 369.42
349.50, 0.00, 367.96
333.46, 0.13, 377.41
333.64, 0.14, 377.30
333.73, 0.19, 377.24
333.77, 0.26, 377.22
333.91, 0.29, 377.13
334.15, 0.29, 376.98
334.44, 0.28, 376.81
334.76, 0.28, 376.61
335.11, 0.27, 376.40
¯335.52, 0.25, 376.15
335.99, 0.23, 375.86
336.49, 0.22, 375.56
337.09, 0.20, 375.19
337.73, 0.18, 374.80
338.46, 0.17, 374.35
339.28, 0.15, 373.85
340.08, 0.17, 373.36
341.22, 0.15, 372.67
343.41, 0.00, 371.33
344.99, 0.00, 370.36
346.93, 0.00, 369.18
349.38, 0.00, 367.68
333.41, 0.13, 377.35
333.59, 0.14, 377.24
333.77, 0.15, 377.13
333.77, 0.24, 377.12
333.86, 0.29, 377.07
334.11, 0.29, 376.92
334.40, 0.29, 376.74
334.71, 0.28, 376.54
335.06, 0.27, 376.32
335.47, 0.25, 376.06
335.93, 0.24, 375.77
336.43, 0.22, 375.45
337.02, 0.20, 375.09
337.68, 0.18, 374.67
338.39, 0.17, 374.23
339.20, 0.15, 373.71
339.98, 0.17, 373.23
341.11, 0.15, 372.52
343.31, 0.00, 371.13
344.88, 0.00, 370.15
346.82, 0.00, 368.93
349.25, 0.00, 367.40
333.05, 0.27, 377.50
333.54, 0.15, 377.18
333.72, 0.16, 377.06
333.81, 0.21, 377.01
333.86, 0.28, 376.98
334.06, 0.29, 376.85
334.35, 0.29, 376.66
334.66, 0.28, 376.46
335.01, 0.27, 376.24
335.42, 0.25, 375.97
335.87, 0.24, 375.68
336.38, 0.22, 375.35
336.95, 0.20, 374.98
337.62, 0.18, 374.55
338.32, 0.17, 374.10
339.12, 0.16, 373.58
¯339.88, 0.18, 373.10
341.00, 0.16, 372.37
343.22, 0.00, 370.94
344.78, 0.00, 369.93
346.70, 0.00, 368.69
349.13, 0.00, 367.13
333.01, 0.28, 377.45
333.49, 0.15, 377.13
333.67, 0.16, 377.00
333.86, 0.17, 376.88
333.88, 0.26, 376.87
334.01, 0.30, 376.78
334.30, 0.29, 376.59
334.60, 0.28, 376.39
334.96, 0.27, 376.15
335.37, 0.25, 375.88
335.81, 0.24, 375.59
336.32, 0.22, 375.25
336.88, 0.20, 374.88
337.56, 0.18, 374.43
338.25, 0.17, 373.97
339.04, 0.16, 373.45
339.77, 0.18, 372.96
340.88, 0.16, 372.23
342.23, 0.14, 371.33
344.67, 0.00, 369.72
346.58, 0.00, 368.45
348.99, 0.00, 366.85
332.97, 0.28, 377.39
333.14, 0.28, 377.27
333.62, 0.16, 376.95
333.84, 0.17, 376.80
333.91, 0.23, 376.75
333.98, 0.29, 376.70
334.24, 0.29, 376.52
334.55, 0.28, 376.31
334.91, 0.27, 376.07
335.31, 0.26, 375.80
335.75, 0.24, 375.50
336.26, 0.22, 375.15
336.81, 0.21, 374.78
337.49, 0.18, 374.32
338.18, 0.17, 373.84
338.91, 0.17, 373.34
339.67, 0.19, 372.83
340.76, 0.17, 372.09
342.12, 0.14, 371.16
344.56, 0.00, 369.51
346.46, 0.00, 368.21
348.86, 0.00, 366.58
332.93, 0.28, 377.34
¯333.10, 0.28, 377.22
333.58, 0.17, 376.88
333.79, 0.17, 376.73
333.96, 0.19, 376.61
334.00, 0.27, 376.59
334.19, 0.29, 376.45
334.50, 0.29, 376.24
334.85, 0.27, 375.99
335.25, 0.26, 375.71
335.69, 0.24, 375.41
336.20, 0.22, 375.05
336.75, 0.20, 374.66
337.41, 0.18, 374.21
338.11, 0.16, 373.71
338.79, 0.18, 373.24
339.56, 0.19, 372.70
340.68, 0.17, 371.93
342.01, 0.14, 370.99
344.44, 0.00, 369.29
346.33, 0.00, 367.97
348.72, 0.00, 366.31
332.88, 0.28, 377.28
333.05, 0.29, 377.16
333.53, 0.17, 376.82
333.75, 0.17, 376.66
333.97, 0.17, 376.50
334.02, 0.24, 376.47
334.14, 0.30, 376.38
334.44, 0.29, 376.17
334.80, 0.27, 375.91
335.20, 0.26, 375.63
335.63, 0.24, 375.31
336.14, 0.22, 374.95
336.69, 0.20, 374.55
337.33, 0.18, 374.09
338.04, 0.17, 373.59
338.67, 0.18, 373.14
339.45, 0.19, 372.58
340.60, 0.16, 371.76
341.90, 0.14, 370.82
344.33, 0.00, 369.08
346.21, 0.00, 367.74
348.58, 0.00, 366.03
332.84, 0.28, 377.23
333.01, 0.29, 377.11
333.19, 0.29, 376.97
333.70, 0.17, 376.60
333.93, 0.17, 376.43
334.07, 0.21, 376.33
334.13, 0.28, 376.28
334.39, 0.29, 376.09
¯334.74, 0.27, 375.83
335.14, 0.26, 375.54
335.57, 0.24, 375.22
336.08, 0.22, 374.85
336.63, 0.20, 374.44
337.25, 0.18, 373.98
337.95, 0.17, 373.47
338.55, 0.19, 373.04
339.34, 0.20, 372.45
340.48, 0.17, 371.61
341.78, 0.15, 370.66
343.26, 0.14, 369.57
346.07, 0.00, 367.50
332.80, 0.29, 377.18
332.97, 0.29, 377.05
333.15, 0.29, 376.92
333.65, 0.17, 376.53
333.88, 0.17, 376.36
334.13, 0.17, 376.17
334.15, 0.26, 376.16
334.34, 0.29, 376.02
334.69, 0.27, 375.75
335.08, 0.26, 375.46
335.51, 0.24, 375.13
336.01, 0.22, 374.76
336.57, 0.20, 374.33
337.18, 0.18, 373.87
337.87, 0.17, 373.35
338.42, 0.20, 372.94
339.22, 0.20, 372.33
340.37, 0.17, 371.47
341.66, 0.15, 370.49
343.15, 0.14, 369.37
345.94, 0.00, 367.26
332.75, 0.29, 377.13
332.92, 0.29, 377.00
333.10, 0.29, 376.86
333.60, 0.17, 376.47
333.83, 0.17, 376.29
334.09, 0.16, 376.09
334.19, 0.23, 376.01
334.28, 0.29, 375.95
334.63, 0.28, 375.68
335.01, 0.26, 375.38
335.45, 0.24, 375.04
335.93, 0.22, 374.67
336.50, 0.20, 374.23
337.11, 0.18, 373.76
337.78, 0.17, 373.23
338.30, 0.21, 372.84
339.11, 0.21, 372.21
¯340.25, 0.17, 371.33
341.58, 0.14, 370.30
343.03, 0.14, 369.18
345.80, 0.00, 367.03
332.71, 0.29, 377.07
332.88, 0.29, 376.94
333.06, 0.29, 376.80
333.25, 0.30, 376.65
333.78, 0.17, 376.23
334.02, 0.17, 376.03
334.26, 0.18, 375.85
334.31, 0.26, 375.81
334.57, 0.28, 375.60
334.95, 0.26, 375.30
335.39, 0.24, 374.95
335.86, 0.23, 374.57
336.44, 0.20, 374.12
337.03, 0.18, 373.65
337.70, 0.17, 373.12
338.18, 0.22, 372.74
338.99, 0.21, 372.09
340.13, 0.18, 371.19
341.50, 0.14, 370.10
342.91, 0.14, 368.98
345.66, 0.00, 366.80
332.67, 0.29, 377.02
332.84, 0.29, 376.89
333.01, 0.29, 376.74
333.20, 0.30, 376.59
333.72, 0.17, 376.16
333.96, 0.17, 375.97
334.29, 0.15, 375.70
334.33, 0.24, 375.67
334.51, 0.28, 375.52
334.89, 0.26, 375.21
335.32, 0.24, 374.86
335.80, 0.22, 374.48
336.37, 0.20, 374.01
336.96, 0.18, 373.53
337.58, 0.18, 373.02
338.05, 0.23, 372.64
338.87, 0.22, 371.97
340.01, 0.18, 371.05
341.39, 0.14, 369.93
342.74, 0.14, 368.83
344.50, 0.14, 367.40
332.63, 0.29, 376.97
332.79, 0.29, 376.83
332.97, 0.30, 376.69
333.15, 0.30, 376.53
333.35, 0.30, 376.36
¯333.91, 0.17, 375.90
334.21, 0.16, 375.64
334.40, 0.19, 375.49
334.47, 0.27, 375.43
334.83, 0.26, 375.13
335.26, 0.24, 374.77
335.73, 0.22, 374.38
336.30, 0.19, 373.91
336.88, 0.18, 373.42
337.47, 0.18, 372.93
337.93, 0.23, 372.55
338.76, 0.22, 371.86
339.88, 0.19, 370.92
341.27, 0.14, 369.76
342.56, 0.15, 368.69
344.36, 0.14, 367.18
332.59, 0.29, 376.91
332.75, 0.29, 376.78
332.92, 0.30, 376.63
333.10, 0.30, 376.47
333.30, 0.30, 376.30
333.85, 0.18, 375.83
334.14, 0.16, 375.59
334.47, 0.15, 375.30
334.51, 0.24, 375.27
334.77, 0.26, 375.05
335.19, 0.24, 374.69
335.66, 0.22, 374.28
336.22, 0.20, 373.81
336.80, 0.18, 373.31
337.35, 0.19, 372.84
337.82, 0.24, 372.44
338.64, 0.23, 371.74
339.77, 0.19, 370.78
341.15, 0.14, 369.59
342.38, 0.16, 368.54
344.22, 0.14, 366.97
332.54, 0.29, 376.86
332.70, 0.29, 376.72
332.87, 0.30, 376.57
333.05, 0.30, 376.41
333.25, 0.30, 376.24
333.80, 0.18, 375.76
334.06, 0.17, 375.53
334.42, 0.14, 375.21
334.55, 0.20, 375.10
334.70, 0.26, 374.97
335.12, 0.24, 374.60
335.60, 0.22, 374.19
336.14, 0.20, 373.71
336.72, 0.18, 373.20
¯337.23, 0.20, 372.75
337.71, 0.24, 372.34
338.52, 0.23, 371.63
339.68, 0.18, 370.61
341.03, 0.14, 369.42
342.21, 0.17, 368.39
344.07, 0.14, 366.76
346.19, 0.14, 364.90
332.50, 0.29, 376.81
332.65, 0.30, 376.67
332.82, 0.30, 376.52
333.00, 0.30, 376.36
333.20, 0.30, 376.18
333.41, 0.31, 375.99
333.99, 0.18, 375.47
334.34, 0.15, 375.15
334.64, 0.15, 374.89
334.70, 0.24, 374.83
335.05, 0.24, 374.52
335.53, 0.22, 374.09
336.06, 0.20, 373.62
336.63, 0.18, 373.10
337.11, 0.21, 372.67
337.60, 0.25, 372.23
338.39, 0.24, 371.52
339.59, 0.18, 370.45
340.91, 0.14, 369.26
342.05, 0.17, 368.23
343.93, 0.14, 366.55
346.02, 0.14, 364.66
332.45, 0.29, 376.76
332.61, 0.30, 376.62
332.77, 0.30, 376.46
332.95, 0.30, 376.30
333.15, 0.30, 376.12
333.35, 0.31, 375.93
333.92, 0.18, 375.40
334.26, 0.16, 375.10
334.66, 0.12, 374.73
334.74, 0.21, 374.65
334.98, 0.24, 374.43
335.45, 0.22, 374.00
335.98, 0.20, 373.52
336.55, 0.18, 372.99
336.99, 0.21, 372.58
337.48, 0.25, 372.13
338.27, 0.24, 371.41
339.49, 0.18, 370.28
340.79, 0.14, 369.09
341.89, 0.18, 368.08
343.78, 0.14, 366.34
¯345.85, 0.14, 364.43
332.41, 0.29, 376.71
332.56, 0.30, 376.57
332.72, 0.30, 376.41
332.90, 0.30, 376.24
333.09, 0.31, 376.06
333.30, 0.31, 375.87
333.52, 0.31, 375.66
334.17, 0.17, 375.04
334.57, 0.13, 374.67
334.83, 0.16, 374.43
334.92, 0.24, 374.34
335.38, 0.22, 373.90
335.90, 0.20, 373.42
336.46, 0.18, 372.89
336.88, 0.22, 372.49
337.37, 0.26, 372.03
338.14, 0.25, 371.30
339.39, 0.17, 370.12
340.66, 0.14, 368.92
341.73, 0.18, 367.92
343.63, 0.14, 366.13
345.69, 0.14, 364.19
332.36, 0.29, 376.66
332.51, 0.30, 376.52
332.67, 0.30, 376.36
332.85, 0.30, 376.19
333.04, 0.31, 376.01
333.24, 0.31, 375.81
333.46, 0.31, 375.60
334.09, 0.17, 374.99
334.47, 0.14, 374.62
334.91, 0.10, 374.20
334.97, 0.20, 374.14
335.31, 0.22, 373.81
335.81, 0.20, 373.32
336.37, 0.18, 372.79
336.76, 0.23, 372.41
337.25, 0.26, 371.93
338.04, 0.25, 371.17
339.28, 0.17, 369.98
340.54, 0.14, 368.75
341.56, 0.18, 367.77
343.47, 0.14, 365.92
345.52, 0.14, 363.94
332.31, 0.30, 376.61
332.46, 0.30, 376.46
332.62, 0.30, 376.30
332.80, 0.30, 376.13
332.98, 0.31, 375.95
333.18, 0.31, 375.75
¯333.40, 0.31, 375.54
333.64, 0.32, 375.30
334.38, 0.15, 374.57
334.81, 0.11, 374.14
335.05, 0.15, 373.90
335.23, 0.22, 373.72
335.73, 0.20, 373.23
336.26, 0.19, 372.70
336.64, 0.23, 372.33
337.14, 0.26, 371.83
337.93, 0.25, 371.05
339.15, 0.18, 369.84
340.41, 0.14, 368.59
341.40, 0.19, 367.62
343.32, 0.14, 365.71
345.35, 0.14, 363.70
332.26, 0.30, 376.57
332.41, 0.30, 376.41
332.57, 0.30, 376.25
332.74, 0.30, 376.08
332.93, 0.31, 375.89
333.13, 0.31, 375.69
333.34, 0.32, 375.47
333.58, 0.32, 375.23
334.28, 0.16, 374.52
334.70, 0.12, 374.09
335.17, 0.09, 373.61
335.23, 0.19, 373.55
335.65, 0.20, 373.13
336.15, 0.19, 372.62
336.52, 0.24, 372.25
337.02, 0.27, 371.74
337.83, 0.25, 370.92
339.02, 0.18, 369.71
340.28, 0.14, 368.43
341.23, 0.19, 367.47
343.16, 0.14, 365.51
345.17, 0.14, 363.46
332.22, 0.30, 376.52
332.36, 0.30, 376.37
332.52, 0.30, 376.20
332.69, 0.31, 376.03
332.87, 0.31, 375.84
