žVERSION 0.7
FIELDS x y z
SIZE 8 8 8
TYPE F F F
COUNT 1 1 1
WIDTH 2271
HEIGHT 1
VIEWPOINT 328.47, 7.77, 373.15 1 346.17, 1.77, 364.46
POINTS 2271
DATA ascii
344.12, 0.92, 353.82
344.13, 1.00, 353.13
344.16, 1.02, 351.43
344.25, 0.80, 345.81
344.23, 1.15, 347.55
344.22, 1.38, 347.80
344.22, 1.60, 347.81
344.22, 1.82, 347.72
344.23, 2.04, 347.47
343.94, 0.14, 360.19
343.94, 0.14, 359.97
343.94, 0.14, 359.74
343.94, 0.00, 359.06
343.95, 0.00, 358.77
343.95, 0.00, 358.45
343.95, 0.00, 358.10
343.95, 0.00, 357.73
343.95, 0.00, 357.32
343.95, 0.00, 356.87
343.96, 0.00, 356.37
343.96, 0.00, 355.82
343.96, 0.02, 355.32
343.96, 0.08, 354.94
343.97, 0.15, 354.54
343.97, 0.22, 354.10
343.97, 0.35, 353.98
343.97, 0.49, 353.99
¯343.97, 0.64, 353.99
343.97, 0.76, 353.70
343.97, 0.87, 353.32
343.98, 0.97, 352.82
343.98, 1.05, 351.76
344.01, 0.84, 346.37
344.00, 1.16, 347.80
344.00, 1.39, 347.98
344.00, 1.61, 347.98
344.00, 1.83, 347.95
344.00, 2.04, 347.69
343.87, 0.14, 360.19
343.87, 0.14, 359.97
343.87, 0.14, 359.74
343.86, 0.00, 359.06
343.86, 0.00, 358.77
343.86, 0.00, 358.45
343.85, 0.00, 358.10
343.85, 0.00, 357.73
343.85, 0.00, 357.32
343.84, 0.00, 356.87
343.84, 0.00, 356.37
343.84, 0.00, 355.82
343.83, 0.02, 355.32
343.83, 0.08, 354.94
343.83, 0.15, 354.53
343.82, 0.22, 354.10
343.82, 0.29, 353.64
343.82, 0.39, 353.28
343.82, 0.55, 353.28
343.82, 0.70, 353.19
343.82, 0.81, 352.78
343.81, 0.93, 352.35
343.81, 1.02, 351.39
343.77, 0.88, 346.89
343.77, 1.13, 347.17
343.77, 1.34, 346.85
343.77, 1.57, 346.78
343.77, 1.80, 346.86
343.78, 2.04, 347.77
343.80, 0.14, 360.19
343.80, 0.14, 359.97
343.79, 0.14, 359.74
343.78, 0.00, 359.06
343.77, 0.00, 358.77
343.77, 0.00, 358.45
343.76, 0.00, 358.10
343.75, 0.00, 357.73
343.74, 0.00, 357.32
343.74, 0.00, 356.88
343.73, 0.00, 356.39
¯343.71, 0.01, 355.84
343.70, 0.02, 355.32
343.70, 0.08, 354.94
343.69, 0.15, 354.54
343.68, 0.22, 354.10
343.67, 0.29, 353.64
343.65, 0.31, 352.71
343.65, 0.44, 352.48
343.65, 0.61, 352.48
343.64, 0.75, 352.19
343.64, 0.87, 351.72
343.62, 0.98, 351.00
343.59, 1.07, 349.61
343.55, 1.14, 347.36
343.55, 1.35, 347.08
343.54, 1.58, 347.02
343.55, 1.81, 347.10
343.56, 2.04, 347.56
343.73, 0.14, 360.20
343.72, 0.14, 359.97
343.70, 0.00, 359.35
343.70, 0.01, 359.09
343.69, 0.01, 358.80
343.68, 0.01, 358.49
343.67, 0.01, 358.15
343.65, 0.01, 357.78
343.64, 0.02, 357.39
343.63, 0.02, 356.95
343.61, 0.02, 356.47
343.60, 0.02, 355.93
343.58, 0.03, 355.34
343.56, 0.08, 354.94
343.55, 0.15, 354.54
343.54, 0.22, 354.10
343.52, 0.29, 353.64
343.49, 0.31, 352.71
343.46, 0.32, 351.57
343.46, 0.50, 351.57
343.46, 0.68, 351.55
343.44, 0.80, 351.03
343.42, 0.94, 350.47
343.38, 1.03, 349.12
343.32, 1.36, 347.30
343.32, 1.59, 347.25
343.32, 1.82, 347.33
343.66, 0.14, 360.20
343.65, 0.14, 359.98
343.62, 0.00, 359.35
343.61, 0.02, 359.13
343.60, 0.02, 358.84
343.59, 0.02, 358.53
¯343.57, 0.03, 358.20
343.56, 0.03, 357.84
343.54, 0.03, 357.45
343.52, 0.04, 357.02
343.50, 0.04, 356.55
343.48, 0.04, 356.02
343.45, 0.05, 355.44
343.43, 0.08, 354.94
343.41, 0.15, 354.54
343.39, 0.22, 354.10
343.37, 0.29, 353.64
343.33, 0.31, 352.72
343.28, 0.31, 351.48
343.24, 0.38, 350.53
343.24, 0.57, 350.53
343.23, 0.73, 350.27
343.20, 0.87, 349.65
343.13, 0.96, 348.01
342.90, 0.87, 342.84
343.59, 0.14, 360.20
343.58, 0.14, 359.98
343.54, 0.00, 359.35
343.53, 0.03, 359.16
343.52, 0.03, 358.89
343.50, 0.04, 358.58
343.48, 0.04, 358.25
343.46, 0.04, 357.90
343.44, 0.05, 357.51
343.42, 0.05, 357.09
343.39, 0.06, 356.63
343.36, 0.06, 356.11
343.33, 0.07, 355.53
343.30, 0.08, 354.95
343.27, 0.15, 354.54
343.25, 0.22, 354.11
343.22, 0.29, 353.64
343.17, 0.31, 352.72
343.10, 0.31, 351.49
343.02, 0.32, 350.11
342.98, 0.44, 349.33
342.98, 0.64, 349.33
342.84, 0.64, 346.84
342.87, 0.90, 347.29
342.67, 0.93, 343.84
343.52, 0.14, 360.21
343.48, 0.00, 359.60
343.47, 0.00, 359.35
343.45, 0.03, 359.17
343.44, 0.05, 358.93
343.42, 0.05, 358.63
343.39, 0.05, 358.31
¯343.37, 0.06, 357.95
343.34, 0.06, 357.57
343.31, 0.07, 357.16
343.28, 0.07, 356.71
343.25, 0.08, 356.20
343.21, 0.09, 355.63
343.17, 0.09, 355.00
343.14, 0.15, 354.54
343.11, 0.22, 354.11
343.07, 0.29, 353.65
343.01, 0.31, 352.73
342.93, 0.31, 351.50
342.83, 0.32, 350.12
342.71, 0.33, 348.34
342.64, 0.45, 347.35
342.65, 0.69, 347.41
342.68, 0.94, 347.83
342.46, 0.98, 344.62
343.46, 0.14, 360.21
343.41, 0.00, 359.60
343.39, 0.00, 359.36
343.37, 0.03, 359.17
343.35, 0.06, 358.97
343.33, 0.06, 358.68
343.31, 0.07, 358.36
343.28, 0.07, 358.01
343.25, 0.08, 357.63
343.21, 0.08, 357.23
343.18, 0.09, 356.79
343.14, 0.10, 356.29
343.09, 0.10, 355.73
343.04, 0.11, 355.11
343.00, 0.15, 354.55
342.96, 0.22, 354.12
342.92, 0.29, 353.65
342.85, 0.31, 352.74
342.75, 0.31, 351.51
342.64, 0.32, 350.13
342.50, 0.33, 348.35
342.45, 0.49, 347.74
342.36, 0.62, 346.62
342.32, 0.83, 346.18
342.24, 1.01, 345.21
343.39, 0.14, 360.22
343.33, 0.00, 359.61
343.31, 0.00, 359.36
343.29, 0.03, 359.18
343.27, 0.06, 358.98
343.25, 0.08, 358.73
343.22, 0.08, 358.41
343.19, 0.08, 358.07
¯343.15, 0.09, 357.70
343.11, 0.10, 357.29
343.07, 0.11, 356.86
343.03, 0.12, 356.37
342.98, 0.12, 355.83
342.92, 0.13, 355.22
342.86, 0.15, 354.56
342.82, 0.21, 354.12
342.77, 0.29, 353.66
342.69, 0.31, 352.75
342.58, 0.31, 351.52
342.54, 0.45, 351.18
342.55, 0.64, 351.29
342.55, 0.82, 351.25
342.20, 0.69, 347.44
342.15, 0.88, 346.92
342.04, 1.04, 345.77
343.28, 0.00, 359.85
343.25, 0.00, 359.61
343.23, 0.00, 359.37
343.21, 0.03, 359.18
343.19, 0.06, 358.99
343.16, 0.09, 358.78
343.13, 0.09, 358.46
343.10, 0.10, 358.13
343.06, 0.10, 357.76
343.02, 0.11, 357.36
342.97, 0.12, 356.93
342.92, 0.13, 356.46
342.86, 0.14, 355.93
342.80, 0.15, 355.33
342.73, 0.16, 354.66
342.67, 0.21, 354.13
342.63, 0.29, 353.66
342.53, 0.31, 352.77
342.40, 0.31, 351.53
342.41, 0.50, 351.61
342.44, 0.70, 351.86
342.46, 0.90, 352.11
342.47, 1.08, 352.22
342.47, 1.25, 352.18
343.20, 0.00, 359.86
343.18, 0.00, 359.62
343.15, 0.00, 359.37
343.13, 0.03, 359.19
343.10, 0.06, 358.99
343.08, 0.09, 358.79
343.05, 0.11, 358.52
343.01, 0.11, 358.19
342.96, 0.12, 357.82
342.92, 0.12, 357.43
¯342.87, 0.14, 357.01
342.81, 0.15, 356.55
342.75, 0.16, 356.02
342.68, 0.17, 355.44
342.61, 0.18, 354.78
342.53, 0.21, 354.14
342.48, 0.29, 353.67
342.37, 0.31, 352.78
342.23, 0.31, 351.57
342.28, 0.54, 351.97
342.31, 0.74, 352.25
342.34, 0.94, 352.49
342.36, 1.12, 352.71
342.62, 1.43, 354.87
342.62, 1.57, 354.88
342.62, 1.71, 354.87
342.62, 1.84, 354.87
342.62, 1.98, 354.87
342.62, 2.11, 354.87
342.62, 2.25, 354.87
342.62, 2.38, 354.87
343.13, 0.00, 359.87
343.10, 0.00, 359.63
343.07, 0.00, 359.38
343.04, 0.03, 359.19
343.02, 0.06, 359.00
342.99, 0.09, 358.79
342.96, 0.12, 358.57
342.92, 0.12, 358.24
342.87, 0.13, 357.89
342.82, 0.14, 357.50
342.77, 0.15, 357.08
342.71, 0.16, 356.63
342.64, 0.18, 356.12
342.57, 0.19, 355.55
342.48, 0.20, 354.90
342.39, 0.22, 354.18
342.33, 0.29, 353.68
342.21, 0.31, 352.80
342.07, 0.33, 351.71
342.12, 0.56, 352.11
342.17, 0.77, 352.48
342.22, 0.97, 352.83
342.25, 1.15, 353.06
342.48, 1.43, 354.86
342.53, 1.59, 355.25
342.57, 1.74, 355.57
342.57, 1.86, 355.57
342.57, 1.99, 355.56
342.57, 2.12, 355.56
342.58, 2.24, 355.56
¯342.58, 2.37, 355.56
343.06, 0.00, 359.87
343.02, 0.00, 359.64
342.99, 0.00, 359.39
342.96, 0.03, 359.20
342.93, 0.06, 359.01
342.90, 0.09, 358.80
342.87, 0.12, 358.59
342.83, 0.14, 358.30
342.78, 0.15, 357.95
342.73, 0.15, 357.57
342.67, 0.16, 357.15
342.61, 0.18, 356.71
342.54, 0.19, 356.22
342.46, 0.21, 355.65
342.37, 0.22, 355.02
342.26, 0.24, 354.31
342.17, 0.28, 353.69
342.05, 0.31, 352.82
342.37, 0.77, 355.05
342.37, 0.90, 355.01
342.45, 1.10, 355.63
342.45, 1.23, 355.62
342.12, 1.16, 353.28
342.34, 1.43, 354.85
342.40, 1.59, 355.24
342.45, 1.74, 355.60
342.50, 1.88, 355.94
342.53, 2.00, 356.18
342.53, 2.12, 356.18
342.53, 2.24, 356.18
342.53, 2.36, 356.17
342.98, 0.00, 359.89
342.95, 0.00, 359.65
342.91, 0.00, 359.40
342.88, 0.03, 359.21
342.85, 0.05, 359.01
342.82, 0.08, 358.81
342.78, 0.12, 358.59
342.75, 0.15, 358.36
342.69, 0.16, 358.01
342.64, 0.17, 357.64
342.57, 0.18, 357.23
342.50, 0.19, 356.79
342.43, 0.21, 356.31
342.34, 0.22, 355.76
342.25, 0.24, 355.14
342.14, 0.26, 354.44
342.02, 0.28, 353.70
341.89, 0.31, 352.84
342.23, 0.77, 355.04
¯342.23, 0.90, 355.01
342.42, 1.17, 356.20
342.42, 1.29, 356.20
342.42, 1.41, 356.20
342.42, 1.53, 356.20
342.26, 1.59, 355.22
342.32, 1.74, 355.59
342.37, 1.88, 355.93
342.42, 2.01, 356.25
342.47, 2.13, 356.55
342.50, 2.24, 356.72
342.50, 2.35, 356.72
342.91, 0.00, 359.90
342.87, 0.00, 359.66
342.83, 0.00, 359.41
342.80, 0.02, 359.22
342.77, 0.05, 359.02
342.73, 0.08, 358.82
342.69, 0.12, 358.60
342.66, 0.15, 358.38
342.61, 0.17, 358.08
342.54, 0.18, 357.71
342.48, 0.19, 357.30
342.40, 0.21, 356.87
342.32, 0.22, 356.39
342.31, 0.33, 356.30
342.32, 0.46, 356.35
342.33, 0.59, 356.40
342.33, 0.71, 356.42
342.33, 0.83, 356.42
342.33, 0.95, 356.41
342.38, 1.11, 356.72
342.38, 1.22, 356.72
342.38, 1.33, 356.72
342.38, 1.45, 356.72
342.30, 1.53, 356.24
342.13, 1.59, 355.21
342.19, 1.74, 355.58
342.25, 1.88, 355.92
342.30, 2.00, 356.24
342.35, 2.13, 356.54
342.40, 2.24, 356.82
342.45, 2.35, 357.09
342.84, 0.00, 359.91
342.80, 0.00, 359.68
342.75, 0.00, 359.43
342.72, 0.02, 359.23
342.68, 0.05, 359.03
342.64, 0.08, 358.83
342.61, 0.11, 358.61
342.56, 0.15, 358.39
¯342.52, 0.18, 358.14
342.45, 0.19, 357.78
342.38, 0.21, 357.38
342.31, 0.22, 356.95
342.22, 0.24, 356.48
342.25, 0.39, 356.62
342.27, 0.53, 356.74
342.27, 0.65, 356.77
342.27, 0.76, 356.77
342.28, 0.88, 356.77
342.35, 1.05, 357.19
342.35, 1.16, 357.19
342.35, 1.27, 357.18
342.35, 1.38, 357.18
342.35, 1.49, 357.18
342.18, 1.53, 356.25
341.99, 1.59, 355.20
342.06, 1.73, 355.57
342.12, 1.87, 355.91
342.18, 2.00, 356.23
342.23, 2.13, 356.53
342.29, 2.24, 356.82
342.33, 2.35, 357.08
342.77, 0.00, 359.92
342.72, 0.00, 359.69
342.67, 0.00, 359.44
342.63, 0.02, 359.24
342.60, 0.05, 359.04
342.56, 0.08, 358.84
342.52, 0.11, 358.62
342.47, 0.15, 358.40
342.43, 0.18, 358.16
342.37, 0.21, 357.85
342.29, 0.22, 357.45
342.21, 0.23, 357.03
342.12, 0.25, 356.57
342.13, 0.38, 356.61
342.25, 0.61, 357.22
342.25, 0.72, 357.22
342.25, 0.83, 357.21
342.24, 0.94, 357.21
342.32, 1.10, 357.61
342.32, 1.21, 357.61
342.32, 1.31, 357.61
342.32, 1.42, 357.61
342.25, 1.49, 357.24
342.06, 1.53, 356.26
341.86, 1.58, 355.18
341.93, 1.73, 355.55
341.99, 1.87, 355.90
342.06, 2.00, 356.22
¯342.12, 2.13, 356.53
342.17, 2.24, 356.81
342.22, 2.35, 357.08
342.69, 0.00, 359.94
342.65, 0.00, 359.70
342.60, 0.00, 359.46
342.55, 0.02, 359.25
342.51, 0.05, 359.05
342.47, 0.08, 358.85
342.43, 0.11, 358.63
342.38, 0.15, 358.41
342.33, 0.18, 358.17
342.28, 0.22, 357.91
342.22, 0.26, 357.63
342.23, 0.37, 357.67
342.24, 0.49, 357.72
342.24, 0.60, 357.74
342.25, 0.71, 357.76
342.25, 0.81, 357.76
342.24, 0.91, 357.74
342.30, 1.05, 358.00
342.30, 1.15, 357.99
342.30, 1.25, 357.99
342.30, 1.35, 357.99
342.30, 1.45, 357.99
342.15, 1.49, 357.25
341.94, 1.53, 356.27
341.72, 1.58, 355.17
341.79, 1.73, 355.54
341.87, 1.87, 355.89
341.93, 2.00, 356.21
342.00, 2.13, 356.52
342.05, 2.24, 356.80
342.11, 2.35, 357.07
342.62, 0.00, 359.95
342.57, 0.00, 359.72
342.52, 0.00, 359.47
342.47, 0.02, 359.26
342.43, 0.05, 359.06
342.38, 0.08, 358.86
342.34, 0.11, 358.65
342.29, 0.14, 358.42
342.23, 0.18, 358.18
342.18, 0.22, 357.92
342.20, 0.34, 358.00
342.20, 0.45, 358.02
342.20, 0.55, 358.04
342.21, 0.66, 358.05
342.21, 0.76, 358.05
342.21, 0.86, 358.05
342.27, 1.01, 358.35
¯342.27, 1.10, 358.35
342.27, 1.20, 358.35
342.27, 1.29, 358.35
342.27, 1.39, 358.34
342.21, 1.46, 358.06
342.04, 1.49, 357.26
341.82, 1.53, 356.28
341.59, 1.58, 355.19
341.66, 1.73, 355.53
341.74, 1.87, 355.88
341.81, 2.00, 356.20
341.87, 2.13, 356.51
341.94, 2.24, 356.80
342.00, 2.35, 357.06
342.55, 0.00, 359.97
342.50, 0.00, 359.74
342.44, 0.00, 359.49
342.39, 0.02, 359.27
342.34, 0.04, 359.08
342.30, 0.08, 358.87
342.25, 0.11, 358.66
342.19, 0.14, 358.43
342.14, 0.18, 358.19
342.08, 0.22, 357.94
342.12, 0.36, 358.09
342.31, 0.65, 358.92
342.31, 0.74, 358.92
342.31, 0.83, 358.92
342.31, 0.92, 358.92
342.31, 1.01, 358.92
342.31, 1.10, 358.92
342.31, 1.18, 358.92
342.31, 1.27, 358.92
342.28, 1.34, 358.77
342.19, 1.39, 358.40
342.12, 1.46, 358.08
341.93, 1.49, 357.27
341.70, 1.52, 356.29
341.56, 1.61, 355.65
341.52, 1.73, 355.52
341.61, 1.87, 355.87
341.68, 2.00, 356.19
341.75, 2.13, 356.50
341.82, 2.24, 356.79
341.88, 2.35, 357.06
342.48, 0.00, 359.98
342.42, 0.00, 359.75
342.36, 0.00, 359.51
342.31, 0.01, 359.28
342.26, 0.04, 359.09
342.21, 0.07, 358.89
¯342.16, 0.11, 358.67
342.10, 0.14, 358.45
342.04, 0.18, 358.21
341.98, 0.21, 357.95
342.01, 0.35, 358.07
342.29, 0.71, 359.21
342.29, 0.79, 359.21
342.29, 0.88, 359.21
342.29, 0.97, 359.21
342.29, 1.05, 359.21
342.29, 1.14, 359.21
342.29, 1.22, 359.21
342.28, 1.31, 359.17
342.23, 1.36, 358.95
342.09, 1.39, 358.39
342.02, 1.46, 358.09
341.82, 1.49, 357.29
341.58, 1.52, 356.30
341.50, 1.62, 355.96
341.39, 1.73, 355.50
341.47, 1.87, 355.86
341.55, 2.00, 356.19
341.63, 2.13, 356.49
341.70, 2.24, 356.78
341.77, 2.35, 357.05
342.41, 0.00, 360.00
342.35, 0.00, 359.77
342.28, 0.00, 359.53
342.22, 0.01, 359.30
342.18, 0.04, 359.10
342.12, 0.07, 358.90
342.07, 0.10, 358.69
342.01, 0.14, 358.46
341.95, 0.17, 358.22
341.88, 0.21, 357.97
342.27, 0.68, 359.48
342.27, 0.76, 359.48
342.27, 0.85, 359.48
342.27, 0.93, 359.48
342.27, 1.01, 359.47
342.27, 1.10, 359.47
342.27, 1.18, 359.47
342.27, 1.26, 359.47
342.24, 1.32, 359.33
342.18, 1.38, 359.12
342.12, 1.44, 358.89
341.92, 1.45, 358.10
341.71, 1.49, 357.30
341.50, 1.53, 356.47
341.37, 1.62, 355.97
341.25, 1.73, 355.49
¯341.34, 1.87, 355.84
341.43, 2.00, 356.18
341.51, 2.13, 356.48
341.58, 2.24, 356.77
341.65, 2.35, 357.05
342.33, 0.00, 360.02
342.27, 0.00, 359.79
342.21, 0.00, 359.55
342.14, 0.01, 359.31
342.09, 0.04, 359.12
342.04, 0.07, 358.91
341.98, 0.10, 358.70
341.92, 0.14, 358.47
341.85, 0.17, 358.24
342.26, 0.65, 359.73
342.26, 0.73, 359.72
342.26, 0.82, 359.72
342.26, 0.90, 359.72
342.26, 0.98, 359.72
342.26, 1.06, 359.72
342.26, 1.14, 359.72
342.26, 1.22, 359.72
342.24, 1.29, 359.67
342.19, 1.34, 359.48
342.14, 1.40, 359.28
342.08, 1.46, 359.06
341.82, 1.45, 358.12
341.61, 1.48, 357.31
341.48, 1.56, 356.84
341.25, 1.62, 355.99
341.11, 1.72, 355.48
341.21, 1.87, 355.83
341.30, 2.00, 356.17
341.38, 2.13, 356.48
341.46, 2.24, 356.77
341.54, 2.35, 357.04
342.26, 0.00, 360.04
342.20, 0.00, 359.81
342.13, 0.00, 359.57
342.06, 0.01, 359.33
342.01, 0.04, 359.13
341.95, 0.07, 358.93
341.89, 0.10, 358.72
341.82, 0.13, 358.49
342.24, 0.63, 359.96
342.24, 0.71, 359.96
342.24, 0.79, 359.96
342.24, 0.86, 359.95
342.24, 0.94, 359.95
342.24, 1.02, 359.95
342.24, 1.10, 359.95
¯342.24, 1.17, 359.95
342.24, 1.25, 359.95
342.20, 1.31, 359.81
342.15, 1.36, 359.63
342.10, 1.42, 359.43
342.02, 1.47, 359.17
341.73, 1.45, 358.13
341.50, 1.48, 357.33
341.44, 1.58, 357.13
341.12, 1.62, 356.00
340.97, 1.72, 355.46
341.07, 1.87, 355.82
341.17, 2.00, 356.16
341.26, 2.13, 356.47
341.34, 2.24, 356.76
341.42, 2.36, 357.04
342.19, 0.00, 360.06
342.12, 0.00, 359.83
342.05, 0.00, 359.59
341.98, 0.01, 359.34
341.92, 0.03, 359.15
341.86, 0.06, 358.95
341.80, 0.10, 358.73
342.23, 0.60, 360.17
342.23, 0.68, 360.17
342.23, 0.76, 360.17
342.23, 0.83, 360.17
342.23, 0.91, 360.17
342.23, 0.98, 360.17
342.23, 1.06, 360.17
342.23, 1.13, 360.17
342.23, 1.21, 360.17
342.21, 1.27, 360.11
342.16, 1.32, 359.95
342.11, 1.38, 359.77
342.06, 1.43, 359.59
341.94, 1.47, 359.19
341.63, 1.45, 358.15
341.43, 1.49, 357.49
341.33, 1.58, 357.15
341.27, 1.68, 356.95
340.83, 1.72, 355.45
340.94, 1.86, 355.81
341.04, 2.00, 356.15
341.13, 2.13, 356.46
341.22, 2.24, 356.75
341.30, 2.36, 357.03
342.12, 0.00, 360.08
342.05, 0.00, 359.85
341.98, 0.00, 359.61
341.90, 0.00, 359.36
¯341.84, 0.03, 359.17
341.77, 0.06, 358.96
341.71, 0.09, 358.75
342.21, 0.65, 360.36
342.21, 0.73, 360.36
342.21, 0.80, 360.36
342.21, 0.88, 360.37
342.21, 0.95, 360.37
342.21, 1.02, 360.37
342.21, 1.10, 360.37
342.21, 1.17, 360.37
342.21, 1.24, 360.37
342.17, 1.29, 360.24
342.12, 1.34, 360.08
342.07, 1.39, 359.91
342.02, 1.45, 359.73
341.85, 1.47, 359.20
341.53, 1.45, 358.16
341.41, 1.52, 357.79
341.25, 1.58, 357.27
341.20, 1.68, 357.09
340.69, 1.72, 355.43
340.80, 1.86, 355.80
340.90, 2.00, 356.13
341.00, 2.13, 356.45
341.09, 2.25, 356.75
341.18, 2.36, 357.03
348.15, 0.00, 370.57
348.30, 0.00, 370.77
348.46, 0.00, 370.98
348.63, 0.00, 371.21
348.81, 0.01, 371.44
349.00, 0.02, 371.70
349.20, 0.02, 371.97
349.43, 0.03, 372.27
349.66, 0.05, 372.57
349.85, 0.09, 372.83
350.06, 0.12, 373.11
350.33, 0.15, 373.46
350.62, 0.19, 373.85
350.94, 0.22, 374.27
351.28, 0.26, 374.73
352.12, 0.19, 375.84
353.56, 0.00, 377.76
354.43, 0.00, 378.91
355.47, 0.00, 380.29
356.75, 0.00, 381.99
358.36, 0.00, 384.13
348.21, 0.00, 370.52
348.36, 0.00, 370.72
348.53, 0.00, 370.93
¯348.70, 0.00, 371.16
348.88, 0.01, 371.39
349.07, 0.02, 371.64
349.28, 0.02, 371.91
349.51, 0.03, 372.21
349.72, 0.06, 372.48
349.91, 0.09, 372.73
350.12, 0.14, 373.00
350.38, 0.17, 373.34
350.67, 0.20, 373.71
350.99, 0.23, 374.12
351.34, 0.27, 374.58
352.24, 0.19, 375.74
353.71, 0.00, 377.64
354.58, 0.00, 378.78
355.64, 0.00, 380.15
356.94, 0.00, 381.83
358.58, 0.00, 383.95
348.27, 0.00, 370.47
348.42, 0.00, 370.67
348.59, 0.00, 370.88
348.77, 0.00, 371.11
348.95, 0.01, 371.34
349.15, 0.01, 371.59
349.36, 0.02, 371.86
349.60, 0.03, 372.15
349.78, 0.06, 372.39
349.98, 0.10, 372.64
350.19, 0.14, 372.90
350.44, 0.18, 373.21
350.73, 0.21, 373.58
351.05, 0.25, 373.98
351.40, 0.29, 374.42
352.47, 0.16, 375.78
353.85, 0.00, 377.52
354.74, 0.00, 378.65
355.82, 0.00, 380.01
357.14, 0.00, 381.67
358.80, 0.00, 383.77
348.33, 0.00, 370.42
348.48, 0.00, 370.62
348.66, 0.00, 370.83
348.84, 0.00, 371.06
349.03, 0.01, 371.29
349.23, 0.01, 371.53
349.44, 0.02, 371.80
349.66, 0.04, 372.07
349.85, 0.07, 372.30
350.04, 0.11, 372.54
350.26, 0.15, 372.80
350.49, 0.19, 373.09
¯350.78, 0.23, 373.45
351.10, 0.26, 373.84
351.45, 0.30, 374.27
352.76, 0.12, 375.88
353.99, 0.00, 377.40
354.90, 0.00, 378.52
355.99, 0.00, 379.86
357.33, 0.00, 381.51
359.01, 0.00, 383.59
348.38, 0.00, 370.38
348.55, 0.00, 370.57
348.72, 0.00, 370.78
348.90, 0.00, 371.00
349.10, 0.00, 371.23
349.30, 0.01, 371.48
349.52, 0.02, 371.74
349.72, 0.04, 371.98
349.91, 0.08, 372.21
350.11, 0.12, 372.45
350.32, 0.16, 372.70
350.55, 0.20, 372.98
350.83, 0.24, 373.31
351.15, 0.28, 373.70
351.50, 0.32, 374.12
353.06, 0.07, 375.99
354.13, 0.00, 377.28
355.05, 0.00, 378.38
356.16, 0.00, 379.71
357.51, 0.00, 381.35
359.22, 0.00, 383.40
348.44, 0.00, 370.33
348.61, 0.00, 370.52
348.78, 0.00, 370.72
348.97, 0.00, 370.95
349.17, 0.00, 371.18
349.38, 0.01, 371.42
349.60, 0.02, 371.68
349.78, 0.05, 371.89
349.97, 0.09, 372.11
350.17, 0.12, 372.35
350.38, 0.17, 372.60
350.61, 0.21, 372.87
350.88, 0.25, 373.18
351.20, 0.29, 373.56
351.55, 0.33, 373.97
353.36, 0.03, 376.09
354.27, 0.00, 377.16
355.20, 0.00, 378.25
356.32, 0.00, 379.56
357.70, 0.00, 381.18
359.43, 0.00, 383.21
¯348.50, 0.00, 370.28
348.66, 0.00, 370.47
348.84, 0.00, 370.67
349.03, 0.00, 370.89
349.24, 0.00, 371.12
349.45, 0.01, 371.36
349.66, 0.02, 371.60
349.84, 0.06, 371.81
350.03, 0.09, 372.02
350.23, 0.13, 372.26
350.45, 0.17, 372.50
350.68, 0.22, 372.77
350.93, 0.26, 373.05
351.25, 0.30, 373.42
351.74, 0.31, 373.98
353.58, 0.01, 376.08
354.41, 0.00, 377.03
355.35, 0.00, 378.11
356.49, 0.00, 379.41
357.88, 0.00, 381.01
359.64, 0.00, 383.01
348.55, 0.00, 370.23
348.72, 0.00, 370.41
348.90, 0.00, 370.61
349.10, 0.00, 370.83
349.31, 0.00, 371.07
349.52, 0.01, 371.30
349.71, 0.03, 371.52
349.89, 0.06, 371.72
350.09, 0.10, 371.93
350.29, 0.14, 372.16
350.51, 0.18, 372.40
350.74, 0.22, 372.66
350.99, 0.27, 372.94
351.29, 0.31, 373.28
351.99, 0.27, 374.05
353.70, 0.01, 375.96
354.54, 0.00, 376.90
355.50, 0.00, 377.97
356.65, 0.00, 379.26
358.06, 0.00, 380.83
359.84, 0.00, 382.82
348.61, 0.00, 370.17
348.78, 0.00, 370.36
348.96, 0.00, 370.56
349.16, 0.00, 370.77
349.37, 0.00, 371.00
349.59, 0.00, 371.25
349.77, 0.04, 371.44
349.95, 0.07, 371.63
350.14, 0.11, 371.84
¯350.35, 0.15, 372.07
350.57, 0.19, 372.30
350.80, 0.23, 372.56
351.05, 0.28, 372.83
351.34, 0.33, 373.14
352.24, 0.23, 374.12
353.81, 0.01, 375.84
354.67, 0.00, 376.77
355.65, 0.00, 377.83
356.81, 0.00, 379.10
358.24, 0.00, 380.66
360.04, 0.00, 382.62
348.67, 0.00, 370.12
348.84, 0.00, 370.30
349.02, 0.00, 370.50
349.22, 0.00, 370.71
349.44, 0.00, 370.94
349.65, 0.01, 371.17
349.82, 0.04, 371.35
350.01, 0.08, 371.55
350.20, 0.11, 371.75
350.41, 0.15, 371.97
350.63, 0.19, 372.20
350.86, 0.24, 372.46
351.12, 0.29, 372.72
351.39, 0.34, 373.01
352.50, 0.19, 374.19
353.93, 0.01, 375.71
354.79, 0.00, 376.63
355.79, 0.00, 377.69
356.97, 0.00, 378.94
358.42, 0.00, 380.48
359.73, 0.07, 381.87
359.73, 0.35, 381.87
359.73, 0.62, 381.87
359.72, 0.90, 381.86
360.87, 1.09, 383.08
360.87, 1.39, 383.08
348.72, 0.00, 370.07
348.89, 0.00, 370.25
349.08, 0.00, 370.44
349.28, 0.00, 370.65
349.50, 0.00, 370.88
349.73, 0.00, 371.12
349.90, 0.04, 371.29
350.08, 0.07, 371.48
350.28, 0.11, 371.68
350.49, 0.15, 371.90
350.71, 0.19, 372.13
350.94, 0.24, 372.37
351.19, 0.29, 372.63
¯351.47, 0.34, 372.91
352.76, 0.15, 374.26
354.04, 0.01, 375.59
354.92, 0.00, 376.49
355.93, 0.00, 377.54
357.13, 0.00, 378.78
358.59, 0.00, 380.30
359.95, 0.07, 381.71
359.79, 0.36, 381.55
359.72, 0.64, 381.46
359.81, 0.90, 381.56
360.65, 1.12, 382.43
360.61, 1.41, 382.38
360.60, 1.69, 382.38
348.77, 0.00, 370.01
348.95, 0.00, 370.19
349.14, 0.00, 370.39
349.34, 0.00, 370.59
349.57, 0.00, 370.82
349.81, 0.00, 371.06
349.99, 0.03, 371.25
350.18, 0.06, 371.44
350.38, 0.10, 371.64
350.59, 0.14, 371.85
350.81, 0.18, 372.08
351.05, 0.23, 372.32
351.31, 0.28, 372.58
351.60, 0.33, 372.87
352.91, 0.14, 374.20
354.16, 0.01, 375.47
355.05, 0.00, 376.36
356.07, 0.00, 377.40
357.28, 0.00, 378.62
358.76, 0.00, 380.12
359.14, 0.20, 380.50
359.14, 0.46, 380.50
359.14, 0.72, 380.50
359.14, 0.98, 380.49
360.35, 1.15, 381.72
360.35, 1.43, 381.72
360.35, 1.71, 381.72
360.35, 1.98, 381.71
359.48, 2.52, 380.83
348.83, 0.00, 369.96
349.00, 0.00, 370.14
349.20, 0.00, 370.33
349.40, 0.00, 370.53
349.63, 0.00, 370.75
349.87, 0.00, 370.99
350.08, 0.02, 371.20
350.27, 0.06, 371.39
¯350.48, 0.09, 371.59
350.69, 0.13, 371.80
350.92, 0.17, 372.03
351.17, 0.22, 372.27
351.43, 0.27, 372.53
351.76, 0.31, 372.85
353.05, 0.13, 374.13
354.29, 0.01, 375.35
355.18, 0.00, 376.23
356.21, 0.00, 377.25
357.43, 0.00, 378.46
358.92, 0.00, 379.93
358.92, 0.25, 379.92
358.92, 0.51, 379.92
358.92, 0.76, 379.92
358.92, 1.01, 379.92
358.92, 1.26, 379.91
359.00, 1.50, 379.99
359.63, 1.73, 380.62
359.66, 2.00, 380.64
359.68, 2.26, 380.66
359.69, 2.52, 380.67
359.71, 2.78, 380.69
348.88, 0.00, 369.91
349.06, 0.00, 370.08
349.25, 0.00, 370.27
349.46, 0.00, 370.47
349.69, 0.00, 370.69
349.93, 0.00, 370.92
350.17, 0.01, 371.15
350.37, 0.05, 371.34
350.57, 0.08, 371.54
350.79, 0.12, 371.75
351.03, 0.17, 371.98
351.28, 0.21, 372.22
351.55, 0.26, 372.48
351.92, 0.29, 372.84
353.19, 0.12, 374.06
354.41, 0.01, 375.23
355.31, 0.00, 376.10
356.35, 0.00, 377.10
357.58, 0.00, 378.29
359.10, 0.00, 379.75
358.76, 0.30, 379.42
358.71, 0.55, 379.37
358.71, 0.79, 379.37
358.73, 1.03, 379.39
358.89, 1.27, 379.54
358.93, 1.51, 379.58
359.44, 1.74, 380.07
359.37, 2.00, 380.00
¯359.37, 2.25, 380.00
359.38, 2.51, 380.00
359.38, 2.76, 380.00
348.93, 0.00, 369.85
349.11, 0.00, 370.02
349.31, 0.00, 370.21
349.52, 0.00, 370.41
349.75, 0.00, 370.62
350.00, 0.00, 370.85
350.26, 0.00, 371.10
350.46, 0.04, 371.29
350.67, 0.07, 371.49
350.90, 0.11, 371.70
351.14, 0.16, 371.92
351.39, 0.20, 372.16
351.70, 0.24, 372.45
352.09, 0.27, 372.82
353.32, 0.11, 373.98
354.52, 0.01, 375.11
355.44, 0.00, 375.97
356.48, 0.00, 376.95
357.73, 0.00, 378.12
359.26, 0.00, 379.56
359.03, 0.28, 379.34
358.95, 0.54, 379.26
358.93, 0.79, 379.24
358.98, 1.03, 379.29
358.90, 1.28, 379.22
359.03, 1.51, 379.34
359.25, 1.75, 379.54
359.27, 2.00, 379.56
359.29, 2.25, 379.57
359.32, 2.50, 379.60
359.35, 2.75, 379.62
348.98, 0.00, 369.79
349.17, 0.00, 369.96
349.36, 0.00, 370.15
349.58, 0.00, 370.34
349.81, 0.00, 370.55
350.06, 0.00, 370.78
350.33, 0.00, 371.04
350.56, 0.03, 371.24
350.77, 0.06, 371.44
351.00, 0.10, 371.65
351.24, 0.15, 371.87
351.51, 0.19, 372.11
351.86, 0.22, 372.43
352.26, 0.25, 372.80
353.45, 0.11, 373.89
354.63, 0.01, 374.98
355.56, 0.00, 375.83
¯356.61, 0.00, 376.79
357.88, 0.00, 377.95
359.42, 0.00, 379.37
361.37, 0.00, 381.16
359.20, 0.53, 379.17
359.18, 0.78, 379.15
359.24, 1.02, 379.19
359.11, 1.27, 379.07
358.82, 1.53, 378.81
358.80, 1.77, 378.79
359.23, 2.00, 379.18
359.27, 2.25, 379.22
359.32, 2.50, 379.26
359.36, 2.75, 379.30
349.03, 0.00, 369.74
349.22, 0.00, 369.90
349.42, 0.00, 370.08
349.63, 0.00, 370.28
349.87, 0.00, 370.49
350.12, 0.00, 370.71
350.40, 0.00, 370.96
350.65, 0.02, 371.19
350.87, 0.05, 371.38
351.10, 0.09, 371.59
351.35, 0.14, 371.81
351.64, 0.18, 372.07
352.02, 0.20, 372.41
352.43, 0.23, 372.78
353.54, 0.11, 373.77
354.68, 0.02, 374.79
355.68, 0.00, 375.69
356.74, 0.00, 376.64
358.02, 0.00, 377.78
359.58, 0.00, 379.18
359.38, 0.28, 379.00
359.10, 0.56, 378.74
359.07, 0.80, 378.71
359.04, 1.05, 378.69
359.01, 1.29, 378.66
358.93, 1.53, 378.58
358.90, 1.77, 378.56
359.49, 2.00, 379.08
359.53, 2.25, 379.12
359.58, 2.50, 379.16
359.62, 2.75, 379.20
349.08, 0.00, 369.68
349.27, 0.00, 369.84
349.47, 0.00, 370.02
349.69, 0.00, 370.21
349.93, 0.00, 370.42
350.18, 0.00, 370.64
¯350.46, 0.00, 370.89
350.75, 0.01, 371.13
350.97, 0.04, 371.33
351.21, 0.08, 371.54
351.46, 0.12, 371.76
351.79, 0.15, 372.04
352.18, 0.18, 372.38
352.61, 0.20, 372.76
353.58, 0.12, 373.61
354.72, 0.04, 374.61
355.80, 0.00, 375.55
356.87, 0.00, 376.48
358.16, 0.00, 377.61
359.74, 0.00, 378.99
359.45, 0.29, 378.73
359.41, 0.54, 378.70
359.42, 0.78, 378.70
359.42, 1.03, 378.70
359.62, 1.26, 378.87
359.03, 1.53, 378.36
359.02, 1.77, 378.35
359.75, 2.00, 378.98
359.80, 2.25, 379.02
359.84, 2.50, 379.06
359.88, 2.75, 379.10
349.13, 0.00, 369.62
349.32, 0.00, 369.78
349.52, 0.00, 369.96
349.74, 0.00, 370.15
349.98, 0.00, 370.35
350.24, 0.00, 370.57
350.53, 0.00, 370.81
350.83, 0.00, 371.07
351.07, 0.03, 371.27
351.31, 0.07, 371.48
351.57, 0.11, 371.70
351.94, 0.13, 372.02
352.34, 0.16, 372.36
352.79, 0.18, 372.74
353.62, 0.13, 373.45
354.76, 0.05, 374.42
355.92, 0.00, 375.40
357.00, 0.00, 376.32
358.30, 0.00, 377.43
359.89, 0.00, 378.79
360.87, 0.13, 379.62
359.53, 0.54, 378.48
359.53, 0.79, 378.48
359.54, 1.03, 378.48
359.60, 1.27, 378.54
359.50, 1.52, 378.44
¯359.50, 1.76, 378.44
359.49, 2.00, 378.44
360.06, 2.25, 378.92
360.11, 2.50, 378.96
360.15, 2.75, 378.99
349.18, 0.00, 369.56
349.37, 0.00, 369.72
349.58, 0.00, 369.89
349.80, 0.00, 370.08
350.04, 0.00, 370.28
350.30, 0.00, 370.50
350.59, 0.00, 370.74
350.90, 0.00, 370.99
351.17, 0.02, 371.22
351.42, 0.06, 371.42
351.72, 0.09, 371.67
352.09, 0.11, 371.99
352.51, 0.13, 372.33
352.97, 0.16, 372.71
353.66, 0.15, 373.29
354.86, 0.05, 374.28
356.03, 0.00, 375.26
357.12, 0.00, 376.16
358.43, 0.00, 377.26
360.04, 0.00, 378.59
360.68, 0.17, 379.12
359.30, 0.58, 377.98
359.32, 0.82, 377.99
358.95, 1.08, 377.68
358.95, 1.32, 377.68
359.32, 1.53, 377.98
359.32, 1.77, 377.98
359.32, 2.01, 377.98
359.32, 2.24, 377.98
359.33, 2.48, 377.98
359.34, 2.72, 377.99
349.22, 0.00, 369.50
349.42, 0.00, 369.66
349.63, 0.00, 369.83
349.85, 0.00, 370.01
350.10, 0.00, 370.21
350.36, 0.00, 370.42
350.65, 0.00, 370.66
350.96, 0.00, 370.91
351.27, 0.01, 371.16
351.52, 0.05, 371.37
351.86, 0.07, 371.64
352.25, 0.09, 371.96
352.68, 0.11, 372.30
353.15, 0.13, 372.69
353.76, 0.14, 373.18
¯355.03, 0.04, 374.21
356.14, 0.00, 375.11
357.24, 0.00, 376.00
358.57, 0.00, 377.08
360.19, 0.00, 378.39
360.70, 0.19, 378.81
359.44, 0.58, 377.78
358.79, 0.88, 377.25
358.79, 1.11, 377.25
358.79, 1.33, 377.25
358.79, 1.56, 377.24
359.06, 1.78, 377.46
359.38, 2.01, 377.72
359.35, 2.24, 377.70
359.33, 2.48, 377.68
359.09, 2.70, 377.48
349.27, 0.00, 369.44
349.47, 0.00, 369.60
349.68, 0.00, 369.77
349.90, 0.00, 369.95
350.15, 0.00, 370.14
350.42, 0.00, 370.35
350.71, 0.00, 370.58
351.03, 0.00, 370.83
351.37, 0.00, 371.10
351.65, 0.03, 371.32
352.01, 0.05, 371.61
352.40, 0.07, 371.92
352.78, 0.11, 372.22
353.19, 0.14, 372.54
353.90, 0.13, 373.10
355.20, 0.02, 374.13
356.25, 0.00, 374.96
357.36, 0.00, 375.84
358.70, 0.00, 376.90
360.33, 0.00, 378.19
361.00, 0.17, 378.71
360.83, 0.45, 378.58
359.02, 0.87, 377.14
358.81, 1.11, 376.98
358.85, 1.34, 377.01
359.36, 1.54, 377.41
358.93, 1.79, 377.07
358.93, 2.01, 377.07
358.93, 2.24, 377.07
358.93, 2.46, 377.06
358.93, 2.69, 377.06
349.32, 0.00, 369.38
349.51, 0.00, 369.54
349.73, 0.00, 369.70
349.96, 0.00, 369.88
¯350.20, 0.00, 370.07
350.47, 0.00, 370.28
350.77, 0.00, 370.50
351.09, 0.00, 370.75
351.44, 0.00, 371.02
351.77, 0.02, 371.27
352.09, 0.05, 371.52
352.44, 0.08, 371.79
352.82, 0.12, 372.08
353.23, 0.15, 372.40
354.03, 0.12, 373.02
355.37, 0.01, 374.05
356.36, 0.00, 374.81
357.48, 0.00, 375.68
358.83, 0.00, 376.71
360.48, 0.00, 377.99
362.55, 0.00, 379.58
359.10, 0.87, 376.92
358.86, 1.12, 376.73
358.86, 1.34, 376.73
358.90, 1.57, 376.76
358.93, 1.79, 376.79
358.98, 2.01, 376.82
359.03, 2.24, 376.85
359.02, 2.46, 376.85
359.01, 2.69, 376.84
349.36, 0.00, 369.32
349.56, 0.00, 369.47
349.77, 0.00, 369.63
350.01, 0.00, 369.81
350.26, 0.00, 370.00
350.53, 0.00, 370.20
350.82, 0.00, 370.42
351.15, 0.00, 370.67
351.50, 0.00, 370.93
351.80, 0.03, 371.16
352.12, 0.06, 371.40
352.47, 0.09, 371.66
352.85, 0.13, 371.95
353.27, 0.16, 372.26
354.15, 0.12, 372.92
355.51, 0.00, 373.94
356.46, 0.00, 374.66
357.59, 0.00, 375.51
358.95, 0.00, 376.53
360.62, 0.00, 377.78
362.70, 0.00, 379.35
359.56, 0.84, 376.98
359.00, 1.12, 376.56
358.97, 1.34, 376.54
359.13, 1.56, 376.65
¯359.18, 1.78, 376.69
359.23, 2.01, 376.72
359.28, 2.24, 376.76
349.40, 0.00, 369.26
349.61, 0.00, 369.41
349.82, 0.00, 369.57
350.06, 0.00, 369.74
350.31, 0.00, 369.92
350.58, 0.00, 370.12
350.88, 0.00, 370.34
351.21, 0.00, 370.58
351.56, 0.00, 370.84
351.84, 0.03, 371.05
352.16, 0.07, 371.28
352.51, 0.10, 371.53
352.89, 0.13, 371.81
353.30, 0.17, 372.12
354.26, 0.11, 372.82
355.61, 0.00, 373.80
356.57, 0.00, 374.51
357.71, 0.00, 375.34
359.08, 0.00, 376.35
360.75, 0.00, 377.58
362.86, 0.00, 379.12
349.45, 0.00, 369.20
349.65, 0.00, 369.34
349.87, 0.00, 369.50
350.10, 0.00, 369.67
350.36, 0.00, 369.85
350.64, 0.00, 370.05
350.94, 0.00, 370.26
351.27, 0.00, 370.50
351.61, 0.01, 370.74
351.89, 0.04, 370.94
352.19, 0.07, 371.16
352.54, 0.11, 371.41
352.92, 0.14, 371.68
353.34, 0.18, 371.97
354.36, 0.11, 372.71
355.70, 0.00, 373.66
356.67, 0.00, 374.36
357.82, 0.00, 375.18
359.20, 0.00, 376.16
360.89, 0.00, 377.37
363.01, 0.00, 378.88
349.49, 0.00, 369.14
349.69, 0.00, 369.28
349.92, 0.00, 369.43
350.15, 0.00, 369.60
350.41, 0.00, 369.78
350.69, 0.00, 369.97
¯350.99, 0.00, 370.18
351.32, 0.00, 370.41
351.65, 0.01, 370.64
351.93, 0.04, 370.83
352.23, 0.08, 371.04
352.58, 0.12, 371.28
352.95, 0.15, 371.55
353.37, 0.19, 371.83
354.47, 0.10, 372.60
355.79, 0.00, 373.52
356.77, 0.00, 374.20
357.93, 0.00, 375.01
359.32, 0.00, 375.97
361.02, 0.00, 377.16
363.15, 0.00, 378.64
349.53, 0.00, 369.07
349.74, 0.00, 369.21
349.96, 0.00, 369.36
350.20, 0.00, 369.53
350.46, 0.00, 369.70
350.74, 0.00, 369.89
351.04, 0.00, 370.10
351.38, 0.00, 370.32
351.69, 0.02, 370.54
351.97, 0.05, 370.73
352.28, 0.09, 370.93
352.61, 0.13, 371.16
352.99, 0.16, 371.41
353.40, 0.20, 371.69
354.57, 0.10, 372.49
355.88, 0.00, 373.38
356.87, 0.00, 374.04
358.03, 0.00, 374.83
359.43, 0.00, 375.78
361.15, 0.00, 376.94
363.29, 0.00, 378.40
349.57, 0.00, 369.01
349.78, 0.00, 369.15
350.00, 0.00, 369.29
350.25, 0.00, 369.45
350.51, 0.00, 369.63
350.79, 0.00, 369.81
351.10, 0.00, 370.02
351.43, 0.00, 370.24
351.73, 0.02, 370.44
352.02, 0.06, 370.62
352.32, 0.09, 370.82
352.64, 0.13, 371.04
353.02, 0.17, 371.28
353.43, 0.21, 371.55
354.67, 0.09, 372.37
¯355.97, 0.00, 373.23
356.96, 0.00, 373.89
358.14, 0.00, 374.66
359.54, 0.00, 375.59
361.27, 0.00, 376.73
363.43, 0.00, 378.16
349.61, 0.00, 368.95
349.82, 0.00, 369.08
350.05, 0.00, 369.23
350.29, 0.00, 369.38
350.55, 0.00, 369.55
350.84, 0.00, 369.73
351.15, 0.00, 369.93
351.49, 0.00, 370.15
351.77, 0.03, 370.33
352.06, 0.06, 370.52
352.36, 0.10, 370.71
352.69, 0.14, 370.92
353.05, 0.18, 371.15
353.46, 0.22, 371.41
354.74, 0.09, 372.24
356.06, 0.00, 373.09
357.06, 0.00, 373.73
358.24, 0.00, 374.49
359.66, 0.00, 375.40
361.39, 0.00, 376.52
363.57, 0.00, 377.92
349.65, 0.00, 368.88
349.86, 0.00, 369.01
350.09, 0.00, 369.16
350.33, 0.00, 369.31
350.60, 0.00, 369.47
350.89, 0.00, 369.65
351.20, 0.00, 369.85
351.54, 0.00, 370.06
351.81, 0.03, 370.23
352.10, 0.06, 370.41
352.40, 0.10, 370.60
352.73, 0.14, 370.80
353.08, 0.19, 371.02
353.48, 0.23, 371.28
354.77, 0.10, 372.08
356.09, 0.01, 372.91
357.15, 0.00, 373.57
358.34, 0.00, 374.31
359.76, 0.00, 375.21
361.51, 0.00, 376.30
363.70, 0.00, 377.67
349.69, 0.00, 368.82
349.90, 0.00, 368.95
350.13, 0.00, 369.08
¯350.38, 0.00, 369.23
350.64, 0.00, 369.40
350.93, 0.00, 369.57
351.25, 0.00, 369.76
351.58, 0.00, 369.97
351.85, 0.03, 370.13
352.13, 0.07, 370.30
352.44, 0.11, 370.49
352.77, 0.15, 370.69
353.12, 0.19, 370.90
353.51, 0.24, 371.14
354.80, 0.11, 371.93
356.11, 0.02, 372.72
357.24, 0.00, 373.41
358.43, 0.00, 374.14
359.87, 0.00, 375.01
361.63, 0.00, 376.08
363.83, 0.00, 377.42
349.73, 0.00, 368.75
349.94, 0.00, 368.88
350.17, 0.00, 369.01
350.42, 0.00, 369.16
350.69, 0.00, 369.32
350.98, 0.00, 369.49
351.30, 0.00, 369.68
351.62, 0.01, 369.87
351.89, 0.04, 370.03
352.17, 0.07, 370.20
352.48, 0.11, 370.38
352.81, 0.15, 370.57
353.16, 0.19, 370.78
353.61, 0.23, 371.05
354.83, 0.12, 371.77
356.12, 0.03, 372.54
357.32, 0.00, 373.25
358.53, 0.00, 373.96
359.97, 0.00, 374.82
361.74, 0.00, 375.86
363.96, 0.00, 377.18
349.76, 0.00, 368.68
349.98, 0.00, 368.81
350.21, 0.00, 368.94
350.46, 0.00, 369.09
350.73, 0.00, 369.24
351.02, 0.00, 369.41
351.34, 0.00, 369.59
351.65, 0.01, 369.77
351.92, 0.04, 369.93
352.21, 0.08, 370.09
352.51, 0.12, 370.27
352.84, 0.16, 370.46
¯353.25, 0.19, 370.69
353.75, 0.21, 370.98
354.86, 0.13, 371.61
356.13, 0.05, 372.35
357.41, 0.00, 373.08
358.62, 0.00, 373.78
360.07, 0.00, 374.62
361.85, 0.00, 375.64
363.36, 0.08, 376.51
349.80, 0.00, 368.62
350.02, 0.00, 368.74
350.25, 0.00, 368.87
350.50, 0.00, 369.01
350.77, 0.00, 369.16
351.07, 0.00, 369.33
351.39, 0.00, 369.51
351.69, 0.02, 369.67
351.96, 0.05, 369.82
352.24, 0.08, 369.98
352.55, 0.12, 370.16
352.93, 0.15, 370.37
353.35, 0.18, 370.60
353.89, 0.19, 370.91
354.88, 0.14, 371.46
356.14, 0.06, 372.17
357.49, 0.00, 372.92
358.71, 0.00, 373.60
357.49, 0.37, 372.92
357.41, 0.57, 372.87
357.40, 0.75, 372.87
357.40, 0.94, 372.86
357.40, 1.12, 372.86
357.40, 1.30, 372.86
357.40, 1.49, 372.86
357.40, 1.67, 372.86
357.40, 1.85, 372.85
357.44, 2.03, 372.88
349.84, 0.00, 368.55
350.05, 0.00, 368.67
350.29, 0.00, 368.80
350.54, 0.00, 368.94
350.82, 0.00, 369.08
351.11, 0.00, 369.24
351.43, 0.00, 369.42
351.72, 0.02, 369.58
351.99, 0.05, 369.72
352.28, 0.09, 369.88
352.63, 0.11, 370.07
353.02, 0.14, 370.28
353.45, 0.17, 370.52
354.03, 0.18, 370.83
¯354.90, 0.15, 371.30
356.15, 0.07, 371.98
357.57, 0.00, 372.76
357.62, 0.18, 372.78
357.38, 0.40, 372.65
357.35, 0.59, 372.63
357.35, 0.77, 372.63
357.35, 0.95, 372.63
357.35, 1.13, 372.63
357.35, 1.31, 372.63
357.35, 1.49, 372.62
357.35, 1.67, 372.62
357.35, 1.85, 372.62
357.38, 2.03, 372.63
357.51, 2.21, 372.71
365.64, 2.52, 377.12
365.64, 2.82, 377.12
349.87, 0.00, 368.48
350.09, 0.00, 368.60
350.33, 0.00, 368.72
350.58, 0.00, 368.86
350.86, 0.00, 369.00
351.15, 0.00, 369.16
351.48, 0.00, 369.33
351.75, 0.02, 369.48
352.02, 0.06, 369.62
352.35, 0.08, 369.79
352.72, 0.10, 369.99
353.12, 0.13, 370.20
353.57, 0.15, 370.43
354.17, 0.16, 370.76
354.91, 0.16, 371.14
356.15, 0.08, 371.80
357.65, 0.00, 372.59
357.57, 0.20, 372.55
357.43, 0.40, 372.47
357.40, 0.59, 372.46
357.41, 0.77, 372.46
357.41, 0.95, 372.45
357.41, 1.13, 372.45
357.41, 1.31, 372.45
357.41, 1.49, 372.45
357.41, 1.67, 372.45
357.41, 1.85, 372.45
357.43, 2.03, 372.46
357.55, 2.21, 372.52
366.10, 2.52, 377.03
366.11, 2.82, 377.03
349.90, 0.00, 368.42
350.12, 0.00, 368.53
350.36, 0.00, 368.65
¯350.62, 0.00, 368.78
350.89, 0.00, 368.92
351.19, 0.00, 369.08
351.52, 0.00, 369.25
351.79, 0.03, 369.38
352.10, 0.05, 369.54
352.44, 0.07, 369.71
352.81, 0.09, 369.91
353.22, 0.12, 370.11
353.70, 0.14, 370.36
354.32, 0.14, 370.68
355.02, 0.15, 371.04
356.25, 0.08, 371.67
357.73, 0.00, 372.42
358.96, 0.00, 373.06
357.56, 0.40, 372.34
357.53, 0.58, 372.32
357.54, 0.76, 372.32
357.54, 0.95, 372.32
357.54, 1.13, 372.32
357.54, 1.31, 372.32
357.54, 1.49, 372.32
357.54, 1.67, 372.32
357.54, 1.85, 372.32
357.57, 2.03, 372.33
357.74, 2.21, 372.41
349.94, 0.00, 368.35
350.16, 0.00, 368.46
350.40, 0.00, 368.58
350.65, 0.00, 368.71
350.93, 0.00, 368.84
351.23, 0.00, 368.99
351.56, 0.00, 369.16
351.85, 0.02, 369.30
352.18, 0.04, 369.46
352.52, 0.06, 369.63
352.90, 0.08, 369.82
353.31, 0.11, 370.03
353.83, 0.12, 370.28
354.46, 0.12, 370.60
355.18, 0.13, 370.95
356.35, 0.07, 371.54
357.80, 0.00, 372.26
359.04, 0.00, 372.88
360.54, 0.00, 373.62
357.82, 0.56, 372.26
357.82, 0.74, 372.26
357.83, 0.92, 372.26
357.83, 1.11, 372.26
357.84, 1.29, 372.27
357.84, 1.48, 372.27
¯357.85, 1.66, 372.27
357.86, 1.84, 372.27
349.97, 0.00, 368.28
350.19, 0.00, 368.39
350.43, 0.00, 368.50
350.69, 0.00, 368.63
350.97, 0.00, 368.76
351.27, 0.00, 368.91
351.60, 0.00, 369.07
351.93, 0.01, 369.22
352.25, 0.03, 369.38
352.61, 0.05, 369.55
352.99, 0.07, 369.74
353.41, 0.10, 369.94
353.96, 0.10, 370.20
354.60, 0.11, 370.51
355.28, 0.12, 370.84
356.46, 0.06, 371.41
357.87, 0.00, 372.09
359.12, 0.00, 372.69
360.62, 0.00, 373.41
362.45, 0.00, 374.30
364.75, 0.00, 375.40
350.00, 0.00, 368.21
350.22, 0.00, 368.32
350.46, 0.00, 368.43
350.72, 0.00, 368.55
351.01, 0.00, 368.68
351.31, 0.00, 368.82
351.64, 0.00, 368.98
352.00, 0.00, 369.15
352.33, 0.02, 369.30
352.69, 0.04, 369.47
353.08, 0.06, 369.65
353.50, 0.09, 369.85
354.09, 0.09, 370.12
354.75, 0.09, 370.43
355.27, 0.13, 370.67
356.56, 0.06, 371.27
357.94, 0.00, 371.92
359.20, 0.00, 372.51
360.70, 0.00, 373.21
362.54, 0.00, 374.07
364.84, 0.00, 375.14
350.03, 0.00, 368.14
350.25, 0.00, 368.24
350.50, 0.00, 368.35
350.76, 0.00, 368.47
351.04, 0.00, 368.60
351.35, 0.00, 368.74
351.68, 0.00, 368.89
¯352.05, 0.00, 369.05
352.41, 0.01, 369.22
352.77, 0.03, 369.38
353.17, 0.05, 369.56
353.62, 0.07, 369.77
354.22, 0.07, 370.04
354.78, 0.09, 370.29
355.26, 0.15, 370.50
356.66, 0.05, 371.14
358.01, 0.00, 371.75
359.27, 0.00, 372.32
360.78, 0.00, 373.00
362.63, 0.00, 373.84
364.94, 0.00, 374.88
350.06, 0.00, 368.07
350.28, 0.00, 368.17
350.53, 0.00, 368.28
350.79, 0.00, 368.39
351.07, 0.00, 368.52
351.38, 0.00, 368.65
351.72, 0.00, 368.80
352.08, 0.00, 368.96
352.49, 0.00, 369.14
352.86, 0.02, 369.30
353.26, 0.04, 369.47
353.74, 0.05, 369.68
354.33, 0.05, 369.94
354.77, 0.10, 370.13
355.24, 0.16, 370.34
356.64, 0.06, 370.95
358.07, 0.00, 371.58
359.34, 0.00, 372.13
360.86, 0.00, 372.80
362.71, 0.00, 373.61
365.03, 0.00, 374.62
350.09, 0.00, 368.00
350.31, 0.00, 368.10
350.56, 0.00, 368.20
350.82, 0.00, 368.31
351.11, 0.00, 368.44
351.42, 0.00, 368.57
351.75, 0.00, 368.71
352.12, 0.00, 368.86
352.53, 0.00, 369.03
352.94, 0.01, 369.21
353.34, 0.03, 369.38
353.86, 0.04, 369.60
354.33, 0.07, 369.80
354.76, 0.12, 369.98
355.23, 0.17, 370.18
356.57, 0.09, 370.75
¯358.14, 0.00, 371.41
359.41, 0.00, 371.95
360.93, 0.00, 372.59
362.79, 0.00, 373.38
365.12, 0.00, 374.36
350.11, 0.00, 367.93
350.34, 0.00, 368.03
350.59, 0.00, 368.13
350.85, 0.00, 368.24
351.14, 0.00, 368.35
351.45, 0.00, 368.48
351.79, 0.00, 368.62
352.16, 0.00, 368.77
352.56, 0.00, 368.93
353.01, 0.00, 369.12
353.43, 0.02, 369.29
353.92, 0.03, 369.49
354.32, 0.08, 369.65
354.75, 0.13, 369.83
355.22, 0.18, 370.02
356.50, 0.11, 370.54
358.20, 0.00, 371.24
359.47, 0.00, 371.76
361.00, 0.00, 372.38
362.87, 0.00, 373.15
365.20, 0.00, 374.10
350.14, 0.00, 367.86
350.37, 0.00, 367.95
350.62, 0.00, 368.05
350.88, 0.00, 368.16
351.17, 0.00, 368.27
351.48, 0.00, 368.39
351.82, 0.00, 368.53
352.19, 0.00, 368.67
352.60, 0.00, 368.83
353.05, 0.00, 369.01
353.52, 0.01, 369.20
353.92, 0.04, 369.35
354.31, 0.09, 369.51
354.74, 0.14, 369.68
355.20, 0.19, 369.86
356.42, 0.13, 370.34
358.24, 0.00, 371.06
359.54, 0.00, 371.57
361.07, 0.00, 372.17
362.94, 0.00, 372.91
365.29, 0.00, 373.84
350.17, 0.00, 367.79
350.40, 0.00, 367.88
350.64, 0.00, 367.97
350.91, 0.00, 368.08
¯351.20, 0.00, 368.19
351.51, 0.00, 368.30
351.85, 0.00, 368.43
352.23, 0.00, 368.58
352.64, 0.00, 368.73
353.09, 0.00, 368.90
353.56, 0.01, 369.08
353.91, 0.05, 369.22
354.30, 0.10, 369.37
354.73, 0.15, 369.53
355.19, 0.20, 369.70
356.34, 0.15, 370.14
358.21, 0.02, 370.85
359.60, 0.00, 371.38
361.14, 0.00, 371.97
363.02, 0.00, 372.68
365.36, 0.00, 373.57
350.19, 0.00, 367.72
350.42, 0.00, 367.81
350.67, 0.00, 367.90
350.94, 0.00, 368.00
351.23, 0.00, 368.10
351.54, 0.00, 368.22
351.89, 0.00, 368.34
352.26, 0.00, 368.48
352.67, 0.00, 368.63
353.12, 0.00, 368.80
353.58, 0.01, 368.96
353.92, 0.06, 369.09
354.29, 0.11, 369.22
354.72, 0.16, 369.38
355.17, 0.21, 369.55
356.26, 0.17, 369.94
358.18, 0.03, 370.65
359.65, 0.00, 371.19
361.20, 0.00, 371.76
363.08, 0.00, 372.45
365.44, 0.00, 373.31
350.21, 0.00, 367.65
350.45, 0.00, 367.73
350.70, 0.00, 367.82
350.97, 0.00, 367.91
351.26, 0.00, 368.02
351.57, 0.00, 368.13
351.92, 0.00, 368.25
352.29, 0.00, 368.38
352.70, 0.00, 368.53
353.16, 0.00, 368.69
353.61, 0.01, 368.85
353.94, 0.06, 368.96
354.30, 0.12, 369.09
¯354.70, 0.17, 369.23
355.16, 0.23, 369.39
356.21, 0.19, 369.76
358.15, 0.04, 370.45
359.71, 0.00, 371.00
361.26, 0.00, 371.54
363.15, 0.00, 372.21
365.51, 0.00, 373.04
350.24, 0.00, 367.58
350.47, 0.00, 367.66
350.72, 0.00, 367.74
350.99, 0.00, 367.83
351.28, 0.00, 367.93
351.60, 0.00, 368.04
351.95, 0.00, 368.16
352.32, 0.00, 368.28
352.74, 0.00, 368.42
353.19, 0.00, 368.58
353.63, 0.02, 368.73
353.96, 0.07, 368.84
354.32, 0.12, 368.96
354.70, 0.18, 369.09
355.14, 0.24, 369.24
356.15, 0.21, 369.58
358.11, 0.06, 370.25
359.76, 0.00, 370.81
361.32, 0.00, 371.33
363.21, 0.00, 371.98
365.58, 0.00, 372.78
350.26, 0.00, 367.51
350.49, 0.00, 367.58
350.74, 0.00, 367.66
351.02, 0.00, 367.75
351.31, 0.00, 367.85
351.63, 0.00, 367.95
351.97, 0.00, 368.06
352.35, 0.00, 368.19
352.77, 0.00, 368.32
353.22, 0.00, 368.47
353.65, 0.02, 368.61
353.98, 0.07, 368.72
354.34, 0.12, 368.83
354.72, 0.18, 368.96
355.14, 0.24, 369.09
356.10, 0.22, 369.40
358.08, 0.07, 370.05
359.81, 0.00, 370.62
361.37, 0.00, 371.12
363.27, 0.00, 371.74
365.64, 0.00, 372.51
350.28, 0.00, 367.43
¯350.51, 0.00, 367.51
350.77, 0.00, 367.59
351.04, 0.00, 367.67
351.33, 0.00, 367.76
351.65, 0.00, 367.86
352.00, 0.00, 367.97
352.38, 0.00, 368.09
352.79, 0.00, 368.22
353.25, 0.00, 368.36
353.67, 0.02, 368.49
354.00, 0.07, 368.59
354.36, 0.13, 368.71
354.74, 0.18, 368.82
355.16, 0.25, 368.95
356.03, 0.24, 369.23
358.04, 0.08, 369.85
359.86, 0.00, 370.42
361.42, 0.00, 370.91
363.32, 0.00, 371.50
365.70, 0.00, 372.24
350.30, 0.00, 367.36
350.54, 0.00, 367.43
350.79, 0.00, 367.51
351.06, 0.00, 367.59
351.36, 0.00, 367.68
351.68, 0.00, 367.77
352.03, 0.00, 367.88
352.41, 0.00, 367.99
352.82, 0.00, 368.11
353.28, 0.00, 368.25
353.68, 0.03, 368.37
354.02, 0.08, 368.47
354.38, 0.13, 368.58
354.76, 0.19, 368.69
355.19, 0.24, 368.82
356.12, 0.23, 369.10
358.04, 0.09, 369.67
359.91, 0.00, 370.23
361.47, 0.00, 370.70
363.38, 0.00, 371.27
365.53, 0.02, 371.91
365.55, 0.29, 371.91
365.56, 0.56, 371.91
365.59, 0.83, 371.92
365.59, 1.10, 371.92
365.59, 1.37, 371.92
365.59, 1.65, 371.91
365.59, 1.92, 371.91
365.59, 2.19, 371.91
365.59, 2.46, 371.91
365.59, 2.73, 371.90
¯350.32, 0.00, 367.29
350.56, 0.00, 367.36
350.81, 0.00, 367.43
351.08, 0.00, 367.51
351.38, 0.00, 367.59
351.70, 0.00, 367.68
352.05, 0.00, 367.78
352.43, 0.00, 367.89
352.85, 0.00, 368.01
353.31, 0.00, 368.14
353.70, 0.03, 368.25
354.04, 0.08, 368.35
354.39, 0.13, 368.45
354.78, 0.19, 368.56
355.32, 0.23, 368.71
356.35, 0.20, 369.01
358.10, 0.08, 369.51
359.95, 0.00, 370.04
361.52, 0.00, 370.48
361.61, 0.21, 370.51
361.61, 0.43, 370.51
361.61, 0.65, 370.50
361.61, 0.87, 370.50
361.61, 1.09, 370.50
361.61, 1.31, 370.50
361.61, 1.53, 370.50
361.61, 1.75, 370.49
361.61, 1.97, 370.49
361.61, 2.19, 370.49
361.61, 2.40, 370.49
361.61, 2.62, 370.49
350.34, 0.00, 367.22
350.57, 0.00, 367.28
350.83, 0.00, 367.35
351.10, 0.00, 367.42
351.40, 0.00, 367.51
351.72, 0.00, 367.59
352.07, 0.00, 367.69
352.45, 0.00, 367.79
352.87, 0.00, 367.91
353.34, 0.00, 368.03
353.72, 0.03, 368.14
354.05, 0.08, 368.23
354.41, 0.13, 368.32
354.82, 0.19, 368.43
355.44, 0.21, 368.60
356.58, 0.17, 368.91
358.17, 0.08, 369.35
359.99, 0.00, 369.84
361.56, 0.00, 370.27
363.47, 0.00, 370.79
¯365.86, 0.00, 371.44
366.79, 0.19, 371.69
366.80, 0.47, 371.69
366.90, 0.75, 371.72
366.91, 1.04, 371.72
366.92, 1.32, 371.72
366.93, 1.61, 371.72
366.94, 1.89, 371.72
366.95, 2.18, 371.72
366.96, 2.47, 371.72
366.97, 2.75, 371.72
350.35, 0.00, 367.14
350.59, 0.00, 367.20
350.85, 0.00, 367.27
351.12, 0.00, 367.34
351.42, 0.00, 367.42
351.74, 0.00, 367.50
352.09, 0.00, 367.59
352.48, 0.00, 367.69
352.90, 0.00, 367.80
353.36, 0.00, 367.92
353.73, 0.03, 368.02
354.07, 0.08, 368.10
354.43, 0.14, 368.20
354.93, 0.17, 368.33
355.62, 0.18, 368.51
356.82, 0.13, 368.82
358.23, 0.08, 369.18
360.03, 0.00, 369.65
361.60, 0.00, 370.06
363.52, 0.00, 370.55
365.90, 0.00, 371.17
350.37, 0.00, 367.07
350.61, 0.00, 367.13
350.87, 0.00, 367.19
351.14, 0.00, 367.26
351.44, 0.00, 367.33
351.76, 0.00, 367.41
352.11, 0.00, 367.50
352.50, 0.00, 367.59
352.92, 0.00, 367.70
353.39, 0.00, 367.81
353.75, 0.04, 367.90
354.08, 0.09, 367.98
354.47, 0.13, 368.08
355.04, 0.15, 368.22
355.82, 0.15, 368.41
357.03, 0.10, 368.71
358.32, 0.07, 369.03
360.07, 0.00, 369.46
361.64, 0.00, 369.84
¯363.56, 0.00, 370.32
365.95, 0.00, 370.90
350.39, 0.00, 367.00
350.63, 0.00, 367.05
350.88, 0.00, 367.11
351.16, 0.00, 367.18
351.46, 0.00, 367.25
351.78, 0.00, 367.32
352.13, 0.00, 367.40
352.52, 0.00, 367.49
352.94, 0.00, 367.59
353.41, 0.00, 367.70
353.76, 0.04, 367.78
354.10, 0.09, 367.86
354.57, 0.12, 367.97
355.16, 0.14, 368.11
356.03, 0.12, 368.31
357.07, 0.10, 368.55
358.42, 0.05, 368.87
360.10, 0.00, 369.26
361.67, 0.00, 369.63
363.59, 0.00, 370.08
365.99, 0.00, 370.63
350.40, 0.00, 366.92
350.64, 0.00, 366.98
350.90, 0.00, 367.03
351.18, 0.00, 367.09
351.48, 0.00, 367.16
351.80, 0.00, 367.23
352.15, 0.00, 367.31
352.54, 0.00, 367.39
352.96, 0.00, 367.49
353.43, 0.00, 367.59
353.78, 0.04, 367.67
354.14, 0.08, 367.74
354.67, 0.10, 367.86
355.27, 0.12, 367.99
356.24, 0.09, 368.21
357.11, 0.10, 368.40
358.53, 0.04, 368.71
360.08, 0.01, 369.06
361.71, 0.00, 369.41
363.63, 0.00, 369.84
366.02, 0.00, 370.37
350.42, 0.00, 366.85
350.66, 0.00, 366.90
350.91, 0.00, 366.95
351.19, 0.00, 367.01
351.49, 0.00, 367.07
351.82, 0.00, 367.14
352.17, 0.00, 367.21
¯352.56, 0.00, 367.29
352.98, 0.00, 367.38
353.45, 0.00, 367.48
353.79, 0.04, 367.55
354.23, 0.07, 367.64
354.77, 0.08, 367.75
355.38, 0.10, 367.88
356.42, 0.06, 368.09
357.16, 0.09, 368.25
358.62, 0.03, 368.55
359.97, 0.03, 368.83
361.74, 0.00, 369.20
363.66, 0.00, 369.60
366.05, 0.00, 370.10
368.65, 0.04, 370.63
368.65, 0.35, 370.63
368.65, 0.65, 370.63
368.65, 0.95, 370.63
368.65, 1.26, 370.62
368.65, 1.56, 370.62
368.65, 1.86, 370.62
368.65, 2.17, 370.61
368.65, 2.47, 370.61
368.65, 2.77, 370.61
350.43, 0.00, 366.78
350.67, 0.00, 366.82
350.93, 0.00, 366.87
351.21, 0.00, 366.93
351.51, 0.00, 366.99
351.83, 0.00, 367.05
352.19, 0.00, 367.12
352.57, 0.00, 367.19
353.00, 0.00, 367.28
353.47, 0.00, 367.37
353.82, 0.04, 367.44
354.32, 0.05, 367.53
354.88, 0.07, 367.64
355.51, 0.08, 367.76
356.45, 0.06, 367.95
357.20, 0.09, 368.09
358.66, 0.03, 368.38
359.86, 0.04, 368.61
361.75, 0.00, 368.98
363.69, 0.00, 369.36
366.08, 0.00, 369.83
350.44, 0.00, 366.70
350.68, 0.00, 366.75
350.94, 0.00, 366.79
351.22, 0.00, 366.84
351.52, 0.00, 366.90
351.85, 0.00, 366.96
