ŸVERSION 0.7
FIELDS x y z
SIZE 8 8 8
TYPE F F F
COUNT 1 1 1
WIDTH 2271
HEIGHT 1
VIEWPOINT 430.04, 14.92, 247.42 1 410.19, 9.52, 245.98
POINTS 2271
DATA ascii
402.90, 7.04, 242.63
402.48, 7.03, 242.44
402.03, 7.03, 242.23
401.52, 7.02, 242.00
400.96, 7.01, 241.74
400.33, 6.99, 241.46
399.64, 6.99, 241.14
398.85, 6.98, 240.79
397.96, 6.97, 240.38
397.02, 6.98, 239.95
395.83, 6.97, 239.41
394.54, 6.97, 238.83
393.33, 7.03, 238.28
391.41, 7.02, 237.40
391.16, 7.25, 237.29
391.16, 7.52, 237.29
391.16, 7.79, 237.30
391.16, 8.05, 237.30
391.15, 8.32, 237.30
390.58, 8.55, 237.04
390.58, 8.83, 237.04
405.54, 7.24, 243.91
405.33, 7.23, 243.82
¯405.10, 7.23, 243.72
404.86, 7.22, 243.61
404.60, 7.21, 243.50
404.32, 7.21, 243.37
404.01, 7.20, 243.24
403.24, 7.05, 242.89
402.86, 7.04, 242.73
402.43, 7.03, 242.54
401.98, 7.02, 242.34
401.47, 7.02, 242.12
400.91, 7.00, 241.87
400.27, 6.99, 241.59
399.58, 6.99, 241.28
398.79, 6.98, 240.93
397.89, 6.97, 240.54
396.91, 6.97, 240.11
395.73, 6.96, 239.59
394.52, 6.98, 239.05
393.31, 7.03, 238.53
391.46, 7.04, 237.71
390.98, 7.24, 237.50
390.97, 7.51, 237.50
390.97, 7.78, 237.50
390.97, 8.04, 237.51
390.39, 8.27, 237.25
390.39, 8.55, 237.25
390.38, 8.82, 237.26
405.51, 7.24, 243.97
405.30, 7.23, 243.88
405.07, 7.22, 243.79
404.82, 7.22, 243.68
404.56, 7.21, 243.57
404.28, 7.21, 243.45
403.98, 7.20, 243.32
403.65, 7.19, 243.18
402.81, 7.04, 242.82
402.38, 7.03, 242.64
401.93, 7.02, 242.45
401.42, 7.01, 242.23
400.86, 7.00, 241.99
400.22, 6.99, 241.72
399.52, 6.99, 241.42
398.72, 6.97, 241.08
397.82, 6.97, 240.70
396.81, 6.96, 240.27
395.70, 6.97, 239.80
394.50, 6.99, 239.28
393.30, 7.04, 238.77
391.52, 7.05, 238.01
388.75, 7.00, 236.84
390.20, 7.72, 237.46
¯390.20, 7.99, 237.46
390.20, 8.27, 237.47
390.19, 8.54, 237.47
390.10, 8.81, 237.43
405.48, 7.23, 244.04
405.27, 7.23, 243.95
405.04, 7.22, 243.86
404.79, 7.22, 243.76
404.53, 7.21, 243.65
404.25, 7.20, 243.53
403.94, 7.20, 243.41
403.61, 7.19, 243.27
402.77, 7.04, 242.92
402.34, 7.03, 242.74
401.88, 7.02, 242.56
401.37, 7.01, 242.35
400.81, 7.00, 242.11
400.17, 6.99, 241.85
399.46, 6.98, 241.56
398.65, 6.97, 241.23
397.75, 6.96, 240.86
396.73, 6.96, 240.44
395.68, 6.97, 240.00
394.48, 7.00, 239.51
393.23, 7.04, 239.00
391.54, 7.07, 238.30
388.75, 7.01, 237.15
390.01, 7.71, 237.68
390.00, 7.98, 237.68
390.00, 8.26, 237.68
390.00, 8.53, 237.69
405.45, 7.23, 244.10
405.24, 7.23, 244.02
405.01, 7.22, 243.93
404.76, 7.22, 243.83
404.50, 7.21, 243.73
404.22, 7.20, 243.61
403.91, 7.20, 243.49
403.58, 7.19, 243.36
403.21, 7.18, 243.22
402.29, 7.02, 242.85
401.83, 7.02, 242.66
401.32, 7.01, 242.46
400.76, 7.00, 242.24
400.12, 6.99, 241.98
399.40, 6.98, 241.70
398.59, 6.97, 241.37
397.69, 6.96, 241.02
396.66, 6.96, 240.61
395.65, 6.98, 240.21
394.46, 7.00, 239.74
¯392.80, 6.99, 239.08
391.29, 7.04, 238.48
388.75, 7.02, 237.47
388.76, 7.31, 237.47
388.76, 7.61, 237.48
388.76, 7.90, 237.48
388.76, 8.19, 237.48
388.76, 8.48, 237.49
388.76, 8.77, 237.49
388.76, 9.06, 237.49
388.76, 9.35, 237.50
405.43, 7.23, 244.17
405.21, 7.23, 244.09
404.98, 7.22, 244.00
404.73, 7.21, 243.90
404.47, 7.21, 243.80
404.18, 7.20, 243.69
403.87, 7.19, 243.58
403.54, 7.19, 243.45
403.18, 7.18, 243.31
402.25, 7.02, 242.95
401.79, 7.02, 242.77
401.28, 7.01, 242.58
400.70, 7.00, 242.36
400.07, 6.99, 242.11
399.34, 6.98, 241.84
398.52, 6.97, 241.52
397.62, 6.96, 241.18
396.59, 6.95, 240.78
395.60, 6.98, 240.40
394.44, 7.01, 239.96
392.47, 6.96, 239.20
391.05, 7.02, 238.66
388.75, 7.03, 237.78
388.76, 7.32, 237.78
388.76, 7.61, 237.79
388.76, 7.90, 237.79
388.76, 8.19, 237.79
388.75, 8.48, 237.79
388.74, 8.77, 237.79
388.73, 9.06, 237.79
388.72, 9.35, 237.79
405.40, 7.23, 244.24
405.18, 7.23, 244.16
404.95, 7.22, 244.07
404.70, 7.21, 243.98
404.44, 7.21, 243.88
404.15, 7.20, 243.77
403.84, 7.19, 243.66
403.51, 7.19, 243.54
403.14, 7.18, 243.40
¯402.21, 7.02, 243.06
401.74, 7.01, 242.88
401.23, 7.01, 242.69
400.66, 7.00, 242.48
400.01, 6.99, 242.25
399.29, 6.98, 241.98
398.46, 6.96, 241.67
397.56, 6.96, 241.34
396.52, 6.95, 240.96
395.54, 6.98, 240.59
394.36, 7.01, 240.16
392.25, 6.93, 239.38
390.84, 7.00, 238.86
388.75, 7.04, 238.09
405.37, 7.23, 244.30
405.16, 7.22, 244.23
404.92, 7.22, 244.14
404.68, 7.21, 244.05
404.41, 7.21, 243.96
404.12, 7.20, 243.86
403.81, 7.19, 243.75
403.47, 7.19, 243.63
403.10, 7.18, 243.50
402.69, 7.17, 243.35
401.70, 7.01, 243.00
401.18, 7.00, 242.81
400.61, 7.00, 242.61
399.96, 6.99, 242.38
399.23, 6.97, 242.12
398.40, 6.96, 241.82
397.50, 6.96, 241.50
396.46, 6.95, 241.13
395.48, 6.98, 240.79
394.00, 6.96, 240.26
392.02, 6.91, 239.55
390.63, 6.99, 239.06
388.75, 7.05, 238.39
405.35, 7.23, 244.37
405.13, 7.22, 244.29
404.90, 7.22, 244.22
404.65, 7.21, 244.13
404.38, 7.21, 244.04
404.09, 7.20, 243.94
403.78, 7.19, 243.83
403.44, 7.19, 243.72
403.07, 7.18, 243.59
402.65, 7.17, 243.45
401.66, 7.01, 243.11
401.14, 7.00, 242.93
400.56, 6.99, 242.73
399.91, 6.98, 242.51
¯399.18, 6.97, 242.26
398.35, 6.96, 241.97
397.44, 6.95, 241.66
396.41, 6.95, 241.31
395.43, 6.98, 240.98
393.72, 6.93, 240.39
391.83, 6.89, 239.75
390.24, 6.95, 239.20
388.75, 7.05, 238.70
405.33, 7.23, 244.44
405.10, 7.22, 244.36
404.87, 7.22, 244.29
404.62, 7.21, 244.21
404.35, 7.20, 244.12
404.06, 7.20, 244.02
403.75, 7.19, 243.92
403.41, 7.18, 243.81
403.03, 7.18, 243.68
402.62, 7.16, 243.55
401.62, 7.01, 243.22
401.10, 7.00, 243.05
400.51, 6.99, 242.86
399.86, 6.98, 242.64
399.13, 6.97, 242.40
398.30, 6.96, 242.13
397.38, 6.95, 241.83
396.36, 6.95, 241.49
395.35, 6.98, 241.16
393.43, 6.89, 240.53
391.64, 6.88, 239.94
389.83, 6.91, 239.35
388.75, 7.06, 239.00
405.30, 7.23, 244.50
405.08, 7.22, 244.43
404.85, 7.22, 244.36
404.60, 7.21, 244.28
404.33, 7.20, 244.20
404.03, 7.20, 244.10
403.72, 7.19, 244.01
403.38, 7.18, 243.90
403.00, 7.17, 243.78
402.58, 7.16, 243.65
402.12, 7.15, 243.50
401.05, 7.00, 243.17
400.47, 6.99, 242.98
399.81, 6.98, 242.78
399.08, 6.97, 242.54
398.24, 6.96, 242.28
397.33, 6.95, 241.99
396.31, 6.95, 241.67
395.22, 6.96, 241.33
¯393.13, 6.86, 240.67
391.45, 6.86, 240.14
389.78, 6.91, 239.62
388.75, 7.07, 239.30
405.28, 7.23, 244.57
405.06, 7.22, 244.50
404.83, 7.21, 244.43
404.57, 7.21, 244.36
404.30, 7.20, 244.28
404.01, 7.19, 244.19
403.69, 7.19, 244.09
403.35, 7.18, 243.99
402.97, 7.17, 243.87
402.55, 7.16, 243.75
402.09, 7.15, 243.61
401.01, 7.00, 243.28
400.43, 6.99, 243.11
399.77, 6.98, 242.91
399.03, 6.96, 242.69
398.19, 6.95, 242.43
397.27, 6.95, 242.16
396.26, 6.95, 241.85
395.10, 6.95, 241.50
393.06, 6.85, 240.89
391.38, 6.86, 240.38
389.80, 6.92, 239.90
388.75, 7.07, 239.59
405.26, 7.23, 244.64
405.04, 7.22, 244.58
404.80, 7.21, 244.51
404.55, 7.21, 244.44
404.27, 7.20, 244.35
403.98, 7.19, 244.27
403.67, 7.19, 244.18
403.32, 7.18, 244.08
402.94, 7.17, 243.97
402.51, 7.16, 243.85
402.06, 7.15, 243.72
400.98, 6.99, 243.40
400.39, 6.99, 243.23
399.73, 6.97, 243.04
398.98, 6.96, 242.83
398.14, 6.95, 242.59
397.22, 6.95, 242.32
396.19, 6.94, 242.02
394.98, 6.94, 241.68
393.07, 6.86, 241.13
391.39, 6.87, 240.64
389.82, 6.93, 240.19
388.75, 7.08, 239.89
405.24, 7.22, 244.71
¯405.02, 7.22, 244.65
404.78, 7.21, 244.58
404.53, 7.21, 244.51
404.25, 7.20, 244.44
403.96, 7.19, 244.35
403.64, 7.19, 244.27
403.29, 7.18, 244.17
402.91, 7.17, 244.07
402.48, 7.16, 243.95
402.03, 7.15, 243.82
401.52, 7.14, 243.69
400.35, 6.98, 243.36
399.68, 6.97, 243.18
398.93, 6.96, 242.97
398.10, 6.95, 242.74
397.17, 6.94, 242.49
396.08, 6.93, 242.19
394.86, 6.93, 241.85
393.08, 6.87, 241.36
391.41, 6.88, 240.91
389.84, 6.94, 240.47
388.75, 7.09, 240.18
405.22, 7.22, 244.78
405.00, 7.22, 244.72
404.76, 7.21, 244.66
404.51, 7.21, 244.59
404.23, 7.20, 244.52
403.93, 7.19, 244.44
403.62, 7.19, 244.36
403.26, 7.18, 244.26
402.88, 7.17, 244.16
402.45, 7.16, 244.05
402.00, 7.15, 243.93
401.49, 7.14, 243.80
400.31, 6.98, 243.49
399.64, 6.97, 243.31
398.89, 6.96, 243.12
398.05, 6.95, 242.90
397.12, 6.94, 242.65
396.02, 6.93, 242.37
394.74, 6.92, 242.03
393.09, 6.88, 241.60
391.43, 6.89, 241.17
389.86, 6.94, 240.75
388.75, 7.09, 240.47
405.20, 7.22, 244.84
404.98, 7.22, 244.79
404.74, 7.21, 244.73
404.48, 7.20, 244.67
404.20, 7.20, 244.60
403.91, 7.19, 244.52
¯403.59, 7.18, 244.44
403.24, 7.18, 244.36
402.85, 7.17, 244.26
402.43, 7.16, 244.15
401.97, 7.15, 244.04
401.46, 7.14, 243.91
400.27, 6.98, 243.62
399.60, 6.97, 243.45
398.85, 6.96, 243.26
398.01, 6.95, 243.05
397.08, 6.94, 242.82
395.97, 6.93, 242.55
394.63, 6.91, 242.21
393.11, 6.89, 241.84
391.46, 6.90, 241.42
389.88, 6.95, 241.03
388.75, 7.10, 240.75
405.18, 7.22, 244.91
404.96, 7.22, 244.86
404.72, 7.21, 244.81
404.46, 7.20, 244.74
404.18, 7.20, 244.68
403.89, 7.19, 244.61
403.57, 7.18, 244.53
403.21, 7.17, 244.45
402.82, 7.16, 244.36
402.40, 7.15, 244.26
401.94, 7.15, 244.15
401.43, 7.14, 244.03
400.86, 7.13, 243.89
399.57, 6.97, 243.59
398.81, 6.95, 243.41
397.97, 6.94, 243.21
397.03, 6.94, 242.99
395.92, 6.92, 242.73
394.58, 6.90, 242.41
393.13, 6.90, 242.07
391.48, 6.91, 241.68
389.90, 6.96, 241.31
388.75, 7.10, 241.04
387.77, 7.29, 240.81
387.97, 8.46, 240.86
387.92, 8.74, 240.85
405.17, 7.22, 244.98
404.94, 7.22, 244.93
404.70, 7.21, 244.88
404.44, 7.20, 244.82
404.16, 7.19, 244.76
403.87, 7.19, 244.69
403.55, 7.18, 244.62
403.19, 7.17, 244.54
¯402.80, 7.16, 244.45
402.38, 7.15, 244.36
401.91, 7.14, 244.26
401.40, 7.14, 244.14
400.83, 7.12, 244.02
399.53, 6.96, 243.72
398.77, 6.95, 243.56
397.93, 6.94, 243.37
396.99, 6.94, 243.16
395.87, 6.92, 242.91
394.54, 6.90, 242.61
393.12, 6.90, 242.30
391.51, 6.91, 241.94
389.70, 6.94, 241.53
388.75, 7.11, 241.32
387.86, 7.30, 241.13
387.67, 7.57, 241.09
387.67, 7.87, 241.09
387.67, 8.16, 241.09
387.69, 8.45, 241.10
387.69, 8.74, 241.10
405.15, 7.22, 245.05
404.93, 7.21, 245.01
404.69, 7.21, 244.96
404.42, 7.20, 244.90
404.15, 7.19, 244.84
403.85, 7.19, 244.78
403.52, 7.18, 244.71
403.16, 7.17, 244.63
402.77, 7.16, 244.55
402.35, 7.15, 244.46
401.89, 7.14, 244.37
401.37, 7.13, 244.26
400.80, 7.12, 244.14
399.49, 6.96, 243.86
398.73, 6.95, 243.70
397.89, 6.94, 243.53
396.95, 6.93, 243.33
395.82, 6.92, 243.09
394.51, 6.90, 242.81
393.08, 6.90, 242.51
391.53, 6.92, 242.19
389.08, 6.87, 241.67
388.75, 7.11, 241.61
387.63, 7.28, 241.37
387.41, 8.44, 241.33
387.40, 8.73, 241.33
405.14, 7.22, 245.12
404.91, 7.21, 245.08
404.67, 7.21, 245.03
404.40, 7.20, 244.98
¯404.13, 7.19, 244.92
403.83, 7.19, 244.86
403.50, 7.18, 244.80
403.14, 7.17, 244.73
402.75, 7.16, 244.65
402.33, 7.15, 244.57
401.87, 7.14, 244.48
401.35, 7.13, 244.37
400.78, 7.12, 244.26
400.13, 7.11, 244.13
398.70, 6.95, 243.85
397.85, 6.94, 243.68
396.91, 6.93, 243.50
395.77, 6.92, 243.27
394.48, 6.90, 243.02
393.04, 6.90, 242.73
391.49, 6.92, 242.43
388.75, 6.84, 241.89
388.75, 7.12, 241.89
405.12, 7.22, 245.19
404.90, 7.21, 245.15
404.66, 7.21, 245.11
404.39, 7.20, 245.06
404.11, 7.19, 245.01
403.81, 7.19, 244.95
403.48, 7.18, 244.89
403.12, 7.17, 244.82
402.73, 7.16, 244.75
402.31, 7.15, 244.67
401.84, 7.14, 244.59
401.33, 7.13, 244.49
400.75, 7.12, 244.38
400.10, 7.11, 244.26
398.66, 6.95, 244.00
397.82, 6.94, 243.84
396.87, 6.93, 243.67
395.73, 6.91, 243.46
394.45, 6.90, 243.22
392.99, 6.90, 242.95
391.44, 6.92, 242.66
388.75, 6.84, 242.17
388.75, 7.12, 242.17
405.11, 7.22, 245.26
404.88, 7.21, 245.22
404.64, 7.21, 245.18
404.37, 7.20, 245.14
404.10, 7.19, 245.09
403.80, 7.19, 245.04
403.46, 7.18, 244.98
403.10, 7.17, 244.92
402.71, 7.16, 244.85
¯402.29, 7.15, 244.78
401.82, 7.14, 244.70
401.30, 7.13, 244.61
400.73, 7.12, 244.51
400.08, 7.11, 244.40
398.63, 6.94, 244.15
397.79, 6.94, 244.00
396.83, 6.93, 243.84
395.71, 6.91, 243.64
394.42, 6.90, 243.42
392.94, 6.90, 243.17
391.40, 6.92, 242.90
388.75, 6.85, 242.44
388.75, 7.12, 242.45
388.75, 7.40, 242.45
388.75, 7.67, 242.45
388.75, 7.95, 242.45
388.75, 8.22, 242.45
388.75, 8.50, 242.45
388.75, 8.77, 242.46
388.75, 9.05, 242.46
388.75, 9.32, 242.46
405.10, 7.22, 245.33
404.87, 7.21, 245.30
404.63, 7.20, 245.26
404.36, 7.20, 245.21
404.08, 7.19, 245.17
403.78, 7.18, 245.12
403.45, 7.17, 245.07
403.08, 7.17, 245.01
402.69, 7.16, 244.95
402.27, 7.15, 244.88
401.80, 7.14, 244.81
401.28, 7.13, 244.72
400.70, 7.12, 244.63
400.05, 7.11, 244.53
399.32, 7.09, 244.41
397.76, 6.93, 244.16
396.80, 6.93, 244.01
395.68, 6.91, 243.83
394.39, 6.90, 243.62
392.90, 6.90, 243.38
391.29, 6.91, 243.13
388.75, 6.85, 242.72
388.75, 7.13, 242.72
388.75, 7.40, 242.72
388.75, 7.68, 242.73
388.75, 7.95, 242.73
388.75, 8.23, 242.73
388.75, 8.50, 242.73
388.75, 8.77, 242.73
¯388.75, 9.04, 242.73
388.75, 9.32, 242.74
405.09, 7.22, 245.40
404.86, 7.21, 245.37
404.61, 7.20, 245.33
404.35, 7.20, 245.29
404.07, 7.19, 245.25
403.77, 7.18, 245.21
403.43, 7.17, 245.16
403.07, 7.16, 245.11
402.68, 7.16, 245.05
402.25, 7.15, 244.99
401.78, 7.14, 244.92
401.26, 7.13, 244.84
400.68, 7.12, 244.75
400.03, 7.10, 244.66
399.30, 7.09, 244.55
397.73, 6.93, 244.32
396.77, 6.92, 244.18
395.66, 6.91, 244.01
394.37, 6.90, 243.82
392.86, 6.89, 243.60
391.16, 6.90, 243.35
388.52, 6.83, 242.96
387.42, 6.99, 242.80
405.07, 7.22, 245.47
404.85, 7.21, 245.44
404.60, 7.20, 245.41
404.33, 7.19, 245.37
404.06, 7.19, 245.34
403.75, 7.18, 245.29
403.42, 7.17, 245.25
403.05, 7.16, 245.20
402.66, 7.16, 245.15
402.24, 7.15, 245.09
401.77, 7.14, 245.03
401.24, 7.13, 244.96
400.66, 7.12, 244.88
400.01, 7.10, 244.79
399.28, 7.09, 244.69
397.71, 6.93, 244.48
396.75, 6.92, 244.35
395.63, 6.91, 244.20
394.34, 6.90, 244.03
392.82, 6.89, 243.82
391.04, 6.88, 243.58
388.55, 6.83, 243.25
387.19, 6.97, 243.06
405.06, 7.22, 245.54
404.84, 7.21, 245.52
404.59, 7.20, 245.49
¯404.32, 7.19, 245.45
404.04, 7.19, 245.42
403.74, 7.18, 245.38
403.40, 7.17, 245.34
403.04, 7.16, 245.30
402.65, 7.15, 245.25
402.22, 7.15, 245.20
401.75, 7.14, 245.14
401.23, 7.13, 245.07
400.64, 7.11, 245.00
399.99, 7.10, 244.92
399.26, 7.09, 244.83
398.44, 7.08, 244.73
396.73, 6.92, 244.52
395.61, 6.91, 244.39
394.31, 6.90, 244.23
392.78, 6.89, 244.04
390.92, 6.87, 243.81
388.58, 6.84, 243.53
386.85, 6.93, 243.32
405.06, 7.21, 245.61
404.83, 7.21, 245.59
404.58, 7.20, 245.56
404.31, 7.19, 245.53
404.03, 7.19, 245.50
403.72, 7.18, 245.47
403.39, 7.17, 245.43
403.02, 7.16, 245.39
402.64, 7.15, 245.35
402.21, 7.15, 245.30
401.73, 7.14, 245.25
401.21, 7.13, 245.19
400.62, 7.11, 245.13
399.97, 7.10, 245.06
399.24, 7.09, 244.98
398.42, 7.08, 244.89
396.71, 6.92, 244.70
395.60, 6.91, 244.57
394.27, 6.90, 244.43
392.74, 6.89, 244.26
390.80, 6.86, 244.05
388.61, 6.85, 243.81
386.45, 6.89, 243.57
405.05, 7.21, 245.69
404.82, 7.21, 245.66
404.57, 7.20, 245.64
404.30, 7.19, 245.61
404.02, 7.19, 245.59
403.71, 7.18, 245.56
403.38, 7.17, 245.52
403.01, 7.16, 245.49
¯402.62, 7.15, 245.45
402.20, 7.14, 245.41
401.72, 7.14, 245.36
401.20, 7.12, 245.31
400.61, 7.11, 245.25
399.95, 7.10, 245.19
399.22, 7.09, 245.12
398.41, 7.08, 245.04
396.70, 6.92, 244.87
395.58, 6.91, 244.76
394.24, 6.90, 244.63
392.71, 6.88, 244.48
390.73, 6.85, 244.29
388.64, 6.85, 244.08
386.31, 6.88, 243.86
405.04, 7.21, 245.76
404.81, 7.21, 245.74
404.56, 7.20, 245.72
404.29, 7.19, 245.69
404.01, 7.19, 245.67
403.70, 7.18, 245.64
403.37, 7.17, 245.61
403.00, 7.16, 245.58
402.61, 7.15, 245.55
402.19, 7.14, 245.51
401.71, 7.13, 245.47
401.19, 7.12, 245.43
400.59, 7.11, 245.38
399.94, 7.10, 245.32
399.21, 7.09, 245.26
398.39, 7.08, 245.19
397.48, 7.07, 245.11
395.57, 6.91, 244.95
394.22, 6.89, 244.83
392.68, 6.88, 244.70
390.71, 6.85, 244.53
388.57, 6.85, 244.35
386.38, 6.89, 244.17
405.03, 7.21, 245.83
404.80, 7.21, 245.81
404.55, 7.20, 245.79
404.29, 7.19, 245.77
404.01, 7.19, 245.75
403.69, 7.18, 245.73
403.36, 7.17, 245.71
402.99, 7.16, 245.68
402.60, 7.15, 245.65
402.18, 7.14, 245.62
401.70, 7.13, 245.58
401.17, 7.12, 245.55
400.58, 7.11, 245.50
¯399.93, 7.10, 245.45
399.20, 7.09, 245.40
398.38, 7.08, 245.34
397.47, 7.07, 245.28
395.55, 6.91, 245.14
394.19, 6.89, 245.04
392.65, 6.88, 244.92
390.70, 6.85, 244.78
388.53, 6.84, 244.62
386.65, 6.92, 244.49
405.03, 7.21, 245.90
404.80, 7.21, 245.88
404.54, 7.20, 245.87
404.28, 7.19, 245.85
404.00, 7.18, 245.84
403.68, 7.18, 245.82
403.35, 7.17, 245.80
402.99, 7.16, 245.77
402.60, 7.15, 245.75
402.17, 7.14, 245.72
401.69, 7.13, 245.70
401.16, 7.12, 245.66
400.57, 7.11, 245.63
399.91, 7.10, 245.59
399.18, 7.09, 245.54
398.37, 7.07, 245.49
397.46, 7.07, 245.44
395.53, 6.91, 245.32
394.17, 6.89, 245.24
392.62, 6.88, 245.15
390.68, 6.85, 245.03
388.50, 6.84, 244.90
386.67, 6.92, 244.78
386.59, 8.40, 244.78
405.03, 7.21, 245.97
404.79, 7.20, 245.96
404.54, 7.20, 245.95
404.28, 7.19, 245.93
403.99, 7.18, 245.92
403.68, 7.17, 245.90
403.34, 7.17, 245.89
402.98, 7.16, 245.87
402.59, 7.15, 245.85
402.16, 7.14, 245.83
401.68, 7.13, 245.81
401.15, 7.12, 245.78
400.56, 7.11, 245.75
399.90, 7.10, 245.72
399.17, 7.08, 245.69
398.36, 7.07, 245.65
397.45, 7.07, 245.60
¯396.40, 7.06, 245.55
394.15, 6.89, 245.44
392.60, 6.87, 245.37
390.68, 6.85, 245.27
388.47, 6.84, 245.17
386.68, 6.92, 245.08
405.02, 7.21, 246.04
404.79, 7.20, 246.03
404.53, 7.20, 246.02
404.27, 7.19, 246.01
403.99, 7.18, 246.00
403.67, 7.17, 245.99
403.33, 7.16, 245.98
402.98, 7.16, 245.97
402.58, 7.15, 245.95
402.15, 7.14, 245.94
401.68, 7.13, 245.92
401.14, 7.12, 245.90
400.55, 7.11, 245.88
399.90, 7.09, 245.86
399.17, 7.08, 245.83
398.35, 7.07, 245.80
397.44, 7.07, 245.77
396.38, 7.06, 245.73
394.13, 6.89, 245.65
392.57, 6.87, 245.59
390.67, 6.85, 245.52
388.43, 6.83, 245.44
386.32, 6.89, 245.36
405.02, 7.21, 246.11
404.78, 7.20, 246.11
404.53, 7.19, 246.10
404.27, 7.19, 246.09
403.98, 7.18, 246.09
403.67, 7.17, 246.08
403.33, 7.16, 246.07
402.97, 7.16, 246.06
402.58, 7.15, 246.05
402.15, 7.14, 246.04
401.67, 7.13, 246.03
401.14, 7.12, 246.02
400.55, 7.11, 246.01
399.89, 7.09, 245.99
399.16, 7.08, 245.97
398.35, 7.07, 245.95
397.43, 7.07, 245.93
396.37, 7.06, 245.91
394.11, 6.88, 245.85
392.55, 6.87, 245.81
390.66, 6.85, 245.77
388.41, 6.83, 245.71
¯386.31, 6.89, 245.66
405.02, 7.21, 246.18
404.78, 7.20, 246.18
404.53, 7.19, 246.18
404.27, 7.19, 246.17
403.98, 7.18, 246.17
403.66, 7.17, 246.17
403.33, 7.16, 246.16
402.97, 7.16, 246.16
402.58, 7.15, 246.16
402.14, 7.14, 246.15
401.67, 7.13, 246.14
401.13, 7.12, 246.14
400.54, 7.11, 246.13
399.89, 7.09, 246.12
399.15, 7.08, 246.11
398.34, 7.07, 246.11
397.43, 7.07, 246.09
396.36, 7.05, 246.08
394.09, 6.88, 246.06
392.54, 6.87, 246.04
390.66, 6.85, 246.02
388.38, 6.83, 245.99
405.02, 7.21, 246.26
404.78, 7.20, 246.26
404.53, 7.19, 246.26
404.26, 7.19, 246.26
403.97, 7.18, 246.26
403.66, 7.17, 246.26
403.32, 7.16, 246.26
402.97, 7.16, 246.26
402.57, 7.15, 246.26
402.14, 7.14, 246.26
401.66, 7.13, 246.26
401.13, 7.12, 246.26
400.54, 7.10, 246.26
399.88, 7.09, 246.26
399.14, 7.08, 246.26
398.34, 7.07, 246.26
397.43, 7.06, 246.26
396.36, 7.05, 246.26
395.07, 7.03, 246.26
392.52, 6.86, 246.26
390.65, 6.85, 246.26
388.36, 6.83, 246.26
405.01, 7.21, 246.33
404.78, 7.20, 246.33
404.52, 7.19, 246.33
404.26, 7.19, 246.34
403.97, 7.18, 246.34
403.66, 7.17, 246.34
¯403.32, 7.16, 246.35
402.97, 7.16, 246.35
402.57, 7.15, 246.36
402.14, 7.14, 246.36
401.66, 7.13, 246.37
401.13, 7.12, 246.38
400.54, 7.10, 246.38
399.88, 7.09, 246.39
399.14, 7.08, 246.40
398.34, 7.07, 246.41
397.43, 7.06, 246.42
396.35, 7.05, 246.44
395.06, 7.03, 246.45
392.51, 6.86, 246.49
390.64, 6.84, 246.51
388.34, 6.82, 246.54
405.01, 7.21, 246.40
404.78, 7.20, 246.40
404.53, 7.19, 246.41
404.26, 7.19, 246.42
403.97, 7.18, 246.42
403.66, 7.17, 246.43
403.32, 7.16, 246.44
402.97, 7.15, 246.45
402.57, 7.15, 246.46
402.14, 7.14, 246.47
401.66, 7.13, 246.48
401.12, 7.11, 246.49
400.54, 7.10, 246.51
399.88, 7.09, 246.53
399.14, 7.08, 246.54
398.34, 7.07, 246.56
397.43, 7.06, 246.59
396.35, 7.05, 246.61
395.05, 7.03, 246.65
392.50, 6.86, 246.71
390.62, 6.84, 246.76
388.33, 6.82, 246.81
405.02, 7.21, 246.47
404.78, 7.20, 246.48
404.53, 7.19, 246.49
404.26, 7.19, 246.50
403.97, 7.18, 246.51
403.66, 7.17, 246.52
403.33, 7.16, 246.53
402.97, 7.15, 246.55
402.58, 7.15, 246.56
402.14, 7.14, 246.58
401.66, 7.13, 246.59
401.13, 7.11, 246.61
400.54, 7.10, 246.64
¯399.88, 7.09, 246.66
399.15, 7.08, 246.69
398.34, 7.07, 246.72
397.43, 7.06, 246.75
396.35, 7.05, 246.79
395.05, 7.03, 246.84
393.58, 7.01, 246.89
390.61, 6.84, 247.00
388.31, 6.82, 247.09
405.02, 7.21, 246.54
404.78, 7.20, 246.55
404.53, 7.19, 246.56
404.27, 7.19, 246.58
403.97, 7.18, 246.59
403.66, 7.17, 246.61
403.33, 7.16, 246.62
402.97, 7.15, 246.64
402.58, 7.15, 246.66
402.14, 7.14, 246.68
401.67, 7.13, 246.71
401.13, 7.11, 246.73
400.54, 7.10, 246.76
399.89, 7.09, 246.79
399.15, 7.08, 246.83
398.35, 7.07, 246.87
397.43, 7.06, 246.92
396.35, 7.05, 246.97
395.05, 7.03, 247.03
393.57, 7.01, 247.11
390.61, 6.84, 247.25
388.45, 6.83, 247.36
405.02, 7.21, 246.61
404.78, 7.20, 246.63
404.53, 7.19, 246.64
404.27, 7.19, 246.66
403.98, 7.18, 246.68
403.66, 7.17, 246.70
403.33, 7.16, 246.72
402.98, 7.15, 246.74
402.58, 7.15, 246.76
402.15, 7.14, 246.79
401.67, 7.13, 246.82
401.13, 7.11, 246.85
400.54, 7.10, 246.89
399.89, 7.09, 246.93
399.16, 7.08, 246.97
398.35, 7.07, 247.02
397.44, 7.06, 247.08
396.35, 7.05, 247.15
395.05, 7.02, 247.23
393.57, 7.01, 247.32
¯390.60, 6.84, 247.50
388.62, 6.85, 247.62
388.35, 7.10, 247.64
388.35, 7.37, 247.64
388.35, 7.65, 247.64
388.33, 7.93, 247.64
388.61, 8.22, 247.62
405.02, 7.21, 246.68
404.79, 7.20, 246.70
404.54, 7.19, 246.72
404.27, 7.18, 246.74
403.98, 7.18, 246.76
403.67, 7.17, 246.78
403.34, 7.16, 246.81
402.98, 7.15, 246.83
402.59, 7.14, 246.86
402.15, 7.14, 246.90
401.67, 7.12, 246.93
401.14, 7.11, 246.97
400.55, 7.10, 247.01
399.90, 7.09, 247.06
399.17, 7.08, 247.12
398.36, 7.07, 247.18
397.45, 7.06, 247.24
396.35, 7.05, 247.32
395.05, 7.02, 247.42
393.57, 7.01, 247.53
390.60, 6.83, 247.75
388.48, 6.83, 247.91
388.24, 8.20, 247.92
405.03, 7.21, 246.75
404.79, 7.20, 246.78
404.54, 7.19, 246.80
404.28, 7.18, 246.82
403.99, 7.18, 246.84
403.67, 7.17, 246.87
403.34, 7.16, 246.90
402.99, 7.15, 246.93
402.59, 7.14, 246.96
402.16, 7.13, 247.00
401.68, 7.12, 247.04
401.14, 7.11, 247.09
400.55, 7.10, 247.14
399.90, 7.09, 247.20
399.18, 7.08, 247.26
398.37, 7.07, 247.33
397.45, 7.06, 247.41
396.36, 7.04, 247.50
395.06, 7.02, 247.61
393.58, 7.01, 247.74
391.74, 6.98, 247.90
¯388.33, 6.81, 248.20
405.03, 7.21, 246.83
404.80, 7.20, 246.85
404.55, 7.19, 246.87
404.28, 7.18, 246.90
403.99, 7.17, 246.93
403.68, 7.17, 246.96
403.35, 7.16, 246.99
402.99, 7.15, 247.03
402.60, 7.14, 247.07
402.17, 7.13, 247.11
401.69, 7.12, 247.16
401.15, 7.11, 247.21
400.56, 7.10, 247.27
399.91, 7.09, 247.33
399.19, 7.08, 247.40
398.38, 7.07, 247.48
397.47, 7.06, 247.57
396.36, 7.04, 247.68
395.08, 7.02, 247.81
393.59, 7.01, 247.95
391.75, 6.98, 248.14
388.35, 6.81, 248.47
405.04, 7.21, 246.90
404.80, 7.20, 246.92
404.56, 7.19, 246.95
404.29, 7.18, 246.98
404.00, 7.17, 247.01
403.69, 7.17, 247.05
403.36, 7.16, 247.08
403.00, 7.15, 247.12
402.61, 7.14, 247.17
402.18, 7.13, 247.21
401.69, 7.12, 247.27
401.16, 7.11, 247.33
400.57, 7.10, 247.39
399.92, 7.09, 247.47
399.20, 7.08, 247.55
398.39, 7.07, 247.63
397.48, 7.06, 247.74
396.37, 7.04, 247.86
395.09, 7.02, 248.00
393.59, 7.00, 248.17
391.76, 6.98, 248.37
388.38, 6.81, 248.75
405.05, 7.21, 246.97
404.81, 7.20, 247.00
404.56, 7.19, 247.03
404.30, 7.18, 247.06
404.01, 7.17, 247.10
403.70, 7.16, 247.14
¯403.37, 7.16, 247.18
403.01, 7.15, 247.22
402.62, 7.14, 247.27
402.19, 7.13, 247.32
401.70, 7.12, 247.38
401.17, 7.11, 247.45
400.58, 7.10, 247.52
399.93, 7.09, 247.60
399.21, 7.08, 247.69
398.41, 7.07, 247.79
397.49, 7.06, 247.90
396.38, 7.04, 248.04
395.11, 7.02, 248.19
393.61, 7.00, 248.38
391.78, 6.98, 248.60
388.41, 6.81, 249.02
405.05, 7.21, 247.04
404.82, 7.20, 247.07
404.57, 7.19, 247.11
404.31, 7.18, 247.14
404.02, 7.17, 247.18
403.71, 7.16, 247.22
403.38, 7.16, 247.27
403.02, 7.15, 247.32
402.63, 7.14, 247.37
402.20, 7.13, 247.43
401.71, 7.12, 247.49
401.18, 7.11, 247.56
400.60, 7.10, 247.64
399.95, 7.09, 247.73
399.23, 7.08, 247.83
398.42, 7.07, 247.94
397.51, 7.06, 248.06
396.40, 7.04, 248.21
395.13, 7.02, 248.39
393.62, 7.00, 248.59
391.80, 6.98, 248.84
389.66, 6.96, 249.13
405.06, 7.21, 247.11
404.83, 7.20, 247.15
404.58, 7.19, 247.18
404.31, 7.18, 247.22
404.03, 7.17, 247.26
403.72, 7.16, 247.31
403.39, 7.16, 247.36
403.04, 7.15, 247.41
402.64, 7.14, 247.47
402.21, 7.13, 247.53
401.73, 7.12, 247.61
401.20, 7.11, 247.68
400.61, 7.10, 247.77
¯399.96, 7.08, 247.87
399.24, 7.08, 247.97
398.44, 7.07, 248.09
397.52, 7.06, 248.23
396.41, 7.04, 248.39
395.15, 7.02, 248.58
393.63, 7.00, 248.80
391.82, 6.97, 249.07
389.68, 6.96, 249.39
405.07, 7.21, 247.18
404.84, 7.20, 247.22
404.59, 7.19, 247.26
404.33, 7.18, 247.30
404.04, 7.17, 247.35
403.73, 7.16, 247.40
403.40, 7.16, 247.45
403.05, 7.15, 247.51
402.66, 7.14, 247.57
402.23, 7.13, 247.64
401.74, 7.12, 247.72
401.21, 7.11, 247.80
400.63, 7.10, 247.90
399.98, 7.08, 248.00
399.26, 7.08, 248.12
398.46, 7.07, 248.24
397.54, 7.06, 248.39
396.43, 7.04, 248.57
395.18, 7.02, 248.77
393.65, 7.00, 249.02
391.84, 6.97, 249.31
389.71, 6.96, 249.65
405.08, 7.20, 247.25
404.85, 7.20, 247.29
404.60, 7.19, 247.34
404.34, 7.18, 247.38
404.05, 7.17, 247.43
403.74, 7.16, 247.48
403.42, 7.16, 247.54
403.06, 7.15, 247.60
402.67, 7.14, 247.67
402.24, 7.13, 247.75
401.76, 7.12, 247.83
401.23, 7.11, 247.92
400.65, 7.10, 248.02
399.99, 7.08, 248.13
399.28, 7.07, 248.26
398.48, 7.07, 248.40
397.56, 7.06, 248.56
396.45, 7.03, 248.75
395.20, 7.02, 248.96
393.67, 7.00, 249.23
¯391.86, 6.97, 249.54
389.73, 6.95, 249.91
405.10, 7.20, 247.32
404.86, 7.20, 247.37
404.62, 7.19, 247.41
404.35, 7.18, 247.46
404.06, 7.17, 247.52
403.76, 7.16, 247.57
403.43, 7.16, 247.63
403.08, 7.15, 247.70
402.69, 7.14, 247.77
402.26, 7.13, 247.85
401.77, 7.12, 247.94
401.25, 7.11, 248.04
400.67, 7.10, 248.15
400.01, 7.08, 248.27
399.30, 7.07, 248.40
398.51, 7.07, 248.55
397.58, 7.05, 248.72
396.47, 7.03, 248.93
395.23, 7.02, 249.16
393.70, 6.99, 249.44
391.89, 6.97, 249.78
389.76, 6.95, 250.17
405.11, 7.20, 247.39
404.87, 7.20, 247.44
404.63, 7.19, 247.49
404.36, 7.18, 247.54
404.08, 7.17, 247.60
403.77, 7.16, 247.66
403.45, 7.16, 247.72
403.09, 7.15, 247.79
402.70, 7.14, 247.87
402.27, 7.13, 247.96
401.79, 7.12, 248.05
401.27, 7.11, 248.16
400.69, 7.10, 248.27
400.03, 7.08, 248.40
399.33, 7.07, 248.54
398.53, 7.07, 248.70
397.61, 7.05, 248.88
396.49, 7.03, 249.10
395.26, 7.02, 249.35
393.72, 6.99, 249.65
391.92, 6.97, 250.01
389.80, 6.95, 250.43
387.15, 6.93, 250.96
405.12, 7.20, 247.46
404.89, 7.20, 247.51
404.64, 7.19, 247.56
404.38, 7.18, 247.62
¯404.09, 7.17, 247.68
403.79, 7.16, 247.75
403.47, 7.16, 247.81
403.11, 7.15, 247.89
402.72, 7.14, 247.97
402.29, 7.13, 248.06
401.81, 7.12, 248.16
401.29, 7.11, 248.27
400.71, 7.10, 248.40
400.06, 7.08, 248.53
399.35, 7.07, 248.68
398.56, 7.07, 248.85
397.63, 7.05, 249.05
396.52, 7.03, 249.28
395.29, 7.02, 249.54
393.76, 6.99, 249.87
391.95, 6.97, 250.25
389.83, 6.95, 250.69
387.20, 6.93, 251.25
405.14, 7.20, 247.53
404.90, 7.20, 247.59
404.66, 7.19, 247.64
404.39, 7.18, 247.70
404.11, 7.17, 247.76
403.81, 7.16, 247.83
403.48, 7.16, 247.90
403.13, 7.15, 247.98
402.74, 7.14, 248.07
402.31, 7.13, 248.17
401.83, 7.12, 248.27
401.31, 7.11, 248.39
400.73, 7.10, 248.52
400.08, 7.08, 248.67
399.38, 7.07, 248.82
398.58, 7.06, 249.00
397.66, 7.05, 249.21
396.55, 7.03, 249.46
395.32, 7.02, 249.73
393.79, 6.99, 250.08
391.99, 6.97, 250.48
389.87, 6.95, 250.95
387.25, 6.93, 251.54
405.15, 7.20, 247.60
404.92, 7.20, 247.66
404.67, 7.19, 247.72
404.41, 7.18, 247.78
404.12, 7.17, 247.85
403.82, 7.16, 247.92
403.50, 7.16, 247.99
403.15, 7.15, 248.08
402.76, 7.14, 248.17
¯402.33, 7.13, 248.27
401.85, 7.12, 248.39
401.33, 7.11, 248.51
400.76, 7.09, 248.65
400.11, 7.08, 248.80
399.40, 7.07, 248.97
398.61, 7.06, 249.15
397.69, 7.05, 249.37
396.58, 7.03, 249.63
395.36, 7.02, 249.93
393.83, 6.99, 250.29
392.03, 6.97, 250.71
389.91, 6.95, 251.21
387.30, 6.93, 251.83
405.17, 7.20, 247.67
404.93, 7.20, 247.73
404.69, 7.19, 247.79
404.43, 7.18, 247.86
404.14, 7.17, 247.93
403.84, 7.16, 248.00
403.52, 7.16, 248.08
403.17, 7.15, 248.17
402.78, 7.14, 248.27
402.36, 7.13, 248.38
401.88, 7.12, 248.50
401.36, 7.11, 248.63
400.78, 7.09, 248.77
400.13, 7.08, 248.93
399.43, 7.07, 249.11
398.64, 7.06, 249.30
397.72, 7.05, 249.54
396.62, 7.03, 249.81
395.39, 7.02, 250.12
393.86, 6.99, 250.50
392.07, 6.97, 250.95
389.96, 6.95, 251.47
387.36, 6.93, 252.12
405.18, 7.20, 247.74
404.95, 7.20, 247.80
404.71, 7.19, 247.87
404.45, 7.18, 247.94
404.16, 7.17, 248.01
403.86, 7.16, 248.09
403.54, 7.16, 248.17
403.19, 7.15, 248.27
402.81, 7.14, 248.37
402.38, 7.13, 248.48
401.90, 7.12, 248.61
401.39, 7.11, 248.74
400.81, 7.09, 248.89
400.16, 7.08, 249.06
¯399.47, 7.07, 249.25
398.67, 7.06, 249.46
397.75, 7.05, 249.70
396.66, 7.03, 249.99
395.43, 7.02, 250.31
393.90, 6.99, 250.71
392.11, 6.97, 251.18
390.02, 6.95, 251.73
387.43, 6.93, 252.41
405.20, 7.20, 247.81
404.97, 7.20, 247.88
404.73, 7.19, 247.94
404.47, 7.18, 248.02
404.18, 7.17, 248.09
403.89, 7.16, 248.18
403.57, 7.16, 248.26
403.22, 7.15, 248.36
402.83, 7.14, 248.47
402.40, 7.13, 248.59
401.93, 7.12, 248.72
401.41, 7.11, 248.86
400.84, 7.09, 249.02
400.20, 7.08, 249.19
399.50, 7.07, 249.39
398.71, 7.06, 249.61
397.78, 7.05, 249.86
396.70, 7.03, 250.16
395.47, 7.02, 250.50
393.94, 6.99, 250.92
392.16, 6.96, 251.41
390.07, 6.95, 251.99
387.48, 6.93, 252.70
405.22, 7.20, 247.88
404.99, 7.20, 247.95
404.75, 7.19, 248.02
404.49, 7.18, 248.09
404.20, 7.17, 248.18
403.91, 7.16, 248.26
403.59, 7.16, 248.35
403.24, 7.15, 248.45
402.86, 7.14, 248.57
402.43, 7.13, 248.69
401.96, 7.12, 248.83
401.44, 7.11, 248.97
400.87, 7.09, 249.14
400.23, 7.08, 249.33
399.53, 7.07, 249.53
398.74, 7.06, 249.76
397.82, 7.05, 250.02
396.74, 7.03, 250.34
395.51, 7.02, 250.69
¯393.98, 6.99, 251.13
392.20, 6.96, 251.65
390.12, 6.95, 252.25
387.54, 6.93, 253.00
405.24, 7.20, 247.95
405.01, 7.20, 248.02
404.77, 7.19, 248.09
404.51, 7.18, 248.17
404.23, 7.17, 248.26
403.93, 7.16, 248.35
403.62, 7.16, 248.44
403.27, 7.15, 248.55
402.88, 7.14, 248.66
402.46, 7.13, 248.79
401.99, 7.12, 248.94
401.47, 7.11, 249.09
400.90, 7.09, 249.26
400.26, 7.08, 249.46
399.57, 7.07, 249.67
398.78, 7.06, 249.90
397.85, 7.05, 250.19
396.78, 7.03, 250.51
395.56, 7.01, 250.88
394.02, 6.98, 251.34
392.25, 6.96, 251.88
390.17, 6.95, 252.51
387.61, 6.93, 253.28
405.26, 7.21, 248.02
405.03, 7.20, 248.09
404.79, 7.19, 248.17
404.53, 7.18, 248.25
404.25, 7.17, 248.34
403.96, 7.16, 248.43
403.64, 7.16, 248.53
403.29, 7.15, 248.64
402.91, 7.14, 248.76
402.49, 7.13, 248.90
402.02, 7.12, 249.04
401.51, 7.11, 249.21
400.94, 7.09, 249.39
400.30, 7.08, 249.59
399.60, 7.07, 249.81
398.82, 7.06, 250.05
397.89, 7.05, 250.35
396.83, 7.03, 250.68
395.61, 7.01, 251.07
394.07, 6.98, 251.56
392.30, 6.96, 252.11
390.23, 6.95, 252.77
387.68, 6.93, 253.57
405.28, 7.21, 248.09
¯405.05, 7.20, 248.16
404.81, 7.19, 248.24
404.55, 7.18, 248.33
404.27, 7.17, 248.42
403.98, 7.16, 248.52
403.67, 7.16, 248.62
403.29, 7.14, 248.74
402.81, 7.10, 248.90
402.34, 7.08, 249.06
401.85, 7.06, 249.22
401.35, 7.06, 249.38
400.86, 7.07, 249.54
400.34, 7.08, 249.72
399.64, 7.07, 249.95
398.86, 7.06, 250.20
397.93, 7.05, 250.51
396.87, 7.03, 250.86
395.65, 7.01, 251.26
394.12, 6.98, 251.77
392.35, 6.96, 252.35
390.29, 6.95, 253.03
387.75, 6.93, 253.86
405.30, 7.21, 248.16
405.08, 7.20, 248.23
404.84, 7.19, 248.32
404.58, 7.18, 248.41
404.25, 7.15, 248.52
403.58, 7.02, 248.75
403.25, 7.01, 248.86
402.88, 7.00, 248.99
402.46, 6.99, 249.13
402.02, 6.98, 249.29
401.53, 6.97, 249.45
400.99, 6.95, 249.64
400.39, 6.94, 249.84
399.74, 6.93, 250.07
399.23, 6.97, 250.24
398.80, 7.04, 250.39
397.98, 7.04, 250.67
396.92, 7.03, 251.03
395.70, 7.01, 251.45
394.17, 6.98, 251.98
392.41, 6.96, 252.58
390.36, 6.95, 253.28
387.83, 6.93, 254.15
405.33, 7.21, 248.22
405.10, 7.20, 248.30
404.82, 7.17, 248.41
404.20, 7.03, 248.63
403.92, 7.02, 248.73
403.61, 7.02, 248.84
¯403.28, 7.01, 248.95
402.91, 7.00, 249.09
402.49, 6.99, 249.24
402.05, 6.98, 249.39
401.56, 6.97, 249.57
401.03, 6.95, 249.76
400.43, 6.94, 249.97
399.79, 6.93, 250.20
399.07, 6.93, 250.46
398.21, 6.91, 250.76
397.38, 6.92, 251.06
396.91, 7.02, 251.23
395.75, 7.01, 251.64
394.22, 6.98, 252.19
392.47, 6.96, 252.81
390.43, 6.95, 253.54
387.91, 6.93, 254.44
405.35, 7.21, 248.29
404.75, 7.04, 248.52
404.50, 7.04, 248.61
404.23, 7.03, 248.71
403.95, 7.03, 248.81
403.65, 7.02, 248.93
403.31, 7.01, 249.05
402.94, 7.00, 249.19
402.53, 6.99, 249.34
402.08, 6.98, 249.50
401.60, 6.97, 249.68
401.06, 6.95, 249.88
400.47, 6.94, 250.10
399.83, 6.93, 250.34
399.12, 6.93, 250.60
398.26, 6.91, 250.92
397.29, 6.89, 251.28
396.21, 6.88, 251.68
395.52, 6.96, 251.93
394.28, 6.98, 252.40
392.53, 6.96, 253.04
390.51, 6.95, 253.79
387.99, 6.93, 254.72
405.01, 7.05, 248.50
404.78, 7.05, 248.59
404.53, 7.04, 248.69
404.26, 7.03, 248.79
403.98, 7.03, 248.90
403.68, 7.02, 249.01
403.35, 7.01, 249.14
402.97, 7.00, 249.28
402.56, 6.99, 249.44
402.12, 6.98, 249.61
401.64, 6.97, 249.80
¯401.10, 6.95, 250.00
400.51, 6.94, 250.23
399.88, 6.94, 250.47
399.17, 6.93, 250.75
398.31, 6.91, 251.08
397.34, 6.89, 251.45
396.27, 6.88, 251.86
394.90, 6.85, 252.39
394.05, 6.93, 252.72
392.59, 6.96, 253.27
390.58, 6.95, 254.05
388.08, 6.93, 255.01
405.04, 7.05, 248.57
404.81, 7.05, 248.67
404.56, 7.04, 248.76
404.29, 7.03, 248.87
404.01, 7.03, 248.98
403.71, 7.02, 249.10
403.38, 7.01, 249.23
403.01, 7.00, 249.38
402.60, 6.99, 249.54
402.16, 6.98, 249.72
401.68, 6.97, 249.91
401.15, 6.95, 250.12
400.56, 6.94, 250.36
399.93, 6.94, 250.61
399.22, 6.93, 250.89
398.36, 6.91, 251.24
397.40, 6.89, 251.62
396.32, 6.88, 252.05
394.96, 6.85, 252.59
393.41, 6.83, 253.21
392.62, 6.95, 253.52
390.66, 6.94, 254.30
388.18, 6.93, 255.29
405.07, 7.06, 248.64
404.84, 7.05, 248.74
404.59, 7.04, 248.84
404.33, 7.03, 248.95
404.05, 7.03, 249.06
403.75, 7.02, 249.19
403.42, 7.01, 249.33
403.05, 7.00, 249.48
402.64, 6.99, 249.65
402.20, 6.98, 249.83
401.72, 6.96, 250.03
401.19, 6.95, 250.24
400.61, 6.94, 250.48
399.98, 6.94, 250.74
399.27, 6.93, 251.04
398.41, 6.91, 251.39
¯397.47, 6.89, 251.78
396.38, 6.88, 252.23
395.03, 6.85, 252.79
393.48, 6.82, 253.43
391.81, 6.82, 254.12
390.73, 6.94, 254.56
388.28, 6.93, 255.57
392.23, 8.62, 253.92
392.23, 8.86, 253.92
392.23, 9.11, 253.92
392.22, 9.35, 253.92
405.10, 7.06, 248.71
404.87, 7.05, 248.81
404.62, 7.04, 248.92
404.36, 7.03, 249.03
404.08, 7.03, 249.15
403.78, 7.02, 249.28
403.45, 7.01, 249.42
403.08, 7.00, 249.57
402.68, 6.99, 249.75
402.24, 6.98, 249.94
401.76, 6.96, 250.14
401.23, 6.95, 250.37
400.66, 6.94, 250.61
400.03, 6.94, 250.88
399.32, 6.93, 251.18
398.46, 6.91, 251.55
397.53, 6.89, 251.95
396.45, 6.88, 252.41
395.10, 6.85, 252.99
393.54, 6.82, 253.65
391.80, 6.81, 254.39
390.73, 6.93, 254.85
388.38, 6.94, 255.85
392.64, 8.63, 254.02
392.63, 8.88, 254.02
392.63, 9.12, 254.02
392.63, 9.36, 254.02
405.13, 7.06, 248.78
404.90, 7.05, 248.88
404.66, 7.04, 248.99
404.39, 7.03, 249.11
404.12, 7.03, 249.23
403.82, 7.02, 249.36
403.49, 7.01, 249.51
403.12, 7.00, 249.67
402.72, 6.99, 249.85
402.28, 6.98, 250.04
401.80, 6.96, 250.25
401.28, 6.95, 250.48
400.71, 6.94, 250.74
¯400.09, 6.94, 251.01
399.37, 6.93, 251.33
398.52, 6.91, 251.70
397.59, 6.89, 252.12
396.51, 6.88, 252.59
395.16, 6.85, 253.19
393.61, 6.82, 253.87
391.88, 6.81, 254.63
390.11, 6.84, 255.42
388.48, 6.94, 256.13
393.03, 8.65, 254.11
393.02, 8.89, 254.11
393.02, 9.12, 254.11
393.02, 9.36, 254.11
405.16, 7.06, 248.85
404.93, 7.05, 248.96
404.69, 7.04, 249.07
404.43, 7.04, 249.19
404.15, 7.03, 249.31
403.86, 7.02, 249.45
403.53, 7.01, 249.60
403.16, 7.00, 249.77
402.76, 6.99, 249.95
402.32, 6.97, 250.15
401.85, 6.96, 250.37
401.32, 6.95, 250.60
400.76, 6.94, 250.86
400.14, 6.94, 251.14
399.43, 6.93, 251.47
398.58, 6.91, 251.86
397.65, 6.89, 252.28
396.57, 6.88, 252.77
395.24, 6.85, 253.38
394.19, 6.90, 253.86
394.19, 7.13, 253.86
394.19, 7.35, 253.86
394.18, 7.58, 253.86
394.18, 7.80, 253.85
393.58, 8.67, 254.12
393.58, 8.90, 254.12
393.58, 9.14, 254.11
393.58, 9.37, 254.11
405.19, 7.06, 248.92
404.97, 7.05, 249.03
404.73, 7.04, 249.14
404.47, 7.04, 249.26
404.19, 7.03, 249.39
403.90, 7.02, 249.53
403.57, 7.01, 249.69
403.20, 7.00, 249.86
402.80, 6.99, 250.05
¯402.37, 6.97, 250.26
401.89, 6.96, 250.48
401.37, 6.95, 250.72
400.81, 6.94, 250.99
400.20, 6.94, 251.28
399.48, 6.93, 251.61
398.64, 6.91, 252.01
397.71, 6.89, 252.45
396.64, 6.88, 252.96
395.31, 6.85, 253.58
394.53, 6.94, 253.95
394.52, 7.16, 253.95
394.52, 7.39, 253.95
394.52, 7.61, 253.95
394.51, 7.83, 253.94
393.73, 7.98, 254.31
393.61, 8.21, 254.37
393.61, 8.44, 254.37
393.60, 8.67, 254.36
393.60, 8.90, 254.36
393.60, 9.14, 254.36
393.59, 9.37, 254.36
405.22, 7.06, 248.99
405.00, 7.05, 249.10
404.76, 7.04, 249.22
404.51, 7.04, 249.34
404.23, 7.03, 249.48
403.94, 7.02, 249.62
403.61, 7.01, 249.78
403.25, 7.00, 249.95
402.85, 6.99, 250.15
402.41, 6.98, 250.36
401.94, 6.96, 250.59
401.42, 6.95, 250.84
400.87, 6.94, 251.11
400.26, 6.94, 251.41
399.54, 6.93, 251.76
398.70, 6.91, 252.16
397.77, 6.89, 252.62
396.70, 6.88, 253.14
395.38, 6.85, 253.78
394.85, 6.98, 254.04
394.85, 7.20, 254.04
394.84, 7.42, 254.03
394.84, 7.64, 254.03
394.77, 7.85, 254.07
394.45, 8.04, 254.22
393.80, 8.22, 254.53
393.80, 8.45, 254.53
393.80, 8.68, 254.53
393.81, 8.91, 254.52
¯393.81, 9.14, 254.52
393.81, 9.37, 254.52
405.26, 7.06, 249.06
405.04, 7.05, 249.17
404.80, 7.05, 249.29
404.54, 7.04, 249.42
404.27, 7.03, 249.56
403.98, 7.03, 249.70
403.65, 7.01, 249.87
403.29, 7.00, 250.05
402.90, 6.99, 250.25
402.46, 6.98, 250.46
401.99, 6.96, 250.70
401.47, 6.95, 250.96
400.93, 6.95, 251.23
400.98, 7.10, 251.21
400.97, 7.24, 251.21
400.97, 7.38, 251.21
400.97, 7.52, 251.21
400.96, 7.65, 251.21
400.96, 7.79, 251.21
400.96, 7.93, 251.21
400.95, 8.07, 251.21
400.95, 8.20, 251.21
400.95, 8.34, 251.21
394.79, 7.84, 254.30
394.79, 8.06, 254.30
394.18, 8.24, 254.60
394.21, 8.47, 254.58
394.21, 8.70, 254.58
393.72, 8.91, 254.82
393.72, 9.14, 254.82
393.73, 9.37, 254.82
405.29, 7.06, 249.13
405.07, 7.05, 249.24
404.84, 7.05, 249.36
404.58, 7.04, 249.50
404.31, 7.03, 249.64
404.02, 7.03, 249.79
403.69, 7.02, 249.96
403.33, 7.00, 250.14
402.94, 6.99, 250.34
402.51, 6.98, 250.57
402.04, 6.96, 250.81
401.53, 6.95, 251.08
401.25, 7.02, 251.22
401.25, 7.15, 251.22
401.25, 7.29, 251.22
401.24, 7.43, 251.22
401.24, 7.56, 251.22
401.24, 7.70, 251.22
¯401.24, 7.83, 251.22
401.23, 7.97, 251.22
401.23, 8.10, 251.22
401.23, 8.23, 251.22
401.22, 8.37, 251.22
394.97, 7.85, 254.45
394.85, 8.06, 254.51
394.10, 8.23, 254.90
394.16, 8.46, 254.86
394.22, 8.69, 254.83
394.66, 8.94, 254.60
394.69, 9.16, 254.58
393.64, 9.37, 255.12
405.33, 7.06, 249.20
405.11, 7.05, 249.31
404.88, 7.05, 249.44
404.62, 7.04, 249.57
404.35, 7.03, 249.72
404.06, 7.03, 249.87
403.74, 7.02, 250.05
403.38, 7.00, 250.23
402.99, 6.99, 250.44
402.56, 6.98, 250.67
402.09, 6.96, 250.92
401.58, 6.95, 251.19
401.52, 7.07, 251.23
401.51, 7.20, 251.23
401.51, 7.34, 251.23
401.51, 7.47, 251.23
401.51, 7.60, 251.23
401.50, 7.74, 251.22
401.50, 7.87, 251.22
401.50, 8.00, 251.22
401.49, 8.13, 251.22
401.49, 8.26, 251.22
401.49, 8.39, 251.22
394.90, 7.84, 254.74
394.78, 8.05, 254.80
394.40, 8.24, 255.00
394.23, 8.46, 255.09
394.13, 8.69, 255.13
394.19, 8.92, 255.10
394.25, 9.15, 255.07
393.56, 9.38, 255.43
405.37, 7.06, 249.26
405.15, 7.06, 249.38
404.92, 7.05, 249.51
404.67, 7.04, 249.65
404.40, 7.03, 249.80
404.10, 7.03, 249.96
403.78, 7.02, 250.13
¯403.43, 7.00, 250.33
403.04, 6.99, 250.54
402.61, 6.98, 250.77
402.15, 6.96, 251.03
401.64, 6.95, 251.31
401.77, 7.12, 251.23
401.77, 7.25, 251.23
401.76, 7.38, 251.23
401.76, 7.51, 251.23
401.76, 7.64, 251.23
401.75, 7.77, 251.23
401.75, 7.90, 251.23
401.75, 8.03, 251.23
401.75, 8.16, 251.23
401.74, 8.29, 251.23
401.74, 8.41, 251.23
395.61, 7.90, 254.60
394.84, 8.05, 255.02
394.41, 8.24, 255.25
394.46, 8.47, 255.22
394.05, 8.68, 255.45
394.11, 8.92, 255.41
394.17, 9.15, 255.37
405.40, 7.06, 249.33
405.19, 7.06, 249.45
404.96, 7.05, 249.58
404.71, 7.04, 249.72
404.44, 7.04, 249.87
404.15, 7.03, 250.04
403.83, 7.02, 250.22
403.48, 7.00, 250.42
403.09, 6.99, 250.64
402.67, 6.98, 250.88
402.20, 6.96, 251.14
402.01, 7.04, 251.24
402.01, 7.17, 251.24
402.01, 7.30, 251.24
402.01, 7.43, 251.24
402.00, 7.56, 251.24
402.00, 7.68, 251.24
402.00, 7.81, 251.24
401.99, 7.94, 251.24
401.99, 8.06, 251.24
401.99, 8.19, 251.24
401.99, 8.31, 251.24
401.84, 8.42, 251.32
395.86, 7.92, 254.70
395.47, 8.10, 254.92
395.43, 8.31, 254.94
395.43, 8.53, 254.93
395.43, 8.74, 254.93
¯395.43, 8.96, 254.93
395.44, 9.18, 254.92
405.44, 7.06, 249.40
405.23, 7.06, 249.52
405.00, 7.05, 249.65
404.75, 7.04, 249.80
404.49, 7.04, 249.95
404.19, 7.03, 250.12
403.87, 7.02, 250.31
403.53, 7.01, 250.51
403.14, 6.99, 250.73
402.72, 6.98, 250.98
402.26, 6.96, 251.25
402.23, 7.08, 251.26
402.23, 7.21, 251.26
402.23, 7.34, 251.26
402.23, 7.47, 251.25
402.23, 7.59, 251.25
402.23, 7.72, 251.25
402.23, 7.84, 251.25
402.23, 7.97, 251.25
402.22, 8.09, 251.25
402.22, 8.21, 251.25
402.22, 8.34, 251.25
401.89, 8.42, 251.44
395.94, 7.92, 254.90
395.76, 8.12, 255.00
395.35, 8.30, 255.23
395.35, 8.52, 255.23
395.35, 8.74, 255.23
395.35, 8.96, 255.22
395.35, 9.17, 255.22
405.48, 7.07, 249.46
405.27, 7.06, 249.59
405.04, 7.05, 249.73
404.80, 7.05, 249.87
404.53, 7.04, 250.03
404.24, 7.03, 250.20
403.92, 7.02, 250.39
403.58, 7.01, 250.60
403.20, 6.99, 250.83
402.78, 6.98, 251.08
402.31, 6.96, 251.35
402.23, 7.07, 251.40
402.23, 7.20, 251.40
402.23, 7.33, 251.40
402.23, 7.45, 251.40
402.23, 7.58, 251.40
402.23, 7.71, 251.40
402.23, 7.83, 251.39
402.23, 7.96, 251.39
¯402.23, 8.08, 251.39
402.23, 8.21, 251.39
402.23, 8.33, 251.39
401.94, 8.42, 251.56
396.05, 7.92, 255.08
396.04, 8.14, 255.08
395.90, 8.34, 255.16
395.27, 8.51, 255.54
395.27, 8.73, 255.53
395.27, 8.95, 255.53
395.27, 9.17, 255.52
405.52, 7.07, 249.53
405.31, 7.06, 249.66
405.08, 7.05, 249.80
404.84, 7.05, 249.94
404.58, 7.04, 250.11
404.29, 7.03, 250.29
403.97, 7.02, 250.48
403.63, 7.01, 250.69
403.25, 6.99, 250.92
402.83, 6.98, 251.18
402.37, 6.96, 251.46
402.22, 7.05, 251.55
402.22, 7.18, 251.55
402.22, 7.31, 251.55
402.22, 7.44, 251.55
402.22, 7.57, 251.54
402.22, 7.69, 251.54
402.22, 7.82, 251.54
402.22, 7.95, 251.54
402.22, 8.07, 251.54
402.22, 8.20, 251.53
402.22, 8.32, 251.53
401.99, 8.42, 251.67
396.32, 7.94, 255.16
396.23, 8.14, 255.21
395.18, 8.27, 255.85
395.18, 8.50, 255.85
395.18, 8.72, 255.84
395.19, 8.95, 255.84
395.19, 9.17, 255.84
405.56, 7.07, 249.59
405.35, 7.06, 249.72
405.13, 7.06, 249.87
404.89, 7.05, 250.02
404.62, 7.04, 250.19
404.33, 7.03, 250.37
404.02, 7.02, 250.56
403.68, 7.01, 250.78
403.31, 6.99, 251.02
402.89, 6.98, 251.28
¯402.43, 6.96, 251.57
402.22, 7.03, 251.70
402.22, 7.16, 251.70
402.22, 7.29, 251.70
402.22, 7.42, 251.70
402.22, 7.55, 251.69
402.22, 7.68, 251.69
402.22, 7.81, 251.69
402.22, 7.94, 251.69
402.22, 8.06, 251.69
402.22, 8.19, 251.68
402.22, 8.32, 251.68
402.04, 8.42, 251.79
396.60, 7.96, 255.23
396.22, 8.14, 255.46
395.61, 8.30, 255.85
395.60, 8.52, 255.85
405.60, 7.07, 249.66
405.40, 7.06, 249.79
405.17, 7.06, 249.94
404.93, 7.05, 250.09
404.67, 7.04, 250.26
404.38, 7.03, 250.45
404.07, 7.02, 250.65
403.73, 7.01, 250.87
403.36, 7.00, 251.11
402.95, 6.98, 251.37
402.50, 6.97, 251.67
402.21, 7.01, 251.85
402.21, 7.14, 251.85
402.21, 7.28, 251.85
402.21, 7.41, 251.85
402.21, 7.54, 251.85
402.21, 7.67, 251.84
402.21, 7.80, 251.84
402.21, 7.92, 251.84
402.21, 8.05, 251.84
402.21, 8.18, 251.84
402.21, 8.31, 251.83
402.10, 8.42, 251.90
396.58, 7.95, 255.49
396.21, 8.13, 255.72
405.65, 7.07, 249.72
405.44, 7.06, 249.86
405.22, 7.06, 250.00
404.98, 7.05, 250.16
404.72, 7.04, 250.34
404.43, 7.03, 250.53
404.13, 7.02, 250.73
403.79, 7.01, 250.96
403.42, 7.00, 251.20
¯403.01, 6.98, 251.47
402.56, 6.97, 251.77
402.21, 6.99, 252.01
402.21, 7.13, 252.01
402.21, 7.26, 252.00
402.21, 7.39, 252.00
402.21, 7.52, 252.00
402.21, 7.65, 252.00
402.21, 7.78, 252.00
402.21, 7.91, 251.99
402.21, 8.04, 251.99
402.21, 8.17, 251.99
402.21, 8.30, 251.99
402.16, 8.42, 252.02
400.55, 8.37, 253.09
396.21, 8.12, 255.98
405.69, 7.07, 249.78
405.49, 7.07, 249.92
405.26, 7.06, 250.07
405.03, 7.05, 250.24
404.77, 7.04, 250.41
404.49, 7.03, 250.61
404.43, 7.11, 250.65
404.42, 7.21, 250.65
404.42, 7.32, 250.65
404.41, 7.42, 250.65
404.41, 7.52, 250.65
404.41, 7.62, 250.65
404.40, 7.72, 250.65
404.40, 7.81, 250.65
404.40, 7.91, 250.65
404.39, 8.01, 250.65
404.39, 8.11, 250.65
404.39, 8.21, 250.65
404.38, 8.30, 250.65
404.38, 8.40, 250.66
402.20, 8.16, 252.15
402.20, 8.29, 252.15
402.20, 8.42, 252.14
400.63, 8.38, 253.21
396.21, 8.11, 256.24
405.73, 7.07, 249.85
405.53, 7.07, 249.99
405.31, 7.06, 250.14
405.07, 7.05, 250.31
404.82, 7.04, 250.49
404.54, 7.03, 250.68
404.48, 7.11, 250.72
404.48, 7.22, 250.72
404.47, 7.32, 250.73
404.47, 7.42, 250.73
¯404.47, 7.52, 250.73
404.46, 7.62, 250.73
404.46, 7.72, 250.73
404.46, 7.82, 250.73
404.45, 7.91, 250.73
404.45, 8.01, 250.73
404.45, 8.11, 250.73
404.44, 8.21, 250.73
404.44, 8.30, 250.73
404.44, 8.40, 250.73
404.04, 8.44, 251.01
402.20, 8.28, 252.30
402.20, 8.41, 252.30
400.70, 8.38, 253.35
405.78, 7.07, 249.91
405.58, 7.07, 250.05
405.36, 7.06, 250.21
405.12, 7.05, 250.38
404.87, 7.04, 250.56
404.59, 7.03, 250.76
404.53, 7.11, 250.80
404.53, 7.22, 250.80
404.53, 7.32, 250.80
404.52, 7.42, 250.80
404.52, 7.52, 250.81
404.52, 7.62, 250.81
404.51, 7.72, 250.81
404.51, 7.82, 250.81
404.51, 7.92, 250.81
404.50, 8.01, 250.81
404.50, 8.11, 250.81
404.50, 8.21, 250.81
404.49, 8.30, 250.81
404.49, 8.40, 250.81
404.09, 8.44, 251.10
402.19, 8.27, 252.47
402.19, 8.40, 252.47
400.77, 8.38, 253.49
405.82, 7.07, 249.97
405.62, 7.07, 250.12
405.41, 7.06, 250.28
405.17, 7.05, 250.45
404.92, 7.04, 250.64
404.65, 7.03, 250.84
404.59, 7.11, 250.88
404.58, 7.22, 250.88
404.58, 7.32, 250.88
404.58, 7.42, 250.88
404.57, 7.52, 250.88
404.57, 7.62, 250.88
404.57, 7.72, 250.89
¯404.56, 7.82, 250.89
404.56, 7.92, 250.89
404.56, 8.01, 250.89
404.55, 8.11, 250.89
404.55, 8.21, 250.89
404.55, 8.31, 250.89
404.54, 8.40, 250.89
404.13, 8.43, 251.20
401.22, 8.12, 253.35
401.22, 8.27, 253.35
400.84, 8.38, 253.62
405.87, 7.08, 250.03
405.67, 7.07, 250.18
405.45, 7.06, 250.35
405.22, 7.05, 250.52
404.97, 7.04, 250.71
404.70, 7.03, 250.92
404.64, 7.12, 250.96
404.64, 7.22, 250.96
404.64, 7.32, 250.96
404.63, 7.42, 250.96
404.63, 7.52, 250.96
404.62, 7.62, 250.96
404.62, 7.72, 250.96
404.62, 7.82, 250.96
404.61, 7.92, 250.97
404.61, 8.01, 250.97
404.61, 8.11, 250.97
404.60, 8.21, 250.97
404.60, 8.31, 250.97
404.60, 8.40, 250.97
404.17, 8.43, 251.29
402.94, 8.36, 252.22
401.38, 8.28, 253.41
400.91, 8.38, 253.76
405.92, 7.08, 250.09
405.72, 7.07, 250.25
405.50, 7.06, 250.41
405.27, 7.05, 250.59
405.03, 7.04, 250.78
404.76, 7.04, 250.99
404.70, 7.12, 251.04
404.69, 7.22, 251.04
404.69, 7.32, 251.04
404.69, 7.42, 251.04
404.68, 7.52, 251.04
404.68, 7.62, 251.04
404.68, 7.72, 251.04
404.67, 7.82, 251.04
404.67, 7.92, 251.04
404.67, 8.02, 251.04
¯404.66, 8.11, 251.05
404.66, 8.21, 251.05
404.66, 8.31, 251.05
404.65, 8.40, 251.05
404.22, 8.43, 251.38
403.03, 8.36, 252.31
402.52, 8.42, 252.70
400.98, 8.38, 253.90
405.96, 7.08, 250.15
405.77, 7.07, 250.31
405.55, 7.06, 250.48
405.33, 7.05, 250.66
405.08, 7.05, 250.85
404.81, 7.04, 251.07
404.75, 7.11, 251.12
404.75, 7.22, 251.12
404.74, 7.32, 251.12
404.74, 7.42, 251.12
404.74, 7.52, 251.12
404.73, 7.62, 251.12
404.73, 7.72, 251.12
404.73, 7.82, 251.12
404.72, 7.92, 251.12
404.72, 8.02, 251.12
404.72, 8.11, 251.12
404.71, 8.21, 251.12
404.71, 8.31, 251.13
404.71, 8.40, 251.13
404.27, 8.43, 251.48
403.11, 8.37, 252.40
402.58, 8.42, 252.82
401.06, 8.38, 254.03
406.01, 7.08, 250.21
405.81, 7.07, 250.37
405.61, 7.06, 250.54
405.38, 7.06, 250.73
405.14, 7.05, 250.93
404.87, 7.04, 251.14
404.81, 7.11, 251.19
404.80, 7.22, 251.20
404.80, 7.32, 251.20
404.80, 7.42, 251.20
404.79, 7.52, 251.20
404.79, 7.62, 251.20
404.78, 7.72, 251.20
404.78, 7.82, 251.20
404.78, 7.92, 251.20
404.77, 8.02, 251.20
404.77, 8.11, 251.20
404.77, 8.21, 251.20
404.76, 8.31, 251.20
¯404.76, 8.41, 251.20
404.32, 8.43, 251.57
403.20, 8.37, 252.48
402.65, 8.42, 252.93
