žVERSION 0.7
FIELDS x y z
SIZE 8 8 8
TYPE F F F
COUNT 1 1 1
WIDTH 2271
HEIGHT 1
VIEWPOINT 337.16, 7.02, 311.15 1 356.96, 4.35, 316.24
POINTS 2271
DATA ascii
373.37, 2.94, 326.53
360.00, 2.44, 319.09
360.32, 2.45, 319.26
360.68, 2.47, 319.45
361.08, 2.49, 319.66
361.54, 2.50, 319.91
362.07, 2.52, 320.19
362.70, 2.53, 320.53
363.45, 2.54, 320.93
364.40, 2.55, 321.43
365.60, 2.55, 322.07
367.10, 2.55, 322.88
368.78, 2.57, 323.77
370.22, 2.66, 324.54
371.85, 2.78, 325.41
373.44, 2.94, 326.27
374.97, 3.15, 327.08
360.04, 2.44, 319.01
360.37, 2.45, 319.18
360.72, 2.47, 319.37
¯361.13, 2.48, 319.58
361.60, 2.50, 319.82
362.13, 2.52, 320.10
362.76, 2.53, 320.42
363.52, 2.54, 320.82
364.47, 2.55, 321.31
365.67, 2.55, 321.93
367.18, 2.55, 322.71
368.85, 2.58, 323.58
370.28, 2.67, 324.32
371.93, 2.78, 325.18
373.51, 2.95, 326.00
375.04, 3.16, 326.79
360.08, 2.44, 318.94
360.41, 2.45, 319.10
360.77, 2.47, 319.28
361.18, 2.48, 319.49
361.65, 2.50, 319.73
362.19, 2.51, 320.00
362.82, 2.53, 320.32
363.59, 2.54, 320.70
364.53, 2.55, 321.18
365.75, 2.55, 321.79
367.25, 2.55, 322.55
368.92, 2.58, 323.38
370.37, 2.67, 324.11
372.00, 2.79, 324.94
373.58, 2.95, 325.73
375.10, 3.16, 326.50
360.12, 2.44, 318.86
360.45, 2.45, 319.02
360.81, 2.47, 319.20
361.23, 2.48, 319.41
361.70, 2.50, 319.64
362.24, 2.51, 319.90
362.88, 2.53, 320.21
363.65, 2.54, 320.59
364.60, 2.55, 321.05
365.82, 2.55, 321.64
367.32, 2.55, 322.38
368.98, 2.58, 323.19
370.44, 2.67, 323.90
372.06, 2.79, 324.69
373.64, 2.95, 325.46
375.15, 3.16, 326.20
360.16, 2.44, 318.79
360.49, 2.45, 318.95
360.86, 2.47, 319.12
361.28, 2.48, 319.32
361.75, 2.50, 319.54
362.30, 2.51, 319.80
¯362.94, 2.53, 320.10
363.71, 2.54, 320.47
364.66, 2.55, 320.92
365.88, 2.55, 321.50
367.38, 2.55, 322.20
369.03, 2.58, 322.99
370.52, 2.67, 323.69
372.13, 2.79, 324.45
373.70, 2.96, 325.20
375.21, 3.17, 325.91
360.20, 2.44, 318.71
360.53, 2.45, 318.87
360.90, 2.47, 319.03
361.40, 2.47, 319.27
362.27, 2.41, 319.66
362.59, 2.47, 319.81
363.15, 2.50, 320.07
363.77, 2.54, 320.35
364.72, 2.55, 320.79
365.94, 2.55, 321.35
367.44, 2.56, 322.03
369.09, 2.59, 322.79
370.58, 2.68, 323.47
372.19, 2.80, 324.21
373.76, 2.96, 324.93
375.26, 3.17, 325.62
360.23, 2.44, 318.64
360.70, 2.42, 318.85
361.32, 2.38, 319.12
361.80, 2.39, 319.33
362.33, 2.41, 319.57
362.92, 2.42, 319.83
363.64, 2.43, 320.15
364.11, 2.50, 320.36
364.78, 2.55, 320.65
366.00, 2.55, 321.20
367.49, 2.56, 321.86
369.13, 2.59, 322.59
370.65, 2.68, 323.26
372.24, 2.80, 323.97
373.81, 2.96, 324.66
375.31, 3.17, 325.33
360.64, 2.35, 318.72
360.98, 2.36, 318.87
361.37, 2.38, 319.03
361.85, 2.39, 319.24
362.38, 2.40, 319.47
362.96, 2.42, 319.72
363.70, 2.43, 320.03
364.67, 2.42, 320.45
365.02, 2.52, 320.60
¯366.05, 2.55, 321.04
367.54, 2.56, 321.68
369.18, 2.59, 322.39
370.71, 2.68, 323.04
372.29, 2.80, 323.72
373.85, 2.97, 324.39
375.36, 3.17, 325.04
360.67, 2.35, 318.64
361.02, 2.36, 318.78
361.42, 2.38, 318.95
361.89, 2.39, 319.14
362.43, 2.40, 319.36
363.00, 2.42, 319.61
363.76, 2.43, 319.92
364.72, 2.42, 320.32
365.65, 2.45, 320.70
366.10, 2.55, 320.89
367.58, 2.56, 321.50
369.22, 2.60, 322.18
370.76, 2.68, 322.82
372.34, 2.80, 323.48
373.90, 2.97, 324.12
375.40, 3.17, 324.75
360.71, 2.34, 318.56
361.06, 2.36, 318.70
361.46, 2.38, 318.86
361.94, 2.39, 319.05
362.46, 2.40, 319.26
363.04, 2.42, 319.49
363.81, 2.43, 319.80
364.78, 2.42, 320.19
365.92, 2.42, 320.65
366.36, 2.53, 320.82
367.62, 2.56, 321.33
369.25, 2.60, 321.98
370.81, 2.68, 322.60
372.38, 2.80, 323.23
373.94, 2.97, 323.85
375.44, 3.18, 324.46
360.74, 2.34, 318.47
361.09, 2.36, 318.61
361.50, 2.38, 318.77
361.98, 2.39, 318.95
362.50, 2.40, 319.15
363.08, 2.42, 319.38
363.86, 2.42, 319.68
364.83, 2.42, 320.06
365.97, 2.42, 320.50
366.91, 2.47, 320.86
367.66, 2.57, 321.15
369.28, 2.60, 321.77
¯370.86, 2.68, 322.38
372.42, 2.80, 322.99
373.97, 2.97, 323.59
375.48, 3.18, 324.17
376.95, 3.42, 324.73
360.77, 2.34, 318.39
361.13, 2.36, 318.52
361.54, 2.37, 318.68
362.01, 2.39, 318.85
362.53, 2.40, 319.05
363.12, 2.42, 319.26
363.91, 2.42, 319.56
364.88, 2.42, 319.92
366.01, 2.42, 320.34
367.36, 2.42, 320.85
367.72, 2.56, 320.98
369.31, 2.60, 321.57
370.90, 2.68, 322.16
372.46, 2.81, 322.74
374.00, 2.97, 323.32
375.51, 3.18, 323.88
376.98, 3.42, 324.42
360.81, 2.34, 318.31
361.16, 2.36, 318.43
361.58, 2.37, 318.58
362.04, 2.39, 318.75
362.56, 2.40, 318.94
363.15, 2.42, 319.15
363.95, 2.42, 319.44
364.92, 2.42, 319.78
366.05, 2.42, 320.19
367.40, 2.42, 320.68
368.23, 2.51, 320.97
369.33, 2.60, 321.36
370.94, 2.68, 321.94
372.49, 2.81, 322.50
374.03, 2.97, 323.05
375.54, 3.17, 323.59
377.01, 3.42, 324.11
360.84, 2.34, 318.23
361.19, 2.36, 318.35
361.61, 2.37, 318.49
362.07, 2.39, 318.65
362.59, 2.40, 318.83
363.18, 2.42, 319.03
363.99, 2.42, 319.31
364.95, 2.42, 319.65
366.09, 2.42, 320.04
367.43, 2.42, 320.50
368.89, 2.45, 321.01
369.34, 2.61, 321.16
¯370.97, 2.68, 321.72
372.52, 2.81, 322.25
374.06, 2.97, 322.78
375.56, 3.17, 323.30
377.03, 3.42, 323.80
360.88, 2.34, 318.14
361.23, 2.35, 318.26
361.63, 2.37, 318.39
362.10, 2.39, 318.55
362.62, 2.40, 318.72
363.21, 2.42, 318.92
364.03, 2.42, 319.19
364.99, 2.42, 319.51
366.12, 2.42, 319.88
367.46, 2.42, 320.33
368.92, 2.45, 320.81
369.87, 2.56, 321.13
371.00, 2.68, 321.50
372.54, 2.81, 322.01
374.08, 2.97, 322.52
375.59, 3.17, 323.01
377.05, 3.42, 323.50
360.91, 2.33, 318.06
361.26, 2.35, 318.17
361.66, 2.37, 318.30
362.12, 2.39, 318.45
362.65, 2.40, 318.61
363.24, 2.42, 318.80
364.06, 2.42, 319.06
365.01, 2.42, 319.37
366.15, 2.42, 319.73
367.49, 2.42, 320.15
368.95, 2.45, 320.62
370.42, 2.51, 321.09
371.08, 2.68, 321.29
372.56, 2.81, 321.76
374.09, 2.97, 322.25
375.60, 3.17, 322.73
377.07, 3.41, 323.19
360.94, 2.33, 317.98
361.29, 2.35, 318.08
361.70, 2.37, 318.20
362.15, 2.38, 318.34
362.67, 2.40, 318.50
363.26, 2.42, 318.68
364.09, 2.42, 318.93
365.04, 2.42, 319.22
366.17, 2.42, 319.57
367.51, 2.42, 319.98
368.97, 2.45, 320.42
370.43, 2.51, 320.87
¯371.91, 2.61, 321.32
372.58, 2.80, 321.52
374.11, 2.97, 321.99
375.62, 3.17, 322.44
377.08, 3.41, 322.89
360.97, 2.33, 317.89
361.32, 2.35, 317.99
361.73, 2.36, 318.11
362.18, 2.38, 318.24
362.69, 2.40, 318.39
363.29, 2.42, 318.57
364.11, 2.42, 318.81
365.06, 2.42, 319.08
366.20, 2.42, 319.42
367.53, 2.42, 319.80
368.98, 2.45, 320.23
370.44, 2.51, 320.65
371.92, 2.61, 321.08
373.28, 2.76, 321.48
374.12, 2.96, 321.72
375.63, 3.17, 322.16
377.10, 3.41, 322.58
360.99, 2.33, 317.80
361.35, 2.35, 317.90
361.76, 2.36, 318.02
362.22, 2.38, 318.14
362.72, 2.40, 318.29
363.31, 2.42, 318.45
364.12, 2.42, 318.68
365.08, 2.42, 318.94
366.21, 2.42, 319.26
367.54, 2.42, 319.63
369.00, 2.45, 320.04
370.45, 2.51, 320.44
371.93, 2.61, 320.85
373.45, 2.75, 321.27
374.86, 2.92, 321.66
375.64, 3.16, 321.87
377.11, 3.40, 322.28
361.02, 2.32, 317.72
361.37, 2.34, 317.81
361.79, 2.36, 317.92
362.25, 2.38, 318.04
362.76, 2.40, 318.18
363.34, 2.42, 318.33
364.14, 2.42, 318.55
365.09, 2.42, 318.80
366.23, 2.42, 319.10
367.55, 2.42, 319.45
369.03, 2.45, 319.85
370.45, 2.51, 320.22
¯371.94, 2.61, 320.62
373.46, 2.74, 321.02
375.00, 2.91, 321.42
376.38, 3.13, 321.79
377.17, 3.39, 321.99
361.04, 2.32, 317.63
361.40, 2.34, 317.72
361.81, 2.36, 317.83
362.27, 2.37, 317.94
362.79, 2.39, 318.07
363.37, 2.41, 318.22
364.15, 2.42, 318.42
365.10, 2.42, 318.66
366.24, 2.42, 318.94
367.56, 2.42, 319.28
369.04, 2.45, 319.65
370.46, 2.51, 320.01
371.95, 2.61, 320.39
373.46, 2.74, 320.76
375.01, 2.91, 321.15
376.39, 3.12, 321.50
377.79, 3.37, 321.85
361.06, 2.32, 317.54
361.42, 2.34, 317.63
361.84, 2.35, 317.73
362.30, 2.37, 317.84
362.82, 2.39, 317.96
363.40, 2.41, 318.10
364.17, 2.42, 318.29
365.11, 2.42, 318.51
366.24, 2.42, 318.79
367.56, 2.42, 319.10
369.06, 2.45, 319.46
370.47, 2.51, 319.80
371.95, 2.61, 320.15
373.47, 2.74, 320.52
375.02, 2.91, 320.88
376.40, 3.12, 321.21
377.79, 3.37, 321.54
361.08, 2.32, 317.46
361.44, 2.33, 317.54
361.86, 2.35, 317.63
362.33, 2.37, 317.74
362.84, 2.39, 317.85
363.42, 2.41, 317.99
364.20, 2.41, 318.16
365.11, 2.42, 318.37
366.24, 2.42, 318.63
367.56, 2.42, 318.93
369.07, 2.44, 319.27
370.48, 2.51, 319.59
¯371.95, 2.61, 319.92
373.48, 2.74, 320.27
375.02, 2.90, 320.61
376.40, 3.11, 320.92
377.79, 3.36, 321.23
361.10, 2.31, 317.37
361.46, 2.33, 317.45
361.88, 2.35, 317.54
362.35, 2.36, 317.64
362.86, 2.38, 317.74
363.45, 2.40, 317.87
364.23, 2.41, 318.04
365.13, 2.41, 318.23
366.24, 2.42, 318.47
367.55, 2.42, 318.75
369.07, 2.44, 319.08
370.48, 2.51, 319.38
371.95, 2.60, 319.69
373.47, 2.73, 320.01
375.02, 2.90, 320.34
376.40, 3.11, 320.63
377.79, 3.35, 320.92
361.12, 2.31, 317.28
361.48, 2.33, 317.35
361.90, 2.34, 317.44
362.37, 2.36, 317.53
362.88, 2.38, 317.63
363.47, 2.40, 317.75
364.25, 2.40, 317.91
365.13, 2.41, 318.09
366.24, 2.42, 318.31
367.55, 2.42, 318.58
369.07, 2.44, 318.89
370.47, 2.51, 319.17
371.94, 2.60, 319.46
373.46, 2.73, 319.76
375.01, 2.89, 320.07
376.39, 3.10, 320.34
377.80, 3.35, 320.62
361.13, 2.31, 317.19
361.50, 2.33, 317.26
361.92, 2.34, 317.34
362.39, 2.36, 317.43
362.89, 2.38, 317.52
363.49, 2.40, 317.64
364.27, 2.40, 317.79
365.13, 2.41, 317.95
366.23, 2.42, 318.16
367.55, 2.42, 318.41
369.07, 2.44, 318.69
370.47, 2.50, 318.96
¯371.93, 2.60, 319.23
373.44, 2.73, 319.51
375.00, 2.89, 319.80
376.37, 3.10, 320.06
377.80, 3.34, 320.32
361.15, 2.31, 317.10
361.52, 2.32, 317.17
361.94, 2.34, 317.24
362.40, 2.36, 317.33
362.91, 2.38, 317.41
363.51, 2.39, 317.52
364.29, 2.40, 317.66
365.12, 2.41, 317.81
366.22, 2.42, 318.00
367.54, 2.42, 318.23
369.06, 2.44, 318.50
370.46, 2.50, 318.75
371.92, 2.59, 319.00
373.43, 2.72, 319.27
374.97, 2.88, 319.53
376.35, 3.09, 319.77
377.79, 3.33, 320.02
361.16, 2.30, 317.02
361.53, 2.32, 317.08
361.96, 2.33, 317.15
362.41, 2.35, 317.22
362.92, 2.37, 317.30
363.52, 2.39, 317.40
364.31, 2.39, 317.53
365.11, 2.41, 317.66
366.20, 2.42, 317.84
367.52, 2.42, 318.06
369.04, 2.43, 318.31
370.44, 2.50, 318.54
371.90, 2.59, 318.77
373.41, 2.72, 319.02
374.95, 2.88, 319.26
376.33, 3.08, 319.49
377.77, 3.32, 319.71
361.17, 2.30, 316.93
361.55, 2.32, 316.98
361.97, 2.33, 317.05
362.42, 2.35, 317.12
362.93, 2.37, 317.19
363.54, 2.39, 317.28
364.31, 2.39, 317.40
365.10, 2.41, 317.52
366.18, 2.42, 317.69
367.50, 2.42, 317.89
369.01, 2.43, 318.12
370.42, 2.50, 318.33
¯371.88, 2.59, 318.55
373.38, 2.71, 318.77
374.92, 2.87, 319.00
376.31, 3.08, 319.20
377.75, 3.31, 319.41
361.18, 2.30, 316.84
361.56, 2.31, 316.89
361.98, 2.33, 316.95
362.43, 2.35, 317.01
362.94, 2.37, 317.08
363.55, 2.38, 317.17
364.30, 2.39, 317.27
365.09, 2.41, 317.38
366.16, 2.42, 317.53
367.47, 2.42, 317.71
368.97, 2.43, 317.92
370.38, 2.49, 318.12
371.85, 2.58, 318.32
373.36, 2.71, 318.52
374.88, 2.87, 318.73
376.30, 3.07, 318.92
377.73, 3.30, 319.11
361.19, 2.30, 316.75
361.57, 2.31, 316.80
361.98, 2.33, 316.85
362.44, 2.34, 316.91
362.94, 2.37, 316.97
363.55, 2.38, 317.05
364.29, 2.39, 317.14
365.07, 2.41, 317.24
366.13, 2.42, 317.37
367.44, 2.42, 317.54
368.93, 2.43, 317.73
370.34, 2.49, 317.91
371.81, 2.58, 318.09
373.32, 2.70, 318.28
374.85, 2.86, 318.47
376.27, 3.06, 318.64
377.71, 3.29, 318.81
361.20, 2.29, 316.66
361.58, 2.31, 316.70
361.99, 2.32, 316.75
362.44, 2.34, 316.80
362.95, 2.36, 316.86
363.56, 2.38, 316.93
364.27, 2.39, 317.01
365.05, 2.41, 317.10
366.10, 2.42, 317.22
367.40, 2.42, 317.37
368.89, 2.43, 317.54
370.30, 2.49, 317.70
¯371.77, 2.58, 317.87
373.28, 2.70, 318.03
374.80, 2.85, 318.20
376.25, 3.05, 318.36
377.69, 3.28, 318.52
361.21, 2.29, 316.57
361.58, 2.30, 316.61
361.99, 2.32, 316.65
362.45, 2.34, 316.70
362.95, 2.36, 316.75
363.56, 2.37, 316.81
364.26, 2.39, 316.88
365.03, 2.41, 316.96
366.07, 2.42, 317.07
367.36, 2.42, 317.20
368.84, 2.43, 317.35
370.25, 2.49, 317.49
371.72, 2.57, 317.64
373.23, 2.69, 317.79
374.73, 2.85, 317.94
376.18, 3.04, 318.08
377.64, 3.27, 318.22
361.21, 2.29, 316.48
361.58, 2.30, 316.52
361.99, 2.32, 316.55
362.45, 2.34, 316.59
362.95, 2.36, 316.64
363.56, 2.37, 316.69
364.24, 2.39, 316.75
365.01, 2.41, 316.82
366.04, 2.42, 316.91
367.32, 2.42, 317.03
368.78, 2.43, 317.16
370.21, 2.49, 317.29
371.67, 2.57, 317.42
373.18, 2.69, 317.55
374.66, 2.84, 317.68
376.11, 3.04, 317.80
377.59, 3.26, 317.92
361.21, 2.28, 316.39
361.58, 2.30, 316.42
361.99, 2.32, 316.45
362.45, 2.33, 316.49
362.95, 2.35, 316.53
363.54, 2.37, 316.57
364.21, 2.39, 316.62
364.98, 2.41, 316.68
366.00, 2.42, 316.76
367.27, 2.42, 316.86
368.73, 2.43, 316.98
370.15, 2.48, 317.08
¯371.61, 2.57, 317.20
373.12, 2.68, 317.31
374.58, 2.84, 317.42
376.03, 3.03, 317.52
377.53, 3.25, 317.63
361.22, 2.28, 316.30
361.59, 2.30, 316.33
361.99, 2.31, 316.35
362.45, 2.33, 316.38
362.95, 2.35, 316.42
363.52, 2.37, 316.45
364.19, 2.39, 316.50
364.95, 2.41, 316.55
365.95, 2.42, 316.61
367.23, 2.42, 316.70
368.66, 2.43, 316.79
370.10, 2.48, 316.88
371.56, 2.56, 316.97
373.07, 2.68, 317.07
374.50, 2.83, 317.16
375.96, 3.02, 317.24
377.47, 3.24, 317.33
361.22, 2.28, 316.22
361.59, 2.29, 316.23
361.99, 2.31, 316.26
362.45, 2.33, 316.28
362.95, 2.35, 316.30
363.51, 2.37, 316.33
364.17, 2.39, 316.37
364.92, 2.41, 316.41
365.91, 2.42, 316.46
367.17, 2.42, 316.53
368.60, 2.43, 316.61
370.04, 2.48, 316.68
371.50, 2.56, 316.76
373.00, 2.67, 316.83
374.42, 2.82, 316.90
375.89, 3.01, 316.97
377.41, 3.23, 317.04
361.22, 2.27, 316.13
361.59, 2.29, 316.14
361.99, 2.30, 316.16
362.44, 2.32, 316.17
362.94, 2.34, 316.19
363.51, 2.36, 316.22
364.17, 2.38, 316.24
364.92, 2.40, 316.27
365.80, 2.43, 316.31
367.08, 2.42, 316.36
368.53, 2.43, 316.42
369.97, 2.47, 316.48
¯371.44, 2.55, 316.54
372.93, 2.66, 316.60
374.34, 2.82, 316.65
375.82, 3.00, 316.70
377.34, 3.22, 316.75
361.22, 2.27, 316.04
361.58, 2.29, 316.05
361.99, 2.30, 316.06
362.44, 2.32, 316.07
362.94, 2.34, 316.08
363.51, 2.36, 316.10
364.16, 2.38, 316.12
364.91, 2.40, 316.14
365.66, 2.44, 316.16
366.91, 2.43, 316.20
368.29, 2.45, 316.24
369.93, 2.47, 316.28
371.36, 2.55, 316.32
372.84, 2.66, 316.36
374.26, 2.81, 316.39
375.74, 2.99, 316.43
377.27, 3.21, 316.46
361.22, 2.27, 315.95
361.58, 2.28, 315.95
361.99, 2.30, 315.96
362.44, 2.31, 315.97
362.93, 2.33, 315.97
363.50, 2.35, 315.98
364.15, 2.37, 315.99
364.87, 2.40, 316.00
365.51, 2.45, 316.01
366.73, 2.45, 316.03
368.03, 2.47, 316.06
369.90, 2.46, 316.09
371.27, 2.55, 316.11
372.73, 2.66, 316.13
374.20, 2.80, 316.15
375.47, 2.99, 316.16
376.74, 3.21, 316.17
376.86, 3.49, 316.16
377.22, 3.77, 316.15
361.21, 2.26, 315.86
361.57, 2.28, 315.86
361.98, 2.29, 315.86
362.43, 2.31, 315.86
362.93, 2.33, 315.86
363.49, 2.35, 315.87
364.14, 2.37, 315.87
364.81, 2.40, 315.87
365.37, 2.46, 315.87
366.55, 2.46, 315.88
¯367.77, 2.49, 315.88
369.87, 2.46, 315.89
371.17, 2.54, 315.90
372.64, 2.65, 315.90
374.13, 2.79, 315.90
375.19, 2.99, 315.89
376.46, 3.21, 315.89
376.57, 3.48, 315.87
376.68, 3.76, 315.86
376.79, 4.04, 315.84
376.91, 4.32, 315.83
378.00, 4.63, 315.82
361.21, 2.26, 315.77
361.57, 2.27, 315.77
361.97, 2.29, 315.76
362.42, 2.31, 315.76
362.92, 2.32, 315.75
363.48, 2.34, 315.75
364.13, 2.36, 315.74
364.75, 2.40, 315.74
365.23, 2.47, 315.73
366.38, 2.47, 315.72
367.52, 2.50, 315.71
369.83, 2.45, 315.70
371.08, 2.54, 315.69
372.55, 2.64, 315.67
374.07, 2.78, 315.65
374.95, 2.99, 315.63
376.18, 3.20, 315.61
376.29, 3.47, 315.60
376.40, 3.75, 315.58
376.51, 4.02, 315.57
376.62, 4.30, 315.55
376.73, 4.59, 315.53
376.84, 4.87, 315.52
377.03, 5.16, 315.50
361.20, 2.25, 315.68
361.56, 2.27, 315.67
361.97, 2.29, 315.67
362.41, 2.30, 315.66
362.91, 2.32, 315.65
363.47, 2.34, 315.63
364.12, 2.36, 315.62
364.69, 2.40, 315.61
365.16, 2.47, 315.59
366.20, 2.49, 315.57
367.28, 2.52, 315.55
369.79, 2.44, 315.51
370.99, 2.53, 315.48
372.46, 2.64, 315.45
374.00, 2.77, 315.41
¯374.78, 2.98, 315.38
375.91, 3.20, 315.35
376.02, 3.46, 315.33
376.12, 3.74, 315.31
376.23, 4.01, 315.29
376.34, 4.29, 315.28
376.44, 4.56, 315.26
376.55, 4.85, 315.24
376.67, 5.13, 315.22
376.78, 5.42, 315.20
376.89, 5.71, 315.18
361.19, 2.25, 315.59
361.55, 2.27, 315.58
361.95, 2.28, 315.57
362.40, 2.30, 315.55
362.89, 2.32, 315.54
363.45, 2.33, 315.52
364.10, 2.35, 315.50
364.62, 2.40, 315.48
365.09, 2.48, 315.46
366.03, 2.50, 315.43
367.07, 2.54, 315.39
369.75, 2.43, 315.32
370.90, 2.53, 315.27
372.37, 2.63, 315.22
373.85, 2.77, 315.17
374.62, 2.97, 315.13
375.65, 3.19, 315.09
375.75, 3.46, 315.07
375.85, 3.72, 315.05
375.96, 3.99, 315.03
376.06, 4.27, 315.01
376.17, 4.54, 314.99
376.27, 4.82, 314.97
376.38, 5.10, 314.95
376.49, 5.39, 314.93
376.60, 5.67, 314.91
376.71, 5.96, 314.89
376.83, 6.26, 314.87
376.94, 6.56, 314.85
361.18, 2.25, 315.50
361.54, 2.26, 315.49
361.94, 2.28, 315.47
362.39, 2.29, 315.45
362.88, 2.31, 315.43
363.44, 2.33, 315.40
364.08, 2.35, 315.37
364.56, 2.40, 315.35
365.02, 2.48, 315.32
365.86, 2.51, 315.29
366.88, 2.55, 315.24
¯369.70, 2.43, 315.12
370.81, 2.53, 315.07
372.27, 2.62, 315.00
373.70, 2.76, 314.93
374.46, 2.97, 314.89
375.39, 3.18, 314.83
375.49, 3.45, 314.81
375.59, 3.71, 314.79
375.69, 3.98, 314.77
375.79, 4.25, 314.75
375.89, 4.52, 314.73
376.00, 4.80, 314.71
376.10, 5.07, 314.69
376.21, 5.35, 314.66
376.32, 5.64, 314.64
376.42, 5.92, 314.62
376.53, 6.22, 314.60
376.65, 6.51, 314.58
376.76, 6.81, 314.55
376.87, 7.11, 314.53
361.17, 2.24, 315.42
361.53, 2.26, 315.40
361.93, 2.27, 315.37
362.37, 2.29, 315.35
362.86, 2.31, 315.32
363.42, 2.32, 315.29
364.06, 2.34, 315.25
364.49, 2.41, 315.22
364.95, 2.48, 315.19
365.69, 2.52, 315.15
366.69, 2.56, 315.09
369.64, 2.42, 314.94
370.71, 2.52, 314.87
372.17, 2.62, 314.78
373.56, 2.75, 314.70
374.30, 2.96, 314.64
375.13, 3.18, 314.58
375.23, 3.44, 314.56
375.33, 3.70, 314.54
375.43, 3.96, 314.52
375.53, 4.23, 314.50
375.63, 4.50, 314.47
375.73, 4.77, 314.45
375.83, 5.04, 314.43
375.94, 5.32, 314.41
376.04, 5.60, 314.38
376.15, 5.89, 314.36
376.25, 6.17, 314.33
376.36, 6.46, 314.31
376.47, 6.76, 314.29
376.59, 7.06, 314.26
¯361.16, 2.24, 315.33
361.51, 2.25, 315.30
361.91, 2.27, 315.28
362.36, 2.28, 315.24
362.85, 2.30, 315.21
363.40, 2.32, 315.17
364.01, 2.34, 315.13
364.43, 2.41, 315.10
364.88, 2.48, 315.06
365.52, 2.53, 315.01
366.50, 2.57, 314.95
369.56, 2.41, 314.75
370.62, 2.51, 314.67
372.06, 2.61, 314.57
373.41, 2.75, 314.47
373.90, 2.96, 314.42
374.35, 3.19, 314.37
374.83, 3.43, 314.33
375.08, 3.69, 314.29
375.18, 3.95, 314.27
375.28, 4.21, 314.25
375.37, 4.48, 314.22
375.47, 4.75, 314.20
375.57, 5.02, 314.18
375.67, 5.29, 314.15
375.78, 5.57, 314.13
375.88, 5.85, 314.10
375.99, 6.13, 314.08
376.09, 6.42, 314.05
376.20, 6.71, 314.03
376.31, 7.00, 314.00
361.15, 2.23, 315.24
361.50, 2.25, 315.21
361.90, 2.26, 315.18
362.34, 2.28, 315.14
362.83, 2.30, 315.10
363.37, 2.31, 315.06
363.95, 2.34, 315.01
364.36, 2.41, 314.97
364.81, 2.48, 314.93
365.35, 2.55, 314.88
366.31, 2.58, 314.81
367.39, 2.62, 314.72
370.52, 2.51, 314.47
371.15, 2.67, 314.41
371.75, 2.84, 314.35
372.39, 3.03, 314.29
373.07, 3.23, 314.22
373.49, 3.45, 314.17
373.92, 3.69, 314.13
374.37, 3.93, 314.07
¯375.03, 4.19, 314.00
375.13, 4.46, 313.98
375.22, 4.72, 313.95
375.32, 4.99, 313.93
375.42, 5.26, 313.90
375.52, 5.53, 313.88
375.62, 5.81, 313.85
375.72, 6.09, 313.82
375.83, 6.38, 313.80
375.93, 6.66, 313.77
376.04, 6.95, 313.74
361.13, 2.23, 315.15
361.48, 2.25, 315.12
361.88, 2.26, 315.08
362.32, 2.27, 315.04
362.81, 2.29, 315.00
363.35, 2.31, 314.94
363.88, 2.34, 314.89
364.29, 2.41, 314.85
364.73, 2.48, 314.81
365.21, 2.55, 314.76
366.13, 2.59, 314.67
367.14, 2.64, 314.57
370.25, 2.52, 314.29
370.90, 2.67, 314.22
370.97, 2.88, 314.20
371.03, 3.09, 314.18
371.15, 3.30, 314.16
371.75, 3.49, 314.09
372.38, 3.70, 314.02
373.08, 3.93, 313.94
373.49, 4.17, 313.89
373.92, 4.42, 313.83
374.51, 4.68, 313.76
375.07, 4.96, 313.69
375.17, 5.23, 313.66
375.27, 5.50, 313.63
375.37, 5.78, 313.60
375.47, 6.05, 313.58
375.57, 6.33, 313.55
375.67, 6.62, 313.52
375.77, 6.90, 313.49
361.12, 2.23, 315.07
361.46, 2.24, 315.03
361.86, 2.26, 314.99
362.30, 2.27, 314.94
362.78, 2.29, 314.89
363.32, 2.30, 314.83
363.82, 2.34, 314.78
364.22, 2.41, 314.73
364.66, 2.48, 314.68
¯365.13, 2.55, 314.62
365.95, 2.60, 314.54
366.96, 2.65, 314.43
369.97, 2.53, 314.12
370.70, 2.67, 314.03
370.76, 2.88, 314.01
370.83, 3.08, 313.99
370.90, 3.29, 313.97
370.96, 3.50, 313.95
371.03, 3.71, 313.93
371.13, 3.92, 313.90
371.72, 4.14, 313.83
372.35, 4.37, 313.75
373.07, 4.62, 313.65
373.48, 4.88, 313.59
373.91, 5.15, 313.53
375.02, 5.47, 313.39
375.12, 5.74, 313.36
375.21, 6.01, 313.34
375.31, 6.29, 313.31
375.41, 6.57, 313.28
375.51, 6.85, 313.25
361.10, 2.22, 314.98
361.44, 2.24, 314.94
361.84, 2.25, 314.89
362.27, 2.27, 314.84
362.76, 2.28, 314.78
363.29, 2.30, 314.72
363.76, 2.34, 314.66
364.16, 2.41, 314.61
364.59, 2.48, 314.55
365.05, 2.55, 314.49
365.83, 2.60, 314.40
366.93, 2.64, 314.27
369.69, 2.54, 313.95
370.50, 2.67, 313.85
370.57, 2.87, 313.83
370.63, 3.08, 313.81
370.70, 3.28, 313.78
370.76, 3.49, 313.76
370.83, 3.70, 313.74
370.89, 3.91, 313.72
370.96, 4.12, 313.70
371.03, 4.33, 313.67
371.09, 4.55, 313.65
371.68, 4.79, 313.57
372.33, 5.04, 313.47
373.05, 5.32, 313.37
373.46, 5.59, 313.30
374.24, 5.91, 313.19
375.06, 6.25, 313.07
¯375.16, 6.53, 313.04
375.26, 6.81, 313.01
361.08, 2.22, 314.89
361.42, 2.23, 314.85
361.82, 2.25, 314.80
362.25, 2.26, 314.74
362.73, 2.28, 314.68
363.27, 2.29, 314.61
363.69, 2.34, 314.55
364.09, 2.41, 314.49
364.52, 2.48, 314.43
364.98, 2.55, 314.37
365.80, 2.59, 314.26
366.89, 2.63, 314.11
369.43, 2.55, 313.79
370.31, 2.67, 313.67
370.38, 2.87, 313.65
370.44, 3.07, 313.62
370.50, 3.28, 313.60
370.56, 3.48, 313.58
370.63, 3.69, 313.56
370.69, 3.90, 313.53
370.76, 4.11, 313.51
370.82, 4.32, 313.49
370.89, 4.53, 313.46
370.95, 4.74, 313.44
371.02, 4.96, 313.41
371.09, 5.18, 313.39
371.63, 5.44, 313.30
372.29, 5.72, 313.20
373.02, 6.03, 313.08
373.44, 6.32, 313.01
375.01, 6.76, 312.77
361.06, 2.21, 314.81
361.40, 2.23, 314.76
361.79, 2.24, 314.70
362.22, 2.26, 314.64
362.70, 2.27, 314.57
363.23, 2.29, 314.49
363.63, 2.34, 314.43
364.02, 2.41, 314.37
364.45, 2.47, 314.31
364.91, 2.55, 314.24
365.77, 2.58, 314.11
366.84, 2.62, 313.96
369.16, 2.56, 313.64
370.08, 2.67, 313.50
370.19, 2.87, 313.47
370.25, 3.07, 313.44
370.31, 3.27, 313.42
370.37, 3.47, 313.40
¯370.43, 3.68, 313.37
370.50, 3.88, 313.35
370.56, 4.09, 313.33
370.62, 4.30, 313.30
370.69, 4.51, 313.28
370.75, 4.72, 313.25
370.81, 4.94, 313.23
370.88, 5.15, 313.20
370.95, 5.37, 313.18
371.01, 5.59, 313.15
371.08, 5.81, 313.13
371.57, 6.09, 313.04
372.25, 6.40, 312.92
361.04, 2.21, 314.72
361.38, 2.23, 314.67
361.77, 2.24, 314.61
362.20, 2.25, 314.54
362.67, 2.27, 314.47
363.20, 2.28, 314.38
363.57, 2.34, 314.32
363.96, 2.40, 314.26
364.38, 2.47, 314.19
364.83, 2.54, 314.11
365.74, 2.57, 313.97
366.78, 2.61, 313.81
368.92, 2.57, 313.48
369.79, 2.68, 313.34
370.00, 2.87, 313.29
370.06, 3.06, 313.27
370.12, 3.26, 313.24
370.18, 3.46, 313.22
370.24, 3.67, 313.20
370.30, 3.87, 313.17
370.36, 4.08, 313.15
370.43, 4.28, 313.12
370.49, 4.49, 313.10
370.55, 4.70, 313.07
370.61, 4.91, 313.05
370.68, 5.13, 313.02
370.74, 5.34, 313.00
370.81, 5.56, 312.97
370.87, 5.78, 312.94
370.94, 6.00, 312.92
371.01, 6.23, 312.89
361.02, 2.21, 314.64
361.35, 2.22, 314.58
361.74, 2.23, 314.51
362.17, 2.25, 314.44
362.64, 2.26, 314.36
363.15, 2.28, 314.28
363.51, 2.34, 314.21
¯363.90, 2.40, 314.14
364.31, 2.47, 314.07
364.76, 2.54, 313.99
365.70, 2.56, 313.83
366.72, 2.60, 313.66
368.67, 2.57, 313.33
369.51, 2.69, 313.19
369.82, 2.86, 313.12
369.88, 3.06, 313.10
369.94, 3.26, 313.07
369.99, 3.46, 313.05
370.05, 3.66, 313.02
370.11, 3.86, 313.00
370.17, 4.06, 312.97
370.23, 4.27, 312.95
370.29, 4.47, 312.92
370.35, 4.68, 312.90
370.42, 4.89, 312.87
370.48, 5.10, 312.84
370.54, 5.31, 312.82
370.60, 5.53, 312.79
370.67, 5.75, 312.76
370.73, 5.97, 312.74
370.80, 6.19, 312.71
360.99, 2.20, 314.55
361.33, 2.22, 314.49
361.71, 2.23, 314.42
362.14, 2.24, 314.34
362.61, 2.26, 314.26
363.09, 2.28, 314.17
363.45, 2.34, 314.10
363.83, 2.40, 314.03
364.24, 2.47, 313.95
364.72, 2.53, 313.86
365.67, 2.56, 313.69
366.66, 2.59, 313.51
368.44, 2.58, 313.19
369.24, 2.70, 313.04
369.64, 2.86, 312.95
369.70, 3.05, 312.93
369.75, 3.25, 312.90
369.81, 3.45, 312.88
369.87, 3.64, 312.85
369.93, 3.84, 312.83
369.98, 4.05, 312.80
370.04, 4.25, 312.77
370.10, 4.45, 312.75
370.16, 4.66, 312.72
370.22, 4.87, 312.69
370.28, 5.08, 312.67
370.34, 5.29, 312.64
¯370.41, 5.50, 312.61
370.47, 5.72, 312.59
370.53, 5.93, 312.56
370.60, 6.15, 312.53
360.97, 2.20, 314.47
361.30, 2.21, 314.40
361.68, 2.22, 314.33
362.11, 2.24, 314.25
362.57, 2.25, 314.16
363.03, 2.28, 314.07
363.39, 2.34, 313.99
363.77, 2.40, 313.92
364.17, 2.46, 313.83
364.68, 2.53, 313.73
365.63, 2.55, 313.55
366.60, 2.59, 313.36
368.21, 2.59, 313.05
368.98, 2.70, 312.89
369.46, 2.85, 312.79
369.52, 3.05, 312.76
369.58, 3.24, 312.74
369.63, 3.44, 312.71
369.69, 3.63, 312.68
369.74, 3.83, 312.66
369.80, 4.03, 312.63
369.86, 4.23, 312.60
369.92, 4.43, 312.58
369.97, 4.64, 312.55
370.03, 4.84, 312.52
370.09, 5.05, 312.50
370.15, 5.26, 312.47
370.21, 5.47, 312.44
370.27, 5.68, 312.41
370.34, 5.90, 312.38
370.40, 6.12, 312.35
360.95, 2.19, 314.38
361.27, 2.21, 314.31
361.65, 2.22, 314.24
362.07, 2.23, 314.15
362.54, 2.25, 314.05
362.97, 2.28, 313.96
363.33, 2.33, 313.88
363.70, 2.39, 313.80
364.10, 2.46, 313.72
364.64, 2.52, 313.60
365.58, 2.54, 313.41
366.54, 2.58, 313.21
367.98, 2.59, 312.91
368.73, 2.70, 312.75
369.29, 2.85, 312.62
369.35, 3.04, 312.60
¯369.40, 3.23, 312.57
369.45, 3.43, 312.55
369.51, 3.62, 312.52
369.56, 3.82, 312.49
369.62, 4.01, 312.46
369.68, 4.21, 312.44
369.73, 4.41, 312.41
369.79, 4.62, 312.38
369.85, 4.82, 312.35
369.91, 5.03, 312.33
369.96, 5.23, 312.30
370.02, 5.44, 312.27
370.08, 5.65, 312.24
370.14, 5.87, 312.21
370.20, 6.08, 312.18
360.92, 2.19, 314.30
361.25, 2.20, 314.23
361.62, 2.22, 314.14
362.04, 2.23, 314.05
362.50, 2.24, 313.95
362.91, 2.28, 313.86
363.26, 2.33, 313.78
363.63, 2.39, 313.69
364.03, 2.46, 313.60
364.60, 2.51, 313.47
365.54, 2.53, 313.27
366.47, 2.57, 313.06
367.75, 2.60, 312.78
368.48, 2.71, 312.61
369.12, 2.85, 312.47
369.18, 3.03, 312.44
369.23, 3.22, 312.41
369.28, 3.42, 312.38
369.34, 3.61, 312.36
369.39, 3.80, 312.33
369.44, 4.00, 312.30
369.50, 4.20, 312.27
369.55, 4.40, 312.24
369.61, 4.60, 312.22
369.67, 4.80, 312.19
369.72, 5.00, 312.16
369.78, 5.21, 312.13
369.84, 5.41, 312.10
369.90, 5.62, 312.07
369.96, 5.83, 312.04
370.02, 6.05, 312.01
360.90, 2.18, 314.21
361.22, 2.20, 314.14
361.59, 2.21, 314.05
362.00, 2.22, 313.96
362.46, 2.24, 313.85
¯362.85, 2.27, 313.76
363.20, 2.33, 313.67
363.57, 2.39, 313.58
363.96, 2.45, 313.49
364.55, 2.50, 313.35
365.49, 2.52, 313.13
366.40, 2.56, 312.92
367.54, 2.60, 312.65
368.22, 2.71, 312.49
368.76, 2.85, 312.35
368.99, 3.03, 312.28
369.05, 3.22, 312.26
369.11, 3.41, 312.23
369.17, 3.60, 312.20
369.22, 3.79, 312.17
369.27, 3.98, 312.14
369.33, 4.18, 312.11
369.38, 4.38, 312.08
369.43, 4.58, 312.05
369.49, 4.78, 312.02
369.54, 4.98, 312.00
369.60, 5.18, 311.97
369.66, 5.39, 311.94
369.71, 5.59, 311.91
369.77, 5.80, 311.87
369.83, 6.01, 311.84
360.87, 2.17, 314.13
361.19, 2.19, 314.05
361.55, 2.21, 313.96
361.96, 2.22, 313.86
362.42, 2.23, 313.75
362.79, 2.27, 313.66
363.13, 2.33, 313.57
363.50, 2.39, 313.48
363.89, 2.45, 313.38
364.51, 2.49, 313.22
365.44, 2.51, 312.99
366.33, 2.55, 312.77
367.32, 2.61, 312.53
367.83, 2.73, 312.39
368.35, 2.87, 312.26
368.79, 3.02, 312.14
368.85, 3.21, 312.11
368.91, 3.40, 312.08
368.97, 3.59, 312.05
369.03, 3.78, 312.01
369.10, 3.97, 311.98
369.15, 4.16, 311.95
369.21, 4.36, 311.92
369.26, 4.56, 311.89
369.31, 4.75, 311.86
¯369.37, 4.95, 311.83
369.42, 5.16, 311.80
369.48, 5.36, 311.77
369.53, 5.56, 311.74
369.59, 5.77, 311.71
369.65, 5.98, 311.68
360.84, 2.17, 314.05
361.16, 2.19, 313.97
361.51, 2.20, 313.87
361.92, 2.21, 313.77
362.38, 2.22, 313.65
362.73, 2.27, 313.56
363.07, 2.32, 313.47
363.43, 2.38, 313.37
363.82, 2.45, 313.26
364.46, 2.48, 313.10
365.39, 2.50, 312.86
366.26, 2.54, 312.63
367.12, 2.61, 312.41
367.46, 2.75, 312.31
367.95, 2.88, 312.17
368.47, 3.03, 312.02
368.66, 3.20, 311.96
368.72, 3.39, 311.93
368.78, 3.58, 311.90
368.84, 3.76, 311.87
368.90, 3.95, 311.84
368.96, 4.15, 311.80
369.02, 4.34, 311.77
369.08, 4.53, 311.74
369.14, 4.73, 311.71
369.19, 4.93, 311.68
369.25, 5.13, 311.65
369.30, 5.33, 311.61
369.36, 5.54, 311.58
369.41, 5.74, 311.55
369.47, 5.95, 311.52
360.81, 2.16, 313.97
361.13, 2.18, 313.88
361.48, 2.20, 313.79
361.88, 2.21, 313.68
362.33, 2.22, 313.55
362.66, 2.27, 313.46
363.00, 2.32, 313.36
363.36, 2.38, 313.26
363.74, 2.44, 313.15
364.40, 2.48, 312.97
365.34, 2.49, 312.72
366.18, 2.53, 312.49
366.99, 2.61, 312.27
367.16, 2.76, 312.21
¯367.57, 2.90, 312.09
368.07, 3.04, 311.94
368.48, 3.19, 311.82
368.53, 3.38, 311.79
368.59, 3.56, 311.75
368.65, 3.75, 311.72
368.71, 3.94, 311.69
368.77, 4.13, 311.66
368.82, 4.32, 311.63
368.88, 4.51, 311.59
368.94, 4.71, 311.56
369.00, 4.91, 311.53
369.06, 5.10, 311.49
369.13, 5.30, 311.46
369.18, 5.51, 311.43
369.24, 5.71, 311.39
369.29, 5.92, 311.36
360.78, 2.16, 313.88
361.09, 2.18, 313.80
361.44, 2.19, 313.70
361.84, 2.20, 313.58
362.29, 2.21, 313.46
362.60, 2.26, 313.36
362.93, 2.32, 313.26
363.29, 2.38, 313.16
363.67, 2.44, 313.05
364.35, 2.47, 312.85
365.28, 2.48, 312.59
366.08, 2.53, 312.36
366.85, 2.60, 312.13
367.02, 2.75, 312.07
367.21, 2.91, 312.01
367.68, 3.05, 311.86
368.18, 3.19, 311.71
368.35, 3.37, 311.64
368.41, 3.55, 311.61
368.46, 3.74, 311.58
368.52, 3.92, 311.55
368.57, 4.11, 311.51
368.63, 4.30, 311.48
368.69, 4.49, 311.45
368.75, 4.69, 311.41
368.81, 4.88, 311.38
368.87, 5.08, 311.35
368.93, 5.28, 311.31
368.99, 5.48, 311.28
369.05, 5.68, 311.24
369.11, 5.89, 311.21
360.75, 2.15, 313.80
361.06, 2.17, 313.71
361.40, 2.19, 313.61
¯361.80, 2.20, 313.49
362.23, 2.21, 313.36
362.54, 2.26, 313.27
362.87, 2.32, 313.16
363.22, 2.37, 313.05
363.59, 2.44, 312.94
364.29, 2.46, 312.73
365.22, 2.47, 312.46
365.98, 2.52, 312.23
366.73, 2.60, 312.00
366.89, 2.75, 311.94
367.06, 2.90, 311.87
367.31, 3.05, 311.79
367.79, 3.20, 311.63
368.17, 3.36, 311.51
368.22, 3.54, 311.47
368.28, 3.72, 311.44
368.33, 3.91, 311.41
368.39, 4.10, 311.37
368.44, 4.28, 311.34
368.50, 4.47, 311.31
368.56, 4.66, 311.27
368.61, 4.86, 311.24
368.67, 5.05, 311.20
368.73, 5.25, 311.17
368.79, 5.45, 311.13
368.85, 5.65, 311.10
368.91, 5.85, 311.06
360.72, 2.15, 313.72
361.02, 2.16, 313.63
361.35, 2.18, 313.52
361.75, 2.19, 313.40
362.17, 2.21, 313.27
362.47, 2.26, 313.17
362.80, 2.31, 313.07
363.15, 2.37, 312.95
363.52, 2.43, 312.83
364.24, 2.45, 312.61
365.15, 2.46, 312.33
365.87, 2.52, 312.10
366.60, 2.59, 311.87
366.76, 2.74, 311.80
366.93, 2.89, 311.74
367.10, 3.05, 311.67
367.41, 3.20, 311.56
367.89, 3.35, 311.40
368.04, 3.53, 311.34
368.10, 3.71, 311.30
368.15, 3.89, 311.27
368.20, 4.08, 311.24
368.26, 4.27, 311.20
¯368.31, 4.45, 311.17
368.37, 4.64, 311.13
368.42, 4.83, 311.10
368.48, 5.03, 311.06
368.54, 5.22, 311.03
368.59, 5.42, 310.99
368.65, 5.62, 310.96
368.71, 5.82, 310.92
360.68, 2.14, 313.64
360.99, 2.16, 313.54
361.31, 2.18, 313.44
361.71, 2.19, 313.31
362.10, 2.21, 313.18
362.41, 2.26, 313.08
362.73, 2.31, 312.97
363.08, 2.37, 312.85
363.44, 2.43, 312.73
364.18, 2.44, 312.49
365.09, 2.45, 312.20
365.76, 2.51, 311.97
366.47, 2.59, 311.74
366.63, 2.74, 311.67
366.79, 2.89, 311.61
366.96, 3.04, 311.54
367.13, 3.20, 311.47
367.51, 3.36, 311.33
367.87, 3.52, 311.20
367.92, 3.70, 311.17
367.97, 3.88, 311.13
368.02, 4.06, 311.10
368.08, 4.25, 311.07
368.13, 4.43, 311.03
368.18, 4.62, 311.00
368.24, 4.81, 310.96
368.29, 5.00, 310.93
368.35, 5.19, 310.89
368.40, 5.39, 310.85
368.46, 5.59, 310.82
368.52, 5.78, 310.78
360.65, 2.14, 313.56
360.95, 2.15, 313.46
361.27, 2.17, 313.35
361.66, 2.18, 313.22
362.04, 2.20, 313.09
362.34, 2.25, 312.99
362.66, 2.31, 312.87
363.00, 2.36, 312.75
363.37, 2.42, 312.62
364.18, 2.42, 312.35
365.02, 2.44, 312.07
365.66, 2.51, 311.85
¯366.34, 2.58, 311.61
366.50, 2.73, 311.54
366.66, 2.88, 311.48
366.83, 3.03, 311.41
367.00, 3.19, 311.33
367.17, 3.35, 311.26
367.61, 3.51, 311.10
367.74, 3.69, 311.04
367.79, 3.87, 311.00
367.85, 4.05, 310.97
367.90, 4.23, 310.93
367.95, 4.41, 310.90
368.00, 4.60, 310.86
368.05, 4.79, 310.83
368.11, 4.98, 310.79
368.16, 5.17, 310.76
368.22, 5.36, 310.72
368.27, 5.55, 310.68
368.33, 5.75, 310.64
360.61, 2.13, 313.49
360.91, 2.15, 313.38
361.23, 2.16, 313.26
361.61, 2.18, 313.13
361.98, 2.20, 313.00
362.27, 2.25, 312.89
362.59, 2.30, 312.78
362.93, 2.36, 312.65
363.29, 2.42, 312.52
364.18, 2.40, 312.21
364.96, 2.43, 311.94
365.55, 2.50, 311.73
366.22, 2.58, 311.48
366.37, 2.72, 311.42
366.53, 2.87, 311.35
366.69, 3.02, 311.28
366.86, 3.18, 311.20
367.03, 3.34, 311.13
367.23, 3.51, 311.04
367.57, 3.67, 310.91
367.62, 3.85, 310.87
367.67, 4.03, 310.84
367.72, 4.21, 310.80
367.77, 4.39, 310.77
367.82, 4.58, 310.73
367.87, 4.76, 310.70
367.93, 4.95, 310.66
367.98, 5.14, 310.62
368.03, 5.33, 310.59
368.09, 5.52, 310.55
368.15, 5.72, 310.51
360.57, 2.13, 313.41
¯360.87, 2.14, 313.30
361.19, 2.16, 313.18
361.56, 2.17, 313.04
361.92, 2.20, 312.91
362.21, 2.25, 312.80
362.52, 2.30, 312.68
362.85, 2.35, 312.56
363.25, 2.41, 312.41
364.17, 2.39, 312.08
364.89, 2.42, 311.81
365.44, 2.49, 311.61
366.10, 2.57, 311.36
366.25, 2.71, 311.29
366.40, 2.86, 311.22
366.56, 3.02, 311.15
366.72, 3.17, 311.07
366.89, 3.33, 311.00
367.06, 3.50, 310.92
367.32, 3.66, 310.81
367.45, 3.84, 310.74
367.50, 4.01, 310.71
367.55, 4.19, 310.67
367.60, 4.37, 310.64
367.65, 4.56, 310.60
367.70, 4.74, 310.56
367.75, 4.93, 310.53
367.81, 5.12, 310.49
367.87, 5.31, 310.45
367.93, 5.50, 310.41
367.99, 5.69, 310.36
360.53, 2.12, 313.33
360.83, 2.14, 313.22
361.15, 2.15, 313.10
361.51, 2.17, 312.96
361.85, 2.19, 312.83
362.14, 2.24, 312.71
362.45, 2.29, 312.59
362.78, 2.35, 312.46
363.23, 2.39, 312.29
364.16, 2.37, 311.94
364.82, 2.41, 311.69
365.33, 2.49, 311.49
365.97, 2.56, 311.24
366.12, 2.71, 311.17
366.28, 2.86, 311.09
366.43, 3.01, 311.02
366.59, 3.16, 310.94
366.76, 3.32, 310.87
366.92, 3.48, 310.79
367.10, 3.65, 310.70
367.28, 3.82, 310.62
¯367.33, 4.00, 310.58
367.38, 4.18, 310.55
367.43, 4.36, 310.51
367.49, 4.54, 310.47
367.55, 4.72, 310.43
367.60, 4.90, 310.39
367.66, 5.09, 310.35
367.72, 5.28, 310.31
367.78, 5.47, 310.26
367.84, 5.67, 310.22
360.49, 2.12, 313.25
360.79, 2.13, 313.14
361.10, 2.15, 313.01
361.46, 2.16, 312.87
361.79, 2.19, 312.74
362.07, 2.24, 312.62
362.38, 2.29, 312.50
362.71, 2.34, 312.36
363.21, 2.38, 312.17
364.15, 2.35, 311.80
364.75, 2.40, 311.56
365.22, 2.48, 311.37
365.85, 2.56, 311.11
366.00, 2.70, 311.04
366.15, 2.85, 310.97
366.30, 3.00, 310.89
366.46, 3.15, 310.82
366.62, 3.31, 310.74
366.79, 3.47, 310.66
366.96, 3.64, 310.57
367.12, 3.81, 310.49
367.18, 3.98, 310.45
367.24, 4.16, 310.41
367.29, 4.34, 310.37
367.35, 4.52, 310.33
367.40, 4.70, 310.29
367.46, 4.88, 310.25
367.52, 5.07, 310.21
367.57, 5.26, 310.17
367.63, 5.45, 310.13
367.69, 5.64, 310.08
360.45, 2.11, 313.18
360.74, 2.12, 313.06
361.06, 2.14, 312.93
361.40, 2.16, 312.79
361.72, 2.19, 312.65
362.00, 2.24, 312.54
362.31, 2.28, 312.41
362.64, 2.34, 312.27
363.18, 2.36, 312.05
364.14, 2.33, 311.66
¯364.68, 2.39, 311.44
365.15, 2.47, 311.24
365.73, 2.55, 310.99
365.88, 2.69, 310.92
366.02, 2.84, 310.85
366.17, 2.99, 310.77
366.33, 3.14, 310.69
366.49, 3.30, 310.61
366.65, 3.46, 310.53
366.80, 3.62, 310.45
366.96, 3.79, 310.37
367.04, 3.97, 310.32
367.09, 4.14, 310.28
367.15, 4.32, 310.24
367.20, 4.50, 310.20
367.26, 4.68, 310.16
367.31, 4.86, 310.11
367.37, 5.05, 310.07
367.43, 5.23, 310.03
367.48, 5.42, 309.99
367.54, 5.61, 309.95
360.41, 2.10, 313.10
360.70, 2.12, 312.98
361.01, 2.13, 312.85
361.35, 2.15, 312.70
361.66, 2.18, 312.57
361.94, 2.23, 312.45
362.24, 2.28, 312.32
362.57, 2.33, 312.17
363.15, 2.35, 311.93
364.12, 2.31, 311.52
364.61, 2.38, 311.31
365.07, 2.46, 311.11
365.61, 2.54, 310.88
365.75, 2.68, 310.80
365.90, 2.83, 310.72
366.05, 2.98, 310.65
366.20, 3.13, 310.57
366.35, 3.29, 310.49
366.49, 3.45, 310.41
366.65, 3.61, 310.33
366.80, 3.78, 310.25
366.89, 3.95, 310.19
366.95, 4.12, 310.15
367.00, 4.30, 310.11
367.06, 4.48, 310.07
367.11, 4.66, 310.02
367.17, 4.84, 309.98
367.23, 5.02, 309.94
367.28, 5.21, 309.90
367.34, 5.40, 309.85
¯367.39, 5.59, 309.81
360.37, 2.10, 313.03
360.65, 2.11, 312.90
360.96, 2.13, 312.77
361.30, 2.14, 312.62
361.59, 2.18, 312.49
361.87, 2.23, 312.36
362.17, 2.27, 312.22
362.49, 2.33, 312.08
363.11, 2.33, 311.81
364.10, 2.29, 311.39
364.54, 2.37, 311.19
365.00, 2.45, 310.98
365.49, 2.53, 310.76
365.63, 2.68, 310.68
365.77, 2.82, 310.60
365.92, 2.97, 310.53
366.06, 3.12, 310.45
366.20, 3.27, 310.37
366.34, 3.43, 310.29
366.49, 3.60, 310.21
366.65, 3.76, 310.13
366.75, 3.93, 310.06
366.80, 4.11, 310.02
366.86, 4.28, 309.98
366.91, 4.46, 309.94
366.97, 4.64, 309.89
367.02, 4.82, 309.85
367.08, 5.00, 309.81
367.13, 5.18, 309.76
367.19, 5.37, 309.72
367.25, 5.56, 309.67
360.32, 2.09, 312.95
360.61, 2.11, 312.82
360.91, 2.12, 312.68
361.25, 2.14, 312.53
361.53, 2.18, 312.40
361.81, 2.22, 312.27
362.10, 2.27, 312.14
362.42, 2.32, 311.99
363.07, 2.32, 311.70
364.04, 2.28, 311.27
364.46, 2.36, 311.07
364.92, 2.43, 310.85
365.37, 2.53, 310.64
365.51, 2.67, 310.56
365.64, 2.81, 310.49
365.78, 2.96, 310.41
365.91, 3.11, 310.34
366.05, 3.26, 310.26
366.20, 3.42, 310.18
¯366.34, 3.58, 310.09
366.49, 3.75, 310.01
366.61, 3.92, 309.94
366.66, 4.09, 309.89
366.71, 4.26, 309.85
366.77, 4.44, 309.81
366.82, 4.62, 309.77
366.88, 4.80, 309.72
366.93, 4.98, 309.68
366.99, 5.16, 309.63
367.04, 5.35, 309.59
367.10, 5.53, 309.54
360.28, 2.09, 312.88
360.56, 2.10, 312.75
360.86, 2.12, 312.60
361.19, 2.13, 312.45
361.47, 2.17, 312.32
361.74, 2.22, 312.19
362.03, 2.26, 312.05
362.35, 2.31, 311.90
363.03, 2.31, 311.58
363.97, 2.27, 311.15
364.39, 2.34, 310.95
364.84, 2.42, 310.73
365.25, 2.52, 310.53
365.38, 2.66, 310.45
365.51, 2.80, 310.38
365.64, 2.95, 310.30
365.77, 3.10, 310.22
365.91, 3.25, 310.14
366.05, 3.41, 310.06
366.19, 3.57, 309.98
366.34, 3.73, 309.89
366.47, 3.90, 309.81
366.52, 4.07, 309.77
366.57, 4.24, 309.73
366.62, 4.42, 309.68
366.68, 4.60, 309.64
366.73, 4.77, 309.60
366.78, 4.95, 309.55
366.84, 5.14, 309.51
366.89, 5.32, 309.46
366.95, 5.51, 309.41
360.23, 2.08, 312.81
360.51, 2.10, 312.67
360.81, 2.11, 312.53
361.14, 2.13, 312.37
361.40, 2.17, 312.24
361.67, 2.21, 312.10
361.96, 2.26, 311.96
362.27, 2.31, 311.80
¯362.98, 2.29, 311.47
363.90, 2.26, 311.03
364.31, 2.33, 310.83
364.76, 2.41, 310.60
365.13, 2.51, 310.42
365.25, 2.65, 310.35
365.37, 2.79, 310.27
365.50, 2.94, 310.19
365.63, 3.09, 310.11
365.77, 3.24, 310.03
365.90, 3.40, 309.95
366.04, 3.55, 309.86
366.19, 3.72, 309.78
366.33, 3.88, 309.69
366.38, 4.05, 309.65
366.43, 4.23, 309.60
366.48, 4.40, 309.56
366.53, 4.58, 309.51
366.59, 4.75, 309.47
366.64, 4.93, 309.42
366.69, 5.11, 309.38
366.75, 5.30, 309.33
366.80, 5.48, 309.29
360.19, 2.08, 312.73
360.46, 2.09, 312.60
360.76, 2.10, 312.45
361.08, 2.12, 312.29
361.34, 2.16, 312.16
361.61, 2.20, 312.02
361.89, 2.25, 311.87
362.20, 2.30, 311.72
362.93, 2.28, 311.36
363.82, 2.25, 310.92
364.24, 2.32, 310.71
364.66, 2.40, 310.49
365.01, 2.50, 310.30
365.13, 2.64, 310.23
365.24, 2.79, 310.16
365.36, 2.93, 310.08
365.49, 3.08, 310.00
365.62, 3.23, 309.92
365.76, 3.38, 309.84
365.90, 3.54, 309.75
366.04, 3.70, 309.66
366.18, 3.87, 309.57
366.24, 4.04, 309.52
366.29, 4.21, 309.48
366.34, 4.38, 309.44
366.39, 4.56, 309.39
366.45, 4.73, 309.35
366.50, 4.91, 309.30
¯366.55, 5.09, 309.25
366.60, 5.27, 309.21
366.65, 5.46, 309.16
360.14, 2.07, 312.66
360.41, 2.08, 312.52
360.71, 2.10, 312.37
361.03, 2.11, 312.21
361.27, 2.15, 312.08
361.54, 2.20, 311.94
361.82, 2.25, 311.79
362.12, 2.30, 311.63
362.87, 2.27, 311.25
363.75, 2.24, 310.81
364.16, 2.31, 310.59
364.53, 2.40, 310.39
364.90, 2.49, 310.20
365.01, 2.63, 310.12
365.12, 2.78, 310.05
365.23, 2.92, 309.98
365.36, 3.07, 309.89
365.48, 3.22, 309.81
365.62, 3.37, 309.73
365.75, 3.53, 309.64
365.89, 3.69, 309.55
366.03, 3.85, 309.46
366.11, 4.02, 309.40
366.16, 4.19, 309.36
366.21, 4.36, 309.31
366.25, 4.54, 309.27
366.30, 4.71, 309.22
366.36, 4.89, 309.18
366.41, 5.07, 309.13
366.46, 5.25, 309.08
366.51, 5.43, 309.04
360.09, 2.06, 312.59
360.36, 2.08, 312.45
360.65, 2.09, 312.29
360.97, 2.11, 312.13
361.21, 2.15, 312.00
361.47, 2.19, 311.85
361.75, 2.24, 311.70
362.05, 2.29, 311.54
362.81, 2.26, 311.15
363.68, 2.23, 310.69
364.06, 2.30, 310.49
364.41, 2.39, 310.29
364.78, 2.49, 310.09
364.89, 2.62, 310.01
365.00, 2.77, 309.94
365.11, 2.91, 309.86
365.22, 3.06, 309.79
¯365.35, 3.21, 309.70
365.48, 3.36, 309.62
365.61, 3.51, 309.53
365.74, 3.67, 309.44
365.88, 3.84, 309.35
365.97, 4.00, 309.28
366.02, 4.17, 309.24
366.07, 4.34, 309.19
366.12, 4.52, 309.15
366.17, 4.69, 309.10
366.21, 4.87, 309.05
366.27, 5.04, 309.01
366.32, 5.22, 308.96
366.37, 5.41, 308.91
360.04, 2.06, 312.52
360.31, 2.07, 312.38
360.60, 2.08, 312.22
360.91, 2.10, 312.05
361.15, 2.14, 311.92
361.40, 2.19, 311.77
361.68, 2.23, 311.62
361.97, 2.28, 311.45
362.74, 2.25, 311.04
363.60, 2.21, 310.58
363.94, 2.30, 310.39
364.28, 2.38, 310.19
364.66, 2.48, 309.98
364.77, 2.61, 309.91
364.88, 2.76, 309.83
364.99, 2.90, 309.75
365.10, 3.04, 309.68
365.21, 3.19, 309.60
365.34, 3.34, 309.51
365.47, 3.50, 309.42
365.60, 3.66, 309.33
365.73, 3.82, 309.24
365.84, 3.99, 309.16
365.88, 4.15, 309.12
365.93, 4.32, 309.07
365.98, 4.50, 309.03
366.03, 4.67, 308.98
366.08, 4.84, 308.93
366.13, 5.02, 308.89
366.17, 5.20, 308.84
366.22, 5.38, 308.79
359.99, 2.05, 312.45
360.26, 2.06, 312.30
360.54, 2.08, 312.14
360.84, 2.09, 311.97
361.08, 2.14, 311.84
361.33, 2.18, 311.69
¯361.60, 2.23, 311.54
361.90, 2.28, 311.37
362.67, 2.24, 310.94
363.50, 2.21, 310.48
363.82, 2.29, 310.30
364.16, 2.38, 310.10
364.53, 2.47, 309.88
364.65, 2.60, 309.80
364.76, 2.74, 309.72
364.86, 2.89, 309.64
364.97, 3.03, 309.57
365.09, 3.18, 309.49
365.20, 3.33, 309.40
365.32, 3.49, 309.32
365.45, 3.64, 309.23
365.59, 3.80, 309.13
365.71, 3.97, 309.05
365.75, 4.14, 309.00
365.80, 4.30, 308.95
365.84, 4.48, 308.91
365.89, 4.65, 308.86
365.94, 4.82, 308.81
365.99, 5.00, 308.77
366.04, 5.18, 308.72
366.08, 5.36, 308.67
359.94, 2.05, 312.38
360.20, 2.06, 312.23
360.49, 2.07, 312.07
360.78, 2.09, 311.90
361.01, 2.13, 311.76
361.26, 2.17, 311.61
361.53, 2.22, 311.45
361.82, 2.27, 311.28
362.60, 2.22, 310.84
363.39, 2.20, 310.39
363.70, 2.28, 310.20
364.04, 2.37, 310.00
364.40, 2.46, 309.79
364.53, 2.59, 309.69
364.64, 2.73, 309.61
364.74, 2.88, 309.54
364.85, 3.02, 309.46
364.96, 3.17, 309.38
365.07, 3.32, 309.29
365.19, 3.47, 309.21
365.31, 3.63, 309.12
365.44, 3.79, 309.02
365.57, 3.95, 308.93
365.62, 4.12, 308.88
365.66, 4.29, 308.84
365.71, 4.46, 308.79
¯365.76, 4.63, 308.74
365.80, 4.80, 308.69
365.85, 4.98, 308.65
365.90, 5.15, 308.60
365.95, 5.33, 308.55
359.89, 2.04, 312.32
360.15, 2.05, 312.16
360.43, 2.06, 312.00
360.72, 2.08, 311.82
360.95, 2.12, 311.68
361.19, 2.17, 311.53
361.46, 2.21, 311.37
361.74, 2.26, 311.20
362.52, 2.22, 310.75
363.28, 2.20, 310.30
363.59, 2.28, 310.11
363.92, 2.36, 309.91
364.27, 2.46, 309.69
364.42, 2.58, 309.59
364.52, 2.72, 309.51
364.62, 2.86, 309.43
364.73, 3.01, 309.35
364.84, 3.15, 309.27
364.95, 3.30, 309.18
365.06, 3.46, 309.10
365.18, 3.61, 309.01
365.30, 3.77, 308.92
365.43, 3.93, 308.82
365.49, 4.10, 308.77
365.53, 4.27, 308.72
365.58, 4.44, 308.67
365.62, 4.61, 308.63
365.67, 4.78, 308.58
365.72, 4.95, 308.53
365.77, 5.13, 308.48
365.82, 5.31, 308.42
359.84, 2.04, 312.25
360.09, 2.05, 312.09
360.37, 2.06, 311.92
360.65, 2.08, 311.75
360.88, 2.12, 311.61
361.12, 2.16, 311.46
361.38, 2.21, 311.29
361.66, 2.25, 311.12
362.44, 2.21, 310.65
363.19, 2.18, 310.20
363.47, 2.27, 310.02
363.79, 2.36, 309.82
364.14, 2.45, 309.60
364.30, 2.57, 309.48
364.40, 2.71, 309.40
¯364.51, 2.85, 309.32
364.61, 3.00, 309.24
364.72, 3.14, 309.16
364.82, 3.29, 309.07
364.94, 3.44, 308.99
365.05, 3.60, 308.90
365.16, 3.75, 308.81
365.29, 3.92, 308.72
365.36, 4.08, 308.65
365.40, 4.25, 308.61
365.45, 4.42, 308.56
365.49, 4.59, 308.51
365.54, 4.76, 308.46
365.59, 4.93, 308.40
365.64, 5.11, 308.35
365.69, 5.29, 308.30
359.78, 2.03, 312.18
360.04, 2.04, 312.02
360.31, 2.05, 311.85
360.59, 2.07, 311.68
360.81, 2.11, 311.53
361.05, 2.15, 311.38
361.31, 2.20, 311.21
361.59, 2.25, 311.04
362.36, 2.20, 310.56
363.11, 2.17, 310.10
363.35, 2.26, 309.93
363.67, 2.35, 309.73
364.01, 2.44, 309.50
364.19, 2.56, 309.38
364.29, 2.70, 309.30
364.39, 2.84, 309.22
364.49, 2.98, 309.14
364.59, 3.13, 309.05
364.70, 3.28, 308.97
364.81, 3.43, 308.88
364.92, 3.58, 308.79
365.03, 3.74, 308.70
365.15, 3.90, 308.61
365.23, 4.06, 308.54
365.27, 4.23, 308.49
365.32, 4.40, 308.44
365.37, 4.57, 308.39
365.41, 4.74, 308.34
365.46, 4.91, 308.28
365.51, 5.09, 308.23
365.56, 5.26, 308.18
359.73, 2.02, 312.12
359.98, 2.03, 311.96
360.25, 2.04, 311.78
360.52, 2.06, 311.60
¯360.75, 2.10, 311.46
360.98, 2.15, 311.30
361.23, 2.19, 311.14
361.51, 2.24, 310.95
362.38, 2.17, 310.41
363.03, 2.16, 309.99
363.25, 2.26, 309.84
363.55, 2.34, 309.64
363.88, 2.43, 309.41
364.07, 2.55, 309.28
364.17, 2.69, 309.20
364.27, 2.83, 309.11
364.37, 2.97, 309.03
364.47, 3.11, 308.95
364.58, 3.26, 308.86
364.69, 3.41, 308.77
364.79, 3.57, 308.68
364.91, 3.72, 308.59
365.00, 3.88, 308.51
365.08, 4.04, 308.43
365.14, 4.21, 308.38
365.19, 4.38, 308.32
365.24, 4.55, 308.27
365.29, 4.72, 308.22
365.33, 4.89, 308.16
365.38, 5.06, 308.11
365.43, 5.24, 308.06
359.67, 2.02, 312.05
359.92, 2.03, 311.89
360.19, 2.04, 311.71
360.46, 2.06, 311.53
360.68, 2.10, 311.38
360.91, 2.14, 311.23
361.16, 2.18, 311.06
361.43, 2.23, 310.88
362.41, 2.13, 310.24
362.94, 2.15, 309.89
363.16, 2.24, 309.74
363.43, 2.34, 309.55
363.75, 2.42, 309.32
363.96, 2.54, 309.17
364.05, 2.68, 309.09
364.15, 2.82, 309.01
364.25, 2.96, 308.93
364.35, 3.10, 308.84
364.46, 3.25, 308.75
364.56, 3.40, 308.66
364.66, 3.55, 308.58
364.75, 3.71, 308.50
364.84, 3.86, 308.42
364.93, 4.03, 308.34
¯364.99, 4.19, 308.28
365.04, 4.36, 308.22
365.10, 4.53, 308.16
365.15, 4.70, 308.11
365.20, 4.87, 308.05
365.25, 5.04, 307.99
365.30, 5.22, 307.94
359.62, 2.01, 311.99
359.86, 2.02, 311.82
360.13, 2.03, 311.64
360.39, 2.05, 311.46
360.61, 2.09, 311.31
360.84, 2.13, 311.15
361.08, 2.18, 310.98
361.35, 2.22, 310.80
362.44, 2.10, 310.08
362.86, 2.14, 309.79
363.07, 2.23, 309.63
363.31, 2.33, 309.46
363.63, 2.42, 309.23
363.85, 2.53, 309.07
363.94, 2.66, 308.99
364.04, 2.80, 308.91
364.13, 2.94, 308.82
364.23, 3.09, 308.74
364.33, 3.23, 308.65
364.43, 3.38, 308.56
364.51, 3.53, 308.49
364.60, 3.69, 308.41
364.69, 3.85, 308.33
364.77, 4.01, 308.25
364.85, 4.17, 308.17
364.90, 4.34, 308.12
364.95, 4.51, 308.06
365.00, 4.67, 308.00
365.05, 4.85, 307.95
365.11, 5.02, 307.89
365.16, 5.19, 307.83
359.56, 2.01, 311.93
359.80, 2.01, 311.76
360.07, 2.03, 311.58
360.33, 2.04, 311.39
360.54, 2.08, 311.24
360.77, 2.13, 311.08
361.01, 2.17, 310.90
361.27, 2.22, 310.72
362.46, 2.06, 309.92
362.77, 2.13, 309.69
362.98, 2.22, 309.53
363.21, 2.32, 309.36
363.50, 2.41, 309.15
¯363.73, 2.52, 308.97
363.83, 2.65, 308.89
363.92, 2.79, 308.81
364.02, 2.93, 308.72
364.11, 3.07, 308.63
364.20, 3.22, 308.55
364.28, 3.37, 308.47
364.37, 3.52, 308.40
364.45, 3.67, 308.32
364.53, 3.83, 308.24
364.62, 3.99, 308.16
364.71, 4.15, 308.07
364.76, 4.32, 308.02
364.81, 4.48, 307.96
364.86, 4.65, 307.90
364.91, 4.82, 307.84
364.96, 5.00, 307.78
365.01, 5.17, 307.72
359.50, 2.00, 311.87
359.74, 2.01, 311.69
360.00, 2.02, 311.51
360.26, 2.04, 311.32
360.47, 2.08, 311.17
360.70, 2.12, 311.00
360.93, 2.16, 310.83
361.19, 2.21, 310.64
362.47, 2.03, 309.76
362.68, 2.11, 309.59
362.90, 2.21, 309.43
363.12, 2.30, 309.26
363.37, 2.40, 309.06
363.62, 2.51, 308.87
363.71, 2.64, 308.79
363.80, 2.78, 308.70
363.90, 2.92, 308.62
363.98, 3.06, 308.54
364.06, 3.21, 308.46
364.14, 3.35, 308.39
364.22, 3.51, 308.31
364.30, 3.66, 308.23
364.38, 3.81, 308.15
364.47, 3.97, 308.07
364.55, 4.13, 307.98
364.62, 4.30, 307.92
364.67, 4.46, 307.86
364.71, 4.63, 307.80
364.76, 4.80, 307.74
364.81, 4.97, 307.68
364.87, 5.15, 307.62
359.45, 1.99, 311.80
359.68, 2.00, 311.63
¯359.94, 2.01, 311.44
360.19, 2.03, 311.26
360.40, 2.07, 311.10
360.62, 2.11, 310.93
360.86, 2.15, 310.75
361.11, 2.20, 310.56
362.40, 2.01, 309.65
