ŸVERSION 0.7
FIELDS x y z
SIZE 8 8 8
TYPE F F F
COUNT 1 1 1
WIDTH 2271
HEIGHT 1
VIEWPOINT 419.30, 13.94, 317.62 1 407.31, 7.72, 333.19
POINTS 2271
DATA ascii
400.96, 5.55, 329.33
400.65, 5.54, 329.28
400.32, 5.54, 329.23
399.94, 5.53, 329.18
399.55, 5.52, 329.12
399.19, 5.53, 329.06
398.67, 5.51, 328.98
398.21, 5.51, 328.91
397.52, 5.48, 328.81
396.63, 5.42, 328.67
395.46, 5.32, 328.49
394.36, 5.27, 328.33
393.07, 5.21, 328.13
391.53, 5.15, 327.89
389.56, 5.05, 327.59
386.66, 4.88, 327.15
402.59, 5.60, 329.64
402.40, 5.60, 329.62
402.20, 5.59, 329.59
401.99, 5.58, 329.56
401.76, 5.58, 329.53
401.52, 5.57, 329.49
401.25, 5.56, 329.46
400.97, 5.56, 329.42
400.65, 5.55, 329.37
400.32, 5.54, 329.33
399.95, 5.53, 329.27
399.55, 5.52, 329.22
399.19, 5.53, 329.17
398.67, 5.51, 329.10
398.20, 5.51, 329.03
397.51, 5.48, 328.94
396.63, 5.42, 328.81
395.48, 5.33, 328.65
394.39, 5.28, 328.50
393.11, 5.22, 328.32
391.59, 5.15, 328.10
389.64, 5.06, 327.83
386.82, 4.89, 327.44
402.59, 5.60, 329.71
402.40, 5.60, 329.68
¯402.20, 5.59, 329.66
401.99, 5.58, 329.63
401.76, 5.58, 329.60
401.52, 5.57, 329.57
401.25, 5.56, 329.54
400.97, 5.56, 329.50
400.65, 5.55, 329.46
400.32, 5.54, 329.42
399.95, 5.53, 329.37
399.55, 5.52, 329.32
399.19, 5.53, 329.28
398.67, 5.51, 329.21
398.20, 5.51, 329.15
397.52, 5.48, 329.06
396.64, 5.42, 328.95
395.51, 5.33, 328.81
394.42, 5.28, 328.67
393.15, 5.22, 328.50
391.64, 5.16, 328.31
389.72, 5.07, 328.07
386.98, 4.91, 327.72
402.59, 5.60, 329.77
402.40, 5.60, 329.75
402.20, 5.59, 329.73
401.99, 5.59, 329.70
401.76, 5.58, 329.68
401.52, 5.57, 329.65
401.26, 5.57, 329.62
400.97, 5.56, 329.58
400.66, 5.55, 329.55
400.32, 5.54, 329.51
399.95, 5.53, 329.47
399.55, 5.52, 329.42
399.19, 5.53, 329.38
398.67, 5.51, 329.32
398.20, 5.51, 329.27
397.52, 5.47, 329.19
396.65, 5.42, 329.09
395.53, 5.33, 328.96
394.45, 5.28, 328.84
393.18, 5.22, 328.69
391.70, 5.16, 328.52
389.81, 5.07, 328.30
387.12, 4.92, 327.99
402.59, 5.60, 329.83
402.40, 5.60, 329.81
402.20, 5.59, 329.79
401.99, 5.59, 329.77
401.76, 5.58, 329.75
401.52, 5.57, 329.72
401.26, 5.57, 329.70
¯400.97, 5.56, 329.67
400.66, 5.55, 329.64
400.33, 5.54, 329.60
399.96, 5.53, 329.57
399.55, 5.51, 329.52
399.19, 5.52, 329.49
398.68, 5.50, 329.44
398.20, 5.51, 329.39
397.52, 5.47, 329.32
396.66, 5.42, 329.23
395.56, 5.33, 329.11
394.49, 5.28, 329.00
393.22, 5.23, 328.87
391.76, 5.17, 328.72
389.90, 5.08, 328.53
387.25, 4.93, 328.26
402.59, 5.60, 329.90
402.40, 5.60, 329.88
402.21, 5.59, 329.86
401.99, 5.59, 329.84
401.77, 5.58, 329.82
401.52, 5.57, 329.80
401.26, 5.57, 329.78
400.98, 5.56, 329.75
400.67, 5.55, 329.73
400.33, 5.54, 329.70
399.97, 5.53, 329.66
399.55, 5.51, 329.63
399.19, 5.52, 329.59
398.68, 5.50, 329.55
398.20, 5.50, 329.50
397.53, 5.47, 329.44
396.67, 5.42, 329.37
395.58, 5.34, 329.27
394.52, 5.29, 329.17
393.26, 5.23, 329.06
391.81, 5.17, 328.93
389.98, 5.09, 328.76
387.38, 4.95, 328.53
402.59, 5.60, 329.96
402.41, 5.60, 329.95
402.21, 5.59, 329.93
402.00, 5.59, 329.92
401.77, 5.58, 329.90
401.53, 5.57, 329.88
401.27, 5.57, 329.86
400.98, 5.56, 329.84
400.67, 5.55, 329.81
400.34, 5.54, 329.79
399.97, 5.53, 329.76
399.56, 5.51, 329.73
¯399.19, 5.52, 329.70
398.69, 5.50, 329.66
398.20, 5.50, 329.62
397.53, 5.47, 329.57
396.68, 5.41, 329.50
395.61, 5.34, 329.42
394.56, 5.29, 329.34
393.31, 5.23, 329.24
391.87, 5.17, 329.13
390.06, 5.10, 328.99
387.52, 4.96, 328.79
402.59, 5.60, 330.02
402.41, 5.60, 330.01
402.21, 5.59, 330.00
402.00, 5.59, 329.99
401.77, 5.58, 329.97
401.53, 5.57, 329.96
401.27, 5.57, 329.94
400.99, 5.56, 329.92
400.68, 5.55, 329.90
400.35, 5.54, 329.88
399.98, 5.53, 329.85
399.57, 5.51, 329.83
399.20, 5.52, 329.80
398.69, 5.50, 329.77
398.20, 5.50, 329.74
397.53, 5.47, 329.70
396.69, 5.41, 329.64
395.64, 5.34, 329.57
394.60, 5.29, 329.50
393.35, 5.24, 329.42
391.92, 5.18, 329.33
390.15, 5.10, 329.21
387.65, 4.97, 329.04
402.59, 5.60, 330.09
402.41, 5.60, 330.08
402.21, 5.59, 330.07
402.00, 5.59, 330.06
401.78, 5.58, 330.04
401.54, 5.58, 330.03
401.28, 5.57, 330.02
401.00, 5.56, 330.00
400.69, 5.55, 329.99
400.35, 5.54, 329.97
399.99, 5.53, 329.95
399.58, 5.52, 329.93
399.20, 5.52, 329.91
398.70, 5.50, 329.88
398.20, 5.50, 329.86
397.54, 5.47, 329.82
396.70, 5.41, 329.78
¯395.68, 5.34, 329.72
394.64, 5.30, 329.66
393.40, 5.24, 329.60
391.98, 5.18, 329.52
390.23, 5.11, 329.43
387.79, 4.98, 329.30
402.60, 5.60, 330.15
402.42, 5.60, 330.14
402.22, 5.59, 330.14
402.01, 5.59, 330.13
401.79, 5.58, 330.12
401.54, 5.58, 330.11
401.28, 5.57, 330.10
401.00, 5.56, 330.09
400.70, 5.55, 330.07
400.36, 5.54, 330.06
400.00, 5.53, 330.05
399.59, 5.52, 330.03
399.21, 5.52, 330.01
398.71, 5.50, 329.99
398.21, 5.49, 329.97
397.54, 5.46, 329.95
396.71, 5.41, 329.91
395.73, 5.35, 329.87
394.68, 5.30, 329.83
393.45, 5.24, 329.78
392.04, 5.19, 329.72
390.32, 5.12, 329.65
386.18, 4.75, 329.47
402.60, 5.60, 330.21
402.42, 5.60, 330.21
402.22, 5.59, 330.20
402.02, 5.59, 330.20
401.79, 5.58, 330.19
401.55, 5.58, 330.18
401.29, 5.57, 330.18
401.01, 5.56, 330.17
400.71, 5.55, 330.16
400.37, 5.54, 330.15
400.02, 5.53, 330.14
399.60, 5.52, 330.13
399.22, 5.52, 330.12
398.72, 5.50, 330.10
398.21, 5.49, 330.09
397.55, 5.46, 330.07
396.73, 5.41, 330.05
395.78, 5.36, 330.02
394.72, 5.30, 329.99
393.50, 5.25, 329.95
392.10, 5.19, 329.91
390.41, 5.12, 329.86
¯386.38, 4.77, 329.74
402.61, 5.60, 330.28
402.43, 5.60, 330.27
402.23, 5.60, 330.27
402.02, 5.59, 330.27
401.80, 5.58, 330.26
401.56, 5.58, 330.26
401.30, 5.57, 330.26
401.02, 5.56, 330.25
400.72, 5.55, 330.25
400.38, 5.54, 330.24
400.03, 5.53, 330.24
399.62, 5.52, 330.23
399.22, 5.52, 330.22
398.73, 5.50, 330.21
398.22, 5.49, 330.21
397.56, 5.46, 330.20
396.74, 5.41, 330.18
395.84, 5.36, 330.17
394.76, 5.31, 330.15
393.55, 5.25, 330.13
392.16, 5.19, 330.11
390.50, 5.13, 330.08
386.58, 4.79, 330.01
402.61, 5.60, 330.34
402.43, 5.60, 330.34
402.24, 5.60, 330.34
402.03, 5.59, 330.34
401.81, 5.58, 330.34
401.57, 5.58, 330.34
401.31, 5.57, 330.33
401.03, 5.56, 330.33
400.73, 5.55, 330.33
400.40, 5.54, 330.33
400.04, 5.54, 330.33
399.63, 5.52, 330.33
399.23, 5.52, 330.33
398.75, 5.50, 330.33
398.22, 5.49, 330.32
397.57, 5.46, 330.32
396.76, 5.41, 330.32
395.88, 5.37, 330.31
394.81, 5.31, 330.31
393.60, 5.25, 330.30
392.23, 5.20, 330.30
389.32, 4.94, 330.28
386.75, 4.80, 330.27
402.62, 5.61, 330.40
402.44, 5.60, 330.40
402.25, 5.60, 330.41
402.04, 5.59, 330.41
¯401.82, 5.59, 330.41
401.58, 5.58, 330.41
401.32, 5.57, 330.41
401.04, 5.56, 330.42
400.74, 5.56, 330.42
400.41, 5.54, 330.42
400.06, 5.54, 330.42
399.65, 5.52, 330.43
399.24, 5.51, 330.43
398.76, 5.50, 330.43
398.23, 5.49, 330.44
397.58, 5.46, 330.44
396.78, 5.41, 330.45
395.91, 5.37, 330.46
394.85, 5.31, 330.47
393.66, 5.26, 330.47
392.29, 5.20, 330.49
389.41, 4.95, 330.50
386.88, 4.81, 330.52
402.63, 5.61, 330.46
402.45, 5.60, 330.47
402.25, 5.60, 330.47
402.05, 5.59, 330.48
401.82, 5.59, 330.48
401.59, 5.58, 330.49
401.33, 5.57, 330.49
401.06, 5.57, 330.50
400.75, 5.56, 330.50
400.42, 5.55, 330.51
400.07, 5.54, 330.52
399.67, 5.52, 330.53
399.25, 5.51, 330.53
398.78, 5.50, 330.54
398.24, 5.48, 330.56
397.59, 5.45, 330.57
396.80, 5.41, 330.58
395.93, 5.37, 330.60
394.90, 5.32, 330.62
393.72, 5.26, 330.65
391.31, 5.03, 330.69
389.50, 4.95, 330.73
387.01, 4.82, 330.78
402.63, 5.61, 330.53
402.45, 5.60, 330.53
402.26, 5.60, 330.54
402.06, 5.59, 330.55
401.84, 5.59, 330.55
401.60, 5.58, 330.56
401.34, 5.57, 330.57
401.07, 5.57, 330.58
400.77, 5.56, 330.59
¯400.44, 5.55, 330.60
400.09, 5.54, 330.61
399.69, 5.52, 330.62
399.26, 5.51, 330.64
398.79, 5.50, 330.65
398.25, 5.48, 330.67
397.61, 5.45, 330.69
396.82, 5.41, 330.72
395.96, 5.37, 330.74
394.95, 5.32, 330.78
392.80, 5.09, 330.84
391.38, 5.04, 330.89
389.60, 4.96, 330.95
387.15, 4.83, 331.03
402.64, 5.61, 330.59
402.46, 5.60, 330.60
402.27, 5.60, 330.61
402.07, 5.59, 330.62
401.85, 5.59, 330.63
401.61, 5.58, 330.64
401.36, 5.57, 330.65
401.08, 5.57, 330.66
400.78, 5.56, 330.67
400.46, 5.55, 330.69
400.11, 5.54, 330.70
399.71, 5.52, 330.72
399.27, 5.51, 330.74
398.81, 5.50, 330.76
398.26, 5.48, 330.79
397.62, 5.45, 330.82
396.84, 5.41, 330.85
395.99, 5.37, 330.89
395.00, 5.32, 330.93
392.86, 5.09, 331.02
391.46, 5.04, 331.09
389.69, 4.97, 331.16
387.28, 4.84, 331.27
383.01, 4.53, 331.46
402.65, 5.61, 330.65
402.47, 5.60, 330.66
402.28, 5.60, 330.67
402.08, 5.59, 330.68
401.86, 5.59, 330.70
401.62, 5.58, 330.71
401.37, 5.58, 330.72
401.10, 5.57, 330.74
400.80, 5.56, 330.76
400.47, 5.55, 330.78
400.12, 5.54, 330.80
399.73, 5.53, 330.82
399.29, 5.51, 330.84
¯398.83, 5.50, 330.87
398.27, 5.48, 330.90
397.64, 5.45, 330.94
396.87, 5.41, 330.98
396.02, 5.37, 331.03
394.12, 5.14, 331.13
392.92, 5.10, 331.20
391.53, 5.04, 331.28
389.79, 4.97, 331.38
387.42, 4.85, 331.51
383.36, 4.56, 331.74
402.66, 5.61, 330.71
402.48, 5.60, 330.73
402.29, 5.60, 330.74
402.09, 5.59, 330.75
401.87, 5.59, 330.77
401.64, 5.58, 330.78
401.38, 5.58, 330.80
401.11, 5.57, 330.82
400.82, 5.56, 330.84
400.49, 5.55, 330.86
400.14, 5.54, 330.89
399.75, 5.53, 330.92
399.31, 5.51, 330.95
398.85, 5.50, 330.98
398.29, 5.48, 331.02
397.66, 5.45, 331.06
396.89, 5.41, 331.11
395.23, 5.20, 331.22
394.17, 5.15, 331.30
392.98, 5.10, 331.38
391.61, 5.05, 331.48
389.89, 4.98, 331.59
387.55, 4.86, 331.76
383.71, 4.60, 332.02
402.67, 5.61, 330.77
402.49, 5.60, 330.79
402.30, 5.60, 330.80
402.10, 5.60, 330.82
401.88, 5.59, 330.84
401.65, 5.58, 330.86
401.40, 5.58, 330.88
401.13, 5.57, 330.90
400.83, 5.56, 330.93
400.51, 5.55, 330.95
400.16, 5.54, 330.98
399.77, 5.53, 331.01
399.33, 5.51, 331.05
398.87, 5.50, 331.09
398.31, 5.48, 331.13
397.68, 5.45, 331.18
¯396.92, 5.41, 331.24
395.27, 5.20, 331.37
394.22, 5.15, 331.46
393.05, 5.10, 331.56
391.68, 5.05, 331.67
389.99, 4.99, 331.81
387.69, 4.87, 331.99
384.05, 4.63, 332.29
402.68, 5.61, 330.84
402.50, 5.61, 330.85
402.32, 5.60, 330.87
402.11, 5.60, 330.89
401.90, 5.59, 330.91
401.67, 5.58, 330.93
401.42, 5.58, 330.96
401.15, 5.57, 330.98
400.85, 5.56, 331.01
400.53, 5.55, 331.04
400.18, 5.54, 331.07
399.79, 5.53, 331.11
399.36, 5.51, 331.15
398.89, 5.50, 331.19
398.34, 5.48, 331.25
397.70, 5.45, 331.31
396.20, 5.24, 331.44
395.32, 5.20, 331.52
394.27, 5.15, 331.62
393.12, 5.11, 331.73
391.76, 5.06, 331.86
390.09, 4.99, 332.01
387.83, 4.88, 332.23
384.39, 4.67, 332.55
402.69, 5.61, 330.90
402.52, 5.61, 330.92
402.33, 5.60, 330.94
402.13, 5.60, 330.96
401.91, 5.59, 330.98
401.68, 5.59, 331.01
401.43, 5.58, 331.03
401.16, 5.57, 331.06
400.87, 5.56, 331.09
400.55, 5.55, 331.13
400.20, 5.54, 331.16
399.82, 5.53, 331.20
399.38, 5.51, 331.25
398.92, 5.50, 331.30
398.36, 5.48, 331.36
397.00, 5.27, 331.50
396.24, 5.24, 331.58
395.36, 5.20, 331.67
394.33, 5.15, 331.78
¯393.19, 5.11, 331.90
391.84, 5.06, 332.05
390.20, 5.00, 332.22
387.97, 4.89, 332.46
384.72, 4.70, 332.80
402.71, 5.61, 330.96
402.53, 5.61, 330.98
402.34, 5.60, 331.00
402.14, 5.60, 331.03
401.93, 5.59, 331.05
401.70, 5.59, 331.08
401.45, 5.58, 331.11
401.18, 5.57, 331.14
400.89, 5.57, 331.17
400.57, 5.56, 331.21
400.23, 5.54, 331.25
399.84, 5.53, 331.30
399.41, 5.52, 331.35
398.94, 5.50, 331.41
398.39, 5.48, 331.47
397.05, 5.28, 331.63
396.29, 5.25, 331.72
395.41, 5.21, 331.82
394.38, 5.16, 331.94
393.26, 5.12, 332.08
391.92, 5.07, 332.23
390.30, 5.01, 332.43
388.11, 4.90, 332.69
384.98, 4.72, 333.06
402.72, 5.61, 331.02
402.54, 5.61, 331.04
402.36, 5.60, 331.07
402.16, 5.60, 331.09
401.94, 5.59, 331.12
401.71, 5.59, 331.15
401.47, 5.58, 331.18
401.20, 5.57, 331.22
400.91, 5.57, 331.26
400.60, 5.56, 331.30
400.25, 5.55, 331.34
399.87, 5.53, 331.39
399.44, 5.52, 331.45
398.97, 5.50, 331.51
397.76, 5.31, 331.67
397.09, 5.28, 331.75
396.34, 5.25, 331.85
395.46, 5.21, 331.97
394.45, 5.16, 332.10
393.33, 5.12, 332.25
392.01, 5.07, 332.42
390.41, 5.01, 332.63
¯388.26, 4.91, 332.91
385.22, 4.74, 333.31
402.73, 5.61, 331.08
402.56, 5.61, 331.10
402.37, 5.60, 331.13
402.17, 5.60, 331.16
401.96, 5.59, 331.19
401.73, 5.59, 331.22
401.49, 5.58, 331.26
401.22, 5.58, 331.30
400.93, 5.57, 331.34
400.62, 5.56, 331.38
400.27, 5.55, 331.43
399.90, 5.54, 331.49
399.47, 5.52, 331.55
399.00, 5.50, 331.62
397.80, 5.31, 331.78
397.14, 5.28, 331.88
396.39, 5.25, 331.99
395.52, 5.21, 332.11
394.51, 5.17, 332.26
393.40, 5.13, 332.42
392.09, 5.08, 332.60
390.51, 5.02, 332.83
388.40, 4.92, 333.13
385.46, 4.76, 333.55
402.75, 5.61, 331.14
402.57, 5.61, 331.17
402.39, 5.60, 331.20
402.19, 5.60, 331.23
401.98, 5.60, 331.26
401.75, 5.59, 331.30
401.51, 5.58, 331.33
401.24, 5.58, 331.38
400.96, 5.57, 331.42
400.64, 5.56, 331.47
400.30, 5.55, 331.52
399.92, 5.54, 331.58
399.50, 5.52, 331.65
398.43, 5.34, 331.81
397.85, 5.32, 331.90
397.19, 5.29, 332.00
396.44, 5.25, 332.12
395.58, 5.21, 332.26
394.58, 5.17, 332.41
393.47, 5.13, 332.58
392.17, 5.08, 332.79
390.62, 5.03, 333.03
388.54, 4.93, 333.35
385.70, 4.78, 333.80
402.76, 5.61, 331.20
¯402.59, 5.61, 331.23
402.40, 5.61, 331.26
402.21, 5.60, 331.29
402.00, 5.60, 331.33
401.77, 5.59, 331.37
401.53, 5.58, 331.41
401.26, 5.58, 331.45
400.98, 5.57, 331.50
400.67, 5.56, 331.55
400.33, 5.55, 331.61
399.95, 5.54, 331.67
399.53, 5.52, 331.75
398.47, 5.35, 331.92
397.89, 5.32, 332.02
397.24, 5.29, 332.13
396.49, 5.26, 332.25
395.64, 5.22, 332.40
394.65, 5.17, 332.57
393.55, 5.13, 332.75
392.26, 5.09, 332.97
390.72, 5.03, 333.23
388.69, 4.94, 333.57
385.97, 4.81, 334.03
402.78, 5.61, 331.26
402.60, 5.61, 331.29
402.42, 5.61, 331.32
402.23, 5.60, 331.36
402.02, 5.60, 331.40
401.79, 5.59, 331.44
401.55, 5.59, 331.48
401.29, 5.58, 331.53
401.00, 5.57, 331.58
400.69, 5.56, 331.64
400.36, 5.55, 331.70
399.98, 5.54, 331.77
399.00, 5.37, 331.94
398.51, 5.35, 332.03
397.93, 5.32, 332.14
397.28, 5.30, 332.25
396.55, 5.26, 332.39
395.70, 5.22, 332.54
394.72, 5.18, 332.72
393.62, 5.14, 332.92
392.35, 5.09, 333.15
390.82, 5.04, 333.42
388.82, 4.95, 333.79
386.33, 4.84, 334.24
402.79, 5.61, 331.32
402.62, 5.61, 331.35
402.44, 5.61, 331.39
402.24, 5.60, 331.43
¯402.04, 5.60, 331.47
401.81, 5.59, 331.51
401.57, 5.59, 331.56
401.31, 5.58, 331.61
401.03, 5.57, 331.66
400.72, 5.56, 331.72
400.38, 5.55, 331.79
400.01, 5.54, 331.86
399.04, 5.37, 332.05
398.55, 5.35, 332.14
397.98, 5.33, 332.25
397.34, 5.30, 332.38
396.60, 5.27, 332.52
395.76, 5.23, 332.68
394.79, 5.18, 332.87
393.70, 5.14, 333.08
392.44, 5.10, 333.32
390.92, 5.04, 333.62
388.95, 4.96, 334.00
386.69, 4.88, 334.44
383.63, 4.76, 335.03
402.81, 5.61, 331.38
402.64, 5.61, 331.41
402.46, 5.61, 331.45
402.26, 5.60, 331.49
402.06, 5.60, 331.53
401.83, 5.59, 331.58
401.59, 5.59, 331.63
401.33, 5.58, 331.68
401.06, 5.57, 331.74
400.75, 5.56, 331.81
400.41, 5.55, 331.87
399.52, 5.39, 332.06
399.08, 5.37, 332.15
398.59, 5.35, 332.25
398.03, 5.33, 332.36
397.39, 5.30, 332.50
396.66, 5.27, 332.65
395.83, 5.23, 332.82
394.86, 5.19, 333.02
393.78, 5.15, 333.24
392.52, 5.10, 333.50
391.03, 5.05, 333.81
389.09, 4.97, 334.21
386.92, 4.90, 334.66
384.18, 4.81, 335.23
402.83, 5.62, 331.44
402.66, 5.61, 331.48
402.48, 5.61, 331.52
402.28, 5.60, 331.56
402.08, 5.60, 331.60
¯401.86, 5.59, 331.65
401.62, 5.59, 331.70
401.36, 5.58, 331.76
401.08, 5.57, 331.82
400.78, 5.57, 331.89
400.44, 5.56, 331.96
399.56, 5.39, 332.15
399.12, 5.37, 332.25
398.63, 5.36, 332.36
398.08, 5.33, 332.48
397.44, 5.31, 332.62
396.72, 5.27, 332.78
395.89, 5.24, 332.96
394.94, 5.19, 333.17
393.86, 5.15, 333.40
392.62, 5.11, 333.68
391.13, 5.05, 334.00
389.22, 4.97, 334.42
387.13, 4.92, 334.88
384.83, 4.88, 335.39
402.85, 5.62, 331.50
402.68, 5.61, 331.54
402.50, 5.61, 331.58
402.30, 5.60, 331.62
402.10, 5.60, 331.67
401.88, 5.60, 331.72
401.64, 5.59, 331.78
401.38, 5.58, 331.84
401.11, 5.58, 331.90
400.81, 5.57, 331.97
399.99, 5.41, 332.16
399.59, 5.39, 332.25
399.16, 5.38, 332.35
398.68, 5.36, 332.46
398.13, 5.34, 332.59
397.50, 5.31, 332.74
396.78, 5.28, 332.90
395.96, 5.24, 333.09
395.01, 5.20, 333.31
393.94, 5.16, 333.56
392.71, 5.11, 333.85
391.24, 5.06, 334.19
389.36, 4.98, 334.63
387.34, 4.93, 335.10
385.18, 4.91, 335.60
402.86, 5.62, 331.56
402.69, 5.61, 331.60
402.52, 5.61, 331.64
402.32, 5.61, 331.69
402.12, 5.60, 331.74
401.90, 5.60, 331.79
¯401.67, 5.59, 331.85
401.41, 5.58, 331.91
401.14, 5.58, 331.98
400.84, 5.57, 332.05
400.02, 5.41, 332.25
399.63, 5.39, 332.35
399.20, 5.38, 332.45
398.72, 5.36, 332.57
398.18, 5.34, 332.70
397.55, 5.31, 332.86
396.84, 5.28, 333.03
396.03, 5.25, 333.23
395.09, 5.20, 333.46
394.02, 5.16, 333.72
392.80, 5.12, 334.02
391.35, 5.07, 334.38
389.50, 4.99, 334.83
387.54, 4.95, 335.31
385.52, 4.94, 335.81
402.88, 5.62, 331.61
402.71, 5.61, 331.66
402.54, 5.61, 331.70
402.35, 5.61, 331.75
402.14, 5.60, 331.81
401.93, 5.60, 331.86
401.69, 5.59, 331.92
401.44, 5.59, 331.99
401.16, 5.58, 332.06
400.42, 5.42, 332.25
400.06, 5.41, 332.34
399.67, 5.40, 332.44
399.24, 5.38, 332.55
398.77, 5.37, 332.68
398.23, 5.34, 332.81
397.61, 5.32, 332.97
396.90, 5.29, 333.16
396.10, 5.25, 333.36
395.16, 5.21, 333.60
394.10, 5.17, 333.88
392.89, 5.12, 334.19
391.45, 5.07, 334.56
389.65, 5.00, 335.03
387.75, 4.96, 335.52
385.87, 4.98, 336.01
402.90, 5.62, 331.67
402.74, 5.62, 331.72
402.56, 5.61, 331.77
402.37, 5.61, 331.82
402.17, 5.60, 331.87
401.95, 5.60, 331.93
401.72, 5.59, 331.99
¯401.47, 5.59, 332.06
401.19, 5.58, 332.14
400.45, 5.42, 332.34
400.10, 5.41, 332.43
399.71, 5.40, 332.54
399.28, 5.38, 332.65
398.81, 5.37, 332.78
398.28, 5.35, 332.92
397.66, 5.32, 333.09
396.97, 5.29, 333.28
396.17, 5.25, 333.50
395.24, 5.21, 333.75
394.18, 5.17, 334.03
392.99, 5.13, 334.36
391.56, 5.08, 334.75
389.79, 5.01, 335.23
387.96, 4.98, 335.72
386.25, 5.01, 336.19
402.92, 5.62, 331.73
402.76, 5.62, 331.78
402.58, 5.61, 331.83
402.39, 5.61, 331.88
402.19, 5.60, 331.94
401.98, 5.60, 332.00
401.75, 5.59, 332.07
401.49, 5.59, 332.14
400.79, 5.43, 332.34
400.48, 5.43, 332.42
400.14, 5.42, 332.52
399.75, 5.40, 332.63
399.33, 5.39, 332.75
398.86, 5.37, 332.88
398.33, 5.35, 333.03
397.72, 5.32, 333.21
397.03, 5.29, 333.40
396.24, 5.26, 333.63
395.32, 5.22, 333.89
394.27, 5.17, 334.19
393.08, 5.13, 334.53
391.67, 5.08, 334.93
389.94, 5.02, 335.42
388.16, 4.99, 335.93
386.62, 5.04, 336.37
402.95, 5.62, 331.79
402.78, 5.62, 331.84
402.60, 5.61, 331.89
402.42, 5.61, 331.95
402.22, 5.61, 332.00
402.00, 5.60, 332.07
401.77, 5.60, 332.14
401.52, 5.59, 332.21
¯400.82, 5.43, 332.42
400.52, 5.43, 332.51
400.18, 5.42, 332.61
399.79, 5.40, 332.72
399.37, 5.39, 332.85
398.91, 5.37, 332.99
398.39, 5.36, 333.14
397.78, 5.33, 333.32
397.10, 5.30, 333.53
396.31, 5.26, 333.76
395.40, 5.22, 334.03
394.36, 5.18, 334.34
393.18, 5.14, 334.69
391.78, 5.09, 335.11
390.09, 5.03, 335.61
388.34, 5.01, 336.13
386.87, 5.06, 336.57
402.97, 5.62, 331.84
402.80, 5.62, 331.90
402.63, 5.61, 331.95
402.44, 5.61, 332.01
402.24, 5.61, 332.07
402.03, 5.60, 332.14
401.80, 5.60, 332.21
401.14, 5.44, 332.41
400.85, 5.43, 332.50
400.55, 5.43, 332.59
400.22, 5.42, 332.70
399.84, 5.41, 332.82
399.42, 5.39, 332.95
398.96, 5.38, 333.09
398.44, 5.36, 333.25
397.84, 5.33, 333.44
397.16, 5.30, 333.65
396.38, 5.27, 333.89
395.47, 5.23, 334.17
394.44, 5.18, 334.49
393.28, 5.14, 334.86
391.90, 5.10, 335.29
390.24, 5.04, 335.80
388.51, 5.02, 336.34
387.07, 5.08, 336.79
402.99, 5.62, 331.90
402.82, 5.62, 331.96
402.65, 5.61, 332.01
402.47, 5.61, 332.07
402.27, 5.61, 332.14
402.06, 5.60, 332.20
401.83, 5.60, 332.28
401.17, 5.44, 332.49
400.89, 5.43, 332.58
¯400.59, 5.43, 332.68
400.26, 5.42, 332.79
399.88, 5.41, 332.91
399.47, 5.40, 333.04
399.01, 5.38, 333.19
398.50, 5.36, 333.36
397.90, 5.34, 333.55
397.23, 5.31, 333.77
396.46, 5.27, 334.02
395.55, 5.23, 334.31
394.53, 5.19, 334.64
393.38, 5.15, 335.02
392.01, 5.10, 335.46
390.38, 5.05, 335.99
388.69, 5.03, 336.54
387.28, 5.09, 337.00
403.01, 5.62, 331.96
402.85, 5.62, 332.01
402.68, 5.62, 332.07
402.49, 5.61, 332.13
402.30, 5.61, 332.20
402.09, 5.60, 332.27
401.47, 5.45, 332.48
401.21, 5.44, 332.57
400.92, 5.44, 332.66
400.63, 5.43, 332.76
400.30, 5.42, 332.87
399.92, 5.41, 333.00
399.51, 5.40, 333.14
399.06, 5.38, 333.29
398.55, 5.36, 333.46
397.97, 5.34, 333.66
397.30, 5.31, 333.89
396.53, 5.28, 334.15
395.63, 5.23, 334.45
394.62, 5.19, 334.79
393.48, 5.15, 335.18
392.12, 5.11, 335.64
390.53, 5.06, 336.18
388.86, 5.04, 336.74
387.48, 5.10, 337.21
403.03, 5.62, 332.02
402.87, 5.62, 332.07
402.70, 5.62, 332.13
402.52, 5.61, 332.20
402.32, 5.61, 332.27
402.11, 5.60, 332.34
401.50, 5.45, 332.55
401.24, 5.44, 332.65
400.96, 5.44, 332.74
400.66, 5.43, 332.85
¯400.34, 5.43, 332.96
399.97, 5.41, 333.09
399.56, 5.40, 333.24
399.11, 5.38, 333.39
398.61, 5.37, 333.57
398.03, 5.34, 333.77
397.37, 5.32, 334.01
396.60, 5.28, 334.28
395.70, 5.24, 334.59
394.71, 5.20, 334.94
393.58, 5.16, 335.34
392.24, 5.11, 335.81
390.67, 5.07, 336.36
389.04, 5.05, 336.94
387.68, 5.11, 337.42
386.69, 5.25, 337.77
403.06, 5.62, 332.07
402.90, 5.62, 332.13
402.73, 5.62, 332.19
402.54, 5.61, 332.26
402.35, 5.61, 332.33
401.77, 5.46, 332.54
401.53, 5.45, 332.63
401.27, 5.45, 332.72
401.00, 5.44, 332.82
400.70, 5.43, 332.93
400.38, 5.43, 333.05
400.02, 5.42, 333.18
399.61, 5.40, 333.33
399.16, 5.39, 333.49
398.66, 5.37, 333.68
398.09, 5.35, 333.88
397.44, 5.32, 334.12
396.68, 5.28, 334.40
395.78, 5.24, 334.73
394.80, 5.20, 335.09
393.68, 5.16, 335.50
392.34, 5.12, 335.99
390.79, 5.07, 336.56
389.21, 5.06, 337.13
387.88, 5.12, 337.62
386.85, 5.26, 338.00
403.08, 5.62, 332.13
402.92, 5.62, 332.19
402.75, 5.62, 332.25
402.57, 5.61, 332.32
402.03, 5.47, 332.52
401.81, 5.46, 332.61
401.57, 5.45, 332.70
401.31, 5.45, 332.80
401.03, 5.44, 332.90
¯400.74, 5.44, 333.01
400.43, 5.43, 333.13
400.06, 5.42, 333.27
399.66, 5.41, 333.42
399.22, 5.39, 333.59
398.72, 5.37, 333.78
398.16, 5.35, 333.99
397.51, 5.32, 334.24
396.75, 5.29, 334.53
395.86, 5.24, 334.87
394.89, 5.21, 335.23
393.78, 5.17, 335.65
392.42, 5.12, 336.17
390.91, 5.07, 336.75
389.39, 5.07, 337.32
388.08, 5.14, 337.82
403.11, 5.63, 332.18
402.95, 5.62, 332.25
402.78, 5.62, 332.31
402.60, 5.62, 332.38
402.06, 5.47, 332.59
401.84, 5.46, 332.68
401.60, 5.45, 332.77
401.34, 5.45, 332.88
401.07, 5.44, 332.98
400.78, 5.44, 333.10
400.47, 5.43, 333.22
400.11, 5.42, 333.36
399.71, 5.41, 333.52
399.27, 5.39, 333.69
398.78, 5.38, 333.88
398.23, 5.36, 334.10
397.58, 5.33, 334.36
396.83, 5.29, 334.65
395.94, 5.25, 335.00
394.98, 5.21, 335.38
393.89, 5.18, 335.81
392.51, 5.12, 336.35
391.02, 5.08, 336.94
389.56, 5.08, 337.51
388.18, 5.13, 338.06
403.13, 5.63, 332.24
402.97, 5.62, 332.30
402.81, 5.62, 332.37
402.30, 5.47, 332.58
402.09, 5.47, 332.66
401.87, 5.46, 332.75
401.63, 5.46, 332.85
401.38, 5.45, 332.95
401.11, 5.44, 333.06
400.82, 5.44, 333.18
¯400.51, 5.43, 333.31
400.16, 5.42, 333.45
399.76, 5.41, 333.61
399.33, 5.40, 333.79
398.84, 5.38, 333.99
398.29, 5.36, 334.21
397.65, 5.33, 334.47
396.91, 5.30, 334.78
396.02, 5.25, 335.13
395.08, 5.22, 335.52
394.00, 5.18, 335.96
392.61, 5.12, 336.53
391.14, 5.08, 337.12
389.73, 5.09, 337.70
388.22, 5.12, 338.32
403.16, 5.63, 332.29
403.00, 5.62, 332.36
402.84, 5.62, 332.43
402.33, 5.47, 332.64
402.13, 5.47, 332.73
401.91, 5.46, 332.82
401.67, 5.46, 332.92
401.41, 5.45, 333.03
401.15, 5.44, 333.14
400.86, 5.44, 333.26
400.56, 5.44, 333.39
400.21, 5.43, 333.54
399.82, 5.41, 333.70
399.38, 5.40, 333.89
398.90, 5.38, 334.09
398.36, 5.36, 334.32
397.73, 5.34, 334.58
396.99, 5.30, 334.90
396.11, 5.26, 335.27
395.17, 5.22, 335.66
394.15, 5.20, 336.09
392.84, 5.15, 336.64
391.26, 5.09, 337.31
389.90, 5.10, 337.89
388.27, 5.12, 338.58
403.18, 5.63, 332.35
403.03, 5.62, 332.42
402.55, 5.48, 332.62
402.36, 5.48, 332.71
402.16, 5.47, 332.80
401.94, 5.46, 332.89
401.70, 5.46, 332.99
401.45, 5.45, 333.10
401.19, 5.45, 333.22
400.91, 5.44, 333.34
400.60, 5.44, 333.47
¯400.26, 5.43, 333.62
399.87, 5.42, 333.79
399.44, 5.40, 333.98
398.95, 5.38, 334.19
398.43, 5.37, 334.42
397.80, 5.34, 334.70
397.07, 5.31, 335.02
396.19, 5.26, 335.40
395.27, 5.23, 335.80
394.30, 5.21, 336.22
393.07, 5.17, 336.76
391.39, 5.09, 337.50
390.03, 5.11, 338.09
388.32, 5.11, 338.84
403.21, 5.63, 332.40
403.06, 5.63, 332.47
402.58, 5.48, 332.69
402.39, 5.48, 332.77
402.19, 5.47, 332.86
401.97, 5.46, 332.96
401.74, 5.46, 333.06
401.49, 5.45, 333.18
401.23, 5.45, 333.29
400.95, 5.44, 333.42
400.65, 5.44, 333.56
400.31, 5.43, 333.71
399.92, 5.42, 333.88
399.49, 5.40, 334.08
399.01, 5.39, 334.30
398.49, 5.37, 334.53
397.88, 5.35, 334.81
397.15, 5.31, 335.14
396.28, 5.26, 335.53
395.36, 5.23, 335.94
394.46, 5.22, 336.35
393.31, 5.20, 336.87
391.51, 5.09, 337.68
390.16, 5.11, 338.29
388.37, 5.10, 339.10
403.24, 5.63, 332.46
402.78, 5.48, 332.67
402.61, 5.48, 332.75
402.43, 5.48, 332.83
402.23, 5.47, 332.93
402.01, 5.47, 333.03
401.78, 5.46, 333.14
401.53, 5.45, 333.25
401.27, 5.45, 333.37
400.99, 5.45, 333.50
400.69, 5.44, 333.64
400.36, 5.44, 333.80
¯399.98, 5.42, 333.97
399.55, 5.41, 334.17
399.07, 5.39, 334.40
398.56, 5.37, 334.64
397.95, 5.35, 334.92
397.23, 5.32, 335.26
396.36, 5.27, 335.66
395.47, 5.24, 336.08
394.59, 5.24, 336.48
393.54, 5.22, 336.98
391.63, 5.10, 337.86
390.28, 5.11, 338.49
388.42, 5.09, 339.36
403.27, 5.63, 332.51
402.81, 5.48, 332.73
402.64, 5.48, 332.81
402.46, 5.48, 332.90
402.26, 5.47, 332.99
402.05, 5.47, 333.10
401.82, 5.46, 333.21
401.57, 5.45, 333.32
401.32, 5.45, 333.45
401.04, 5.45, 333.58
400.74, 5.44, 333.73
400.41, 5.44, 333.88
400.03, 5.43, 334.07
399.61, 5.41, 334.27
399.13, 5.39, 334.50
398.62, 5.38, 334.74
398.03, 5.36, 335.03
397.31, 5.32, 335.37
396.45, 5.27, 335.79
395.57, 5.24, 336.21
394.71, 5.24, 336.62
393.74, 5.25, 337.09
391.81, 5.11, 338.02
390.41, 5.11, 338.69
388.47, 5.08, 339.62
403.01, 5.49, 332.71
402.85, 5.48, 332.79
402.67, 5.48, 332.87
402.49, 5.48, 332.96
402.30, 5.47, 333.06
402.08, 5.47, 333.16
401.86, 5.46, 333.28
401.61, 5.46, 333.40
401.36, 5.45, 333.52
401.08, 5.45, 333.66
400.79, 5.44, 333.81
400.46, 5.44, 333.97
400.09, 5.43, 334.16
¯399.66, 5.41, 334.37
399.19, 5.39, 334.60
398.69, 5.38, 334.85
398.11, 5.36, 335.14
397.40, 5.33, 335.49
396.54, 5.28, 335.91
395.68, 5.25, 336.34
394.83, 5.25, 336.76
393.91, 5.26, 337.22
392.01, 5.13, 338.16
390.54, 5.12, 338.89
403.04, 5.49, 332.76
402.88, 5.49, 332.85
402.71, 5.48, 332.93
402.53, 5.48, 333.02
402.33, 5.47, 333.12
402.12, 5.47, 333.23
401.90, 5.46, 333.35
401.66, 5.46, 333.47
401.40, 5.45, 333.60
401.13, 5.45, 333.74
400.84, 5.45, 333.89
400.51, 5.44, 334.05
400.14, 5.43, 334.24
399.72, 5.41, 334.46
399.25, 5.40, 334.70
398.76, 5.38, 334.95
398.19, 5.37, 335.24
397.48, 5.33, 335.60
396.65, 5.29, 336.03
395.79, 5.26, 336.47
394.96, 5.26, 336.90
394.08, 5.28, 337.34
392.20, 5.14, 338.30
390.75, 5.13, 339.05
403.07, 5.49, 332.82
402.91, 5.49, 332.90
402.74, 5.48, 332.99
402.56, 5.48, 333.09
402.37, 5.48, 333.19
402.16, 5.47, 333.30
401.94, 5.46, 333.42
401.70, 5.46, 333.54
401.45, 5.46, 333.67
401.18, 5.45, 333.82
400.88, 5.45, 333.97
400.57, 5.44, 334.14
400.20, 5.43, 334.33
399.78, 5.42, 334.55
399.32, 5.40, 334.80
398.83, 5.39, 335.05
¯398.27, 5.37, 335.35
397.57, 5.33, 335.72
396.76, 5.30, 336.14
395.90, 5.26, 336.60
395.08, 5.27, 337.03
394.24, 5.29, 337.47
392.39, 5.16, 338.45
391.08, 5.17, 339.13
403.10, 5.49, 332.88
402.94, 5.49, 332.96
402.78, 5.48, 333.05
402.60, 5.48, 333.15
402.41, 5.48, 333.25
402.20, 5.47, 333.36
401.98, 5.46, 333.49
401.74, 5.46, 333.61
401.49, 5.46, 333.75
401.23, 5.45, 333.89
400.93, 5.45, 334.05
400.62, 5.44, 334.22
400.25, 5.43, 334.42
399.84, 5.42, 334.65
399.38, 5.40, 334.89
398.90, 5.39, 335.16
398.35, 5.38, 335.45
397.66, 5.34, 335.83
396.88, 5.30, 336.25
396.00, 5.27, 336.73
395.20, 5.27, 337.16
394.41, 5.30, 337.59
392.58, 5.18, 338.58
391.41, 5.20, 339.22
403.13, 5.49, 332.93
402.98, 5.49, 333.02
402.81, 5.48, 333.11
402.63, 5.48, 333.21
402.44, 5.48, 333.32
402.24, 5.47, 333.43
402.02, 5.47, 333.55
401.79, 5.46, 333.68
401.54, 5.46, 333.82
401.27, 5.45, 333.97
400.99, 5.45, 334.13
400.67, 5.45, 334.31
400.31, 5.44, 334.51
399.90, 5.42, 334.74
399.45, 5.40, 334.99
398.97, 5.39, 335.26
398.43, 5.38, 335.56
397.74, 5.34, 335.94
396.99, 5.31, 336.36
¯396.11, 5.28, 336.85
395.32, 5.28, 337.29
394.57, 5.32, 337.72
392.81, 5.20, 338.70
391.73, 5.24, 339.30
403.17, 5.49, 332.99
403.01, 5.49, 333.08
402.85, 5.48, 333.17
402.67, 5.48, 333.27
402.48, 5.48, 333.38
402.28, 5.47, 333.50
402.06, 5.47, 333.62
401.83, 5.46, 333.75
401.59, 5.46, 333.89
401.32, 5.46, 334.05
401.04, 5.45, 334.21
400.72, 5.45, 334.39
400.37, 5.44, 334.60
399.96, 5.42, 334.83
399.51, 5.41, 335.09
399.04, 5.40, 335.36
398.51, 5.38, 335.66
397.85, 5.35, 336.04
397.11, 5.32, 336.47
396.22, 5.28, 336.98
395.44, 5.29, 337.43
394.70, 5.32, 337.85
393.04, 5.22, 338.81
392.05, 5.27, 339.37
403.20, 5.49, 333.04
403.05, 5.49, 333.13
402.88, 5.49, 333.23
402.71, 5.48, 333.33
402.52, 5.48, 333.44
402.32, 5.47, 333.56
402.10, 5.47, 333.69
401.88, 5.46, 333.82
401.63, 5.46, 333.97
401.37, 5.46, 334.12
401.09, 5.45, 334.29
400.78, 5.45, 334.47
400.42, 5.44, 334.68
400.02, 5.42, 334.92
399.58, 5.41, 335.18
399.11, 5.40, 335.46
398.59, 5.39, 335.77
397.95, 5.36, 336.14
397.22, 5.33, 336.57
396.33, 5.29, 337.10
395.56, 5.30, 337.55
394.84, 5.33, 337.98
¯393.26, 5.24, 338.91
392.28, 5.29, 339.50
403.23, 5.49, 333.10
403.08, 5.49, 333.19
402.92, 5.49, 333.29
402.74, 5.48, 333.39
402.56, 5.48, 333.51
402.36, 5.48, 333.63
402.15, 5.47, 333.76
401.92, 5.47, 333.89
401.68, 5.46, 334.04
401.42, 5.46, 334.20
401.14, 5.46, 334.37
400.83, 5.45, 334.56
400.48, 5.44, 334.77
400.09, 5.43, 335.01
399.65, 5.41, 335.28
399.18, 5.40, 335.56
398.66, 5.39, 335.87
398.06, 5.37, 336.24
397.34, 5.34, 336.68
396.44, 5.30, 337.22
395.69, 5.30, 337.68
394.98, 5.34, 338.11
393.48, 5.26, 339.02
392.48, 5.30, 339.63
403.27, 5.49, 333.15
403.12, 5.49, 333.25
402.96, 5.49, 333.35
402.78, 5.48, 333.45
402.60, 5.48, 333.57
402.40, 5.48, 333.69
402.19, 5.47, 333.82
401.97, 5.47, 333.96
401.73, 5.46, 334.11
401.47, 5.46, 334.27
401.20, 5.46, 334.45
400.89, 5.45, 334.64
400.54, 5.44, 334.85
400.15, 5.43, 335.10
399.72, 5.41, 335.37
399.26, 5.40, 335.66
398.74, 5.39, 335.98
398.16, 5.38, 336.34
397.45, 5.35, 336.78
396.57, 5.31, 337.34
395.81, 5.31, 337.81
395.12, 5.35, 338.24
393.70, 5.28, 339.12
392.70, 5.32, 339.75
403.30, 5.49, 333.21
¯403.15, 5.49, 333.30
402.99, 5.49, 333.40
402.82, 5.48, 333.51
402.64, 5.48, 333.63
402.45, 5.48, 333.76
402.24, 5.47, 333.89
402.02, 5.47, 334.03
401.78, 5.47, 334.18
401.53, 5.46, 334.35
401.25, 5.46, 334.52
400.94, 5.45, 334.72
400.60, 5.44, 334.94
400.22, 5.43, 335.19
399.79, 5.42, 335.46
399.33, 5.41, 335.75
398.82, 5.40, 336.08
398.27, 5.39, 336.44
397.57, 5.36, 336.88
396.70, 5.32, 337.44
395.93, 5.32, 337.93
395.26, 5.36, 338.36
393.93, 5.31, 339.22
403.34, 5.49, 333.26
403.19, 5.49, 333.36
403.03, 5.49, 333.46
402.86, 5.48, 333.57
402.68, 5.48, 333.69
402.49, 5.48, 333.82
402.28, 5.47, 333.96
402.07, 5.47, 334.10
401.83, 5.47, 334.25
401.58, 5.46, 334.42
401.30, 5.46, 334.60
401.00, 5.46, 334.80
400.66, 5.45, 335.02
400.28, 5.43, 335.27
399.86, 5.42, 335.55
399.41, 5.41, 335.85
398.90, 5.40, 336.18
398.37, 5.40, 336.53
397.68, 5.37, 336.98
396.83, 5.33, 337.55
396.06, 5.33, 338.05
395.40, 5.37, 338.49
394.26, 5.35, 339.24
403.38, 5.49, 333.31
403.23, 5.49, 333.41
403.07, 5.49, 333.52
402.90, 5.49, 333.63
402.72, 5.48, 333.75
402.53, 5.48, 333.88
¯402.33, 5.48, 334.02
402.11, 5.47, 334.17
401.88, 5.47, 334.32
401.63, 5.47, 334.49
401.36, 5.46, 334.68
401.06, 5.46, 334.88
400.72, 5.45, 335.11
400.35, 5.44, 335.36
399.93, 5.42, 335.64
399.48, 5.41, 335.95
398.98, 5.40, 336.28
398.47, 5.40, 336.63
397.80, 5.38, 337.08
396.96, 5.34, 337.65
396.20, 5.34, 338.17
395.54, 5.38, 338.61
394.56, 5.38, 339.28
403.41, 5.50, 333.36
403.27, 5.49, 333.47
403.11, 5.49, 333.58
402.94, 5.49, 333.69
402.77, 5.48, 333.81
402.58, 5.48, 333.95
402.38, 5.48, 334.08
402.16, 5.47, 334.23
401.93, 5.47, 334.39
401.69, 5.47, 334.56
401.42, 5.46, 334.75
401.12, 5.46, 334.96
400.78, 5.45, 335.19
400.42, 5.44, 335.45
400.00, 5.43, 335.73
399.56, 5.42, 336.04
399.06, 5.41, 336.38
398.56, 5.41, 336.73
397.92, 5.39, 337.18
397.09, 5.35, 337.76
396.33, 5.35, 338.28
395.68, 5.39, 338.73
394.72, 5.39, 339.40
403.45, 5.50, 333.42
403.31, 5.49, 333.52
403.15, 5.49, 333.63
402.99, 5.49, 333.75
402.81, 5.48, 333.87
402.62, 5.48, 334.01
402.43, 5.48, 334.15
402.21, 5.48, 334.30
401.99, 5.47, 334.46
401.74, 5.47, 334.64
401.47, 5.47, 334.83
¯401.18, 5.46, 335.04
400.85, 5.45, 335.27
400.48, 5.44, 335.53
400.07, 5.43, 335.82
399.64, 5.42, 336.14
399.15, 5.41, 336.48
398.65, 5.41, 336.84
398.04, 5.40, 337.28
397.22, 5.36, 337.86
396.46, 5.35, 338.40
395.82, 5.40, 338.85
394.88, 5.40, 339.52
403.49, 5.50, 333.47
403.34, 5.49, 333.57
403.19, 5.49, 333.69
403.03, 5.49, 333.81
402.85, 5.48, 333.93
402.67, 5.48, 334.07
402.47, 5.48, 334.21
402.26, 5.48, 334.36
402.04, 5.47, 334.53
401.79, 5.47, 334.71
401.53, 5.47, 334.90
401.24, 5.46, 335.12
400.91, 5.45, 335.36
400.55, 5.44, 335.62
400.15, 5.43, 335.91
399.71, 5.42, 336.23
399.23, 5.41, 336.58
398.74, 5.41, 336.94
398.15, 5.41, 337.37
397.33, 5.36, 337.97
396.57, 5.36, 338.52
395.96, 5.41, 338.97
395.04, 5.41, 339.65
403.53, 5.50, 333.52
403.38, 5.49, 333.63
403.23, 5.49, 333.74
403.07, 5.49, 333.86
402.90, 5.49, 333.99
402.72, 5.48, 334.13
402.52, 5.48, 334.27
402.32, 5.48, 334.43
402.09, 5.48, 334.60
401.85, 5.47, 334.78
401.59, 5.47, 334.97
401.30, 5.46, 335.19
400.97, 5.45, 335.44
400.62, 5.44, 335.70
400.22, 5.43, 336.00
399.79, 5.43, 336.32
¯399.31, 5.42, 336.68
398.83, 5.42, 337.04
398.27, 5.42, 337.46
397.42, 5.36, 338.10
396.69, 5.36, 338.65
396.10, 5.41, 339.09
395.20, 5.42, 339.76
403.57, 5.50, 333.57
403.43, 5.50, 333.68
403.27, 5.49, 333.80
403.11, 5.49, 333.92
402.94, 5.49, 334.05
402.77, 5.49, 334.19
402.57, 5.48, 334.34
402.37, 5.48, 334.49
402.15, 5.48, 334.66
401.91, 5.48, 334.85
401.65, 5.47, 335.05
401.36, 5.47, 335.27
401.04, 5.46, 335.52
400.68, 5.45, 335.79
400.30, 5.44, 336.09
399.87, 5.43, 336.41
399.40, 5.42, 336.78
398.92, 5.42, 337.14
398.39, 5.43, 337.55
397.52, 5.37, 338.23
396.80, 5.37, 338.78
396.24, 5.42, 339.20
403.61, 5.50, 333.62
403.47, 5.50, 333.73
403.32, 5.49, 333.85
403.16, 5.49, 333.98
402.99, 5.49, 334.11
402.81, 5.49, 334.25
402.62, 5.48, 334.40
402.42, 5.48, 334.56
402.20, 5.48, 334.73
401.96, 5.48, 334.92
401.71, 5.47, 335.12
401.42, 5.47, 335.35
401.10, 5.46, 335.60
400.75, 5.45, 335.87
400.37, 5.44, 336.17
399.95, 5.43, 336.50
399.48, 5.42, 336.87
399.01, 5.43, 337.25
398.50, 5.43, 337.65
397.61, 5.37, 338.35
396.91, 5.37, 338.90
396.38, 5.43, 339.32
¯403.65, 5.50, 333.67
403.51, 5.50, 333.79
403.36, 5.49, 333.91
403.20, 5.49, 334.03
403.04, 5.49, 334.16
402.86, 5.49, 334.31
402.67, 5.49, 334.46
402.47, 5.48, 334.62
402.26, 5.48, 334.80
402.02, 5.48, 334.99
401.77, 5.48, 335.19
401.49, 5.47, 335.42
401.17, 5.46, 335.68
402.49, 6.02, 334.60
402.53, 6.12, 334.57
402.53, 6.21, 334.56
402.53, 6.29, 334.57
402.53, 6.38, 334.57
402.52, 6.46, 334.57
402.52, 6.54, 334.57
402.52, 6.62, 334.57
402.52, 6.71, 334.57
402.51, 6.79, 334.57
402.51, 6.87, 334.57
402.51, 6.95, 334.57
402.51, 7.03, 334.57
402.50, 7.11, 334.57
402.50, 7.19, 334.57
402.50, 7.27, 334.57
402.50, 7.36, 334.58
402.49, 7.44, 334.58
403.69, 5.50, 333.72
403.55, 5.50, 333.84
403.40, 5.50, 333.96
403.25, 5.49, 334.09
403.09, 5.49, 334.22
402.91, 5.49, 334.37
402.73, 5.49, 334.52
402.53, 5.49, 334.69
402.31, 5.48, 334.86
402.08, 5.48, 335.05
401.83, 5.48, 335.26
401.55, 5.47, 335.50
402.62, 5.97, 334.60
402.66, 6.07, 334.56
402.67, 6.15, 334.55
402.67, 6.24, 334.55
402.67, 6.32, 334.55
402.67, 6.40, 334.55
402.67, 6.48, 334.55
402.66, 6.56, 334.55
¯402.66, 6.65, 334.55
402.66, 6.73, 334.55
402.66, 6.81, 334.55
402.66, 6.89, 334.55
402.66, 6.97, 334.55
402.65, 7.05, 334.55
402.65, 7.13, 334.55
402.65, 7.21, 334.55
402.65, 7.29, 334.55
402.65, 7.36, 334.55
402.65, 7.44, 334.55
403.73, 5.50, 333.77
403.59, 5.50, 333.89
403.45, 5.50, 334.01
403.30, 5.49, 334.14
403.13, 5.49, 334.28
402.96, 5.49, 334.42
402.78, 5.49, 334.58
402.58, 5.49, 334.75
402.37, 5.48, 334.93
402.14, 5.48, 335.12
401.89, 5.48, 335.33
402.68, 5.88, 334.66
402.74, 5.99, 334.60
402.76, 6.08, 334.58
402.77, 6.17, 334.58
402.77, 6.25, 334.58
402.77, 6.33, 334.58
402.76, 6.42, 334.58
402.76, 6.50, 334.58
402.76, 6.58, 334.57
402.76, 6.66, 334.57
402.76, 6.74, 334.57
402.76, 6.82, 334.57
402.76, 6.90, 334.57
402.76, 6.98, 334.57
402.75, 7.06, 334.57
402.75, 7.13, 334.57
402.75, 7.21, 334.57
402.75, 7.29, 334.57
402.75, 7.37, 334.57
402.75, 7.45, 334.57
403.77, 5.50, 333.82
403.64, 5.50, 333.94
403.49, 5.50, 334.06
403.34, 5.50, 334.19
403.18, 5.49, 334.33
403.01, 5.49, 334.48
402.83, 5.49, 334.64
402.64, 5.49, 334.81
402.43, 5.49, 334.99
¯402.20, 5.48, 335.19
401.95, 5.48, 335.40
402.78, 5.90, 334.68
402.83, 6.00, 334.63
402.84, 6.10, 334.62
402.85, 6.18, 334.61
402.84, 6.26, 334.61
402.84, 6.34, 334.61
402.84, 6.42, 334.61
402.84, 6.50, 334.61
402.84, 6.58, 334.61
402.84, 6.66, 334.61
402.84, 6.74, 334.61
402.84, 6.82, 334.61
402.84, 6.90, 334.61
402.83, 6.98, 334.61
402.83, 7.06, 334.61
402.83, 7.14, 334.61
402.83, 7.22, 334.61
402.83, 7.30, 334.61
402.83, 7.37, 334.61
402.83, 7.45, 334.60
403.81, 5.50, 333.87
403.68, 5.50, 333.99
403.54, 5.50, 334.11
403.39, 5.50, 334.25
403.23, 5.50, 334.39
403.06, 5.49, 334.54
402.88, 5.49, 334.70
402.69, 5.49, 334.87
402.48, 5.49, 335.06
402.26, 5.49, 335.26
402.02, 5.48, 335.47
402.85, 5.91, 334.72
402.89, 6.01, 334.68
402.91, 6.10, 334.67
402.91, 6.18, 334.66
402.91, 6.27, 334.66
402.91, 6.35, 334.66
402.91, 6.43, 334.66
402.90, 6.51, 334.66
402.90, 6.59, 334.66
402.90, 6.67, 334.66
402.90, 6.75, 334.66
402.90, 6.83, 334.66
402.90, 6.91, 334.66
402.90, 6.99, 334.66
402.90, 7.06, 334.65
402.90, 7.14, 334.65
402.90, 7.22, 334.65
402.90, 7.30, 334.65
¯402.89, 7.38, 334.65
402.89, 7.45, 334.65
403.86, 5.50, 333.92
403.72, 5.50, 334.04
403.59, 5.50, 334.16
403.44, 5.50, 334.30
403.28, 5.50, 334.44
403.12, 5.50, 334.59
402.94, 5.49, 334.76
402.75, 5.49, 334.93
402.54, 5.49, 335.12
402.32, 5.49, 335.32
402.08, 5.48, 335.54
402.90, 5.91, 334.78
402.94, 6.01, 334.74
402.96, 6.10, 334.73
402.96, 6.18, 334.72
402.96, 6.27, 334.72
402.96, 6.35, 334.72
402.96, 6.43, 334.72
402.96, 6.51, 334.72
402.96, 6.59, 334.72
402.96, 6.67, 334.72
402.95, 6.75, 334.72
402.95, 6.83, 334.71
402.95, 6.91, 334.71
402.95, 6.99, 334.71
402.95, 7.07, 334.71
402.95, 7.14, 334.71
402.95, 7.22, 334.71
402.95, 7.30, 334.71
402.95, 7.38, 334.71
402.95, 7.45, 334.71
403.90, 5.50, 333.97
403.77, 5.50, 334.09
403.63, 5.50, 334.21
403.49, 5.50, 334.35
403.33, 5.50, 334.50
403.17, 5.50, 334.65
402.99, 5.50, 334.81
402.80, 5.49, 334.99
402.60, 5.49, 335.18
402.38, 5.49, 335.39
402.15, 5.49, 335.61
402.94, 5.90, 334.86
402.98, 6.01, 334.81
403.00, 6.10, 334.80
403.00, 6.18, 334.79
403.00, 6.26, 334.79
403.00, 6.35, 334.79
403.00, 6.43, 334.79
¯403.00, 6.51, 334.79
403.00, 6.59, 334.79
403.00, 6.67, 334.78
403.00, 6.75, 334.78
403.00, 6.83, 334.78
402.99, 6.91, 334.78
402.99, 6.99, 334.78
402.99, 7.06, 334.78
402.99, 7.14, 334.78
402.99, 7.22, 334.78
402.99, 7.30, 334.77
402.99, 7.38, 334.77
402.99, 7.46, 334.77
403.94, 5.51, 334.01
403.82, 5.50, 334.13
403.68, 5.50, 334.26
403.54, 5.50, 334.40
403.39, 5.50, 334.55
403.22, 5.50, 334.70
403.05, 5.50, 334.87
402.86, 5.49, 335.05
402.66, 5.49, 335.24
402.44, 5.49, 335.45
402.21, 5.49, 335.68
402.93, 5.88, 334.97
403.00, 5.99, 334.91
403.02, 6.09, 334.88
403.03, 6.17, 334.88
403.03, 6.26, 334.87
403.03, 6.34, 334.87
403.03, 6.42, 334.87
403.03, 6.50, 334.87
403.02, 6.58, 334.87
403.02, 6.66, 334.87
403.02, 6.74, 334.86
403.02, 6.82, 334.86
403.02, 6.90, 334.86
403.02, 6.98, 334.86
403.02, 7.06, 334.86
403.02, 7.14, 334.86
403.02, 7.22, 334.86
403.02, 7.30, 334.85
403.02, 7.38, 334.85
403.02, 7.45, 334.85
403.99, 5.51, 334.06
403.86, 5.51, 334.18
403.73, 5.50, 334.31
403.59, 5.50, 334.45
403.44, 5.50, 334.60
403.28, 5.50, 334.76
403.10, 5.50, 334.93
¯402.92, 5.50, 335.11
402.72, 5.49, 335.31
402.51, 5.49, 335.52
402.28, 5.49, 335.74
402.02, 5.48, 336.00
402.98, 5.97, 335.04
403.03, 6.07, 334.99
403.03, 6.16, 334.98
403.03, 6.24, 334.98
403.03, 6.32, 334.98
403.03, 6.41, 334.97
403.03, 6.49, 334.97
403.03, 6.57, 334.97
403.03, 6.65, 334.97
403.03, 6.74, 334.96
403.03, 6.82, 334.96
403.03, 6.90, 334.96
403.03, 6.98, 334.96
403.03, 7.06, 334.96
403.03, 7.14, 334.95
403.03, 7.22, 334.95
403.03, 7.30, 334.95
403.03, 7.37, 334.95
403.03, 7.45, 334.95
404.03, 5.51, 334.10
403.91, 5.51, 334.23
403.78, 5.51, 334.36
403.64, 5.50, 334.50
403.49, 5.50, 334.65
403.33, 5.50, 334.81
403.16, 5.50, 334.98
402.98, 5.50, 335.17
402.78, 5.50, 335.37
402.57, 5.49, 335.58
402.34, 5.49, 335.81
402.09, 5.49, 336.07
401.80, 5.48, 336.36
401.49, 5.47, 336.67
402.99, 6.12, 335.14
403.00, 6.21, 335.13
403.00, 6.30, 335.13
403.00, 6.38, 335.12
403.00, 6.47, 335.12
403.00, 6.55, 335.11
403.00, 6.63, 335.11
403.01, 6.72, 335.11
403.01, 6.80, 335.10
403.01, 6.88, 335.10
403.01, 6.96, 335.10
403.01, 7.05, 335.09
403.01, 7.13, 335.09
¯403.01, 7.21, 335.09
403.02, 7.29, 335.08
403.02, 7.37, 335.08
403.02, 7.45, 335.08
404.08, 5.51, 334.15
403.96, 5.51, 334.28
403.83, 5.51, 334.41
403.69, 5.51, 334.55
403.54, 5.50, 334.71
403.39, 5.50, 334.87
403.22, 5.50, 335.04
403.04, 5.50, 335.23
402.84, 5.50, 335.43
402.64, 5.50, 335.64
402.41, 5.49, 335.88
402.16, 5.49, 336.14
401.87, 5.48, 336.43
401.57, 5.47, 336.75
401.23, 5.47, 337.09
400.87, 5.46, 337.46
400.48, 5.46, 337.87
400.04, 5.46, 338.32
399.56, 5.46, 338.82
398.76, 5.39, 339.65
397.93, 5.34, 340.51
404.13, 5.51, 334.19
404.01, 5.51, 334.32
403.88, 5.51, 334.46
403.74, 5.51, 334.60
403.60, 5.51, 334.76
403.44, 5.50, 334.92
403.27, 5.50, 335.10
403.10, 5.50, 335.28
402.91, 5.50, 335.49
402.70, 5.50, 335.70
402.48, 5.50, 335.94
402.23, 5.49, 336.21
401.95, 5.48, 336.50
401.64, 5.47, 336.82
401.31, 5.47, 337.17
400.96, 5.46, 337.55
400.57, 5.46, 337.97
400.14, 5.46, 338.42
399.66, 5.46, 338.93
398.87, 5.39, 339.76
397.97, 5.33, 340.71
404.17, 5.51, 334.24
404.05, 5.51, 334.37
403.93, 5.51, 334.50
403.79, 5.51, 334.65
403.65, 5.51, 334.81
¯403.50, 5.51, 334.97
403.33, 5.50, 335.15
403.16, 5.50, 335.34
402.97, 5.50, 335.54
402.77, 5.50, 335.77
402.54, 5.50, 336.01
402.30, 5.49, 336.27
402.02, 5.48, 336.57
401.72, 5.48, 336.90
401.40, 5.47, 337.25
401.05, 5.47, 337.63
400.66, 5.46, 338.06
400.23, 5.46, 338.52
399.76, 5.46, 339.03
398.99, 5.40, 339.86
398.01, 5.31, 340.93
404.22, 5.51, 334.28
404.10, 5.51, 334.41
403.98, 5.51, 334.55
403.85, 5.51, 334.70
403.70, 5.51, 334.86
403.55, 5.51, 335.02
403.39, 5.51, 335.20
403.22, 5.50, 335.40
403.03, 5.50, 335.60
402.83, 5.50, 335.83
402.61, 5.50, 336.07
402.37, 5.49, 336.34
402.10, 5.49, 336.64
401.80, 5.48, 336.97
401.48, 5.47, 337.33
401.14, 5.47, 337.71
400.75, 5.46, 338.15
400.33, 5.46, 338.61
399.86, 5.46, 339.13
399.14, 5.41, 339.93
398.06, 5.29, 341.14
404.27, 5.51, 334.32
404.15, 5.51, 334.46
404.03, 5.51, 334.60
403.90, 5.51, 334.75
403.76, 5.51, 334.91
403.61, 5.51, 335.08
403.45, 5.51, 335.26
403.28, 5.51, 335.45
403.10, 5.51, 335.66
402.90, 5.50, 335.89
402.68, 5.50, 336.14
402.44, 5.50, 336.41
402.18, 5.49, 336.71
401.88, 5.48, 337.04
¯401.57, 5.47, 337.41
401.23, 5.47, 337.79
400.84, 5.47, 338.23
400.42, 5.46, 338.71
399.96, 5.47, 339.23
399.30, 5.42, 339.99
398.10, 5.27, 341.36
404.32, 5.52, 334.37
404.20, 5.51, 334.50
404.08, 5.51, 334.64
403.95, 5.51, 334.79
403.81, 5.51, 334.96
403.67, 5.51, 335.13
403.51, 5.51, 335.31
403.34, 5.51, 335.51
403.16, 5.51, 335.72
402.97, 5.51, 335.95
402.75, 5.50, 336.20
402.51, 5.50, 336.47
402.25, 5.49, 336.78
401.96, 5.48, 337.12
401.65, 5.48, 337.48
401.32, 5.47, 337.87
400.93, 5.47, 338.32
400.52, 5.47, 338.80
400.07, 5.47, 339.33
399.45, 5.44, 340.06
404.37, 5.52, 334.41
404.25, 5.52, 334.54
404.13, 5.52, 334.69
404.01, 5.51, 334.84
403.87, 5.51, 335.00
403.72, 5.51, 335.18
403.57, 5.51, 335.36
403.40, 5.51, 335.56
403.23, 5.51, 335.77
403.03, 5.51, 336.01
402.82, 5.50, 336.26
402.59, 5.50, 336.54
402.33, 5.49, 336.85
402.05, 5.49, 337.19
401.74, 5.48, 337.56
401.41, 5.48, 337.96
401.03, 5.47, 338.41
400.62, 5.47, 338.89
400.17, 5.47, 339.43
399.60, 5.45, 340.12
404.42, 5.52, 334.45
404.30, 5.52, 334.59
404.19, 5.52, 334.73
404.06, 5.52, 334.89
¯403.93, 5.51, 335.05
403.78, 5.51, 335.23
403.63, 5.51, 335.41
403.47, 5.51, 335.61
403.29, 5.51, 335.83
403.10, 5.51, 336.07
402.89, 5.50, 336.33
402.66, 5.50, 336.61
402.41, 5.49, 336.91
402.13, 5.49, 337.26
401.82, 5.48, 337.63
401.49, 5.48, 338.04
401.12, 5.47, 338.50
400.72, 5.47, 338.99
400.28, 5.47, 339.53
399.75, 5.46, 340.18
404.47, 5.52, 334.49
404.36, 5.52, 334.63
404.24, 5.52, 334.78
404.11, 5.52, 334.93
403.98, 5.52, 335.10
403.84, 5.52, 335.28
403.69, 5.51, 335.46
403.53, 5.51, 335.67
403.36, 5.51, 335.89
403.17, 5.51, 336.13
402.96, 5.51, 336.39
402.73, 5.50, 336.67
402.49, 5.50, 336.98
402.21, 5.49, 337.33
401.91, 5.48, 337.71
401.59, 5.48, 338.12
401.22, 5.47, 338.58
400.82, 5.47, 339.08
400.38, 5.47, 339.63
399.90, 5.48, 340.24
404.52, 5.52, 334.53
404.41, 5.52, 334.67
404.29, 5.52, 334.82
404.17, 5.52, 334.98
404.04, 5.52, 335.15
403.90, 5.52, 335.32
403.75, 5.52, 335.52
403.59, 5.51, 335.72
403.42, 5.51, 335.94
403.24, 5.51, 336.18
403.03, 5.51, 336.45
402.81, 5.50, 336.74
402.56, 5.50, 337.05
402.30, 5.49, 337.40
402.00, 5.49, 337.78
¯401.68, 5.48, 338.20
401.31, 5.47, 338.67
400.92, 5.47, 339.17
400.49, 5.48, 339.73
400.05, 5.49, 340.30
399.56, 5.51, 340.93
404.57, 5.52, 334.57
404.46, 5.52, 334.71
404.35, 5.52, 334.86
404.23, 5.52, 335.02
404.10, 5.52, 335.19
403.96, 5.52, 335.37
403.82, 5.52, 335.56
403.66, 5.52, 335.77
403.49, 5.51, 336.00
403.30, 5.51, 336.24
403.10, 5.51, 336.51
402.88, 5.50, 336.80
402.64, 5.50, 337.12
402.38, 5.49, 337.47
402.09, 5.49, 337.85
401.77, 5.48, 338.28
401.41, 5.48, 338.75
401.03, 5.48, 339.26
400.60, 5.48, 339.82
400.20, 5.50, 340.35
399.72, 5.52, 340.98
404.62, 5.52, 334.61
404.51, 5.52, 334.75
404.40, 5.52, 334.91
404.28, 5.52, 335.07
404.16, 5.52, 335.24
404.02, 5.52, 335.42
403.88, 5.52, 335.61
403.72, 5.52, 335.82
403.56, 5.52, 336.05
403.37, 5.51, 336.30
403.18, 5.51, 336.57
402.96, 5.51, 336.86
402.72, 5.50, 337.18
402.46, 5.50, 337.54
402.18, 5.49, 337.92
401.86, 5.48, 338.35
401.51, 5.48, 338.84
401.13, 5.48, 339.35
400.73, 5.49, 339.89
400.35, 5.52, 340.41
399.88, 5.54, 341.04
404.67, 5.53, 334.65
404.56, 5.52, 334.79
404.46, 5.52, 334.95
¯404.34, 5.52, 335.11
404.22, 5.52, 335.28
404.08, 5.52, 335.47
403.94, 5.52, 335.66
403.79, 5.52, 335.87
403.62, 5.52, 336.10
403.44, 5.51, 336.36
403.25, 5.51, 336.63
403.04, 5.51, 336.92
402.80, 5.50, 337.25
402.55, 5.50, 337.60
402.27, 5.49, 338.00
401.95, 5.49, 338.43
401.61, 5.48, 338.92
401.23, 5.48, 339.44
400.87, 5.50, 339.95
400.51, 5.53, 340.45
400.04, 5.55, 341.10
404.72, 5.53, 334.69
404.62, 5.53, 334.83
404.51, 5.53, 334.99
404.40, 5.52, 335.15
404.27, 5.52, 335.33
404.14, 5.52, 335.51
404.01, 5.52, 335.71
403.86, 5.52, 335.92
403.69, 5.52, 336.16
403.52, 5.52, 336.41
403.32, 5.51, 336.69
403.11, 5.51, 336.99
402.88, 5.50, 337.31
402.63, 5.50, 337.67
402.36, 5.49, 338.07
402.05, 5.49, 338.51
401.71, 5.48, 339.00
401.34, 5.48, 339.53
401.00, 5.51, 340.01
400.67, 5.55, 340.48
400.20, 5.56, 341.15
404.77, 5.53, 334.73
404.67, 5.53, 334.87
404.57, 5.53, 335.03
404.45, 5.53, 335.19
404.33, 5.53, 335.37
404.21, 5.52, 335.56
404.07, 5.52, 335.76
403.92, 5.52, 335.97
403.76, 5.52, 336.21
403.59, 5.52, 336.47
403.40, 5.51, 336.74
403.19, 5.51, 337.05
¯402.97, 5.51, 337.38
402.72, 5.50, 337.74
402.46, 5.50, 338.12
402.14, 5.49, 338.59
401.81, 5.48, 339.08
401.44, 5.48, 339.61
401.14, 5.52, 340.06
400.83, 5.57, 340.50
400.36, 5.58, 341.20
404.82, 5.53, 334.76
404.73, 5.53, 334.91
404.62, 5.53, 335.07
404.51, 5.53, 335.24
404.39, 5.53, 335.41
404.27, 5.53, 335.60
404.13, 5.53, 335.80
403.99, 5.52, 336.02
403.83, 5.52, 336.26
403.66, 5.52, 336.52
403.47, 5.51, 336.80
403.27, 5.51, 337.11
403.05, 5.51, 337.44
402.81, 5.50, 337.81
402.57, 5.51, 338.17
402.24, 5.49, 338.66
401.91, 5.49, 339.16
401.55, 5.48, 339.70
401.27, 5.53, 340.12
400.99, 5.58, 340.53
400.53, 5.59, 341.23
404.88, 5.53, 334.80
404.78, 5.53, 334.95
404.68, 5.53, 335.11
404.57, 5.53, 335.28
404.46, 5.53, 335.46
404.33, 5.53, 335.65
404.20, 5.53, 335.85
