žVERSION 0.7
FIELDS x y z
SIZE 8 8 8
TYPE F F F
COUNT 1 1 1
WIDTH 2271
HEIGHT 1
VIEWPOINT 386.91, 7.34, 356.17 1 404.10, 2.07, 366.26
POINTS 2271
DATA ascii
405.40, 0.21, 369.94
405.50, 0.21, 370.13
405.61, 0.22, 370.33
405.74, 0.22, 370.55
405.87, 0.23, 370.79
406.01, 0.23, 371.04
¯406.16, 0.24, 371.32
406.32, 0.25, 371.61
406.48, 0.26, 371.90
406.66, 0.28, 372.21
406.85, 0.30, 372.56
407.06, 0.32, 372.93
407.18, 0.39, 373.14
407.25, 0.48, 373.26
407.33, 0.58, 373.40
407.40, 0.67, 373.53
407.48, 0.77, 373.67
407.57, 0.87, 373.81
407.65, 0.98, 373.96
407.74, 1.08, 374.12
407.83, 1.19, 374.27
407.93, 1.31, 374.44
408.02, 1.43, 374.60
408.12, 1.55, 374.78
408.23, 1.68, 374.96
408.34, 1.81, 375.16
408.47, 1.95, 375.37
408.59, 2.09, 375.60
408.73, 2.24, 375.83
408.87, 2.40, 376.07
409.01, 2.56, 376.32
405.45, 0.21, 369.90
405.56, 0.22, 370.09
405.67, 0.22, 370.29
405.80, 0.22, 370.50
405.93, 0.23, 370.74
406.07, 0.23, 370.99
406.23, 0.24, 371.26
406.39, 0.25, 371.53
406.55, 0.27, 371.82
406.73, 0.29, 372.13
406.92, 0.31, 372.47
407.13, 0.33, 372.84
407.29, 0.38, 373.11
407.36, 0.47, 373.23
407.44, 0.57, 373.37
407.52, 0.66, 373.50
407.61, 0.76, 373.64
407.69, 0.86, 373.78
407.78, 0.97, 373.93
407.87, 1.08, 374.08
407.96, 1.19, 374.24
408.06, 1.30, 374.40
408.16, 1.42, 374.57
408.26, 1.55, 374.74
408.36, 1.67, 374.92
408.48, 1.81, 375.11
¯408.61, 1.94, 375.33
408.75, 2.09, 375.56
408.88, 2.24, 375.80
409.03, 2.39, 376.04
409.18, 2.56, 376.29
405.51, 0.21, 369.86
405.62, 0.22, 370.05
405.73, 0.22, 370.24
405.86, 0.22, 370.46
405.99, 0.23, 370.69
406.14, 0.23, 370.94
406.29, 0.24, 371.20
406.45, 0.26, 371.46
406.61, 0.28, 371.74
406.79, 0.29, 372.04
406.99, 0.31, 372.37
407.20, 0.34, 372.74
407.40, 0.37, 373.07
407.48, 0.47, 373.20
407.56, 0.56, 373.33
407.64, 0.65, 373.47
407.73, 0.75, 373.61
407.81, 0.86, 373.75
407.90, 0.96, 373.90
408.00, 1.07, 374.05
408.09, 1.18, 374.21
408.19, 1.30, 374.37
408.29, 1.42, 374.53
408.39, 1.54, 374.70
408.50, 1.67, 374.87
408.61, 1.80, 375.06
408.75, 1.94, 375.28
408.89, 2.08, 375.52
409.04, 2.23, 375.76
409.19, 2.39, 376.01
409.34, 2.55, 376.26
405.56, 0.21, 369.82
405.67, 0.22, 370.00
405.79, 0.22, 370.20
405.92, 0.23, 370.41
406.06, 0.23, 370.64
406.21, 0.24, 370.88
406.36, 0.25, 371.13
406.51, 0.26, 371.38
406.68, 0.28, 371.66
406.86, 0.30, 371.96
407.05, 0.32, 372.28
407.27, 0.34, 372.64
407.51, 0.37, 373.03
407.59, 0.46, 373.17
407.68, 0.55, 373.30
¯407.76, 0.65, 373.44
407.85, 0.75, 373.58
407.94, 0.85, 373.72
408.03, 0.95, 373.87
408.13, 1.06, 374.02
408.22, 1.17, 374.18
408.32, 1.29, 374.33
408.42, 1.41, 374.49
408.53, 1.53, 374.66
408.64, 1.66, 374.83
408.75, 1.80, 375.01
408.89, 1.93, 375.23
409.03, 2.08, 375.46
409.18, 2.23, 375.70
409.34, 2.39, 375.96
409.50, 2.55, 376.22
405.62, 0.21, 369.78
405.73, 0.22, 369.96
405.85, 0.22, 370.15
405.98, 0.23, 370.36
406.12, 0.23, 370.59
406.27, 0.24, 370.83
406.42, 0.25, 371.07
406.57, 0.27, 371.32
406.74, 0.29, 371.58
406.92, 0.31, 371.87
407.12, 0.33, 372.19
407.34, 0.35, 372.54
407.58, 0.37, 372.93
407.71, 0.45, 373.14
407.79, 0.54, 373.27
407.88, 0.64, 373.40
407.97, 0.74, 373.54
408.06, 0.84, 373.69
408.16, 0.94, 373.83
408.25, 1.05, 373.98
408.35, 1.17, 374.13
408.45, 1.28, 374.29
408.56, 1.40, 374.45
408.66, 1.53, 374.62
408.78, 1.66, 374.79
408.89, 1.79, 374.97
409.03, 1.93, 375.18
409.17, 2.07, 375.41
409.33, 2.22, 375.65
409.49, 2.38, 375.90
409.66, 2.55, 376.17
405.67, 0.21, 369.73
405.78, 0.22, 369.91
405.91, 0.22, 370.11
406.04, 0.23, 370.31
¯406.18, 0.23, 370.54
406.33, 0.24, 370.77
406.48, 0.25, 371.01
406.64, 0.27, 371.25
406.81, 0.29, 371.51
406.98, 0.31, 371.79
407.18, 0.33, 372.10
407.40, 0.36, 372.45
407.64, 0.38, 372.82
407.83, 0.44, 373.10
407.91, 0.53, 373.24
408.00, 0.63, 373.37
408.09, 0.73, 373.51
408.19, 0.83, 373.65
408.28, 0.94, 373.80
408.38, 1.05, 373.94
408.48, 1.16, 374.09
408.58, 1.28, 374.25
408.69, 1.40, 374.41
408.80, 1.52, 374.57
408.91, 1.65, 374.75
409.03, 1.79, 374.93
409.17, 1.93, 375.13
409.32, 2.07, 375.36
409.48, 2.22, 375.60
409.64, 2.38, 375.85
409.82, 2.54, 376.11
405.72, 0.22, 369.69
405.84, 0.22, 369.87
405.96, 0.22, 370.06
406.10, 0.23, 370.27
406.24, 0.23, 370.49
406.39, 0.24, 370.71
406.54, 0.26, 370.94
406.71, 0.27, 371.19
406.87, 0.29, 371.45
407.06, 0.31, 371.72
407.25, 0.34, 372.02
407.47, 0.36, 372.35
407.71, 0.39, 372.72
407.94, 0.43, 373.07
408.03, 0.52, 373.20
408.12, 0.62, 373.34
408.22, 0.72, 373.48
408.31, 0.82, 373.61
408.41, 0.93, 373.75
408.51, 1.04, 373.90
408.61, 1.15, 374.05
408.71, 1.27, 374.21
408.82, 1.39, 374.37
408.94, 1.52, 374.53
¯409.05, 1.65, 374.70
409.18, 1.78, 374.88
409.31, 1.92, 375.08
409.46, 2.07, 375.31
409.63, 2.22, 375.55
409.79, 2.38, 375.80
409.97, 2.54, 376.06
405.78, 0.22, 369.65
405.89, 0.22, 369.83
406.02, 0.22, 370.01
406.16, 0.23, 370.22
406.30, 0.24, 370.43
406.45, 0.25, 370.64
406.60, 0.26, 370.88
406.77, 0.27, 371.13
406.94, 0.29, 371.38
407.12, 0.32, 371.65
407.32, 0.34, 371.94
407.54, 0.37, 372.26
407.78, 0.40, 372.61
408.05, 0.42, 373.01
408.15, 0.51, 373.17
408.24, 0.61, 373.30
408.34, 0.71, 373.43
408.43, 0.81, 373.57
408.53, 0.92, 373.71
408.63, 1.03, 373.86
408.74, 1.15, 374.01
408.85, 1.26, 374.16
408.96, 1.39, 374.32
409.07, 1.51, 374.49
409.19, 1.64, 374.66
409.32, 1.78, 374.84
409.45, 1.92, 375.03
409.61, 2.06, 375.25
409.77, 2.21, 375.49
409.95, 2.37, 375.74
410.13, 2.54, 376.01
405.83, 0.22, 369.60
405.95, 0.22, 369.78
406.08, 0.22, 369.97
406.22, 0.23, 370.17
406.36, 0.24, 370.37
406.50, 0.25, 370.58
406.66, 0.26, 370.81
406.83, 0.28, 371.06
407.01, 0.30, 371.31
407.19, 0.32, 371.58
407.40, 0.34, 371.87
407.61, 0.37, 372.19
407.85, 0.40, 372.53
¯408.12, 0.43, 372.91
408.27, 0.50, 373.13
408.36, 0.60, 373.26
408.46, 0.70, 373.39
408.56, 0.81, 373.53
408.66, 0.91, 373.67
408.76, 1.02, 373.81
408.87, 1.14, 373.96
408.98, 1.26, 374.12
409.09, 1.38, 374.28
409.21, 1.50, 374.44
409.34, 1.64, 374.62
409.46, 1.77, 374.79
409.60, 1.91, 374.98
409.76, 2.06, 375.20
409.92, 2.21, 375.44
410.10, 2.37, 375.69
410.29, 2.53, 375.95
405.88, 0.22, 369.56
406.00, 0.22, 369.73
406.13, 0.22, 369.92
406.27, 0.23, 370.11
406.41, 0.24, 370.31
406.56, 0.25, 370.52
406.72, 0.27, 370.75
406.89, 0.28, 370.99
407.07, 0.30, 371.24
407.26, 0.32, 371.51
407.47, 0.34, 371.79
407.69, 0.37, 372.11
407.93, 0.40, 372.45
408.19, 0.43, 372.82
408.36, 0.50, 373.04
408.46, 0.60, 373.18
408.56, 0.70, 373.33
408.67, 0.80, 373.47
408.78, 0.91, 373.62
408.89, 1.02, 373.77
409.00, 1.13, 373.92
409.11, 1.25, 374.07
409.23, 1.37, 374.23
409.35, 1.50, 374.40
409.48, 1.63, 374.57
409.61, 1.76, 374.75
409.75, 1.91, 374.93
409.90, 2.05, 375.15
410.08, 2.20, 375.39
410.26, 2.36, 375.63
410.44, 2.53, 375.88
405.71, 0.35, 369.21
406.05, 0.22, 369.69
¯406.19, 0.23, 369.87
406.32, 0.23, 370.06
406.46, 0.24, 370.25
406.62, 0.26, 370.46
406.78, 0.27, 370.68
406.95, 0.28, 370.92
407.14, 0.30, 371.17
407.33, 0.32, 371.44
407.54, 0.35, 371.72
407.76, 0.37, 372.03
408.00, 0.40, 372.36
408.24, 0.44, 372.68
408.40, 0.52, 372.90
408.55, 0.60, 373.09
408.65, 0.70, 373.23
408.76, 0.80, 373.38
408.87, 0.91, 373.53
408.99, 1.01, 373.68
409.11, 1.13, 373.84
409.23, 1.24, 374.01
409.36, 1.37, 374.18
409.49, 1.49, 374.35
409.62, 1.62, 374.53
409.76, 1.76, 374.70
409.90, 1.90, 374.89
410.05, 2.05, 375.09
410.23, 2.20, 375.33
410.41, 2.36, 375.57
410.60, 2.53, 375.82
405.76, 0.35, 369.17
406.10, 0.22, 369.64
406.24, 0.23, 369.82
406.37, 0.24, 370.00
406.52, 0.25, 370.19
406.67, 0.26, 370.39
406.83, 0.27, 370.61
407.01, 0.29, 370.85
407.20, 0.30, 371.11
407.40, 0.32, 371.36
407.60, 0.35, 371.64
407.83, 0.37, 371.95
408.08, 0.40, 372.28
408.28, 0.45, 372.55
408.44, 0.53, 372.76
408.61, 0.60, 372.98
408.74, 0.70, 373.14
408.85, 0.80, 373.29
408.96, 0.90, 373.43
409.08, 1.01, 373.59
409.20, 1.13, 373.74
409.33, 1.24, 373.91
¯409.46, 1.36, 374.08
409.59, 1.49, 374.25
409.74, 1.62, 374.44
409.88, 1.75, 374.63
410.03, 1.90, 374.82
410.20, 2.04, 375.04
410.37, 2.20, 375.27
410.56, 2.36, 375.51
410.75, 2.52, 375.76
405.80, 0.35, 369.12
405.92, 0.36, 369.27
406.29, 0.23, 369.76
406.42, 0.24, 369.94
406.57, 0.25, 370.13
406.72, 0.26, 370.33
406.89, 0.27, 370.55
407.07, 0.29, 370.78
407.26, 0.30, 371.03
407.46, 0.32, 371.29
407.67, 0.35, 371.57
407.90, 0.38, 371.86
408.15, 0.40, 372.19
408.33, 0.47, 372.41
408.48, 0.54, 372.62
408.65, 0.62, 372.83
408.82, 0.70, 373.05
408.93, 0.80, 373.19
409.05, 0.90, 373.34
409.17, 1.01, 373.49
409.29, 1.12, 373.65
409.42, 1.24, 373.81
409.55, 1.36, 373.97
409.69, 1.49, 374.15
409.83, 1.62, 374.33
409.98, 1.75, 374.52
410.14, 1.89, 374.71
410.32, 2.04, 374.94
410.51, 2.19, 375.18
410.70, 2.35, 375.43
410.90, 2.52, 375.69
405.85, 0.35, 369.08
405.96, 0.36, 369.22
406.34, 0.23, 369.71
406.47, 0.24, 369.88
406.62, 0.25, 370.07
406.78, 0.26, 370.27
406.94, 0.28, 370.48
407.13, 0.29, 370.71
407.32, 0.31, 370.96
407.53, 0.33, 371.22
407.74, 0.35, 371.49
¯407.97, 0.38, 371.78
408.21, 0.41, 372.09
408.37, 0.48, 372.28
408.52, 0.55, 372.48
408.69, 0.63, 372.69
408.86, 0.71, 372.91
409.02, 0.80, 373.10
409.14, 0.90, 373.24
409.26, 1.01, 373.39
409.38, 1.12, 373.55
409.51, 1.24, 373.71
409.65, 1.36, 373.87
409.78, 1.48, 374.04
409.93, 1.61, 374.22
410.08, 1.75, 374.40
410.25, 1.89, 374.61
410.44, 2.03, 374.85
410.63, 2.19, 375.09
410.83, 2.35, 375.33
411.04, 2.52, 375.59
405.89, 0.35, 369.03
406.01, 0.36, 369.18
406.39, 0.23, 369.65
406.52, 0.24, 369.82
406.67, 0.26, 370.01
406.83, 0.27, 370.20
407.00, 0.28, 370.41
407.18, 0.29, 370.64
407.38, 0.31, 370.88
407.59, 0.33, 371.14
407.81, 0.35, 371.41
408.04, 0.38, 371.70
408.25, 0.42, 371.97
408.40, 0.49, 372.15
408.56, 0.56, 372.34
408.73, 0.64, 372.54
408.90, 0.72, 372.76
409.09, 0.80, 372.98
409.22, 0.90, 373.15
409.35, 1.01, 373.30
409.47, 1.12, 373.45
409.60, 1.24, 373.60
409.74, 1.36, 373.77
409.88, 1.48, 373.94
410.03, 1.61, 374.11
410.18, 1.74, 374.30
410.36, 1.88, 374.52
410.56, 2.03, 374.75
410.76, 2.18, 374.99
410.96, 2.34, 375.24
411.17, 2.51, 375.49
¯405.93, 0.36, 368.99
406.05, 0.36, 369.13
406.17, 0.37, 369.28
406.57, 0.25, 369.76
406.72, 0.26, 369.94
406.88, 0.27, 370.14
407.05, 0.28, 370.34
407.24, 0.30, 370.57
407.43, 0.31, 370.81
407.65, 0.33, 371.07
407.87, 0.35, 371.33
408.11, 0.38, 371.62
408.29, 0.43, 371.84
408.44, 0.50, 372.02
408.60, 0.57, 372.21
408.76, 0.65, 372.40
408.94, 0.73, 372.61
409.12, 0.81, 372.83
409.31, 0.90, 373.05
409.43, 1.01, 373.20
409.56, 1.12, 373.35
409.69, 1.23, 373.50
409.83, 1.35, 373.66
409.97, 1.48, 373.83
410.12, 1.61, 374.00
410.29, 1.74, 374.21
410.48, 1.88, 374.43
410.67, 2.02, 374.66
410.88, 2.18, 374.90
411.09, 2.34, 375.14
411.30, 2.51, 375.39
405.97, 0.36, 368.94
406.09, 0.36, 369.08
406.22, 0.37, 369.23
406.62, 0.25, 369.71
406.77, 0.26, 369.88
406.93, 0.27, 370.07
407.10, 0.29, 370.28
407.29, 0.30, 370.50
407.49, 0.32, 370.73
407.71, 0.33, 370.99
407.93, 0.35, 371.26
408.17, 0.38, 371.54
408.33, 0.44, 371.72
408.48, 0.51, 371.89
408.64, 0.58, 372.07
408.80, 0.66, 372.27
408.97, 0.74, 372.47
409.16, 0.82, 372.68
409.35, 0.91, 372.90
409.52, 1.01, 373.10
¯409.65, 1.12, 373.25
409.79, 1.23, 373.40
409.92, 1.35, 373.56
410.07, 1.48, 373.73
410.23, 1.60, 373.91
410.41, 1.74, 374.11
410.59, 1.87, 374.33
410.79, 2.02, 374.56
411.00, 2.17, 374.80
411.22, 2.33, 375.05
411.44, 2.50, 375.30
406.01, 0.36, 368.89
406.13, 0.37, 369.03
406.26, 0.37, 369.17
406.67, 0.25, 369.65
406.82, 0.26, 369.82
406.98, 0.28, 370.01
407.15, 0.29, 370.21
407.34, 0.30, 370.42
407.54, 0.32, 370.66
407.76, 0.34, 370.91
408.00, 0.36, 371.18
408.22, 0.39, 371.44
408.37, 0.45, 371.60
408.52, 0.52, 371.77
408.67, 0.59, 371.94
408.84, 0.67, 372.13
409.01, 0.74, 372.33
409.19, 0.83, 372.53
409.38, 0.92, 372.75
409.59, 1.01, 372.98
409.74, 1.11, 373.15
409.88, 1.23, 373.30
410.01, 1.35, 373.46
410.16, 1.47, 373.62
410.34, 1.60, 373.82
410.52, 1.73, 374.02
410.71, 1.87, 374.24
410.91, 2.02, 374.46
411.12, 2.17, 374.70
411.35, 2.33, 374.95
411.57, 2.50, 375.20
406.05, 0.36, 368.84
406.18, 0.37, 368.98
406.30, 0.38, 369.12
406.44, 0.38, 369.28
406.86, 0.27, 369.76
407.03, 0.28, 369.94
407.20, 0.29, 370.14
407.39, 0.31, 370.35
407.60, 0.32, 370.58
¯407.82, 0.34, 370.83
408.06, 0.36, 371.10
408.26, 0.40, 371.32
408.40, 0.46, 371.48
408.55, 0.53, 371.64
408.71, 0.60, 371.81
408.87, 0.68, 372.00
409.04, 0.75, 372.19
409.22, 0.84, 372.39
409.42, 0.92, 372.60
409.62, 1.01, 372.82
409.83, 1.11, 373.05
409.96, 1.23, 373.20
410.11, 1.35, 373.36
410.27, 1.47, 373.53
410.45, 1.59, 373.73
410.63, 1.73, 373.93
410.83, 1.87, 374.14
411.03, 2.01, 374.37
411.24, 2.16, 374.60
411.47, 2.32, 374.85
411.70, 2.49, 375.10
406.09, 0.36, 368.79
406.22, 0.37, 368.93
406.35, 0.38, 369.07
406.49, 0.39, 369.22
406.91, 0.27, 369.69
407.07, 0.28, 369.87
407.25, 0.29, 370.07
407.44, 0.31, 370.28
407.65, 0.32, 370.50
407.87, 0.34, 370.75
408.12, 0.36, 371.01
408.29, 0.41, 371.21
408.44, 0.47, 371.36
408.58, 0.54, 371.52
408.74, 0.61, 371.69
408.90, 0.68, 371.86
409.08, 0.76, 372.05
409.26, 0.84, 372.24
409.45, 0.93, 372.45
409.65, 1.02, 372.67
409.86, 1.12, 372.90
410.05, 1.22, 373.10
410.20, 1.34, 373.26
410.38, 1.46, 373.45
410.56, 1.59, 373.64
410.74, 1.72, 373.84
410.94, 1.86, 374.05
411.15, 2.01, 374.27
411.37, 2.16, 374.50
¯411.60, 2.32, 374.75
411.84, 2.49, 375.00
406.13, 0.36, 368.75
406.26, 0.37, 368.88
406.39, 0.38, 369.02
406.53, 0.39, 369.17
406.68, 0.40, 369.33
407.12, 0.28, 369.81
407.30, 0.30, 370.00
407.49, 0.31, 370.20
407.70, 0.33, 370.42
407.92, 0.35, 370.66
408.17, 0.36, 370.93
408.38, 0.40, 371.15
408.52, 0.47, 371.29
408.66, 0.54, 371.45
408.82, 0.61, 371.61
408.98, 0.68, 371.78
409.15, 0.76, 371.95
409.32, 0.84, 372.14
409.51, 0.93, 372.34
409.71, 1.02, 372.54
409.91, 1.12, 372.76
410.13, 1.22, 372.99
410.31, 1.34, 373.18
410.49, 1.46, 373.36
410.67, 1.59, 373.55
410.86, 1.72, 373.75
411.06, 1.86, 373.95
411.27, 2.00, 374.17
411.49, 2.15, 374.40
411.72, 2.31, 374.65
411.97, 2.48, 374.90
406.17, 0.36, 368.70
406.30, 0.37, 368.83
406.43, 0.38, 368.96
406.57, 0.39, 369.11
406.72, 0.40, 369.27
407.16, 0.29, 369.74
407.34, 0.30, 369.92
407.54, 0.32, 370.13
407.75, 0.33, 370.34
407.97, 0.35, 370.58
408.22, 0.37, 370.83
408.47, 0.39, 371.09
408.61, 0.46, 371.24
408.76, 0.53, 371.39
408.92, 0.60, 371.55
409.08, 0.67, 371.72
409.25, 0.75, 371.90
409.43, 0.84, 372.08
¯409.62, 0.92, 372.28
409.82, 1.02, 372.48
410.03, 1.11, 372.70
410.25, 1.22, 372.92
410.44, 1.33, 373.12
410.62, 1.45, 373.30
410.80, 1.58, 373.49
411.00, 1.71, 373.68
411.20, 1.85, 373.89
411.42, 2.00, 374.11
411.64, 2.15, 374.33
411.88, 2.31, 374.57
412.13, 2.48, 374.83
406.21, 0.37, 368.65
406.34, 0.37, 368.77
406.47, 0.38, 368.91
406.61, 0.39, 369.06
406.76, 0.40, 369.21
407.21, 0.29, 369.67
407.39, 0.31, 369.85
407.58, 0.32, 370.05
407.79, 0.34, 370.26
408.02, 0.35, 370.50
408.26, 0.37, 370.74
408.52, 0.40, 371.00
408.71, 0.45, 371.19
408.86, 0.52, 371.34
409.02, 0.59, 371.50
409.18, 0.67, 371.67
409.36, 0.75, 371.84
409.54, 0.83, 372.03
409.74, 0.92, 372.22
409.94, 1.01, 372.43
410.16, 1.10, 372.64
410.36, 1.21, 372.84
410.57, 1.32, 373.05
410.75, 1.44, 373.23
410.94, 1.57, 373.42
411.14, 1.70, 373.62
411.35, 1.84, 373.83
411.57, 1.99, 374.04
411.80, 2.14, 374.27
412.04, 2.31, 374.51
412.36, 2.48, 374.83
406.25, 0.37, 368.60
406.37, 0.38, 368.72
406.51, 0.38, 368.86
406.65, 0.39, 369.00
406.81, 0.40, 369.15
406.97, 0.41, 369.31
407.43, 0.31, 369.78
¯407.63, 0.32, 369.97
407.84, 0.34, 370.18
408.07, 0.36, 370.41
408.31, 0.38, 370.65
408.56, 0.40, 370.90
408.80, 0.44, 371.13
408.96, 0.51, 371.29
409.12, 0.58, 371.44
409.29, 0.66, 371.61
409.47, 0.74, 371.79
409.65, 0.82, 371.97
409.85, 0.91, 372.16
410.06, 1.00, 372.37
410.27, 1.10, 372.57
410.47, 1.20, 372.77
410.69, 1.32, 372.98
410.89, 1.44, 373.17
411.08, 1.56, 373.36
411.28, 1.70, 373.55
411.50, 1.84, 373.76
411.72, 1.99, 373.98
411.95, 2.14, 374.20
412.24, 2.30, 374.48
412.61, 2.48, 374.84
406.28, 0.37, 368.55
406.41, 0.38, 368.67
406.55, 0.38, 368.80
406.69, 0.39, 368.94
406.85, 0.40, 369.09
407.01, 0.41, 369.25
407.48, 0.31, 369.71
407.67, 0.33, 369.90
407.89, 0.34, 370.10
408.12, 0.36, 370.33
408.35, 0.38, 370.56
408.61, 0.41, 370.80
408.88, 0.44, 371.07
409.05, 0.50, 371.23
409.22, 0.57, 371.39
409.39, 0.65, 371.55
409.57, 0.73, 371.73
409.77, 0.81, 371.91
409.97, 0.90, 372.10
410.18, 0.99, 372.30
410.38, 1.09, 372.49
410.59, 1.20, 372.69
410.81, 1.31, 372.90
411.02, 1.43, 373.11
411.22, 1.56, 373.29
411.43, 1.69, 373.49
411.65, 1.83, 373.69
¯411.87, 1.98, 373.91
412.11, 2.13, 374.14
412.47, 2.30, 374.47
412.85, 2.48, 374.84
406.32, 0.37, 368.50
406.45, 0.38, 368.62
406.59, 0.39, 368.75
406.73, 0.39, 368.89
406.89, 0.40, 369.03
407.05, 0.42, 369.19
407.22, 0.43, 369.35
407.72, 0.33, 369.82
407.93, 0.35, 370.02
408.16, 0.36, 370.24
408.40, 0.39, 370.47
408.65, 0.41, 370.71
408.93, 0.44, 370.97
409.15, 0.49, 371.18
409.32, 0.56, 371.33
409.50, 0.64, 371.50
409.68, 0.72, 371.67
409.88, 0.80, 371.85
410.08, 0.89, 372.04
410.28, 0.98, 372.23
410.49, 1.09, 372.42
410.70, 1.19, 372.61
410.92, 1.30, 372.82
411.16, 1.42, 373.04
411.36, 1.55, 373.23
411.57, 1.69, 373.42
411.80, 1.83, 373.63
412.03, 1.97, 373.84
412.34, 2.13, 374.13
412.71, 2.30, 374.47
413.11, 2.48, 374.84
406.36, 0.37, 368.45
406.49, 0.38, 368.57
406.62, 0.39, 368.69
406.77, 0.40, 368.83
406.93, 0.41, 368.97
407.09, 0.42, 369.12
407.26, 0.43, 369.28
407.76, 0.33, 369.75
407.97, 0.35, 369.94
408.21, 0.37, 370.16
408.44, 0.39, 370.37
408.69, 0.42, 370.61
408.97, 0.45, 370.86
409.25, 0.48, 371.12
409.42, 0.55, 371.27
409.60, 0.63, 371.44
¯409.79, 0.71, 371.61
409.99, 0.79, 371.79
410.19, 0.88, 371.98
410.39, 0.98, 372.15
410.60, 1.08, 372.34
410.81, 1.19, 372.54
411.04, 1.30, 372.74
411.28, 1.42, 372.96
411.51, 1.54, 373.16
411.72, 1.68, 373.36
411.95, 1.82, 373.56
412.22, 1.97, 373.80
412.57, 2.12, 374.12
412.95, 2.29, 374.47
413.37, 2.47, 374.84
406.39, 0.37, 368.40
406.52, 0.38, 368.51
406.66, 0.39, 368.64
406.81, 0.40, 368.77
406.96, 0.41, 368.91
407.13, 0.42, 369.06
407.30, 0.43, 369.21
407.80, 0.34, 369.67
408.02, 0.35, 369.86
408.25, 0.37, 370.07
408.48, 0.39, 370.28
408.74, 0.42, 370.51
409.01, 0.45, 370.76
409.32, 0.48, 371.03
409.52, 0.54, 371.22
409.71, 0.62, 371.38
409.90, 0.70, 371.55
410.10, 0.78, 371.73
410.30, 0.87, 371.90
410.50, 0.97, 372.08
410.71, 1.07, 372.26
410.93, 1.18, 372.46
411.16, 1.29, 372.66
411.40, 1.41, 372.88
411.65, 1.54, 373.10
411.87, 1.67, 373.29
412.10, 1.81, 373.49
412.44, 1.96, 373.79
412.81, 2.12, 374.12
413.20, 2.29, 374.47
413.63, 2.47, 374.85
406.42, 0.37, 368.35
406.56, 0.38, 368.46
406.70, 0.39, 368.58
406.85, 0.40, 368.71
407.00, 0.41, 368.85
¯407.16, 0.42, 368.99
407.34, 0.44, 369.15
407.52, 0.45, 369.31
408.06, 0.36, 369.78
408.29, 0.37, 369.98
408.52, 0.40, 370.19
408.78, 0.43, 370.42
409.06, 0.45, 370.66
409.36, 0.49, 370.92
409.63, 0.53, 371.16
409.81, 0.61, 371.32
410.01, 0.69, 371.49
410.21, 0.77, 371.66
410.40, 0.87, 371.83
410.61, 0.96, 372.00
410.82, 1.06, 372.19
411.04, 1.17, 372.38
411.28, 1.28, 372.58
411.53, 1.40, 372.80
411.79, 1.53, 373.02
412.02, 1.66, 373.22
412.32, 1.80, 373.48
412.67, 1.95, 373.78
413.05, 2.11, 374.11
413.46, 2.29, 374.47
413.91, 2.47, 374.85
406.46, 0.38, 368.29
406.59, 0.38, 368.41
406.73, 0.39, 368.53
406.88, 0.40, 368.66
407.03, 0.41, 368.79
407.20, 0.43, 368.93
407.37, 0.44, 369.08
407.56, 0.45, 369.24
408.10, 0.36, 369.70
408.32, 0.38, 369.90
408.56, 0.40, 370.10
408.82, 0.43, 370.32
409.10, 0.46, 370.56
409.40, 0.49, 370.82
409.73, 0.52, 371.10
409.92, 0.60, 371.26
410.12, 0.68, 371.43
410.31, 0.77, 371.59
410.51, 0.86, 371.75
410.71, 0.96, 371.93
410.93, 1.06, 372.11
411.16, 1.16, 372.30
411.40, 1.28, 372.50
411.65, 1.40, 372.71
411.92, 1.52, 372.94
¯412.20, 1.66, 373.17
412.55, 1.79, 373.47
412.96, 1.94, 373.82
413.41, 2.11, 374.20
413.90, 2.28, 374.61
414.24, 2.47, 374.89
406.49, 0.38, 368.24
406.62, 0.38, 368.35
406.77, 0.39, 368.47
406.91, 0.40, 368.60
407.07, 0.41, 368.73
407.23, 0.43, 368.86
407.41, 0.44, 369.01
407.60, 0.46, 369.17
407.80, 0.47, 369.34
408.36, 0.38, 369.81
408.60, 0.41, 370.01
408.86, 0.43, 370.22
409.14, 0.46, 370.46
409.44, 0.49, 370.71
409.77, 0.53, 370.99
410.03, 0.59, 371.20
410.22, 0.67, 371.36
410.41, 0.76, 371.51
410.61, 0.85, 371.68
410.82, 0.95, 371.85
411.04, 1.05, 372.03
411.27, 1.16, 372.22
411.53, 1.27, 372.43
411.79, 1.39, 372.65
412.08, 1.51, 372.88
412.56, 1.64, 373.28
412.97, 1.78, 373.62
413.41, 1.93, 373.98
413.90, 2.10, 374.38
414.23, 2.28, 374.66
414.49, 2.47, 374.87
406.52, 0.38, 368.19
406.66, 0.39, 368.30
406.80, 0.39, 368.42
406.95, 0.40, 368.54
407.10, 0.42, 368.66
407.27, 0.43, 368.80
407.45, 0.44, 368.94
407.64, 0.46, 369.10
407.84, 0.48, 369.26
408.40, 0.39, 369.72
408.64, 0.41, 369.92
408.90, 0.44, 370.13
409.18, 0.47, 370.35
409.48, 0.50, 370.60
¯409.81, 0.53, 370.87
410.13, 0.58, 371.13
410.32, 0.66, 371.28
410.52, 0.75, 371.44
410.73, 0.84, 371.61
410.95, 0.94, 371.79
411.19, 1.04, 371.98
411.43, 1.14, 372.17
411.69, 1.26, 372.38
411.97, 1.38, 372.61
412.57, 1.48, 373.09
412.97, 1.61, 373.42
413.41, 1.76, 373.77
413.89, 1.92, 374.16
414.23, 2.09, 374.42
414.49, 2.28, 374.63
414.76, 2.47, 374.84
406.56, 0.38, 368.14
406.69, 0.39, 368.25
406.83, 0.40, 368.36
406.98, 0.41, 368.48
407.14, 0.42, 368.60
407.30, 0.43, 368.73
407.48, 0.45, 368.87
407.67, 0.46, 369.02
407.88, 0.48, 369.19
408.10, 0.50, 369.36
408.67, 0.41, 369.83
408.93, 0.44, 370.03
409.21, 0.47, 370.25
409.52, 0.50, 370.50
409.85, 0.54, 370.76
410.23, 0.57, 371.06
410.45, 0.65, 371.23
410.66, 0.74, 371.40
410.88, 0.83, 371.57
411.10, 0.92, 371.74
411.34, 1.02, 371.93
411.60, 1.13, 372.13
411.87, 1.24, 372.34
412.26, 1.35, 372.65
412.98, 1.45, 373.22
413.42, 1.59, 373.56
413.89, 1.74, 373.93
414.23, 1.91, 374.19
414.48, 2.09, 374.39
414.75, 2.27, 374.60
415.03, 2.47, 374.81
406.59, 0.38, 368.09
406.72, 0.39, 368.19
406.86, 0.40, 368.30
¯407.01, 0.41, 368.42
407.17, 0.42, 368.54
407.34, 0.43, 368.67
407.51, 0.45, 368.80
407.71, 0.46, 368.95
407.91, 0.48, 369.11
408.13, 0.50, 369.28
408.71, 0.42, 369.74
408.97, 0.45, 369.94
409.25, 0.47, 370.16
409.57, 0.50, 370.40
409.91, 0.54, 370.66
410.29, 0.57, 370.96
410.59, 0.63, 371.19
410.80, 0.72, 371.35
411.02, 0.81, 371.52
411.26, 0.91, 371.70
411.51, 1.01, 371.89
411.77, 1.12, 372.08
412.04, 1.23, 372.30
412.93, 1.30, 372.98
413.42, 1.43, 373.36
413.89, 1.57, 373.72
414.22, 1.73, 373.97
414.47, 1.90, 374.16
414.74, 2.08, 374.36
415.01, 2.27, 374.57
415.30, 2.46, 374.78
406.62, 0.38, 368.03
406.75, 0.39, 368.14
406.90, 0.40, 368.24
407.04, 0.41, 368.36
407.20, 0.42, 368.47
407.37, 0.44, 368.60
407.55, 0.45, 368.74
407.74, 0.47, 368.88
407.95, 0.48, 369.04
408.17, 0.50, 369.21
408.41, 0.52, 369.39
409.01, 0.45, 369.85
409.30, 0.47, 370.07
409.62, 0.50, 370.30
409.96, 0.54, 370.56
410.35, 0.57, 370.86
410.73, 0.62, 371.14
410.94, 0.70, 371.30
411.17, 0.80, 371.47
411.41, 0.89, 371.65
411.67, 0.99, 371.84
411.94, 1.10, 372.04
412.50, 1.19, 372.46
¯413.42, 1.26, 373.15
413.88, 1.40, 373.50
414.22, 1.55, 373.75
414.47, 1.72, 373.93
414.73, 1.89, 374.13
415.00, 2.07, 374.33
415.29, 2.26, 374.54
415.59, 2.46, 374.75
406.65, 0.38, 367.98
406.78, 0.39, 368.08
406.93, 0.40, 368.19
407.07, 0.41, 368.30
407.23, 0.42, 368.41
407.40, 0.44, 368.54
407.58, 0.45, 368.67
407.77, 0.47, 368.81
407.98, 0.48, 368.96
408.20, 0.50, 369.13
408.44, 0.52, 369.30
409.06, 0.45, 369.76
409.35, 0.47, 369.98
409.67, 0.50, 370.21
410.02, 0.53, 370.46
410.41, 0.57, 370.76
410.86, 0.60, 371.09
411.09, 0.69, 371.25
411.33, 0.78, 371.42
411.57, 0.88, 371.60
411.83, 0.98, 371.79
412.11, 1.09, 371.99
413.19, 1.12, 372.79
413.88, 1.23, 373.29
414.21, 1.37, 373.53
414.46, 1.54, 373.71
414.72, 1.71, 373.90
414.99, 1.88, 374.09
415.27, 2.07, 374.29
415.58, 2.26, 374.51
415.90, 2.46, 374.74
406.68, 0.38, 367.93
406.81, 0.39, 368.03
406.95, 0.40, 368.13
407.10, 0.41, 368.23
407.26, 0.43, 368.35
407.43, 0.44, 368.47
407.61, 0.45, 368.60
407.81, 0.47, 368.74
408.01, 0.49, 368.89
408.24, 0.50, 369.05
408.48, 0.52, 369.22
408.74, 0.54, 369.41
¯409.40, 0.47, 369.89
409.72, 0.50, 370.11
410.07, 0.53, 370.36
410.47, 0.57, 370.65
410.93, 0.60, 370.98
411.24, 0.67, 371.20
411.48, 0.76, 371.37
411.73, 0.86, 371.55
412.00, 0.96, 371.74
412.74, 1.02, 372.27
413.87, 1.06, 373.08
414.21, 1.20, 373.32
414.45, 1.36, 373.49
414.71, 1.52, 373.67
414.99, 1.69, 373.87
415.28, 1.87, 374.07
415.59, 2.06, 374.28
415.91, 2.25, 374.51
406.70, 0.38, 367.87
406.84, 0.39, 367.97
406.98, 0.40, 368.07
407.13, 0.42, 368.17
407.29, 0.43, 368.29
407.46, 0.44, 368.40
407.64, 0.46, 368.53
407.84, 0.47, 368.67
408.05, 0.49, 368.81
408.27, 0.51, 368.97
408.51, 0.53, 369.14
408.78, 0.55, 369.32
409.45, 0.47, 369.80
409.77, 0.50, 370.02
410.12, 0.53, 370.26
410.53, 0.56, 370.55
410.98, 0.60, 370.87
411.39, 0.65, 371.15
411.64, 0.75, 371.32
411.90, 0.84, 371.50
412.34, 0.93, 371.81
413.45, 0.95, 372.59
414.21, 1.03, 373.12
414.47, 1.18, 373.29
414.73, 1.34, 373.47
415.01, 1.51, 373.66
415.30, 1.68, 373.86
415.60, 1.86, 374.06
415.92, 2.05, 374.28
416.86, 2.25, 374.94
406.73, 0.38, 367.82
406.87, 0.39, 367.91
407.01, 0.41, 368.01
¯407.16, 0.42, 368.11
407.32, 0.43, 368.22
407.49, 0.44, 368.34
407.67, 0.46, 368.46
407.87, 0.47, 368.59
408.08, 0.49, 368.74
408.30, 0.51, 368.89
408.55, 0.53, 369.06
408.81, 0.55, 369.24
409.10, 0.57, 369.43
409.82, 0.50, 369.93
410.17, 0.53, 370.17
410.58, 0.56, 370.45
411.04, 0.60, 370.76
411.54, 0.64, 371.10
411.80, 0.73, 371.27
412.07, 0.83, 371.45
412.98, 0.85, 372.08
413.78, 0.91, 372.62
414.48, 1.01, 373.10
414.75, 1.16, 373.27
415.02, 1.32, 373.45
415.31, 1.49, 373.64
415.61, 1.67, 373.84
415.93, 1.85, 374.05
416.89, 2.04, 374.71
406.76, 0.39, 367.77
406.89, 0.40, 367.86
407.04, 0.41, 367.95
407.19, 0.42, 368.05
407.35, 0.43, 368.16
407.52, 0.45, 368.27
407.70, 0.46, 368.39
407.90, 0.48, 368.52
408.11, 0.49, 368.66
408.34, 0.51, 368.81
408.58, 0.53, 368.97
408.84, 0.55, 369.15
409.13, 0.57, 369.34
409.86, 0.50, 369.83
410.22, 0.53, 370.07
410.64, 0.56, 370.34
411.10, 0.60, 370.65
411.62, 0.63, 370.99
411.96, 0.71, 371.22
412.55, 0.77, 371.61
413.23, 0.83, 372.06
413.87, 0.91, 372.49
414.76, 0.99, 373.07
415.04, 1.14, 373.25
415.32, 1.30, 373.44
¯415.62, 1.47, 373.63
415.94, 1.65, 373.83
416.92, 1.82, 374.48
419.44, 2.01, 376.15
406.78, 0.39, 367.71
406.92, 0.40, 367.80
407.06, 0.41, 367.89
407.22, 0.42, 367.99
407.38, 0.43, 368.09
407.55, 0.45, 368.21
407.73, 0.46, 368.32
407.93, 0.48, 368.45
408.14, 0.49, 368.59
408.37, 0.51, 368.73
408.61, 0.53, 368.89
408.88, 0.55, 369.06
409.16, 0.58, 369.25
409.49, 0.60, 369.46
410.27, 0.53, 369.97
410.69, 0.56, 370.24
411.16, 0.59, 370.54
411.68, 0.63, 370.87
412.16, 0.69, 371.19
412.74, 0.75, 371.56
413.32, 0.82, 371.93
413.96, 0.90, 372.35
415.05, 0.96, 373.05
415.33, 1.12, 373.23
415.63, 1.29, 373.42
415.94, 1.46, 373.61
416.94, 1.61, 374.25
418.02, 1.79, 374.95
420.00, 1.99, 376.22
406.81, 0.39, 367.66
406.95, 0.40, 367.74
407.09, 0.41, 367.83
407.24, 0.42, 367.93
407.40, 0.43, 368.03
407.58, 0.45, 368.14
407.76, 0.46, 368.25
407.96, 0.48, 368.38
408.17, 0.50, 368.51
408.40, 0.51, 368.65
408.64, 0.53, 368.81
408.91, 0.55, 368.97
409.19, 0.58, 369.16
409.52, 0.60, 369.36
410.32, 0.53, 369.87
410.74, 0.56, 370.13
411.21, 0.59, 370.43
411.73, 0.63, 370.76
¯412.29, 0.67, 371.11
412.82, 0.74, 371.44
413.40, 0.82, 371.80
414.05, 0.90, 372.21
415.22, 0.95, 372.94
415.64, 1.10, 373.21
415.95, 1.26, 373.40
416.97, 1.40, 374.03
417.62, 1.58, 374.44
418.44, 1.78, 374.95
406.83, 0.39, 367.60
406.97, 0.40, 367.69
407.12, 0.41, 367.77
407.27, 0.42, 367.87
407.43, 0.44, 367.97
407.60, 0.45, 368.07
407.79, 0.46, 368.19
407.99, 0.48, 368.31
408.20, 0.50, 368.44
408.43, 0.52, 368.58
408.67, 0.53, 368.73
408.94, 0.56, 368.89
409.23, 0.58, 369.06
409.55, 0.60, 369.27
410.37, 0.53, 369.77
410.80, 0.56, 370.03
411.26, 0.59, 370.32
411.77, 0.63, 370.63
412.34, 0.68, 370.97
412.90, 0.74, 371.31
413.48, 0.81, 371.67
414.18, 0.89, 372.10
415.37, 0.94, 372.83
415.96, 1.07, 373.18
416.69, 1.22, 373.63
417.26, 1.39, 373.97
417.87, 1.57, 374.34
418.88, 1.76, 374.96
406.86, 0.39, 367.55
406.99, 0.40, 367.63
407.14, 0.41, 367.71
407.29, 0.42, 367.81
407.46, 0.44, 367.90
407.63, 0.45, 368.01
407.81, 0.47, 368.12
408.01, 0.48, 368.23
408.23, 0.50, 368.36
408.45, 0.52, 368.50
408.70, 0.54, 368.64
408.97, 0.56, 368.80
409.26, 0.58, 368.97
¯409.59, 0.60, 369.17
409.95, 0.63, 369.39
410.85, 0.56, 369.92
411.31, 0.59, 370.20
411.81, 0.63, 370.50
412.37, 0.68, 370.83
412.97, 0.73, 371.19
413.57, 0.81, 371.54
414.32, 0.88, 371.99
415.53, 0.93, 372.71
416.38, 1.04, 373.21
416.92, 1.20, 373.53
417.50, 1.37, 373.87
418.23, 1.55, 374.30
419.34, 1.75, 374.96
406.88, 0.39, 367.49
407.02, 0.40, 367.57
407.16, 0.41, 367.66
407.32, 0.43, 367.74
407.48, 0.44, 367.84
407.66, 0.45, 367.94
407.84, 0.47, 368.05
408.04, 0.48, 368.16
408.25, 0.50, 368.29
408.48, 0.52, 368.42
408.73, 0.54, 368.56
408.99, 0.56, 368.71
409.29, 0.58, 368.88
409.62, 0.60, 369.07
409.98, 0.63, 369.29
410.89, 0.56, 369.82
411.34, 0.59, 370.08
411.84, 0.63, 370.37
412.41, 0.68, 370.69
413.04, 0.73, 371.06
413.65, 0.80, 371.41
414.46, 0.87, 371.88
415.62, 0.92, 372.55
416.60, 1.03, 373.12
417.15, 1.19, 373.43
417.75, 1.36, 373.78
418.65, 1.54, 374.29
419.82, 1.73, 374.96
406.90, 0.39, 367.44
407.04, 0.40, 367.51
407.19, 0.42, 367.60
407.34, 0.43, 367.68
407.51, 0.44, 367.78
407.68, 0.45, 367.87
407.87, 0.47, 367.98
408.07, 0.48, 368.09
¯408.28, 0.50, 368.21
408.51, 0.52, 368.34
408.76, 0.54, 368.48
409.02, 0.56, 368.63
409.31, 0.58, 368.79
409.65, 0.61, 368.98
410.01, 0.63, 369.18
410.42, 0.66, 369.41
411.37, 0.59, 369.96
411.88, 0.63, 370.24
412.44, 0.68, 370.55
413.07, 0.73, 370.91
413.73, 0.80, 371.28
414.59, 0.86, 371.76
415.63, 0.93, 372.35
416.76, 1.02, 372.98
417.39, 1.17, 373.33
418.03, 1.34, 373.69
419.09, 1.52, 374.28
420.20, 1.72, 374.90
406.92, 0.40, 367.38
407.06, 0.41, 367.46
407.21, 0.42, 367.54
407.36, 0.43, 367.62
407.53, 0.44, 367.71
407.70, 0.46, 367.81
407.89, 0.47, 367.91
408.09, 0.49, 368.02
408.30, 0.50, 368.13
408.53, 0.52, 368.26
408.78, 0.54, 368.40
409.05, 0.56, 368.54
409.34, 0.59, 368.70
409.68, 0.61, 368.88
410.04, 0.63, 369.08
410.44, 0.66, 369.30
411.41, 0.59, 369.83
411.91, 0.64, 370.11
412.47, 0.68, 370.42
413.11, 0.73, 370.76
413.81, 0.79, 371.15
414.67, 0.85, 371.62
415.63, 0.93, 372.14
416.76, 1.02, 372.76
417.63, 1.15, 373.23
418.43, 1.32, 373.67
419.38, 1.50, 374.18
420.60, 1.70, 374.84
406.94, 0.40, 367.32
407.08, 0.41, 367.40
407.23, 0.42, 367.48
¯407.39, 0.43, 367.56
407.55, 0.44, 367.65
407.73, 0.46, 367.74
407.91, 0.47, 367.84
408.11, 0.49, 367.95
408.33, 0.50, 368.06
408.56, 0.52, 368.18
408.81, 0.54, 368.31
409.08, 0.56, 368.45
409.37, 0.59, 368.61
409.70, 0.61, 368.79
410.07, 0.63, 368.98
410.47, 0.66, 369.20
410.90, 0.69, 369.43
411.94, 0.64, 369.98
412.50, 0.68, 370.28
413.14, 0.73, 370.61
413.86, 0.79, 371.00
414.68, 0.85, 371.43
415.64, 0.93, 371.94
416.75, 1.02, 372.53
417.88, 1.14, 373.13
418.72, 1.30, 373.57
419.62, 1.49, 374.04
421.01, 1.69, 374.78
406.97, 0.40, 367.27
407.11, 0.41, 367.34
407.25, 0.42, 367.42
407.41, 0.43, 367.50
407.57, 0.44, 367.58
407.75, 0.46, 367.67
407.94, 0.47, 367.77
408.14, 0.49, 367.87
408.35, 0.51, 367.98
408.58, 0.52, 368.10
408.83, 0.54, 368.23
409.10, 0.57, 368.37
409.40, 0.59, 368.52
409.73, 0.61, 368.69
410.10, 0.63, 368.88
410.50, 0.66, 369.09
410.93, 0.69, 369.31
411.97, 0.64, 369.85
412.53, 0.68, 370.14
413.17, 0.73, 370.47
413.88, 0.79, 370.83
414.69, 0.86, 371.25
415.64, 0.93, 371.74
416.75, 1.02, 372.31
418.07, 1.13, 372.99
418.94, 1.29, 373.44
¯419.86, 1.48, 373.90
421.43, 1.67, 374.71
406.99, 0.40, 367.21
407.13, 0.41, 367.28
407.27, 0.42, 367.36
407.43, 0.43, 367.44
407.60, 0.45, 367.52
407.77, 0.46, 367.61
407.96, 0.47, 367.70
408.16, 0.49, 367.80
408.38, 0.51, 367.91
408.61, 0.53, 368.02
408.86, 0.54, 368.15
409.13, 0.57, 368.28
409.42, 0.59, 368.43
409.76, 0.61, 368.60
410.13, 0.63, 368.78
410.52, 0.66, 368.98
410.96, 0.69, 369.20
411.44, 0.73, 369.44
412.56, 0.68, 370.00
413.20, 0.73, 370.32
413.90, 0.79, 370.67
414.70, 0.86, 371.07
415.64, 0.93, 371.54
416.75, 1.02, 372.09
418.05, 1.13, 372.75
419.17, 1.28, 373.30
420.20, 1.46, 373.81
421.71, 1.66, 374.56
407.00, 0.40, 367.16
407.15, 0.41, 367.23
407.29, 0.42, 367.30
407.45, 0.43, 367.37
407.62, 0.45, 367.45
407.79, 0.46, 367.54
407.98, 0.48, 367.63
408.18, 0.49, 367.73
408.40, 0.51, 367.83
408.63, 0.53, 367.94
408.88, 0.55, 368.07
409.15, 0.57, 368.20
409.45, 0.59, 368.34
409.78, 0.61, 368.50
410.15, 0.63, 368.68
410.55, 0.66, 368.87
410.98, 0.70, 369.08
411.46, 0.73, 369.32
412.59, 0.68, 369.87
413.22, 0.73, 370.17
413.92, 0.79, 370.51
¯414.72, 0.86, 370.90
415.65, 0.94, 371.35
416.74, 1.02, 371.88
418.04, 1.13, 372.51
419.39, 1.26, 373.16
420.58, 1.44, 373.73
422.17, 1.64, 374.50
407.02, 0.40, 367.10
407.16, 0.41, 367.17
407.31, 0.42, 367.24
407.47, 0.43, 367.31
407.64, 0.45, 367.39
407.81, 0.46, 367.47
408.00, 0.48, 367.56
408.20, 0.49, 367.66
408.42, 0.51, 367.76
408.65, 0.53, 367.87
408.90, 0.55, 367.98
409.17, 0.57, 368.11
409.47, 0.59, 368.25
409.81, 0.61, 368.41
410.18, 0.64, 368.58
410.57, 0.67, 368.77
411.00, 0.70, 368.97
411.48, 0.73, 369.19
412.01, 0.78, 369.44
413.24, 0.74, 370.02
413.94, 0.80, 370.35
414.73, 0.86, 370.72
415.65, 0.94, 371.15
416.74, 1.03, 371.66
418.03, 1.13, 372.27
419.57, 1.25, 372.99
420.78, 1.43, 373.56
423.82, 1.59, 374.99
407.04, 0.40, 367.05
407.18, 0.41, 367.11
407.33, 0.42, 367.18
407.49, 0.44, 367.25
407.66, 0.45, 367.32
407.83, 0.46, 367.41
408.02, 0.48, 367.49
408.23, 0.49, 367.58
408.44, 0.51, 367.68
408.67, 0.53, 367.79
408.92, 0.55, 367.90
409.19, 0.57, 368.02
409.50, 0.59, 368.16
409.83, 0.61, 368.31
410.20, 0.64, 368.48
410.59, 0.67, 368.66
¯411.02, 0.70, 368.86
411.50, 0.74, 369.07
412.03, 0.78, 369.31
413.26, 0.74, 369.87
413.95, 0.80, 370.19
414.75, 0.86, 370.55
415.65, 0.94, 370.96
416.73, 1.03, 371.45
418.01, 1.13, 372.03
419.54, 1.25, 372.73
420.97, 1.42, 373.38
423.77, 1.59, 374.65
425.27, 1.85, 375.33
407.06, 0.40, 366.99
407.20, 0.41, 367.05
407.35, 0.42, 367.12
407.51, 0.44, 367.19
407.67, 0.45, 367.26
407.85, 0.46, 367.34
408.04, 0.48, 367.42
408.25, 0.49, 367.51
408.46, 0.51, 367.61
408.69, 0.53, 367.71
408.94, 0.55, 367.82
409.22, 0.57, 367.94
409.52, 0.59, 368.07
409.85, 0.61, 368.22
410.22, 0.64, 368.38
410.61, 0.67, 368.55
411.04, 0.70, 368.74
411.52, 0.74, 368.95
412.05, 0.78, 369.19
413.27, 0.74, 369.73
413.97, 0.80, 370.03
414.76, 0.86, 370.38
415.66, 0.94, 370.78
416.72, 1.03, 371.24
417.99, 1.13, 371.80
419.50, 1.25, 372.46
421.17, 1.41, 373.20
423.72, 1.59, 374.32
425.06, 1.85, 374.90
407.08, 0.40, 366.93
407.22, 0.41, 366.99
407.37, 0.43, 367.06
407.52, 0.44, 367.12
407.69, 0.45, 367.20
407.87, 0.46, 367.27
408.06, 0.48, 367.35
408.26, 0.50, 367.44
408.48, 0.51, 367.53
¯408.71, 0.53, 367.63
408.96, 0.55, 367.74
409.24, 0.57, 367.85
409.54, 0.59, 367.98
409.88, 0.61, 368.12
410.24, 0.64, 368.28
410.63, 0.67, 368.45
411.06, 0.70, 368.63
411.54, 0.74, 368.83
412.07, 0.78, 369.06
412.66, 0.83, 369.31
413.98, 0.80, 369.87
414.77, 0.87, 370.21
415.66, 0.94, 370.59
416.72, 1.03, 371.04
417.98, 1.13, 371.57
419.46, 1.25, 372.20
421.31, 1.40, 372.99
423.67, 1.58, 373.99
425.03, 1.84, 374.56
407.09, 0.40, 366.88
407.23, 0.41, 366.93
407.38, 0.43, 367.00
407.54, 0.44, 367.06
407.71, 0.45, 367.13
407.89, 0.47, 367.20
408.08, 0.48, 367.28
408.28, 0.50, 367.37
408.50, 0.51, 367.45
408.73, 0.53, 367.55
408.98, 0.55, 367.65
409.26, 0.57, 367.77
409.56, 0.59, 367.89
409.90, 0.61, 368.03
410.26, 0.64, 368.18
410.65, 0.67, 368.34
411.08, 0.70, 368.52
411.56, 0.74, 368.71
412.09, 0.78, 368.93
412.68, 0.83, 369.17
413.99, 0.80, 369.72
414.78, 0.87, 370.04
415.66, 0.94, 370.40
416.71, 1.03, 370.83
417.96, 1.13, 371.34
419.41, 1.25, 371.94
421.24, 1.40, 372.69
423.62, 1.58, 373.67
424.99, 1.83, 374.23
407.11, 0.40, 366.82
407.25, 0.42, 366.88
¯407.40, 0.43, 366.94
407.56, 0.44, 367.00
407.73, 0.45, 367.07
407.91, 0.47, 367.14
408.10, 0.48, 367.21
408.30, 0.50, 367.29
408.52, 0.51, 367.38
408.75, 0.53, 367.47
409.00, 0.55, 367.57
409.27, 0.57, 367.68
409.58, 0.59, 367.80
409.92, 0.62, 367.93
410.28, 0.64, 368.08
410.67, 0.67, 368.23
411.10, 0.70, 368.40
411.57, 0.74, 368.59
412.10, 0.78, 368.80
412.69, 0.83, 369.03
413.34, 0.88, 369.29
414.79, 0.87, 369.87
415.66, 0.95, 370.22
416.70, 1.03, 370.63
417.94, 1.13, 371.12
419.37, 1.26, 371.69
421.17, 1.40, 372.40
423.57, 1.57, 373.35
425.19, 1.82, 373.99
407.12, 0.41, 366.76
407.27, 0.42, 366.82
407.42, 0.43, 366.88
407.57, 0.44, 366.94
407.74, 0.45, 367.00
407.92, 0.47, 367.07
408.11, 0.48, 367.14
408.32, 0.50, 367.22
408.54, 0.51, 367.30
408.77, 0.53, 367.39
409.02, 0.55, 367.49
409.29, 0.57, 367.59
409.60, 0.59, 367.71
409.94, 0.62, 367.84
410.30, 0.64, 367.98
410.69, 0.67, 368.13
411.12, 0.70, 368.29
411.59, 0.74, 368.47
412.12, 0.78, 368.67
412.70, 0.83, 368.90
413.35, 0.88, 369.15
414.79, 0.87, 369.70
415.65, 0.95, 370.03
416.69, 1.03, 370.43
¯417.91, 1.13, 370.89
419.32, 1.26, 371.43
421.10, 1.40, 372.11
423.52, 1.57, 373.04
425.41, 1.81, 373.76
407.14, 0.41, 366.71
407.28, 0.42, 366.76
407.43, 0.43, 366.82
407.59, 0.44, 366.87
407.76, 0.45, 366.94
407.94, 0.47, 367.00
408.13, 0.48, 367.07
408.33, 0.50, 367.15
408.55, 0.52, 367.23
408.79, 0.53, 367.31
409.04, 0.55, 367.41
409.31, 0.57, 367.51
409.62, 0.59, 367.62
409.96, 0.62, 367.75
410.31, 0.64, 367.88
410.70, 0.67, 368.02
411.13, 0.70, 368.18
411.60, 0.74, 368.35
412.13, 0.78, 368.55
412.71, 0.83, 368.76
413.36, 0.88, 369.00
414.08, 0.95, 369.27
415.65, 0.95, 369.85
416.67, 1.03, 370.23
417.88, 1.13, 370.67
419.28, 1.26, 371.18
421.03, 1.40, 371.83
423.41, 1.57, 372.71
425.63, 1.80, 373.52
407.15, 0.41, 366.65
407.29, 0.42, 366.70
407.45, 0.43, 366.75
407.60, 0.44, 366.81
407.77, 0.45, 366.87
407.95, 0.47, 366.94
408.15, 0.48, 367.00
408.35, 0.50, 367.08
408.57, 0.52, 367.15
408.80, 0.53, 367.24
409.05, 0.55, 367.33
409.33, 0.58, 367.42
409.64, 0.60, 367.53
409.97, 0.62, 367.65
410.33, 0.64, 367.78
410.72, 0.67, 367.92
411.15, 0.70, 368.07
¯411.62, 0.74, 368.24
412.14, 0.78, 368.42
412.72, 0.83, 368.63
413.36, 0.88, 368.86
414.08, 0.95, 369.11
415.64, 0.95, 369.67
416.66, 1.03, 370.03
417.85, 1.14, 370.45
419.23, 1.26, 370.94
420.97, 1.40, 371.55
423.28, 1.57, 372.38
407.17, 0.41, 366.59
407.31, 0.42, 366.64
407.46, 0.43, 366.69
407.62, 0.44, 366.75
407.79, 0.46, 366.81
407.97, 0.47, 366.87
408.16, 0.48, 366.93
408.36, 0.50, 367.00
408.58, 0.52, 367.08
408.82, 0.54, 367.16
409.07, 0.55, 367.24
409.34, 0.58, 367.34
409.65, 0.60, 367.44
409.99, 0.62, 367.56
410.34, 0.64, 367.68
410.73, 0.67, 367.81
411.16, 0.71, 367.96
411.63, 0.74, 368.12
412.15, 0.78, 368.30
412.73, 0.83, 368.49
413.37, 0.89, 368.71
414.08, 0.95, 368.95
414.89, 1.02, 369.23
416.65, 1.04, 369.83
417.81, 1.14, 370.23
419.18, 1.26, 370.70
420.90, 1.40, 371.28
423.14, 1.57, 372.05
425.94, 1.78, 373.00
407.18, 0.41, 366.54
407.32, 0.42, 366.58
407.47, 0.43, 366.63
407.63, 0.44, 366.69
407.80, 0.46, 366.74
407.98, 0.47, 366.80
408.17, 0.48, 366.86
408.38, 0.50, 366.93
408.60, 0.52, 367.00
408.83, 0.54, 367.08
409.08, 0.56, 367.16
¯409.36, 0.58, 367.25
409.67, 0.60, 367.35
410.01, 0.62, 367.46
410.36, 0.64, 367.58
410.75, 0.67, 367.71
411.18, 0.71, 367.85
411.64, 0.74, 368.00
412.16, 0.78, 368.17
412.74, 0.83, 368.36
413.38, 0.89, 368.57
414.09, 0.95, 368.80
414.89, 1.02, 369.06
416.63, 1.04, 369.64
417.78, 1.14, 370.01
419.14, 1.26, 370.46
420.83, 1.40, 371.01
423.00, 1.57, 371.72
425.82, 1.78, 372.64
407.19, 0.41, 366.48
407.33, 0.42, 366.53
407.48, 0.43, 366.57
407.64, 0.44, 366.62
407.81, 0.46, 366.68
408.00, 0.47, 366.73
408.19, 0.48, 366.79
408.39, 0.50, 366.86
408.61, 0.52, 366.93
408.85, 0.54, 367.00
409.10, 0.56, 367.08
409.37, 0.58, 367.17
409.68, 0.60, 367.26
410.02, 0.62, 367.37
410.37, 0.65, 367.48
410.76, 0.67, 367.60
411.19, 0.71, 367.74
411.65, 0.74, 367.88
412.17, 0.79, 368.05
412.74, 0.83, 368.23
413.38, 0.89, 368.43
414.09, 0.95, 368.65
414.89, 1.02, 368.90
416.60, 1.04, 369.44
417.75, 1.14, 369.80
419.09, 1.26, 370.22
420.76, 1.40, 370.74
422.86, 1.56, 371.40
425.64, 1.77, 372.28
407.20, 0.41, 366.42
407.35, 0.42, 366.47
407.50, 0.43, 366.51
407.66, 0.44, 366.56
¯407.83, 0.46, 366.61
408.01, 0.47, 366.67
408.20, 0.49, 366.72
408.40, 0.50, 366.79
408.62, 0.52, 366.85
408.86, 0.54, 366.92
409.11, 0.56, 367.00
409.39, 0.58, 367.08
409.70, 0.60, 367.17
410.03, 0.62, 367.28
410.38, 0.65, 367.38
410.77, 0.68, 367.50
411.20, 0.71, 367.63
411.66, 0.75, 367.77
412.18, 0.79, 367.92
412.75, 0.83, 368.09
413.39, 0.89, 368.28
414.09, 0.95, 368.49
414.88, 1.02, 368.73
415.78, 1.10, 369.00
417.71, 1.14, 369.59
419.05, 1.26, 369.99
420.69, 1.40, 370.48
422.73, 1.56, 371.09
425.44, 1.77, 371.91
407.21, 0.41, 366.37
407.36, 0.42, 366.41
407.51, 0.43, 366.45
407.67, 0.44, 366.50
407.84, 0.46, 366.55
408.02, 0.47, 366.60
408.21, 0.49, 366.65
408.42, 0.50, 366.71
408.64, 0.52, 366.78
408.87, 0.54, 366.84
409.12, 0.56, 366.92
409.40, 0.58, 367.00
409.71, 0.60, 367.08
410.04, 0.62, 367.18
410.39, 0.65, 367.28
410.78, 0.68, 367.39
411.21, 0.71, 367.52
411.67, 0.75, 367.65
412.19, 0.79, 367.80
412.76, 0.83, 367.96
413.39, 0.89, 368.14
414.09, 0.95, 368.34
414.88, 1.02, 368.57
415.77, 1.10, 368.82
417.68, 1.14, 369.38
419.00, 1.26, 369.76
¯420.63, 1.39, 370.22
422.60, 1.56, 370.79
425.24, 1.77, 371.55
407.22, 0.41, 366.31
407.37, 0.42, 366.35
407.52, 0.43, 366.39
407.68, 0.44, 366.44
407.85, 0.46, 366.48
408.03, 0.47, 366.53
408.22, 0.49, 366.58
408.43, 0.50, 366.64
408.65, 0.52, 366.70
408.88, 0.54, 366.77
409.14, 0.56, 366.84
409.41, 0.58, 366.91
409.72, 0.60, 367.00
410.06, 0.62, 367.09
410.41, 0.65, 367.18
410.79, 0.68, 367.29
411.22, 0.71, 367.41
411.68, 0.75, 367.53
412.20, 0.79, 367.68
412.76, 0.83, 367.83
413.39, 0.89, 368.00
414.09, 0.95, 368.19
414.87, 1.02, 368.41
415.75, 1.10, 368.65
416.78, 1.20, 368.93
418.95, 1.26, 369.53
420.56, 1.39, 369.97
422.47, 1.56, 370.49
425.04, 1.77, 371.20
407.23, 0.41, 366.25
407.38, 0.42, 366.29
407.53, 0.43, 366.33
407.69, 0.44, 366.37
407.86, 0.46, 366.42
408.04, 0.47, 366.46
408.23, 0.49, 366.52
408.44, 0.50, 366.57
408.66, 0.52, 366.63
408.89, 0.54, 366.69
409.15, 0.56, 366.75
409.42, 0.58, 366.83
409.73, 0.60, 366.91
410.07, 0.62, 366.99
410.41, 0.65, 367.08
410.80, 0.68, 367.19
411.23, 0.71, 367.30
411.69, 0.75, 367.42
412.21, 0.79, 367.55
¯412.76, 0.83, 367.70
413.39, 0.89, 367.86
414.09, 0.95, 368.04
414.87, 1.02, 368.25
415.74, 1.10, 368.47
416.76, 1.20, 368.74
418.91, 1.26, 369.30
420.49, 1.39, 369.72
422.34, 1.56, 370.20
424.85, 1.76, 370.85
407.24, 0.41, 366.20
407.39, 0.42, 366.23
407.54, 0.43, 366.27
407.70, 0.45, 366.31
407.87, 0.46, 366.35
408.05, 0.47, 366.40
408.24, 0.49, 366.45
408.45, 0.50, 366.50
408.67, 0.52, 366.55
408.90, 0.54, 366.61
409.16, 0.56, 366.67
409.43, 0.58, 366.74
409.74, 0.60, 366.82
410.07, 0.62, 366.90
410.42, 0.65, 366.99
410.81, 0.68, 367.08
411.23, 0.71, 367.19
411.69, 0.75, 367.30
412.21, 0.79, 367.43
412.77, 0.83, 367.57
413.39, 0.89, 367.72
414.08, 0.95, 367.89
414.86, 1.02, 368.09
415.73, 1.10, 368.30
416.74, 1.20, 368.55
418.86, 1.26, 369.08
420.40, 1.39, 369.46
422.21, 1.56, 369.91
424.67, 1.76, 370.52
407.25, 0.41, 366.14
407.40, 0.42, 366.17
407.55, 0.43, 366.21
407.71, 0.45, 366.25
407.88, 0.46, 366.29
408.06, 0.47, 366.33
408.25, 0.49, 366.38
408.46, 0.50, 366.42
408.68, 0.52, 366.48
408.91, 0.54, 366.53
409.17, 0.56, 366.59
409.44, 0.58, 366.66
¯409.75, 0.60, 366.73
410.08, 0.62, 366.81
410.43, 0.65, 366.89
410.82, 0.68, 366.98
411.24, 0.71, 367.08
411.70, 0.75, 367.19
412.21, 0.79, 367.31
412.77, 0.83, 367.44
413.39, 0.89, 367.58
414.08, 0.95, 367.75
414.85, 1.02, 367.93
415.71, 1.10, 368.13
416.72, 1.20, 368.37
417.88, 1.31, 368.64
420.31, 1.39, 369.21
422.09, 1.56, 369.63
424.49, 1.76, 370.19
407.26, 0.41, 366.08
407.40, 0.42, 366.12
407.56, 0.43, 366.15
407.72, 0.45, 366.19
407.89, 0.46, 366.22
408.07, 0.47, 366.26
408.26, 0.49, 366.31
408.47, 0.50, 366.35
408.69, 0.52, 366.40
408.92, 0.54, 366.45
409.18, 0.56, 366.51
409.45, 0.58, 366.57
409.76, 0.60, 366.64
410.09, 0.62, 366.71
410.44, 0.65, 366.79
410.83, 0.68, 366.88
411.24, 0.71, 366.97
411.70, 0.75, 367.07
412.21, 0.79, 367.19
412.77, 0.83, 367.31
413.39, 0.89, 367.45
414.07, 0.95, 367.60
414.84, 1.02, 367.77
415.70, 1.10, 367.96
416.70, 1.20, 368.18
417.84, 1.31, 368.43
420.22, 1.39, 368.97
421.96, 1.56, 369.35
424.31, 1.75, 369.87
407.27, 0.41, 366.03
407.41, 0.42, 366.06
407.56, 0.43, 366.09
407.73, 0.45, 366.12
407.90, 0.46, 366.16
¯408.08, 0.47, 366.20
408.27, 0.49, 366.24
408.48, 0.50, 366.28
408.69, 0.52, 366.33
408.93, 0.54, 366.38
409.18, 0.56, 366.43
409.46, 0.58, 366.49
409.77, 0.60, 366.55
410.10, 0.62, 366.62
410.45, 0.65, 366.69
410.83, 0.68, 366.77
411.25, 0.71, 366.86
411.71, 0.75, 366.96
412.22, 0.79, 367.06
412.77, 0.84, 367.18
413.39, 0.89, 367.31
414.07, 0.95, 367.45
414.83, 1.02, 367.61
415.69, 1.10, 367.79
416.67, 1.20, 368.00
417.80, 1.31, 368.23
420.14, 1.39, 368.72
421.85, 1.56, 369.08
424.14, 1.75, 369.56
407.27, 0.41, 365.97
407.42, 0.42, 366.00
407.57, 0.43, 366.03
407.73, 0.45, 366.06
407.90, 0.46, 366.09
408.08, 0.47, 366.13
408.28, 0.49, 366.17
408.48, 0.50, 366.21
408.70, 0.52, 366.25
408.94, 0.54, 366.30
409.19, 0.56, 366.35
409.47, 0.58, 366.40
409.78, 0.60, 366.46
410.10, 0.62, 366.53
410.45, 0.65, 366.60
410.84, 0.68, 366.67
411.25, 0.71, 366.75
411.71, 0.75, 366.84
412.22, 0.79, 366.94
412.77, 0.84, 367.05
413.38, 0.89, 367.17
414.06, 0.95, 367.31
414.82, 1.02, 367.45
415.67, 1.10, 367.62
416.65, 1.20, 367.81
417.77, 1.31, 368.03
419.10, 1.44, 368.29
¯421.73, 1.55, 368.81
423.96, 1.75, 369.25
427.04, 1.99, 369.86
407.28, 0.41, 365.91
407.43, 0.42, 365.94
407.58, 0.43, 365.97
407.74, 0.45, 366.00
407.91, 0.46, 366.03
408.09, 0.47, 366.06
408.28, 0.49, 366.10
408.49, 0.50, 366.14
408.71, 0.52, 366.18
408.94, 0.54, 366.22
409.20, 0.56, 366.27
409.48, 0.58, 366.32
409.79, 0.60, 366.37
410.11, 0.62, 366.43
410.46, 0.65, 366.50
410.84, 0.68, 366.57
411.25, 0.71, 366.64
411.71, 0.75, 366.73
412.22, 0.79, 366.82
412.77, 0.83, 366.92
413.38, 0.89, 367.04
414.06, 0.95, 367.16
414.81, 1.02, 367.30
415.65, 1.10, 367.45
416.62, 1.20, 367.63
417.73, 1.31, 367.83
419.04, 1.43, 368.07
421.63, 1.55, 368.55
423.79, 1.74, 368.95
426.73, 1.98, 369.49
407.29, 0.41, 365.86
407.43, 0.42, 365.88
407.58, 0.43, 365.91
407.75, 0.45, 365.93
407.92, 0.46, 365.96
408.10, 0.47, 366.00
408.29, 0.49, 366.03
408.50, 0.50, 366.06
408.72, 0.52, 366.10
408.95, 0.54, 366.14
409.20, 0.56, 366.19
409.48, 0.58, 366.23
409.79, 0.60, 366.29
410.11, 0.62, 366.34
410.46, 0.65, 366.40
410.85, 0.68, 366.47
411.26, 0.71, 366.54
411.71, 0.75, 366.62
¯412.22, 0.79, 366.70
412.77, 0.83, 366.80
413.37, 0.89, 366.90
414.05, 0.95, 367.02
414.80, 1.02, 367.14
415.64, 1.10, 367.29
416.60, 1.20, 367.45
417.69, 1.31, 367.64
418.98, 1.43, 367.86
421.52, 1.55, 368.30
423.63, 1.74, 368.66
426.44, 1.98, 369.14
407.29, 0.41, 365.80
407.44, 0.42, 365.82
407.59, 0.43, 365.85
407.75, 0.45, 365.87
407.92, 0.46, 365.90
408.10, 0.47, 365.93
408.30, 0.49, 365.96
408.50, 0.50, 365.99
408.72, 0.52, 366.03
408.96, 0.54, 366.06
409.21, 0.56, 366.10
409.49, 0.58, 366.15
409.80, 0.60, 366.20
410.12, 0.62, 366.25
410.46, 0.65, 366.30
410.85, 0.68, 366.36
411.26, 0.71, 366.43
411.71, 0.75, 366.50
412.21, 0.79, 366.58
412.76, 0.83, 366.67
413.37, 0.89, 366.76
414.04, 0.95, 366.87
414.79, 1.02, 366.99
415.62, 1.10, 367.12
416.57, 1.19, 367.27
417.65, 1.30, 367.44
418.92, 1.43, 367.64
420.36, 1.58, 367.87
423.47, 1.74, 368.37
426.15, 1.97, 368.79
407.30, 0.41, 365.74
407.44, 0.42, 365.76
407.59, 0.43, 365.79
407.76, 0.45, 365.81
407.93, 0.46, 365.83
408.11, 0.47, 365.86
408.30, 0.49, 365.89
408.51, 0.50, 365.92
408.73, 0.52, 365.95
¯408.96, 0.54, 365.99
409.21, 0.56, 366.02
409.49, 0.58, 366.06
409.80, 0.60, 366.11
410.12, 0.62, 366.16
410.47, 0.65, 366.21
410.85, 0.68, 366.26
411.26, 0.71, 366.32
411.71, 0.75, 366.39
412.21, 0.79, 366.46
412.76, 0.83, 366.54
413.36, 0.89, 366.63
414.03, 0.95, 366.73
414.78, 1.02, 366.84
415.60, 1.10, 366.96
416.54, 1.19, 367.10
417.61, 1.30, 367.25
418.86, 1.43, 367.43
420.28, 1.58, 367.64
423.31, 1.74, 368.09
425.86, 1.97, 368.46
