žVERSION 0.7
FIELDS x y z
SIZE 8 8 8
TYPE F F F
COUNT 1 1 1
WIDTH 2271
HEIGHT 1
VIEWPOINT 322.16, 7.28, 366.69 1 338.43, 2.40, 378.37
POINTS 2271
DATA ascii
332.91, 0.17, 386.91
332.77, 0.17, 387.60
332.61, 0.17, 388.39
332.43, 0.17, 389.29
332.21, 0.16, 390.36
331.95, 0.16, 391.59
331.66, 0.15, 393.05
331.29, 0.14, 394.84
330.62, 0.00, 398.15
330.76, 0.36, 397.38
330.75, 0.63, 397.38
330.74, 0.90, 397.38
330.73, 1.16, 397.38
330.73, 1.43, 397.38
330.72, 1.70, 397.38
330.71, 1.97, 397.38
330.70, 2.23, 397.38
330.69, 2.50, 397.38
330.68, 2.77, 397.38
330.67, 3.03, 397.38
333.87, 0.21, 382.62
333.82, 0.21, 382.90
333.76, 0.20, 383.22
333.69, 0.20, 383.56
333.62, 0.18, 383.96
333.53, 0.17, 384.40
333.45, 0.16, 384.83
333.36, 0.16, 385.30
333.27, 0.16, 385.79
333.16, 0.17, 386.34
333.04, 0.17, 386.97
332.91, 0.17, 387.66
332.75, 0.17, 388.46
332.58, 0.17, 389.37
332.37, 0.16, 390.44
332.14, 0.16, 391.68
331.85, 0.15, 393.15
331.51, 0.14, 394.95
330.87, 0.00, 398.28
331.03, 0.37, 397.38
331.02, 0.64, 397.38
331.02, 0.91, 397.38
331.01, 1.18, 397.38
331.00, 1.44, 397.38
330.99, 1.71, 397.38
330.98, 1.98, 397.38
330.97, 2.24, 397.38
330.96, 2.51, 397.38
330.95, 2.78, 397.38
330.94, 3.04, 397.38
¯333.95, 0.21, 382.65
333.90, 0.21, 382.93
333.84, 0.20, 383.25
333.78, 0.20, 383.59
333.71, 0.18, 384.00
333.63, 0.16, 384.43
333.56, 0.16, 384.87
333.47, 0.16, 385.34
333.38, 0.16, 385.83
333.28, 0.16, 386.39
333.17, 0.16, 387.02
333.05, 0.17, 387.71
332.90, 0.17, 388.52
332.74, 0.16, 389.44
332.54, 0.16, 390.52
332.32, 0.16, 391.77
332.05, 0.15, 393.25
331.73, 0.14, 395.07
331.13, 0.00, 398.42
331.30, 0.39, 397.38
331.29, 0.65, 397.38
331.29, 0.92, 397.38
331.28, 1.19, 397.38
331.27, 1.45, 397.38
331.26, 1.72, 397.38
331.25, 1.99, 397.38
331.24, 2.25, 397.38
331.23, 2.52, 397.38
331.22, 2.78, 397.38
331.21, 3.05, 397.38
334.03, 0.21, 382.67
333.98, 0.21, 382.96
333.93, 0.20, 383.29
333.87, 0.19, 383.62
333.81, 0.18, 384.03
333.73, 0.16, 384.47
333.66, 0.16, 384.90
333.58, 0.16, 385.38
333.50, 0.16, 385.87
333.41, 0.16, 386.44
333.30, 0.16, 387.07
333.18, 0.17, 387.77
333.05, 0.16, 388.58
332.89, 0.16, 389.51
332.71, 0.16, 390.60
332.50, 0.15, 391.85
332.25, 0.15, 393.34
331.95, 0.14, 395.17
331.39, 0.00, 398.55
331.57, 0.40, 397.38
331.56, 0.67, 397.38
¯331.55, 0.93, 397.38
331.55, 1.20, 397.38
331.54, 1.47, 397.38
331.53, 1.73, 397.38
331.52, 2.00, 397.38
331.51, 2.26, 397.38
331.50, 2.53, 397.38
331.49, 2.79, 397.38
331.48, 3.06, 397.38
334.11, 0.21, 382.70
334.07, 0.21, 382.99
334.02, 0.20, 383.32
333.97, 0.19, 383.65
333.90, 0.18, 384.06
333.84, 0.16, 384.50
333.77, 0.16, 384.94
333.69, 0.16, 385.41
333.62, 0.16, 385.91
333.53, 0.16, 386.48
333.43, 0.16, 387.12
333.32, 0.16, 387.82
333.20, 0.16, 388.64
333.05, 0.16, 389.57
332.88, 0.16, 390.68
332.69, 0.15, 391.94
332.46, 0.15, 393.44
332.17, 0.14, 395.28
331.65, 0.00, 398.67
331.84, 0.41, 397.38
331.83, 0.68, 397.38
331.82, 0.95, 397.38
331.81, 1.21, 397.38
331.80, 1.48, 397.38
331.80, 1.74, 397.38
331.79, 2.01, 397.38
331.78, 2.27, 397.38
331.77, 2.54, 397.38
331.76, 2.80, 397.38
331.75, 3.07, 397.38
334.19, 0.21, 382.72
334.15, 0.20, 383.01
334.10, 0.19, 383.34
334.06, 0.19, 383.68
334.00, 0.17, 384.10
333.94, 0.16, 384.53
333.88, 0.16, 384.97
333.81, 0.16, 385.45
333.74, 0.16, 385.95
333.65, 0.16, 386.52
333.56, 0.16, 387.17
333.46, 0.16, 387.88
¯333.35, 0.16, 388.70
333.21, 0.16, 389.64
333.06, 0.15, 390.75
332.88, 0.15, 392.02
332.66, 0.15, 393.53
332.40, 0.14, 395.38
331.92, 0.00, 398.80
332.11, 0.43, 397.38
332.10, 0.69, 397.38
332.09, 0.96, 397.38
332.08, 1.22, 397.38
332.07, 1.49, 397.38
332.06, 1.75, 397.38
332.05, 2.02, 397.38
332.04, 2.28, 397.38
332.04, 2.54, 397.38
332.03, 2.81, 397.38
332.02, 3.07, 397.38
334.27, 0.20, 382.75
334.24, 0.20, 383.04
334.19, 0.19, 383.37
334.15, 0.19, 383.71
334.10, 0.17, 384.13
334.04, 0.16, 384.56
333.98, 0.16, 385.00
333.92, 0.16, 385.48
333.86, 0.16, 385.99
333.78, 0.16, 386.57
333.70, 0.16, 387.21
333.60, 0.16, 387.93
333.50, 0.16, 388.76
333.37, 0.16, 389.70
333.23, 0.15, 390.82
333.06, 0.15, 392.10
332.87, 0.15, 393.62
332.63, 0.14, 395.47
332.21, 0.02, 398.74
332.37, 0.44, 397.38
332.36, 0.70, 397.38
332.35, 0.97, 397.38
332.35, 1.23, 397.38
332.34, 1.50, 397.38
332.33, 1.76, 397.38
332.32, 2.03, 397.38
332.31, 2.29, 397.38
332.30, 2.55, 397.38
332.29, 2.82, 397.38
332.28, 3.08, 397.38
334.35, 0.20, 382.77
334.32, 0.20, 383.06
334.28, 0.19, 383.40
¯334.24, 0.19, 383.74
334.19, 0.17, 384.16
334.14, 0.16, 384.59
334.09, 0.16, 385.03
334.03, 0.15, 385.52
333.97, 0.16, 386.02
333.91, 0.16, 386.60
333.83, 0.16, 387.26
333.75, 0.16, 387.98
333.65, 0.16, 388.81
333.54, 0.16, 389.77
333.41, 0.15, 390.89
333.26, 0.15, 392.18
333.08, 0.14, 393.71
332.86, 0.14, 395.57
332.49, 0.03, 398.73
332.64, 0.45, 397.38
332.63, 0.71, 397.38
332.62, 0.98, 397.38
332.61, 1.24, 397.38
332.60, 1.51, 397.38
332.59, 1.77, 397.38
332.58, 2.04, 397.38
332.58, 2.30, 397.38
332.57, 2.56, 397.38
332.56, 2.83, 397.38
332.55, 3.09, 397.38
334.43, 0.20, 382.79
334.40, 0.20, 383.09
334.37, 0.19, 383.42
334.33, 0.19, 383.77
334.29, 0.17, 384.19
334.25, 0.16, 384.61
334.20, 0.16, 385.06
334.15, 0.15, 385.55
334.10, 0.16, 386.06
334.03, 0.16, 386.64
333.97, 0.16, 387.30
333.89, 0.16, 388.03
333.80, 0.16, 388.87
333.70, 0.15, 389.83
333.58, 0.15, 390.96
333.45, 0.15, 392.25
333.29, 0.14, 393.80
333.09, 0.14, 395.66
332.77, 0.04, 398.79
332.90, 0.46, 397.38
332.89, 0.73, 397.38
332.88, 0.99, 397.38
332.88, 1.25, 397.38
332.87, 1.52, 397.38
¯332.86, 1.78, 397.38
332.85, 2.04, 397.38
332.84, 2.31, 397.38
332.83, 2.57, 397.38
332.82, 2.83, 397.38
332.82, 3.10, 397.38
334.52, 0.20, 382.82
334.49, 0.20, 383.11
334.46, 0.19, 383.45
334.43, 0.18, 383.79
334.39, 0.17, 384.21
334.35, 0.16, 384.64
334.31, 0.15, 385.09
334.26, 0.15, 385.58
334.22, 0.16, 386.09
334.16, 0.16, 386.68
334.10, 0.16, 387.34
334.03, 0.16, 388.07
333.96, 0.15, 388.92
333.87, 0.15, 389.89
333.76, 0.15, 391.02
333.64, 0.15, 392.32
333.50, 0.14, 393.89
333.33, 0.14, 395.75
333.04, 0.05, 398.84
333.16, 0.47, 397.38
333.16, 0.74, 397.38
333.15, 1.00, 397.38
333.14, 1.26, 397.38
333.13, 1.53, 397.38
333.12, 1.79, 397.38
333.11, 2.05, 397.38
333.11, 2.32, 397.38
333.10, 2.58, 397.38
333.09, 2.84, 397.38
333.08, 3.10, 397.38
334.60, 0.20, 382.84
334.58, 0.19, 383.13
334.55, 0.18, 383.47
334.52, 0.18, 383.81
334.49, 0.17, 384.24
334.45, 0.16, 384.66
334.42, 0.15, 385.12
334.38, 0.15, 385.61
334.34, 0.16, 386.12
334.29, 0.16, 386.72
334.24, 0.15, 387.38
334.18, 0.16, 388.12
334.11, 0.15, 388.97
334.03, 0.15, 389.94
333.94, 0.15, 391.08
¯333.84, 0.14, 392.39
333.71, 0.14, 393.96
333.56, 0.14, 395.83
333.32, 0.05, 398.90
333.43, 0.48, 397.38
333.42, 0.75, 397.38
333.41, 1.01, 397.38
333.40, 1.27, 397.38
333.39, 1.54, 397.38
333.39, 1.80, 397.38
333.38, 2.06, 397.38
333.37, 2.32, 397.38
333.36, 2.59, 397.38
333.35, 2.85, 397.38
333.34, 3.11, 397.38
334.68, 0.20, 382.86
334.66, 0.19, 383.15
334.64, 0.18, 383.49
334.62, 0.18, 383.84
334.59, 0.16, 384.26
334.56, 0.16, 384.69
334.53, 0.15, 385.14
334.50, 0.15, 385.63
334.46, 0.15, 386.15
334.42, 0.15, 386.75
334.37, 0.15, 387.42
334.32, 0.15, 388.16
334.27, 0.15, 389.02
334.20, 0.15, 390.00
334.12, 0.14, 391.14
334.03, 0.14, 392.46
333.93, 0.14, 394.04
333.80, 0.14, 395.92
333.60, 0.06, 398.95
333.69, 0.49, 397.38
333.68, 0.76, 397.38
333.67, 1.02, 397.38
333.66, 1.28, 397.38
333.66, 1.55, 397.38
333.65, 1.81, 397.38
333.64, 2.07, 397.38
333.63, 2.33, 397.38
333.62, 2.60, 397.38
333.61, 2.86, 397.38
333.61, 3.12, 397.38
334.76, 0.19, 382.87
334.75, 0.19, 383.17
334.73, 0.18, 383.51
334.71, 0.18, 383.86
334.69, 0.16, 384.28
334.66, 0.16, 384.71
¯334.64, 0.15, 385.17
334.61, 0.15, 385.66
334.58, 0.15, 386.18
334.55, 0.15, 386.78
334.51, 0.15, 387.45
334.47, 0.15, 388.20
334.42, 0.15, 389.06
334.37, 0.15, 390.05
334.31, 0.14, 391.20
334.23, 0.14, 392.53
334.14, 0.14, 394.11
333.98, 0.00, 397.14
333.88, 0.06, 398.99
333.95, 0.50, 397.38
333.94, 0.77, 397.38
333.93, 1.03, 397.38
333.93, 1.29, 397.38
333.92, 1.55, 397.38
333.91, 1.82, 397.38
333.90, 2.08, 397.38
333.89, 2.34, 397.38
333.89, 2.60, 397.38
333.88, 2.87, 397.38
333.87, 3.13, 397.38
334.85, 0.19, 382.89
334.84, 0.19, 383.19
334.82, 0.18, 383.53
334.81, 0.18, 383.88
334.79, 0.16, 384.30
334.77, 0.16, 384.73
334.75, 0.15, 385.19
334.73, 0.15, 385.68
334.71, 0.15, 386.21
334.68, 0.15, 386.81
334.65, 0.15, 387.49
334.62, 0.15, 388.24
334.58, 0.15, 389.11
334.54, 0.15, 390.10
334.49, 0.14, 391.25
334.43, 0.14, 392.59
334.32, 0.00, 395.22
334.24, 0.00, 397.22
334.15, 0.06, 399.13
334.21, 0.51, 397.38
334.20, 0.77, 397.38
334.20, 1.04, 397.38
334.19, 1.30, 397.38
334.18, 1.56, 397.38
334.17, 1.83, 397.38
334.16, 2.09, 397.38
334.16, 2.35, 397.38
¯334.15, 2.61, 397.38
334.14, 2.87, 397.38
334.13, 3.14, 397.38
334.93, 0.19, 382.91
334.92, 0.19, 383.21
334.91, 0.18, 383.55
334.90, 0.18, 383.90
334.89, 0.16, 384.32
334.88, 0.15, 384.75
334.86, 0.15, 385.21
334.85, 0.15, 385.70
334.83, 0.15, 386.23
334.81, 0.15, 386.84
334.79, 0.15, 387.52
334.77, 0.15, 388.28
334.74, 0.15, 389.15
334.71, 0.14, 390.15
334.67, 0.14, 391.30
334.63, 0.14, 392.65
334.55, 0.00, 395.28
334.49, 0.00, 397.30
334.43, 0.05, 399.31
334.47, 0.52, 397.38
334.47, 0.78, 397.38
334.46, 1.05, 397.38
334.45, 1.31, 397.38
334.44, 1.57, 397.38
334.43, 1.83, 397.38
334.43, 2.10, 397.38
334.42, 2.36, 397.38
334.41, 2.62, 397.38
334.40, 2.88, 397.38
334.39, 3.14, 397.38
335.02, 0.19, 382.92
335.01, 0.19, 383.22
335.00, 0.18, 383.57
335.00, 0.17, 383.92
334.99, 0.16, 384.34
334.98, 0.15, 384.77
334.97, 0.15, 385.23
334.96, 0.15, 385.72
334.95, 0.15, 386.26
334.94, 0.15, 386.87
334.93, 0.15, 387.55
334.92, 0.15, 388.31
334.90, 0.14, 389.19
334.88, 0.14, 390.19
334.86, 0.14, 391.35
334.82, 0.00, 393.66
334.79, 0.00, 395.34
334.75, 0.00, 397.37
¯334.71, 0.04, 399.50
334.74, 0.53, 397.38
334.73, 0.79, 397.38
334.72, 1.06, 397.38
334.71, 1.32, 397.38
334.70, 1.58, 397.38
334.70, 1.84, 397.38
334.69, 2.10, 397.38
334.68, 2.37, 397.38
334.67, 2.63, 397.38
334.66, 2.89, 397.38
334.66, 3.15, 397.38
335.10, 0.19, 382.94
335.10, 0.18, 383.23
335.10, 0.17, 383.58
335.09, 0.17, 383.93
335.09, 0.16, 384.35
335.09, 0.15, 384.78
335.09, 0.15, 385.25
335.08, 0.15, 385.74
335.08, 0.15, 386.28
335.08, 0.15, 386.89
335.07, 0.15, 387.58
335.07, 0.15, 388.35
335.06, 0.14, 389.22
335.05, 0.14, 390.24
335.05, 0.14, 391.40
335.04, 0.00, 393.71
335.03, 0.00, 395.40
335.01, 0.00, 397.44
335.00, 0.03, 399.69
335.00, 0.54, 397.38
334.99, 0.80, 397.38
334.98, 1.06, 397.38
334.97, 1.33, 397.38
334.96, 1.59, 397.38
334.96, 1.85, 397.38
334.95, 2.11, 397.38
334.94, 2.37, 397.38
334.93, 2.64, 397.38
334.93, 2.90, 397.38
334.92, 3.16, 397.38
335.19, 0.19, 382.95
335.19, 0.18, 383.25
335.19, 0.17, 383.60
335.19, 0.17, 383.95
335.19, 0.16, 384.37
335.20, 0.15, 384.80
335.20, 0.15, 385.26
335.20, 0.15, 385.76
335.21, 0.15, 386.30
¯335.21, 0.15, 386.92
335.21, 0.15, 387.60
335.22, 0.14, 388.38
335.22, 0.14, 389.26
335.23, 0.14, 390.28
335.24, 0.00, 392.33
335.25, 0.00, 393.76
335.26, 0.00, 395.45
335.27, 0.00, 397.50
335.29, 0.02, 399.88
335.26, 0.54, 397.38
335.25, 0.81, 397.38
335.24, 1.07, 397.38
335.23, 1.33, 397.38
335.23, 1.60, 397.38
335.22, 1.86, 397.38
335.21, 2.12, 397.38
335.20, 2.38, 397.38
335.20, 2.64, 397.38
335.19, 2.90, 397.38
335.18, 3.17, 397.38
335.27, 0.18, 382.96
335.28, 0.18, 383.26
335.28, 0.17, 383.61
335.29, 0.17, 383.96
335.30, 0.16, 384.38
335.30, 0.15, 384.81
335.31, 0.15, 385.28
335.32, 0.15, 385.78
335.33, 0.15, 386.32
335.34, 0.15, 386.94
335.36, 0.14, 387.63
335.37, 0.14, 388.41
335.39, 0.14, 389.29
335.42, 0.00, 391.13
335.44, 0.00, 392.36
335.47, 0.00, 393.80
335.50, 0.00, 395.51
335.54, 0.00, 397.57
335.53, 0.29, 397.38
335.52, 0.55, 397.38
335.51, 0.82, 397.38
335.50, 1.08, 397.38
335.50, 1.34, 397.38
335.49, 1.60, 397.38
335.48, 1.87, 397.38
335.47, 2.13, 397.38
335.46, 2.39, 397.38
335.46, 2.65, 397.38
335.45, 2.91, 397.38
335.44, 3.17, 397.38
¯335.36, 0.18, 382.97
335.37, 0.18, 383.27
335.38, 0.17, 383.62
335.39, 0.17, 383.97
335.40, 0.16, 384.39
335.41, 0.15, 384.83
335.43, 0.15, 385.29
335.44, 0.15, 385.79
335.46, 0.15, 386.34
335.48, 0.14, 386.96
335.50, 0.14, 387.65
335.52, 0.14, 388.43
335.55, 0.14, 389.33
335.61, 0.00, 391.16
335.65, 0.00, 392.39
335.69, 0.00, 393.84
335.74, 0.00, 395.55
335.80, 0.00, 397.63
335.79, 0.29, 397.38
335.78, 0.56, 397.38
335.77, 0.82, 397.38
335.76, 1.09, 397.38
335.76, 1.35, 397.38
335.75, 1.61, 397.38
335.74, 1.87, 397.38
335.73, 2.14, 397.38
335.73, 2.40, 397.38
335.72, 2.66, 397.38
335.71, 2.92, 397.38
335.44, 0.18, 382.98
335.45, 0.18, 383.28
335.47, 0.17, 383.63
335.48, 0.17, 383.99
335.50, 0.16, 384.40
335.52, 0.15, 384.84
335.54, 0.15, 385.30
335.56, 0.14, 385.81
335.59, 0.15, 386.36
335.61, 0.14, 386.98
335.64, 0.14, 387.67
335.68, 0.14, 388.46
335.75, 0.00, 390.12
335.79, 0.00, 391.19
335.85, 0.00, 392.42
335.91, 0.00, 393.87
335.98, 0.00, 395.60
336.07, 0.00, 397.68
336.05, 0.30, 397.38
336.04, 0.57, 397.38
336.03, 0.83, 397.38
336.03, 1.09, 397.38
¯336.02, 1.36, 397.38
336.01, 1.62, 397.38
336.00, 1.88, 397.38
336.00, 2.14, 397.38
335.99, 2.40, 397.38
335.98, 2.67, 397.38
335.97, 2.93, 397.38
335.53, 0.18, 382.99
335.54, 0.18, 383.29
335.56, 0.17, 383.64
335.58, 0.16, 384.00
335.61, 0.15, 384.41
335.63, 0.15, 384.85
335.66, 0.15, 385.31
335.68, 0.14, 385.82
335.71, 0.14, 386.37
335.75, 0.14, 386.99
335.79, 0.14, 387.69
335.83, 0.14, 388.48
335.92, 0.00, 390.14
335.98, 0.00, 391.21
336.05, 0.00, 392.45
336.13, 0.00, 393.91
336.22, 0.00, 395.64
336.34, 0.00, 397.73
336.31, 0.31, 397.38
336.30, 0.57, 397.38
336.30, 0.84, 397.38
336.29, 1.10, 397.38
336.28, 1.36, 397.38
336.27, 1.63, 397.38
336.27, 1.89, 397.38
336.26, 2.15, 397.38
336.25, 2.41, 397.38
336.24, 2.67, 397.38
336.24, 2.94, 397.38
335.61, 0.18, 383.00
335.63, 0.17, 383.30
335.66, 0.16, 383.65
335.68, 0.16, 384.01
335.71, 0.15, 384.41
335.74, 0.15, 384.85
335.77, 0.14, 385.32
335.80, 0.14, 385.83
335.84, 0.14, 386.38
335.88, 0.14, 387.01
335.93, 0.14, 387.71
336.03, 0.00, 389.22
336.10, 0.00, 390.15
336.17, 0.00, 391.23
336.25, 0.00, 392.48
¯336.35, 0.00, 393.94
336.47, 0.00, 395.68
336.61, 0.00, 397.78
336.57, 0.31, 397.38
336.56, 0.58, 397.38
336.56, 0.84, 397.38
336.55, 1.11, 397.38
336.54, 1.37, 397.38
336.53, 1.63, 397.38
336.53, 1.89, 397.38
336.52, 2.16, 397.38
336.51, 2.42, 397.38
336.51, 2.68, 397.38
336.50, 2.94, 397.38
335.70, 0.17, 383.00
335.72, 0.17, 383.31
335.75, 0.16, 383.66
335.78, 0.16, 384.01
335.81, 0.15, 384.42
335.85, 0.15, 384.86
335.88, 0.14, 385.33
335.93, 0.14, 385.84
335.97, 0.14, 386.39
336.02, 0.14, 387.02
336.08, 0.14, 387.73
336.20, 0.00, 389.23
336.27, 0.00, 390.17
336.36, 0.00, 391.25
336.46, 0.00, 392.50
336.57, 0.00, 393.97
336.71, 0.00, 395.71
336.88, 0.00, 397.83
336.83, 0.32, 397.38
336.83, 0.58, 397.38
336.82, 0.85, 397.38
336.81, 1.11, 397.38
336.80, 1.38, 397.38
336.80, 1.64, 397.38
336.79, 1.90, 397.38
336.78, 2.16, 397.38
336.78, 2.43, 397.38
336.77, 2.69, 397.38
336.76, 2.95, 397.38
335.79, 0.17, 383.01
335.81, 0.17, 383.31
335.85, 0.16, 383.66
335.88, 0.16, 384.02
335.92, 0.15, 384.42
335.96, 0.15, 384.87
336.00, 0.14, 385.33
336.05, 0.14, 385.84
¯336.10, 0.14, 386.40
336.16, 0.14, 387.03
336.29, 0.00, 388.41
336.36, 0.00, 389.24
336.45, 0.00, 390.18
336.55, 0.00, 391.26
336.66, 0.00, 392.52
336.80, 0.00, 393.99
336.96, 0.00, 395.75
337.15, 0.00, 397.87
337.10, 0.32, 397.38
337.09, 0.59, 397.38
337.08, 0.85, 397.38
337.08, 1.12, 397.38
337.07, 1.38, 397.38
337.06, 1.64, 397.38
337.05, 1.91, 397.38
337.05, 2.17, 397.38
337.04, 2.43, 397.38
337.03, 2.70, 397.38
337.02, 2.96, 397.38
335.87, 0.17, 383.01
335.91, 0.17, 383.32
335.94, 0.16, 383.66
335.98, 0.16, 384.03
336.02, 0.15, 384.42
336.07, 0.14, 384.87
336.12, 0.14, 385.33
336.17, 0.14, 385.85
336.23, 0.14, 386.41
336.29, 0.14, 387.04
336.44, 0.00, 388.41
336.53, 0.00, 389.24
336.62, 0.00, 390.19
336.74, 0.00, 391.28
336.87, 0.00, 392.53
337.02, 0.00, 394.01
337.20, 0.00, 395.77
337.42, 0.00, 397.91
337.36, 0.33, 397.38
337.35, 0.59, 397.38
337.35, 0.86, 397.38
337.34, 1.12, 397.38
337.33, 1.39, 397.38
337.32, 1.65, 397.38
337.32, 1.91, 397.38
337.31, 2.18, 397.38
337.30, 2.44, 397.38
337.30, 2.70, 397.38
337.29, 2.97, 397.38
335.96, 0.17, 383.01
¯336.00, 0.17, 383.32
336.04, 0.16, 383.67
336.08, 0.16, 384.03
336.12, 0.15, 384.42
336.18, 0.14, 384.87
336.23, 0.14, 385.34
336.29, 0.14, 385.85
336.36, 0.14, 386.42
336.51, 0.00, 387.68
336.59, 0.00, 388.42
336.69, 0.00, 389.25
336.80, 0.00, 390.20
336.93, 0.00, 391.29
337.07, 0.00, 392.55
337.25, 0.00, 394.03
337.45, 0.00, 395.80
337.70, 0.00, 397.94
337.63, 0.33, 397.38
337.62, 0.60, 397.38
337.61, 0.86, 397.38
337.60, 1.13, 397.38
337.60, 1.39, 397.38
337.59, 1.66, 397.38
337.58, 1.92, 397.38
337.57, 2.18, 397.38
337.57, 2.45, 397.38
337.56, 2.71, 397.38
337.55, 2.97, 397.38
336.05, 0.17, 383.02
336.09, 0.16, 383.32
336.13, 0.16, 383.67
336.18, 0.15, 384.03
336.23, 0.15, 384.42
336.29, 0.14, 384.87
336.35, 0.14, 385.34
336.41, 0.14, 385.85
336.57, 0.00, 387.02
336.65, 0.00, 387.68
336.75, 0.00, 388.42
336.85, 0.00, 389.25
336.98, 0.00, 390.20
337.12, 0.00, 391.29
337.28, 0.00, 392.56
337.47, 0.00, 394.05
337.70, 0.00, 395.82
337.97, 0.00, 397.96
337.89, 0.34, 397.38
337.88, 0.60, 397.38
337.88, 0.87, 397.38
337.87, 1.13, 397.38
337.86, 1.40, 397.38
¯337.85, 1.66, 397.38
337.85, 1.93, 397.38
337.84, 2.19, 397.38
337.83, 2.45, 397.38
337.83, 2.72, 397.38
337.82, 2.98, 397.38
336.13, 0.17, 383.02
336.18, 0.16, 383.33
336.23, 0.16, 383.67
336.28, 0.15, 384.03
336.33, 0.15, 384.43
336.40, 0.14, 384.87
336.46, 0.14, 385.34
336.54, 0.14, 385.85
336.70, 0.00, 387.02
336.80, 0.00, 387.68
336.90, 0.00, 388.42
337.02, 0.00, 389.25
337.15, 0.00, 390.21
337.31, 0.00, 391.30
337.49, 0.00, 392.57
337.70, 0.00, 394.06
337.95, 0.00, 395.84
338.24, 0.01, 397.94
338.16, 0.34, 397.38
338.15, 0.61, 397.38
338.14, 0.87, 397.38
338.13, 1.14, 397.38
338.13, 1.40, 397.38
338.12, 1.67, 397.38
338.11, 1.93, 397.38
338.11, 2.20, 397.38
338.10, 2.46, 397.38
338.09, 2.73, 397.38
338.09, 2.99, 397.38
336.22, 0.16, 383.02
336.27, 0.16, 383.32
336.32, 0.16, 383.66
336.38, 0.15, 384.03
336.44, 0.15, 384.43
336.51, 0.14, 384.87
336.58, 0.14, 385.34
336.75, 0.00, 386.42
336.84, 0.00, 387.01
336.94, 0.00, 387.67
337.06, 0.00, 388.41
337.18, 0.00, 389.25
337.33, 0.00, 390.21
337.50, 0.00, 391.30
337.69, 0.00, 392.57
337.92, 0.00, 394.07
¯338.20, 0.00, 395.85
338.51, 0.01, 397.92
338.42, 0.34, 397.38
338.42, 0.61, 397.38
338.41, 0.88, 397.38
338.40, 1.14, 397.38
338.39, 1.41, 397.38
338.39, 1.67, 397.38
338.38, 1.94, 397.38
338.37, 2.20, 397.38
338.37, 2.47, 397.38
338.36, 2.73, 397.38
338.35, 3.00, 397.38
336.31, 0.16, 383.01
336.36, 0.16, 383.32
336.42, 0.15, 383.66
336.48, 0.15, 384.03
336.54, 0.15, 384.43
336.62, 0.14, 384.87
336.70, 0.14, 385.33
336.88, 0.00, 386.41
336.98, 0.00, 387.01
337.09, 0.00, 387.67
337.21, 0.00, 388.41
337.35, 0.00, 389.25
337.51, 0.00, 390.20
337.69, 0.00, 391.30
337.90, 0.00, 392.57
338.15, 0.00, 394.07
338.45, 0.00, 395.86
338.78, 0.02, 397.89
338.69, 0.34, 397.38
338.68, 0.61, 397.38
338.68, 0.88, 397.38
338.67, 1.15, 397.38
338.66, 1.41, 397.38
338.66, 1.68, 397.38
338.65, 1.94, 397.38
338.64, 2.21, 397.38
338.64, 2.47, 397.38
338.63, 2.74, 397.38
338.62, 3.01, 397.38
336.40, 0.16, 383.01
336.45, 0.16, 383.32
336.51, 0.15, 383.66
336.58, 0.15, 384.03
336.65, 0.14, 384.42
336.73, 0.14, 384.86
336.91, 0.00, 385.87
337.01, 0.00, 386.40
337.11, 0.00, 387.00
¯337.23, 0.00, 387.66
337.36, 0.00, 388.40
337.51, 0.00, 389.24
337.69, 0.00, 390.20
337.88, 0.00, 391.30
338.11, 0.00, 392.57
338.38, 0.00, 394.08
338.70, 0.00, 395.87
339.05, 0.02, 397.86
338.96, 0.35, 397.38
338.95, 0.61, 397.38
338.95, 0.88, 397.38
338.94, 1.15, 397.38
338.93, 1.42, 397.38
338.92, 1.68, 397.38
338.92, 1.95, 397.38
338.91, 2.22, 397.38
338.90, 2.48, 397.38
338.90, 2.75, 397.38
338.89, 3.01, 397.38
336.49, 0.16, 383.01
336.54, 0.16, 383.32
336.61, 0.15, 383.65
336.68, 0.15, 384.02
336.76, 0.14, 384.42
336.84, 0.14, 384.86
337.03, 0.00, 385.85
337.14, 0.00, 386.39
337.25, 0.00, 386.99
337.38, 0.00, 387.65
337.52, 0.00, 388.39
337.68, 0.00, 389.23
337.86, 0.00, 390.19
338.07, 0.00, 391.29
338.32, 0.00, 392.57
338.61, 0.00, 394.07
338.95, 0.00, 395.87
339.13, 0.14, 396.81
339.12, 0.41, 396.81
339.11, 0.67, 396.81
339.11, 0.93, 396.81
339.10, 1.19, 396.81
339.09, 1.45, 396.81
339.09, 1.71, 396.81
339.08, 1.97, 396.81
339.07, 2.23, 396.81
339.07, 2.49, 396.81
339.06, 2.75, 396.81
339.06, 3.01, 396.84
336.57, 0.16, 383.00
336.64, 0.15, 383.31
¯336.70, 0.15, 383.65
336.78, 0.14, 384.02
336.86, 0.14, 384.41
337.06, 0.00, 385.36
337.16, 0.00, 385.84
337.27, 0.00, 386.38
337.39, 0.00, 386.98
337.52, 0.00, 387.64
337.67, 0.00, 388.38
337.85, 0.00, 389.22
338.04, 0.00, 390.18
338.27, 0.00, 391.28
338.53, 0.00, 392.56
338.83, 0.00, 394.07
339.16, 0.03, 395.65
339.15, 0.28, 395.65
339.15, 0.52, 395.68
339.15, 0.77, 395.71
339.15, 1.01, 395.74
339.15, 1.26, 395.77
339.15, 1.51, 395.80
339.15, 1.75, 395.83
339.17, 2.00, 395.96
339.21, 2.25, 396.17
339.24, 2.50, 396.38
339.32, 2.76, 396.81
339.32, 3.02, 396.81
336.66, 0.15, 383.00
336.73, 0.15, 383.31
336.80, 0.15, 383.64
336.88, 0.14, 384.01
336.97, 0.14, 384.41
337.17, 0.00, 385.34
337.28, 0.00, 385.83
337.40, 0.00, 386.37
337.52, 0.00, 386.96
337.67, 0.00, 387.62
337.83, 0.00, 388.37
338.01, 0.00, 389.21
338.22, 0.00, 390.17
338.46, 0.00, 391.27
338.74, 0.00, 392.55
339.06, 0.00, 394.06
339.45, 0.00, 395.87
339.66, 0.14, 396.81
339.65, 0.41, 396.81
339.64, 0.67, 396.81
339.64, 0.93, 396.81
339.63, 1.20, 396.81
339.62, 1.46, 396.81
339.62, 1.72, 396.81
¯339.61, 1.98, 396.81
339.60, 2.24, 396.81
339.60, 2.50, 396.81
339.59, 2.76, 396.81
339.58, 3.02, 396.81
336.75, 0.15, 382.99
336.82, 0.15, 383.30
336.90, 0.15, 383.63
336.98, 0.14, 384.00
337.19, 0.00, 384.88
337.29, 0.00, 385.33
337.40, 0.00, 385.81
337.52, 0.00, 386.35
337.66, 0.00, 386.95
337.81, 0.00, 387.61
337.98, 0.00, 388.35
338.18, 0.00, 389.19
338.40, 0.00, 390.15
338.65, 0.00, 391.26
338.95, 0.00, 392.54
339.29, 0.00, 394.05
339.71, 0.00, 395.86
339.92, 0.14, 396.81
339.92, 0.41, 396.81
339.91, 0.67, 396.81
339.90, 0.94, 396.81
339.90, 1.20, 396.81
339.89, 1.46, 396.81
339.88, 1.72, 396.81
339.88, 1.99, 396.81
339.87, 2.25, 396.81
339.86, 2.51, 396.81
339.86, 2.77, 396.81
339.85, 3.03, 396.81
336.84, 0.15, 382.98
336.91, 0.15, 383.29
336.99, 0.14, 383.63
337.08, 0.14, 383.99
337.30, 0.00, 384.87
337.41, 0.00, 385.31
337.52, 0.00, 385.80
337.65, 0.00, 386.33
337.80, 0.00, 386.93
337.96, 0.00, 387.59
338.14, 0.00, 388.34
338.34, 0.00, 389.18
338.58, 0.00, 390.14
338.84, 0.00, 391.24
339.15, 0.00, 392.53
339.52, 0.00, 394.04
339.95, 0.00, 395.82
¯340.19, 0.14, 396.81
340.18, 0.41, 396.81
340.18, 0.67, 396.81
340.17, 0.94, 396.81
340.16, 1.20, 396.81
340.16, 1.46, 396.81
340.15, 1.73, 396.81
340.15, 1.99, 396.81
340.14, 2.25, 396.81
340.13, 2.51, 396.81
340.13, 2.78, 396.81
340.12, 3.04, 396.81
336.92, 0.15, 382.97
337.00, 0.15, 383.28
337.09, 0.14, 383.62
337.18, 0.14, 383.98
337.41, 0.00, 384.85
337.52, 0.00, 385.29
337.65, 0.00, 385.78
337.78, 0.00, 386.31
337.93, 0.00, 386.91
338.10, 0.00, 387.57
338.29, 0.00, 388.32
338.51, 0.00, 389.16
338.75, 0.00, 390.12
339.04, 0.00, 391.22
339.36, 0.00, 392.51
339.75, 0.00, 394.02
340.19, 0.01, 395.73
340.46, 0.14, 396.81
340.45, 0.41, 396.81
340.45, 0.67, 396.81
340.44, 0.94, 396.81
340.43, 1.20, 396.81
340.43, 1.47, 396.81
340.42, 1.73, 396.81
340.42, 1.99, 396.81
340.41, 2.26, 396.81
340.40, 2.52, 396.81
340.40, 2.78, 396.81
340.39, 3.05, 396.81
337.01, 0.15, 382.96
337.10, 0.14, 383.27
337.19, 0.14, 383.60
337.41, 0.00, 384.42
337.52, 0.00, 384.83
337.64, 0.00, 385.27
337.77, 0.00, 385.76
337.91, 0.00, 386.29
338.07, 0.00, 386.89
338.25, 0.00, 387.55
¯338.45, 0.00, 388.29
338.67, 0.00, 389.13
338.93, 0.00, 390.09
339.23, 0.00, 391.20
339.57, 0.00, 392.48
339.97, 0.00, 393.98
340.42, 0.02, 395.65
340.73, 0.14, 396.81
340.73, 0.41, 396.81
340.72, 0.67, 396.81
340.71, 0.94, 396.81
340.71, 1.21, 396.81
340.70, 1.47, 396.81
340.69, 1.73, 396.81
340.69, 2.00, 396.81
340.68, 2.26, 396.81
340.68, 2.53, 396.81
340.67, 2.79, 396.81
340.66, 3.05, 396.81
337.10, 0.15, 382.95
337.19, 0.14, 383.26
337.28, 0.14, 383.59
337.51, 0.00, 384.40
337.63, 0.00, 384.81
337.75, 0.00, 385.25
337.89, 0.00, 385.74
338.04, 0.00, 386.27
338.21, 0.00, 386.86
338.39, 0.00, 387.53
338.60, 0.00, 388.27
338.84, 0.00, 389.11
339.11, 0.00, 390.07
339.42, 0.00, 391.17
339.78, 0.00, 392.46
340.19, 0.01, 393.91
340.65, 0.03, 395.56
341.01, 0.14, 396.81
341.00, 0.41, 396.81
340.99, 0.67, 396.81
340.99, 0.94, 396.81
340.98, 1.21, 396.81
340.97, 1.47, 396.81
340.97, 1.74, 396.81
340.96, 2.00, 396.81
340.96, 2.27, 396.81
340.95, 2.53, 396.81
340.94, 2.80, 396.81
340.94, 3.06, 396.81
337.19, 0.14, 382.93
337.28, 0.14, 383.24
337.51, 0.00, 384.01
¯337.62, 0.00, 384.38
337.74, 0.00, 384.79
337.87, 0.00, 385.23
338.01, 0.00, 385.71
338.17, 0.00, 386.25
338.34, 0.00, 386.84
338.54, 0.00, 387.50
338.76, 0.00, 388.24
339.01, 0.00, 389.08
339.29, 0.00, 390.04
339.61, 0.00, 391.15
339.99, 0.00, 392.42
340.41, 0.02, 393.84
340.89, 0.04, 395.47
341.28, 0.14, 396.81
341.27, 0.40, 396.81
341.27, 0.67, 396.81
341.26, 0.94, 396.81
341.26, 1.21, 396.81
341.25, 1.47, 396.81
341.24, 1.74, 396.81
341.24, 2.01, 396.81
341.23, 2.27, 396.81
341.23, 2.54, 396.81
341.22, 2.80, 396.81
341.21, 3.07, 396.81
337.28, 0.14, 382.92
337.37, 0.14, 383.23
337.61, 0.00, 383.99
337.72, 0.00, 384.36
337.85, 0.00, 384.76
337.98, 0.00, 385.20
338.13, 0.00, 385.69
338.30, 0.00, 386.22
338.48, 0.00, 386.81
338.68, 0.00, 387.47
338.91, 0.00, 388.21
339.17, 0.00, 389.05
339.47, 0.00, 390.01
339.81, 0.00, 391.12
340.20, 0.00, 392.38
340.62, 0.02, 393.76
341.12, 0.04, 395.40
341.56, 0.13, 396.81
341.55, 0.40, 396.81
341.55, 0.67, 396.81
341.54, 0.94, 396.81
341.53, 1.21, 396.81
341.53, 1.48, 396.81
341.52, 1.74, 396.81
341.52, 2.01, 396.81
¯341.51, 2.28, 396.81
341.50, 2.54, 396.81
341.50, 2.81, 396.81
341.49, 3.08, 396.81
337.36, 0.14, 382.90
337.60, 0.00, 383.62
337.71, 0.00, 383.96
337.83, 0.00, 384.33
337.96, 0.00, 384.74
338.10, 0.00, 385.18
338.25, 0.00, 385.66
338.43, 0.00, 386.19
338.62, 0.00, 386.78
338.83, 0.00, 387.44
339.07, 0.00, 388.18
339.34, 0.00, 389.02
339.64, 0.00, 389.98
339.99, 0.00, 391.07
340.40, 0.01, 392.33
340.83, 0.03, 393.69
341.36, 0.05, 395.32
341.84, 0.13, 396.81
341.83, 0.40, 396.81
341.82, 0.67, 396.81
341.82, 0.94, 396.81
341.81, 1.21, 396.81
341.81, 1.48, 396.81
341.80, 1.75, 396.81
341.80, 2.01, 396.81
341.79, 2.28, 396.81
341.78, 2.55, 396.81
341.78, 2.82, 396.81
341.77, 3.08, 396.81
337.45, 0.14, 382.88
337.69, 0.00, 383.60
337.81, 0.00, 383.94
337.93, 0.00, 384.31
338.07, 0.00, 384.71
338.21, 0.00, 385.15
338.37, 0.00, 385.63
338.55, 0.00, 386.16
338.75, 0.00, 386.75
338.97, 0.00, 387.41
339.22, 0.00, 388.15
339.50, 0.00, 388.99
339.82, 0.00, 389.94
340.18, 0.00, 391.03
340.60, 0.01, 392.28
341.05, 0.03, 393.63
341.59, 0.06, 395.23
342.12, 0.13, 396.81
¯342.11, 0.40, 396.81
342.11, 0.67, 396.81
342.10, 0.94, 396.81
342.09, 1.21, 396.81
342.09, 1.48, 396.81
342.08, 1.75, 396.81
342.08, 2.02, 396.81
342.07, 2.29, 396.81
342.07, 2.56, 396.81
342.06, 2.82, 396.81
337.54, 0.14, 382.86
337.79, 0.00, 383.57
337.91, 0.00, 383.91
338.04, 0.00, 384.28
338.17, 0.00, 384.68
338.33, 0.00, 385.12
338.50, 0.00, 385.60
338.68, 0.00, 386.13
338.89, 0.00, 386.72
339.11, 0.00, 387.38
339.37, 0.00, 388.12
339.66, 0.00, 388.95
339.99, 0.00, 389.90
340.37, 0.00, 390.98
340.81, 0.01, 392.23
341.28, 0.03, 393.58
341.82, 0.06, 395.15
342.38, 0.13, 396.75
342.40, 0.39, 396.81
342.39, 0.67, 396.81
342.38, 0.94, 396.81
342.38, 1.21, 396.81
342.37, 1.48, 396.81
342.37, 1.75, 396.81
342.36, 2.02, 396.81
342.36, 2.29, 396.81
342.35, 2.56, 396.81
342.34, 2.83, 396.81
337.77, 0.00, 383.23
337.88, 0.00, 383.55
338.01, 0.00, 383.89
338.14, 0.00, 384.25
338.28, 0.00, 384.65
338.44, 0.00, 385.09
338.62, 0.00, 385.57
338.81, 0.00, 386.10
339.02, 0.00, 386.69
339.26, 0.00, 387.34
339.53, 0.00, 388.08
339.83, 0.00, 388.91
340.17, 0.00, 389.85
¯340.56, 0.01, 390.93
341.01, 0.01, 392.18
341.50, 0.03, 393.53
342.04, 0.07, 395.03
342.64, 0.13, 396.67
342.68, 0.39, 396.81
342.68, 0.66, 396.81
342.67, 0.94, 396.81
342.67, 1.21, 396.81
342.66, 1.48, 396.81
342.65, 1.75, 396.81
342.65, 2.02, 396.81
342.64, 2.30, 396.81
342.64, 2.57, 396.81
342.63, 2.84, 396.81
337.86, 0.00, 383.21
337.98, 0.00, 383.52
338.10, 0.00, 383.86
338.24, 0.00, 384.22
338.39, 0.00, 384.62
338.56, 0.00, 385.06
338.74, 0.00, 385.53
338.93, 0.00, 386.06
339.16, 0.00, 386.65
339.40, 0.00, 387.30
339.68, 0.00, 388.04
339.99, 0.00, 388.86
340.34, 0.00, 389.80
340.74, 0.01, 390.87
341.21, 0.01, 392.12
341.72, 0.03, 393.47
342.25, 0.08, 394.89
342.89, 0.14, 396.59
342.97, 0.39, 396.81
342.97, 0.66, 396.81
342.96, 0.93, 396.81
342.95, 1.21, 396.81
342.95, 1.48, 396.81
342.94, 1.75, 396.81
342.94, 2.03, 396.81
342.93, 2.30, 396.81
342.93, 2.57, 396.81
342.92, 2.84, 396.81
337.95, 0.00, 383.18
338.07, 0.00, 383.49
338.20, 0.00, 383.83
338.34, 0.00, 384.19
338.50, 0.00, 384.59
338.67, 0.00, 385.02
338.86, 0.00, 385.50
339.06, 0.00, 386.03
¯339.29, 0.00, 386.61
339.54, 0.00, 387.26
339.83, 0.00, 388.00
340.15, 0.00, 388.82
340.51, 0.01, 389.74
340.93, 0.01, 390.81
341.41, 0.01, 392.06
341.92, 0.04, 393.36
342.43, 0.10, 394.67
343.15, 0.14, 396.51
343.26, 0.38, 396.81
343.26, 0.66, 396.81
343.25, 0.93, 396.81
343.25, 1.21, 396.81
343.24, 1.48, 396.81
343.23, 1.76, 396.81
343.23, 2.03, 396.81
343.22, 2.30, 396.81
343.22, 2.58, 396.81
343.21, 2.85, 396.81
338.04, 0.00, 383.15
338.16, 0.00, 383.46
338.30, 0.00, 383.79
338.45, 0.00, 384.16
338.61, 0.00, 384.55
338.78, 0.00, 384.99
338.97, 0.00, 385.46
339.19, 0.00, 385.99
339.42, 0.00, 386.57
339.69, 0.00, 387.22
339.98, 0.00, 387.95
340.32, 0.00, 388.78
340.68, 0.01, 389.69
341.11, 0.01, 390.75
341.62, 0.02, 391.99
342.11, 0.06, 393.21
342.62, 0.12, 394.48
343.39, 0.15, 396.39
343.56, 0.38, 396.81
343.55, 0.65, 396.81
343.55, 0.93, 396.81
343.54, 1.21, 396.81
343.54, 1.48, 396.81
343.53, 1.76, 396.81
343.52, 2.03, 396.81
343.52, 2.31, 396.81
343.51, 2.58, 396.81
343.51, 2.86, 396.81
338.13, 0.00, 383.12
338.26, 0.00, 383.43
338.40, 0.00, 383.76
¯338.55, 0.00, 384.12
338.71, 0.00, 384.52
338.89, 0.00, 384.95
339.09, 0.00, 385.42
339.31, 0.00, 385.95
339.56, 0.00, 386.53
339.83, 0.00, 387.18
340.13, 0.00, 387.91
340.48, 0.00, 388.73
340.85, 0.01, 389.63
341.30, 0.01, 390.69
341.81, 0.02, 391.92
342.29, 0.07, 393.07
342.81, 0.14, 394.32
343.61, 0.16, 396.21
343.85, 0.37, 396.81
343.85, 0.65, 396.81
343.84, 0.93, 396.81
343.84, 1.20, 396.81
343.83, 1.48, 396.81
343.83, 1.76, 396.81
343.82, 2.04, 396.81
343.82, 2.31, 396.81
343.81, 2.59, 396.81
343.81, 2.86, 396.81
338.22, 0.00, 383.09
338.35, 0.00, 383.39
338.49, 0.00, 383.73
338.65, 0.00, 384.09
338.82, 0.00, 384.48
339.01, 0.00, 384.91
339.21, 0.00, 385.38
339.44, 0.00, 385.90
339.69, 0.00, 386.48
339.97, 0.00, 387.13
340.28, 0.00, 387.86
340.64, 0.00, 388.68
341.03, 0.01, 389.58
341.48, 0.02, 390.62
342.00, 0.02, 391.83
342.51, 0.07, 393.00
343.01, 0.15, 394.15
343.83, 0.17, 396.04
344.16, 0.36, 396.81
344.15, 0.64, 396.81
344.14, 0.92, 396.81
344.14, 1.20, 396.81
344.13, 1.48, 396.81
344.13, 1.76, 396.81
344.12, 2.04, 396.81
344.12, 2.32, 396.81
¯344.11, 2.59, 396.81
344.11, 2.87, 396.81
338.30, 0.00, 383.05
338.44, 0.00, 383.36
338.59, 0.00, 383.69
338.75, 0.00, 384.05
338.93, 0.00, 384.44
339.12, 0.00, 384.87
339.33, 0.00, 385.34
339.56, 0.00, 385.86
339.82, 0.00, 386.44
340.11, 0.00, 387.08
340.43, 0.00, 387.81
340.80, 0.00, 388.63
341.20, 0.01, 389.53
341.66, 0.02, 390.56
342.19, 0.03, 391.74
342.73, 0.07, 392.93
343.20, 0.16, 393.99
344.18, 0.15, 396.17
344.46, 0.36, 396.81
344.45, 0.64, 396.81
344.45, 0.92, 396.81
344.44, 1.20, 396.81
344.44, 1.48, 396.81
344.43, 1.76, 396.81
344.43, 2.04, 396.81
344.42, 2.32, 396.81
344.42, 2.60, 396.81
344.41, 2.88, 396.81
338.39, 0.00, 383.02
338.53, 0.00, 383.32
338.69, 0.00, 383.65
338.85, 0.00, 384.01
339.03, 0.00, 384.40
339.23, 0.00, 384.83
339.45, 0.00, 385.30
339.69, 0.00, 385.82
339.95, 0.00, 386.39
340.25, 0.00, 387.03
340.58, 0.00, 387.76
340.96, 0.00, 388.57
341.38, 0.01, 389.47
341.85, 0.02, 390.50
342.38, 0.03, 391.64
342.94, 0.07, 392.86
343.43, 0.16, 393.91
344.53, 0.13, 396.30
344.77, 0.35, 396.81
344.76, 0.63, 396.81
344.76, 0.92, 396.81
¯344.75, 1.20, 396.81
344.74, 1.48, 396.81
344.74, 1.76, 396.81
344.73, 2.04, 396.81
344.73, 2.32, 396.81
344.72, 2.60, 396.81
344.72, 2.88, 396.81
338.48, 0.00, 382.98
338.62, 0.00, 383.29
338.78, 0.00, 383.61
338.95, 0.00, 383.97
339.14, 0.00, 384.36
339.34, 0.00, 384.78
339.56, 0.00, 385.25
339.81, 0.00, 385.77
340.08, 0.00, 386.34
340.39, 0.00, 386.98
340.73, 0.00, 387.70
341.12, 0.00, 388.52
341.55, 0.01, 389.41
342.04, 0.01, 390.45
342.56, 0.04, 391.54
343.16, 0.07, 392.79
343.66, 0.16, 393.84
344.90, 0.10, 396.42
345.08, 0.34, 396.81
345.07, 0.63, 396.81
345.07, 0.91, 396.81
345.06, 1.19, 396.81
345.06, 1.48, 396.81
345.05, 1.76, 396.81
345.04, 2.04, 396.81
345.04, 2.33, 396.81
345.03, 2.61, 396.81
345.03, 2.89, 396.81
338.57, 0.00, 382.95
338.72, 0.00, 383.25
338.88, 0.00, 383.57
339.05, 0.00, 383.93
339.24, 0.00, 384.32
339.45, 0.00, 384.74
339.68, 0.00, 385.20
339.93, 0.00, 385.72
340.21, 0.00, 386.29
340.53, 0.00, 386.93
340.88, 0.00, 387.64
341.28, 0.00, 388.46
341.72, 0.01, 389.35
342.23, 0.01, 390.39
342.76, 0.04, 391.46
343.38, 0.07, 392.71
¯343.92, 0.16, 393.82
345.26, 0.08, 396.54
345.39, 0.33, 396.81
345.38, 0.62, 396.81
345.38, 0.91, 396.81
345.37, 1.19, 396.81
345.37, 1.48, 396.81
345.36, 1.76, 396.81
345.36, 2.05, 396.81
345.35, 2.33, 396.81
345.35, 2.61, 396.81
345.34, 2.90, 396.81
338.65, 0.00, 382.91
338.81, 0.00, 383.21
338.97, 0.00, 383.53
339.15, 0.00, 383.89
339.35, 0.00, 384.27
339.56, 0.00, 384.69
339.80, 0.00, 385.16
340.05, 0.00, 385.67
340.34, 0.00, 386.24
340.67, 0.00, 386.87
341.03, 0.00, 387.58
341.44, 0.00, 388.39
341.90, 0.00, 389.29
342.43, 0.01, 390.34
342.97, 0.04, 391.41
343.59, 0.07, 392.63
344.21, 0.14, 393.85
345.63, 0.05, 396.65
345.71, 0.32, 396.81
345.70, 0.61, 396.81
345.70, 0.90, 396.81
345.69, 1.19, 396.81
345.69, 1.47, 396.81
345.68, 1.76, 396.81
345.68, 2.05, 396.81
345.67, 2.33, 396.81
345.67, 2.62, 396.81
345.66, 2.90, 396.81
338.74, 0.00, 382.87
338.90, 0.00, 383.17
339.07, 0.00, 383.49
339.25, 0.00, 383.84
339.45, 0.00, 384.23
339.67, 0.00, 384.65
339.91, 0.00, 385.11
340.18, 0.00, 385.61
340.47, 0.00, 386.18
340.80, 0.00, 386.81
341.18, 0.00, 387.52
¯341.60, 0.00, 388.33
342.07, 0.00, 389.24
342.62, 0.01, 390.28
343.18, 0.03, 391.36
343.80, 0.07, 392.54
344.49, 0.13, 393.87
345.93, 0.05, 396.60
346.03, 0.31, 396.81
346.02, 0.61, 396.81
346.02, 0.89, 396.81
346.01, 1.18, 396.81
346.01, 1.47, 396.81
346.00, 1.76, 396.81
346.00, 2.05, 396.81
345.99, 2.34, 396.81
345.99, 2.62, 396.81
345.98, 2.91, 396.81
338.82, 0.00, 382.83
338.99, 0.00, 383.13
339.16, 0.00, 383.45
339.35, 0.00, 383.80
339.55, 0.00, 384.18
339.78, 0.00, 384.60
340.02, 0.00, 385.05
340.30, 0.00, 385.56
340.60, 0.00, 386.12
340.94, 0.00, 386.75
341.32, 0.00, 387.46
341.75, 0.00, 388.26
342.25, 0.00, 389.18
342.81, 0.01, 390.21
343.39, 0.03, 391.31
343.99, 0.08, 392.41
344.79, 0.11, 393.89
346.24, 0.04, 396.58
346.36, 0.30, 396.81
346.35, 0.60, 396.81
346.35, 0.89, 396.81
346.34, 1.18, 396.81
346.34, 1.47, 396.81
346.33, 1.76, 396.81
346.33, 2.05, 396.81
346.32, 2.34, 396.81
346.32, 2.63, 396.81
346.31, 2.92, 396.81
338.91, 0.00, 382.79
339.07, 0.00, 383.08
339.25, 0.00, 383.40
339.44, 0.00, 383.75
339.66, 0.00, 384.13
339.89, 0.00, 384.54
¯340.14, 0.00, 385.00
340.42, 0.00, 385.50
340.73, 0.00, 386.06
341.08, 0.00, 386.69
341.47, 0.00, 387.39
341.88, 0.01, 388.13
342.28, 0.05, 388.87
343.00, 0.00, 390.15
343.61, 0.02, 391.25
344.17, 0.09, 392.27
345.08, 0.10, 393.91
346.54, 0.03, 396.55
346.69, 0.29, 396.81
346.68, 0.59, 396.81
346.68, 0.88, 396.81
346.67, 1.17, 396.81
346.67, 1.47, 396.81
346.66, 1.76, 396.81
346.66, 2.05, 396.81
346.65, 2.34, 396.81
346.65, 2.63, 396.81
346.64, 2.93, 396.81
338.99, 0.00, 382.74
339.16, 0.00, 383.04
339.34, 0.00, 383.36
339.54, 0.00, 383.70
339.76, 0.00, 384.08
339.99, 0.00, 384.49
340.25, 0.00, 384.95
340.54, 0.00, 385.45
340.86, 0.00, 386.00
341.21, 0.00, 386.63
341.61, 0.00, 387.33
341.98, 0.03, 387.98
342.33, 0.09, 388.59
343.18, 0.00, 390.08
343.80, 0.02, 391.17
344.36, 0.10, 392.14
345.23, 0.12, 393.66
346.85, 0.02, 396.51
347.02, 0.28, 396.81
347.02, 0.58, 396.81
347.01, 0.87, 396.81
347.01, 1.17, 396.81
347.00, 1.46, 396.81
347.00, 1.76, 396.81
346.99, 2.05, 396.81
346.99, 2.35, 396.81
346.98, 2.64, 396.81
346.98, 2.93, 396.81
339.08, 0.00, 382.70
¯339.25, 0.00, 382.99
339.44, 0.00, 383.31
339.64, 0.00, 383.65
339.86, 0.00, 384.03
340.10, 0.00, 384.44
340.36, 0.00, 384.89
340.66, 0.00, 385.39
340.98, 0.00, 385.94
341.34, 0.00, 386.56
341.75, 0.00, 387.26
342.09, 0.05, 387.83
342.44, 0.10, 388.43
343.17, 0.06, 389.67
343.98, 0.03, 391.04
342.83, 0.54, 389.11
342.83, 0.73, 389.11
342.83, 0.92, 389.12
342.83, 1.11, 389.12
342.83, 1.30, 389.13
342.83, 1.48, 389.14
342.84, 1.67, 389.14
342.84, 1.86, 389.15
342.87, 2.04, 389.21
347.33, 2.05, 396.81
347.33, 2.35, 396.81
347.32, 2.64, 396.81
347.32, 2.94, 396.81
339.16, 0.00, 382.65
339.34, 0.00, 382.95
339.53, 0.00, 383.26
339.73, 0.00, 383.60
339.96, 0.00, 383.97
340.20, 0.00, 384.38
340.48, 0.00, 384.83
340.77, 0.00, 385.33
341.11, 0.00, 385.88
341.48, 0.00, 386.49
341.87, 0.01, 387.14
342.19, 0.06, 387.67
342.55, 0.12, 388.26
343.13, 0.12, 389.24
342.93, 0.37, 388.91
342.90, 0.57, 388.85
342.89, 0.76, 388.86
342.89, 0.94, 388.86
342.89, 1.13, 388.86
342.89, 1.31, 388.86
342.89, 1.50, 388.87
342.89, 1.69, 388.87
342.89, 1.87, 388.87
342.90, 2.05, 388.89
¯342.97, 2.24, 389.03
347.67, 2.35, 396.81
347.67, 2.65, 396.81
347.66, 2.95, 396.81
339.24, 0.00, 382.61
339.42, 0.00, 382.90
339.62, 0.00, 383.21
339.83, 0.00, 383.55
340.06, 0.00, 383.92
340.31, 0.00, 384.32
340.59, 0.00, 384.77
340.89, 0.00, 385.26
341.23, 0.00, 385.81
341.61, 0.00, 386.42
341.97, 0.03, 386.99
342.29, 0.08, 387.52
342.65, 0.14, 388.10
343.10, 0.18, 388.82
343.06, 0.38, 388.77
343.03, 0.58, 388.73
343.03, 0.76, 388.73
343.03, 0.95, 388.73
343.03, 1.14, 388.73
343.02, 1.32, 388.73
343.02, 1.51, 388.73
343.02, 1.69, 388.73
343.02, 1.87, 388.73
343.03, 2.06, 388.75
343.09, 2.24, 388.86
348.02, 2.35, 396.81
348.02, 2.65, 396.81
348.01, 2.95, 396.81
339.33, 0.00, 382.56
339.51, 0.00, 382.85
339.71, 0.00, 383.16
339.92, 0.00, 383.50
340.16, 0.00, 383.86
340.41, 0.00, 384.27
340.70, 0.00, 384.71
341.01, 0.00, 385.20
341.35, 0.00, 385.74
341.74, 0.00, 386.35
342.09, 0.03, 386.89
342.39, 0.09, 387.37
342.75, 0.15, 387.94
343.15, 0.22, 388.56
343.25, 0.38, 388.73
343.21, 0.57, 388.67
343.21, 0.76, 388.67
343.21, 0.95, 388.67
343.21, 1.13, 388.67
¯343.20, 1.32, 388.67
343.20, 1.50, 388.67
343.20, 1.69, 388.67
343.20, 1.87, 388.67
343.21, 2.06, 388.69
343.29, 2.24, 388.82
348.38, 2.36, 396.81
348.37, 2.66, 396.81
348.37, 2.96, 396.81
339.41, 0.00, 382.51
339.59, 0.00, 382.80
339.80, 0.00, 383.11
340.02, 0.00, 383.44
340.26, 0.00, 383.81
340.52, 0.00, 384.21
340.81, 0.00, 384.65
341.12, 0.00, 385.13
341.48, 0.00, 385.67
341.86, 0.00, 386.26
342.22, 0.03, 386.81
342.53, 0.10, 387.27
342.85, 0.17, 387.78
343.25, 0.23, 388.39
344.16, 0.18, 389.77
343.50, 0.54, 388.77
343.49, 0.74, 388.76
343.48, 0.93, 388.76
343.48, 1.12, 388.75
343.47, 1.30, 388.75
343.47, 1.49, 388.75
343.46, 1.68, 388.74
343.46, 1.87, 388.74
343.49, 2.05, 388.78
348.74, 2.05, 396.81
348.74, 2.36, 396.81
348.73, 2.66, 396.81
348.73, 2.97, 396.81
339.49, 0.00, 382.46
339.68, 0.00, 382.75
339.89, 0.00, 383.05
340.11, 0.00, 383.38
340.35, 0.00, 383.75
340.62, 0.00, 384.14
340.91, 0.00, 384.58
341.24, 0.00, 385.06
341.60, 0.00, 385.60
341.98, 0.01, 386.16
342.36, 0.03, 386.73
342.67, 0.10, 387.19
343.00, 0.17, 387.69
343.37, 0.24, 388.23
¯344.06, 0.25, 389.27
345.28, 0.17, 391.08
346.66, 0.10, 393.13
348.56, 0.00, 395.95
339.57, 0.00, 382.41
339.76, 0.00, 382.69
339.97, 0.00, 383.00
340.20, 0.00, 383.33
340.45, 0.00, 383.69
340.72, 0.00, 384.08
341.02, 0.00, 384.51
341.35, 0.00, 384.99
341.72, 0.00, 385.53
342.09, 0.02, 386.06
342.48, 0.04, 386.63
342.81, 0.10, 387.11
343.15, 0.17, 387.61
343.04, 0.38, 387.44
342.97, 0.57, 387.34
342.97, 0.74, 387.35
342.97, 0.91, 387.35
342.97, 1.08, 387.36
342.97, 1.25, 387.36
342.97, 1.42, 387.37
342.97, 1.59, 387.37
342.97, 1.76, 387.37
342.97, 1.93, 387.38
339.65, 0.00, 382.36
339.85, 0.00, 382.64
340.06, 0.00, 382.94
340.29, 0.00, 383.27
340.55, 0.00, 383.63
340.82, 0.00, 384.02
341.13, 0.00, 384.45
341.46, 0.00, 384.92
341.83, 0.00, 385.44
342.20, 0.02, 385.95
342.60, 0.04, 386.52
342.95, 0.10, 387.03
343.16, 0.21, 387.32
343.02, 0.42, 387.13
343.01, 0.59, 387.11
343.01, 0.76, 387.11
343.00, 0.93, 387.11
343.00, 1.10, 387.11
343.00, 1.27, 387.12
343.00, 1.44, 387.12
343.00, 1.61, 387.12
343.00, 1.78, 387.12
343.00, 1.94, 387.13
343.04, 2.11, 387.18
¯339.73, 0.00, 382.31
339.93, 0.00, 382.58
340.15, 0.00, 382.88
340.38, 0.00, 383.21
340.64, 0.00, 383.56
340.92, 0.00, 383.95
341.23, 0.00, 384.38
341.58, 0.00, 384.85
341.94, 0.01, 385.35
342.30, 0.03, 385.85
342.71, 0.05, 386.41
343.10, 0.10, 386.94
343.21, 0.23, 387.10
343.13, 0.43, 386.99
343.11, 0.60, 386.98
343.11, 0.77, 386.98
343.11, 0.94, 386.98
343.11, 1.11, 386.98
343.11, 1.28, 386.98
343.11, 1.45, 386.98
343.11, 1.61, 386.98
343.11, 1.78, 386.98
343.11, 1.95, 386.99
343.14, 2.11, 387.03
343.25, 2.28, 387.19
339.81, 0.00, 382.25
340.01, 0.00, 382.53
340.23, 0.00, 382.82
340.47, 0.00, 383.15
340.74, 0.00, 383.50
341.02, 0.00, 383.88
341.34, 0.00, 384.31
341.69, 0.00, 384.78
342.04, 0.01, 385.25
342.41, 0.03, 385.74
342.82, 0.06, 386.30
343.24, 0.10, 386.86
343.39, 0.22, 387.06
343.28, 0.43, 386.92
343.26, 0.60, 386.90
343.26, 0.77, 386.90
343.26, 0.94, 386.90
343.26, 1.11, 386.90
343.26, 1.28, 386.90
343.26, 1.45, 386.90
343.25, 1.61, 386.90
343.25, 1.78, 386.90
343.25, 1.95, 386.91
343.29, 2.11, 386.95
343.43, 2.28, 387.14
339.88, 0.00, 382.20
¯340.09, 0.00, 382.47
340.32, 0.00, 382.76
340.56, 0.00, 383.08
340.83, 0.00, 383.43
341.12, 0.00, 383.81
341.44, 0.00, 384.23
341.80, 0.00, 384.70
342.14, 0.02, 385.15
342.51, 0.04, 385.64
342.93, 0.06, 386.18
343.38, 0.09, 386.77
343.75, 0.16, 387.25
343.51, 0.40, 386.94
343.47, 0.58, 386.90
343.47, 0.76, 386.90
343.47, 0.93, 386.90
343.47, 1.10, 386.90
343.46, 1.27, 386.90
343.46, 1.44, 386.90
343.46, 1.61, 386.90
343.46, 1.78, 386.90
343.46, 1.95, 386.90
343.51, 2.11, 386.97
339.96, 0.00, 382.14
340.17, 0.00, 382.41
340.40, 0.00, 382.70
340.65, 0.00, 383.02
340.92, 0.00, 383.37
341.22, 0.00, 383.74
341.55, 0.00, 384.16
341.90, 0.00, 384.61
342.24, 0.02, 385.05
342.62, 0.05, 385.53
343.04, 0.07, 386.07
343.51, 0.10, 386.66
343.93, 0.15, 387.20
344.43, 0.21, 387.85
345.00, 0.27, 388.57
346.72, 0.11, 390.75
348.51, 0.00, 393.03
350.09, 0.00, 395.05
340.04, 0.00, 382.08
340.25, 0.00, 382.35
340.48, 0.00, 382.64
340.74, 0.00, 382.96
341.01, 0.00, 383.30
341.31, 0.00, 383.67
341.65, 0.00, 384.09
341.99, 0.01, 384.52
342.35, 0.02, 384.96
342.73, 0.05, 385.44
¯343.15, 0.07, 385.96
343.62, 0.10, 386.54
344.11, 0.14, 387.15
344.63, 0.20, 387.79
345.21, 0.25, 388.52
347.13, 0.06, 390.90
348.73, 0.00, 392.88
350.34, 0.00, 394.89
340.11, 0.00, 382.03
340.33, 0.00, 382.29
340.57, 0.00, 382.58
340.82, 0.00, 382.89
341.10, 0.00, 383.23
341.41, 0.00, 383.60
341.75, 0.00, 384.01
342.09, 0.01, 384.42
342.46, 0.03, 384.87
342.84, 0.05, 385.34
343.27, 0.08, 385.86
343.75, 0.10, 386.43
344.20, 0.16, 386.99
344.79, 0.19, 387.71
345.42, 0.24, 388.47
347.56, 0.01, 391.05
348.94, 0.00, 392.73
350.58, 0.00, 394.72
340.19, 0.00, 381.97
340.41, 0.00, 382.23
340.65, 0.00, 382.51
340.91, 0.00, 382.82
341.19, 0.00, 383.16
341.50, 0.00, 383.53
341.84, 0.00, 383.93
342.19, 0.01, 384.33
342.56, 0.03, 384.78
342.95, 0.05, 385.24
343.39, 0.08, 385.75
343.84, 0.11, 386.29
344.26, 0.18, 386.79
344.85, 0.21, 387.48
345.52, 0.26, 388.27
347.81, 0.00, 390.98
349.16, 0.00, 392.58
350.82, 0.00, 394.55
340.26, 0.00, 381.91
340.49, 0.00, 382.17
340.73, 0.00, 382.45
340.99, 0.00, 382.75
341.28, 0.00, 383.09
341.60, 0.00, 383.45
341.93, 0.01, 383.84
¯342.28, 0.02, 384.24
342.66, 0.03, 384.68
343.06, 0.05, 385.14
343.50, 0.08, 385.65
343.93, 0.12, 386.15
344.34, 0.19, 386.62
344.90, 0.24, 387.26
345.57, 0.28, 388.03
346.28, 0.34, 388.86
346.35, 0.54, 388.94
351.06, 0.00, 394.37
340.33, 0.00, 381.85
340.56, 0.00, 382.10
340.81, 0.00, 382.38
341.08, 0.00, 382.68
341.37, 0.00, 383.01
341.69, 0.00, 383.37
342.02, 0.01, 383.75
342.37, 0.02, 384.14
342.76, 0.04, 384.57
343.17, 0.06, 385.04
343.61, 0.08, 385.54
344.02, 0.13, 386.00
344.43, 0.20, 386.46
344.95, 0.26, 387.05
345.61, 0.30, 387.79
346.37, 0.35, 388.64
346.44, 0.55, 388.73
351.30, 0.00, 394.19
340.41, 0.00, 381.78
340.64, 0.00, 382.04
340.89, 0.00, 382.31
341.16, 0.00, 382.61
341.46, 0.00, 382.94
341.78, 0.00, 383.30
342.11, 0.01, 383.65
342.46, 0.02, 384.04
342.85, 0.04, 384.47
343.28, 0.06, 384.94
343.73, 0.08, 385.43
344.11, 0.14, 385.86
344.52, 0.21, 386.31
345.00, 0.28, 386.83
345.66, 0.32, 387.56
346.45, 0.37, 388.43
346.53, 0.56, 388.52
351.53, 0.00, 394.00
340.48, 0.00, 381.72
340.71, 0.00, 381.97
340.97, 0.00, 382.24
341.24, 0.00, 382.54
¯341.54, 0.00, 382.86
341.87, 0.00, 383.21
342.19, 0.01, 383.56
342.55, 0.03, 383.95
342.95, 0.04, 384.37
343.38, 0.06, 384.83
343.82, 0.09, 385.30
344.20, 0.15, 385.71
344.61, 0.22, 386.16
345.07, 0.29, 386.64
345.70, 0.34, 387.32
346.54, 0.38, 388.22
346.62, 0.57, 388.31
348.82, 0.45, 390.67
348.82, 0.70, 390.67
348.82, 0.94, 390.67
348.82, 1.19, 390.67
348.82, 1.44, 390.67
348.82, 1.68, 390.68
348.82, 1.93, 390.68
348.82, 2.18, 390.68
348.82, 2.42, 390.68
340.55, 0.00, 381.66
340.78, 0.00, 381.90
341.04, 0.00, 382.17
341.32, 0.00, 382.47
341.63, 0.00, 382.79
341.95, 0.01, 383.12
342.28, 0.02, 383.47
342.64, 0.03, 383.85
343.04, 0.05, 384.26
343.48, 0.06, 384.73
343.90, 0.10, 385.16
344.28, 0.16, 385.57
344.70, 0.23, 386.00
345.16, 0.30, 386.48
346.17, 0.28, 387.54
346.63, 0.39, 388.02
346.70, 0.59, 388.10
348.88, 0.47, 390.38
348.88, 0.71, 390.38
348.88, 0.96, 390.38
348.88, 1.20, 390.38
348.88, 1.45, 390.39
348.88, 1.69, 390.39
348.88, 1.94, 390.39
348.88, 2.18, 390.39
348.88, 2.43, 390.39
340.62, 0.00, 381.59
340.86, 0.00, 381.84
341.12, 0.00, 382.10
¯341.40, 0.00, 382.39
341.71, 0.00, 382.71
342.03, 0.01, 383.03
342.36, 0.02, 383.37
342.73, 0.03, 383.75
343.13, 0.05, 384.16
343.58, 0.07, 384.61
343.98, 0.11, 385.02
344.37, 0.17, 385.42
344.79, 0.24, 385.85
345.25, 0.31, 386.32
346.67, 0.21, 387.77
346.71, 0.40, 387.81
346.79, 0.60, 387.90
348.95, 0.48, 390.10
348.95, 0.73, 390.10
348.95, 0.97, 390.10
348.95, 1.22, 390.10
348.95, 1.46, 390.10
348.94, 1.70, 390.10
348.94, 1.94, 390.10
348.94, 2.19, 390.11
348.94, 2.43, 390.11
340.69, 0.00, 381.52
340.93, 0.00, 381.77
341.19, 0.00, 382.03
341.48, 0.00, 382.32
341.79, 0.00, 382.63
342.12, 0.01, 382.96
342.46, 0.02, 383.29
342.83, 0.03, 383.66
343.24, 0.05, 384.07
343.69, 0.06, 384.52
344.05, 0.12, 384.88
344.44, 0.18, 385.27
344.86, 0.25, 385.69
345.32, 0.32, 386.15
346.81, 0.21, 387.62
346.80, 0.42, 387.61
346.88, 0.61, 387.69
349.01, 0.50, 389.82
349.01, 0.74, 389.82
349.01, 0.99, 389.82
349.01, 1.23, 389.82
349.01, 1.47, 389.82
349.01, 1.71, 389.82
349.01, 1.95, 389.82
349.01, 2.19, 389.83
349.01, 2.43, 389.83
340.75, 0.00, 381.46
341.00, 0.00, 381.70
¯341.27, 0.00, 381.96
341.56, 0.00, 382.24
341.88, 0.00, 382.55
342.22, 0.00, 382.88
342.56, 0.02, 383.21
342.94, 0.03, 383.58
343.35, 0.04, 383.98
343.79, 0.07, 384.41
344.12, 0.13, 384.73
344.51, 0.19, 385.11
344.93, 0.26, 385.52
345.39, 0.34, 385.97
346.88, 0.22, 387.41
346.88, 0.43, 387.42
346.96, 0.62, 387.49
349.07, 0.52, 389.54
349.07, 0.76, 389.54
349.07, 1.00, 389.54
349.07, 1.24, 389.54
349.07, 1.48, 389.55
349.07, 1.72, 389.55
349.07, 1.96, 389.55
349.07, 2.19, 389.55
349.07, 2.43, 389.55
340.82, 0.00, 381.39
341.07, 0.00, 381.63
341.34, 0.00, 381.88
341.63, 0.00, 382.16
