ŸVERSION 0.7
FIELDS x y z
SIZE 8 8 8
TYPE F F F
COUNT 1 1 1
WIDTH 2271
HEIGHT 1
VIEWPOINT 439.10, 14.96, 252.37 1 443.85, 9.17, 271.58
POINTS 2271
DATA ascii
449.27, 7.11, 274.71
449.43, 7.17, 274.87
449.59, 7.24, 275.04
449.76, 7.32, 275.22
449.95, 7.39, 275.43
450.31, 7.43, 275.81
450.72, 7.47, 276.23
451.17, 7.51, 276.69
453.09, 7.28, 278.65
447.00, 7.13, 272.26
447.16, 7.12, 272.43
447.34, 7.12, 272.61
447.53, 7.12, 272.80
447.74, 7.11, 273.01
447.96, 7.11, 273.23
448.21, 7.10, 273.48
448.48, 7.10, 273.75
448.77, 7.09, 274.04
449.09, 7.09, 274.37
449.31, 7.13, 274.59
449.47, 7.19, 274.75
449.63, 7.26, 274.92
449.80, 7.34, 275.09
449.97, 7.42, 275.28
450.22, 7.48, 275.54
450.61, 7.52, 275.93
451.04, 7.57, 276.37
452.31, 7.47, 277.63
447.05, 7.13, 272.22
447.22, 7.12, 272.38
447.40, 7.12, 272.56
447.60, 7.12, 272.75
447.81, 7.11, 272.96
448.04, 7.11, 273.18
448.29, 7.11, 273.43
448.56, 7.10, 273.69
448.86, 7.09, 273.98
449.19, 7.09, 274.31
449.35, 7.15, 274.47
449.51, 7.21, 274.63
449.67, 7.29, 274.79
449.83, 7.36, 274.97
450.01, 7.44, 275.14
¯450.19, 7.52, 275.33
450.51, 7.57, 275.65
450.93, 7.62, 276.06
451.80, 7.60, 276.91
447.11, 7.13, 272.17
447.28, 7.13, 272.34
447.47, 7.12, 272.51
447.66, 7.12, 272.70
447.88, 7.11, 272.91
448.11, 7.11, 273.13
448.36, 7.11, 273.37
448.64, 7.10, 273.63
448.94, 7.10, 273.92
449.24, 7.10, 274.21
449.39, 7.17, 274.36
449.54, 7.23, 274.51
449.70, 7.31, 274.67
449.87, 7.38, 274.84
450.05, 7.46, 275.01
450.23, 7.54, 275.19
450.42, 7.62, 275.39
450.82, 7.67, 275.77
451.41, 7.70, 276.34
447.17, 7.13, 272.13
447.34, 7.13, 272.29
447.53, 7.12, 272.46
447.73, 7.12, 272.65
447.95, 7.12, 272.85
448.18, 7.11, 273.07
448.44, 7.11, 273.31
448.72, 7.10, 273.58
449.03, 7.10, 273.86
449.28, 7.12, 274.10
449.43, 7.19, 274.24
449.58, 7.25, 274.39
449.74, 7.32, 274.55
449.91, 7.40, 274.71
450.08, 7.48, 274.88
450.27, 7.56, 275.06
450.46, 7.64, 275.25
450.71, 7.72, 275.49
451.13, 7.78, 275.89
452.50, 7.69, 277.15
447.22, 7.13, 272.08
447.40, 7.13, 272.24
447.59, 7.12, 272.42
447.79, 7.12, 272.60
448.02, 7.12, 272.80
448.26, 7.11, 273.02
448.52, 7.11, 273.26
448.80, 7.10, 273.52
¯449.12, 7.10, 273.80
449.32, 7.14, 273.99
449.46, 7.21, 274.13
449.62, 7.27, 274.28
449.78, 7.34, 274.43
449.95, 7.42, 274.59
450.12, 7.49, 274.75
450.30, 7.58, 274.93
450.49, 7.66, 275.11
450.70, 7.75, 275.30
451.02, 7.82, 275.60
452.05, 7.79, 276.53
447.28, 7.13, 272.04
447.46, 7.13, 272.19
447.65, 7.13, 272.37
447.86, 7.12, 272.55
448.08, 7.12, 272.75
448.33, 7.11, 272.96
448.59, 7.11, 273.20
448.88, 7.10, 273.46
449.20, 7.10, 273.74
449.35, 7.16, 273.88
449.50, 7.22, 274.02
449.65, 7.29, 274.16
449.81, 7.36, 274.31
449.98, 7.44, 274.46
450.16, 7.51, 274.62
450.34, 7.59, 274.79
450.53, 7.68, 274.97
450.73, 7.77, 275.16
450.94, 7.86, 275.35
451.65, 7.88, 275.98
453.01, 7.83, 277.18
447.34, 7.13, 271.99
447.52, 7.13, 272.15
447.71, 7.13, 272.31
447.92, 7.12, 272.50
448.15, 7.12, 272.69
448.40, 7.11, 272.91
448.67, 7.11, 273.14
448.96, 7.11, 273.40
449.25, 7.11, 273.64
449.39, 7.18, 273.77
449.54, 7.24, 273.90
449.69, 7.31, 274.04
449.85, 7.38, 274.19
450.02, 7.45, 274.34
450.19, 7.53, 274.50
450.37, 7.61, 274.66
450.56, 7.70, 274.83
450.76, 7.79, 275.02
¯450.97, 7.88, 275.21
451.22, 7.97, 275.43
452.03, 7.99, 276.13
453.02, 8.02, 276.99
447.39, 7.13, 271.94
447.58, 7.13, 272.09
447.77, 7.13, 272.26
447.99, 7.12, 272.44
448.22, 7.12, 272.64
448.47, 7.12, 272.85
448.74, 7.11, 273.08
449.04, 7.11, 273.33
449.28, 7.13, 273.54
449.42, 7.19, 273.66
449.57, 7.26, 273.79
449.72, 7.33, 273.92
449.87, 7.40, 274.06
450.02, 7.48, 274.19
450.18, 7.56, 274.34
450.35, 7.64, 274.49
450.53, 7.73, 274.64
450.71, 7.82, 274.81
450.91, 7.91, 274.98
451.11, 8.01, 275.16
451.33, 8.11, 275.36
452.05, 8.16, 275.97
453.02, 8.21, 276.79
447.45, 7.13, 271.89
447.63, 7.13, 272.04
447.83, 7.13, 272.21
448.05, 7.12, 272.39
448.28, 7.12, 272.58
448.54, 7.12, 272.79
448.82, 7.11, 273.02
449.12, 7.11, 273.27
449.28, 7.16, 273.41
449.40, 7.23, 273.51
449.53, 7.30, 273.63
449.67, 7.37, 273.75
449.82, 7.44, 273.88
449.97, 7.52, 274.01
450.13, 7.60, 274.14
450.30, 7.68, 274.29
450.47, 7.76, 274.44
450.65, 7.85, 274.59
450.84, 7.95, 274.76
451.03, 8.04, 274.93
451.24, 8.15, 275.11
451.47, 8.25, 275.31
452.06, 8.33, 275.80
453.03, 8.39, 276.60
¯447.50, 7.13, 271.84
447.69, 7.13, 271.99
447.89, 7.13, 272.16
448.11, 7.13, 272.33
448.35, 7.12, 272.52
448.60, 7.12, 272.73
448.88, 7.12, 272.95
449.19, 7.11, 273.20
449.30, 7.18, 273.29
449.39, 7.26, 273.37
449.50, 7.34, 273.46
449.63, 7.41, 273.58
449.78, 7.48, 273.70
449.93, 7.55, 273.83
450.08, 7.63, 273.96
450.24, 7.71, 274.09
450.41, 7.80, 274.24
450.58, 7.89, 274.38
450.77, 7.98, 274.54
450.96, 8.08, 274.70
451.16, 8.18, 274.87
451.38, 8.28, 275.06
451.62, 8.39, 275.26
452.07, 8.49, 275.63
453.03, 8.57, 276.41
447.55, 7.14, 271.79
447.74, 7.13, 271.94
447.95, 7.13, 272.10
448.17, 7.13, 272.27
448.41, 7.13, 272.46
448.67, 7.12, 272.66
448.95, 7.12, 272.88
449.23, 7.13, 273.10
449.32, 7.20, 273.18
449.41, 7.28, 273.26
449.50, 7.36, 273.34
449.60, 7.44, 273.42
449.73, 7.51, 273.53
449.88, 7.59, 273.65
450.03, 7.67, 273.78
450.19, 7.75, 273.91
450.35, 7.83, 274.04
450.52, 7.92, 274.18
450.70, 8.01, 274.33
450.89, 8.11, 274.49
451.08, 8.21, 274.65
451.29, 8.31, 274.82
451.52, 8.42, 275.01
451.76, 8.54, 275.21
452.08, 8.65, 275.47
453.03, 8.75, 276.22
¯447.60, 7.14, 271.74
447.79, 7.14, 271.88
448.00, 7.13, 272.04
448.22, 7.13, 272.21
448.47, 7.13, 272.39
448.73, 7.13, 272.59
449.01, 7.12, 272.81
449.25, 7.15, 272.99
449.34, 7.22, 273.07
449.43, 7.30, 273.15
449.52, 7.38, 273.22
449.62, 7.46, 273.30
449.72, 7.54, 273.39
449.83, 7.62, 273.48
449.98, 7.70, 273.60
450.13, 7.78, 273.73
450.29, 7.86, 273.85
450.46, 7.95, 273.99
450.63, 8.04, 274.13
450.82, 8.14, 274.28
451.01, 8.24, 274.43
451.21, 8.34, 274.59
451.43, 8.45, 274.77
451.66, 8.56, 274.96
451.91, 8.68, 275.15
452.16, 8.81, 275.36
453.02, 8.92, 276.03
447.65, 7.14, 271.68
447.84, 7.14, 271.83
448.05, 7.14, 271.98
448.28, 7.14, 272.15
448.52, 7.13, 272.33
448.79, 7.13, 272.53
449.07, 7.13, 272.74
449.27, 7.17, 272.89
449.35, 7.24, 272.96
449.45, 7.32, 273.03
449.54, 7.40, 273.11
449.63, 7.48, 273.19
449.73, 7.56, 273.27
449.83, 7.64, 273.35
449.94, 7.73, 273.43
450.08, 7.81, 273.55
450.24, 7.89, 273.67
450.40, 7.98, 273.80
450.57, 8.07, 273.93
450.75, 8.16, 274.07
450.93, 8.26, 274.22
451.13, 8.37, 274.37
451.34, 8.47, 274.54
451.56, 8.58, 274.72
¯451.80, 8.70, 274.90
452.05, 8.83, 275.10
452.32, 8.96, 275.31
453.02, 9.09, 275.84
447.70, 7.14, 271.62
447.89, 7.14, 271.77
448.11, 7.14, 271.92
448.33, 7.14, 272.09
448.58, 7.14, 272.26
448.85, 7.13, 272.46
449.14, 7.13, 272.67
449.28, 7.19, 272.78
449.37, 7.26, 272.85
449.46, 7.34, 272.92
449.56, 7.42, 273.00
449.65, 7.50, 273.07
449.75, 7.58, 273.15
449.85, 7.66, 273.23
449.95, 7.75, 273.31
450.06, 7.84, 273.39
450.19, 7.92, 273.50
450.35, 8.01, 273.62
450.51, 8.10, 273.75
450.68, 8.19, 273.88
450.86, 8.29, 274.02
451.05, 8.39, 274.16
451.25, 8.50, 274.32
451.47, 8.61, 274.48
451.70, 8.72, 274.66
451.94, 8.84, 274.85
452.20, 8.97, 275.04
452.47, 9.11, 275.25
453.01, 9.25, 275.66
447.74, 7.15, 271.57
447.94, 7.15, 271.71
448.16, 7.14, 271.86
448.39, 7.14, 272.02
448.64, 7.14, 272.20
448.91, 7.14, 272.39
449.20, 7.14, 272.60
449.30, 7.20, 272.67
449.39, 7.28, 272.74
449.48, 7.36, 272.81
449.57, 7.43, 272.89
449.67, 7.51, 272.96
449.76, 7.60, 273.03
449.86, 7.68, 273.11
449.97, 7.77, 273.19
450.07, 7.85, 273.27
450.18, 7.94, 273.35
450.29, 8.04, 273.44
¯450.45, 8.13, 273.56
450.62, 8.22, 273.69
450.79, 8.31, 273.82
450.98, 8.41, 273.96
451.17, 8.52, 274.10
451.38, 8.63, 274.26
451.61, 8.74, 274.43
451.84, 8.86, 274.61
452.09, 8.99, 274.79
452.35, 9.12, 274.99
452.63, 9.27, 275.20
453.01, 9.42, 275.48
447.79, 7.15, 271.51
447.99, 7.15, 271.65
448.21, 7.15, 271.80
448.44, 7.15, 271.96
448.69, 7.14, 272.13
448.96, 7.14, 272.32
449.23, 7.15, 272.50
449.32, 7.22, 272.57
449.41, 7.30, 272.64
449.50, 7.37, 272.71
449.59, 7.45, 272.77
449.68, 7.53, 272.85
449.78, 7.61, 272.92
449.88, 7.70, 272.99
449.98, 7.78, 273.07
450.08, 7.87, 273.15
450.19, 7.96, 273.23
450.30, 8.05, 273.31
450.41, 8.15, 273.40
450.56, 8.24, 273.51
450.73, 8.34, 273.63
450.91, 8.44, 273.76
451.09, 8.54, 273.90
451.30, 8.65, 274.05
451.51, 8.76, 274.21
451.74, 8.88, 274.37
451.98, 9.00, 274.55
452.24, 9.14, 274.74
452.51, 9.28, 274.93
452.79, 9.42, 275.14
453.09, 9.58, 275.36
447.84, 7.15, 271.45
448.04, 7.15, 271.59
448.26, 7.15, 271.74
448.49, 7.15, 271.89
448.74, 7.15, 272.06
449.02, 7.15, 272.25
449.25, 7.17, 272.40
449.33, 7.24, 272.47
¯449.42, 7.32, 272.53
449.51, 7.39, 272.60
449.60, 7.47, 272.67
449.70, 7.55, 272.74
449.79, 7.63, 272.81
449.89, 7.71, 272.88
449.99, 7.80, 272.95
450.10, 7.89, 273.03
450.20, 7.98, 273.11
450.31, 8.07, 273.19
450.43, 8.16, 273.27
450.54, 8.26, 273.36
450.66, 8.36, 273.45
450.84, 8.46, 273.57
451.02, 8.56, 273.70
451.21, 8.67, 273.84
451.42, 8.78, 273.99
451.65, 8.90, 274.15
451.88, 9.02, 274.32
452.12, 9.15, 274.49
452.39, 9.29, 274.68
452.68, 9.43, 274.89
453.01, 9.59, 275.12
447.88, 7.16, 271.40
448.08, 7.16, 271.53
448.30, 7.15, 271.67
448.54, 7.15, 271.83
448.80, 7.15, 272.00
449.08, 7.15, 272.18
449.26, 7.19, 272.30
449.35, 7.26, 272.36
449.44, 7.33, 272.43
449.53, 7.41, 272.49
449.62, 7.49, 272.56
449.71, 7.57, 272.63
449.81, 7.65, 272.69
449.91, 7.73, 272.76
450.01, 7.81, 272.84
450.11, 7.90, 272.91
450.22, 7.99, 272.99
450.32, 8.08, 273.07
450.44, 8.18, 273.15
450.55, 8.27, 273.23
450.67, 8.37, 273.31
450.79, 8.48, 273.40
450.95, 8.58, 273.51
451.13, 8.69, 273.64
451.34, 8.80, 273.78
451.55, 8.91, 273.93
451.78, 9.03, 274.09
452.03, 9.16, 274.26
¯452.31, 9.29, 274.46
452.61, 9.44, 274.67
452.93, 9.59, 274.89
447.93, 7.16, 271.34
448.13, 7.16, 271.47
448.35, 7.16, 271.61
448.59, 7.16, 271.76
448.85, 7.15, 271.93
449.13, 7.15, 272.10
449.28, 7.20, 272.20
449.36, 7.28, 272.26
449.45, 7.35, 272.32
449.54, 7.43, 272.39
449.63, 7.50, 272.45
449.73, 7.58, 272.52
449.82, 7.66, 272.58
449.92, 7.75, 272.65
450.02, 7.83, 272.72
450.12, 7.92, 272.79
450.23, 8.01, 272.87
450.34, 8.10, 272.94
450.45, 8.19, 273.02
450.56, 8.29, 273.10
450.68, 8.39, 273.19
450.80, 8.49, 273.27
450.93, 8.60, 273.36
451.06, 8.70, 273.45
451.25, 8.81, 273.58
451.46, 8.93, 273.73
451.71, 9.04, 273.89
451.97, 9.17, 274.07
452.25, 9.30, 274.25
452.54, 9.45, 274.45
452.85, 9.60, 274.66
447.97, 7.16, 271.28
448.18, 7.16, 271.41
448.40, 7.16, 271.54
448.64, 7.16, 271.69
448.90, 7.16, 271.86
449.19, 7.16, 272.03
449.29, 7.22, 272.10
449.38, 7.29, 272.16
449.47, 7.37, 272.22
449.56, 7.44, 272.28
449.65, 7.52, 272.34
449.74, 7.60, 272.41
449.83, 7.68, 272.47
449.93, 7.76, 272.54
450.03, 7.85, 272.61
450.13, 7.93, 272.68
450.24, 8.02, 272.75
¯450.35, 8.11, 272.82
450.46, 8.21, 272.90
450.57, 8.30, 272.98
450.69, 8.40, 273.06
450.81, 8.50, 273.14
450.93, 8.61, 273.23
451.07, 8.72, 273.32
451.22, 8.83, 273.42
451.42, 8.94, 273.55
451.66, 9.06, 273.71
451.91, 9.18, 273.88
452.18, 9.31, 274.05
452.47, 9.45, 274.24
452.78, 9.60, 274.44
448.02, 7.16, 271.22
448.22, 7.16, 271.34
448.45, 7.16, 271.48
448.69, 7.16, 271.63
448.95, 7.16, 271.79
449.22, 7.17, 271.95
449.31, 7.24, 272.00
449.39, 7.31, 272.06
449.48, 7.38, 272.12
449.57, 7.46, 272.18
449.66, 7.53, 272.24
449.75, 7.61, 272.30
449.85, 7.69, 272.36
449.95, 7.78, 272.43
450.04, 7.86, 272.50
450.15, 7.95, 272.56
450.25, 8.04, 272.63
450.36, 8.13, 272.71
450.47, 8.22, 272.78
450.58, 8.32, 272.85
450.72, 8.41, 272.95
450.87, 8.51, 273.04
451.02, 8.61, 273.14
451.18, 8.72, 273.24
451.30, 8.83, 273.32
451.42, 8.95, 273.40
451.61, 9.07, 273.53
451.86, 9.19, 273.69
452.12, 9.32, 273.86
452.40, 9.46, 274.04
452.70, 9.61, 274.23
448.06, 7.17, 271.16
448.27, 7.17, 271.28
448.49, 7.17, 271.41
448.74, 7.17, 271.56
449.00, 7.17, 271.71
449.24, 7.18, 271.85
¯449.32, 7.25, 271.91
449.41, 7.32, 271.96
449.49, 7.40, 272.02
449.58, 7.47, 272.08
449.67, 7.55, 272.14
449.77, 7.63, 272.20
449.86, 7.71, 272.26
449.96, 7.79, 272.32
450.06, 7.87, 272.38
450.16, 7.96, 272.45
450.27, 8.05, 272.52
450.40, 8.14, 272.61
450.54, 8.23, 272.69
450.68, 8.32, 272.78
450.82, 8.41, 272.87
450.97, 8.51, 272.97
451.13, 8.62, 273.07
451.26, 8.73, 273.15
451.38, 8.84, 273.23
451.50, 8.96, 273.31
451.62, 9.08, 273.39
451.81, 9.20, 273.51
452.07, 9.33, 273.67
452.34, 9.47, 273.84
452.63, 9.61, 274.03
448.10, 7.17, 271.10
448.31, 7.17, 271.22
448.54, 7.17, 271.35
448.78, 7.17, 271.49
449.05, 7.17, 271.64
449.25, 7.20, 271.76
449.34, 7.27, 271.81
449.42, 7.34, 271.86
449.51, 7.41, 271.92
449.60, 7.49, 271.97
449.69, 7.57, 272.03
449.78, 7.64, 272.09
449.87, 7.72, 272.15
449.98, 7.80, 272.22
450.11, 7.88, 272.29
450.23, 7.96, 272.37
450.36, 8.05, 272.45
450.50, 8.14, 272.54
450.63, 8.23, 272.62
450.78, 8.32, 272.71
450.93, 8.42, 272.80
451.08, 8.52, 272.90
451.22, 8.62, 272.98
451.34, 8.73, 273.06
451.46, 8.85, 273.14
451.58, 8.96, 273.21
¯451.70, 9.08, 273.30
451.83, 9.21, 273.38
452.01, 9.34, 273.49
452.28, 9.47, 273.65
452.56, 9.61, 273.83
448.14, 7.17, 271.04
448.36, 7.17, 271.16
448.59, 7.17, 271.28
448.83, 7.17, 271.42
449.10, 7.17, 271.57
449.27, 7.21, 271.66
449.35, 7.28, 271.71
449.43, 7.36, 271.77
449.52, 7.43, 271.82
449.61, 7.50, 271.87
449.72, 7.57, 271.94
449.83, 7.65, 272.01
449.95, 7.72, 272.08
450.07, 7.80, 272.15
450.20, 7.88, 272.23
450.32, 7.96, 272.30
450.46, 8.05, 272.38
450.59, 8.14, 272.47
450.73, 8.23, 272.55
450.88, 8.32, 272.64
451.03, 8.42, 272.73
451.18, 8.52, 272.82
451.30, 8.63, 272.89
451.41, 8.74, 272.97
451.54, 8.85, 273.04
451.66, 8.97, 273.12
451.79, 9.09, 273.20
451.92, 9.22, 273.28
452.06, 9.34, 273.37
452.22, 9.48, 273.46
452.50, 9.62, 273.63
448.18, 7.17, 270.98
448.40, 7.17, 271.09
448.63, 7.17, 271.22
448.88, 7.18, 271.35
449.15, 7.18, 271.50
449.28, 7.23, 271.57
449.37, 7.30, 271.62
449.47, 7.36, 271.68
449.58, 7.43, 271.75
449.69, 7.50, 271.81
449.80, 7.57, 271.88
449.92, 7.65, 271.94
450.04, 7.72, 272.01
450.16, 7.80, 272.08
450.28, 7.88, 272.16
¯450.42, 7.96, 272.23
450.55, 8.05, 272.31
450.69, 8.14, 272.39
450.83, 8.23, 272.48
450.98, 8.32, 272.56
451.14, 8.42, 272.65
451.26, 8.53, 272.73
451.37, 8.63, 272.80
451.49, 8.75, 272.87
451.62, 8.86, 272.95
451.74, 8.98, 273.02
451.87, 9.10, 273.10
452.01, 9.22, 273.18
452.14, 9.35, 273.27
452.28, 9.49, 273.35
452.43, 9.62, 273.44
448.22, 7.18, 270.91
448.44, 7.18, 271.03
448.67, 7.18, 271.15
448.93, 7.18, 271.28
449.20, 7.18, 271.42
449.34, 7.23, 271.50
449.44, 7.29, 271.56
449.55, 7.36, 271.62
449.66, 7.43, 271.68
449.77, 7.50, 271.74
449.88, 7.57, 271.81
450.00, 7.64, 271.88
450.12, 7.72, 271.94
450.25, 7.80, 272.01
450.38, 7.88, 272.09
450.51, 7.96, 272.16
450.64, 8.05, 272.24
450.79, 8.14, 272.32
450.93, 8.23, 272.40
451.08, 8.32, 272.49
451.22, 8.42, 272.57
451.34, 8.53, 272.64
451.45, 8.64, 272.71
451.57, 8.75, 272.78
451.70, 8.87, 272.85
451.82, 8.99, 272.93
451.96, 9.11, 273.00
452.09, 9.23, 273.08
452.23, 9.36, 273.16
452.37, 9.50, 273.25
452.52, 9.63, 273.34
448.26, 7.18, 270.85
448.48, 7.18, 270.96
448.72, 7.18, 271.08
448.97, 7.18, 271.21
¯449.24, 7.19, 271.34
449.38, 7.24, 271.42
449.52, 7.29, 271.49
449.63, 7.36, 271.55
449.74, 7.42, 271.61
449.85, 7.49, 271.68
449.97, 7.57, 271.74
450.08, 7.64, 271.81
450.21, 7.72, 271.87
450.34, 7.80, 271.94
450.47, 7.88, 272.02
450.60, 7.96, 272.09
450.74, 8.05, 272.17
450.89, 8.14, 272.25
451.03, 8.23, 272.33
451.18, 8.33, 272.41
451.30, 8.43, 272.48
451.41, 8.54, 272.54
451.53, 8.65, 272.61
451.65, 8.76, 272.68
451.78, 8.87, 272.75
451.91, 8.99, 272.83
452.04, 9.11, 272.90
452.18, 9.24, 272.98
452.32, 9.37, 273.06
452.46, 9.50, 273.15
452.61, 9.64, 273.23
448.30, 7.18, 270.79
448.52, 7.18, 270.90
448.76, 7.18, 271.01
449.02, 7.18, 271.14
449.26, 7.20, 271.26
449.40, 7.25, 271.33
449.55, 7.30, 271.41
449.70, 7.35, 271.49
449.81, 7.42, 271.55
449.93, 7.49, 271.61
450.05, 7.56, 271.67
450.17, 7.64, 271.74
450.30, 7.71, 271.80
450.42, 7.79, 271.87
450.56, 7.88, 271.95
450.70, 7.96, 272.02
450.84, 8.05, 272.10
450.98, 8.14, 272.17
451.14, 8.23, 272.26
451.26, 8.33, 272.32
451.37, 8.43, 272.39
451.49, 8.54, 272.45
451.61, 8.65, 272.52
451.73, 8.76, 272.59
¯451.86, 8.88, 272.66
451.99, 9.00, 272.73
452.13, 9.12, 272.80
452.26, 9.25, 272.88
452.41, 9.38, 272.96
452.55, 9.51, 273.04
452.71, 9.65, 273.13
448.34, 7.18, 270.72
448.56, 7.18, 270.83
448.81, 7.18, 270.95
449.07, 7.18, 271.07
449.29, 7.21, 271.18
449.43, 7.26, 271.25
449.58, 7.31, 271.32
449.73, 7.36, 271.40
449.89, 7.42, 271.48
450.01, 7.49, 271.54
450.13, 7.56, 271.60
450.26, 7.64, 271.67
450.38, 7.71, 271.73
450.51, 7.79, 271.80
450.65, 7.87, 271.87
450.79, 7.96, 271.95
450.94, 8.05, 272.02
451.09, 8.14, 272.10
451.22, 8.23, 272.17
451.33, 8.33, 272.23
451.45, 8.44, 272.29
451.57, 8.55, 272.36
451.69, 8.66, 272.42
451.81, 8.77, 272.49
451.94, 8.89, 272.56
452.08, 9.01, 272.63
452.21, 9.13, 272.70
452.35, 9.26, 272.78
452.50, 9.39, 272.86
452.64, 9.52, 272.94
452.77, 9.66, 273.01
448.38, 7.19, 270.66
448.61, 7.18, 270.76
448.86, 7.18, 270.88
449.12, 7.18, 271.00
449.31, 7.21, 271.09
449.45, 7.26, 271.16
449.60, 7.32, 271.23
449.76, 7.37, 271.31
449.92, 7.43, 271.39
450.08, 7.49, 271.47
450.22, 7.56, 271.53
450.34, 7.63, 271.60
450.47, 7.71, 271.66
¯450.61, 7.79, 271.73
450.74, 7.87, 271.80
450.89, 7.96, 271.87
451.03, 8.05, 271.94
451.18, 8.14, 272.02
451.29, 8.24, 272.08
451.41, 8.34, 272.14
451.53, 8.44, 272.20
451.65, 8.55, 272.26
451.77, 8.66, 272.33
451.90, 8.78, 272.39
452.03, 8.89, 272.46
452.16, 9.01, 272.53
452.30, 9.14, 272.60
452.42, 9.26, 272.67
452.54, 9.40, 272.73
452.67, 9.53, 272.80
452.80, 9.67, 272.87
448.42, 7.19, 270.59
448.65, 7.19, 270.70
448.90, 7.18, 270.81
449.17, 7.18, 270.93
449.33, 7.22, 271.01
449.48, 7.27, 271.07
449.63, 7.33, 271.14
449.78, 7.38, 271.22
449.94, 7.44, 271.29
450.11, 7.50, 271.37
450.28, 7.56, 271.45
450.43, 7.63, 271.52
450.56, 7.71, 271.59
450.70, 7.79, 271.66
450.84, 7.87, 271.72
450.98, 7.96, 271.79
451.13, 8.04, 271.87
451.26, 8.14, 271.93
451.37, 8.24, 271.99
451.48, 8.34, 272.04
451.60, 8.45, 272.11
451.72, 8.56, 272.17
451.85, 8.67, 272.23
451.98, 8.78, 272.30
452.09, 8.90, 272.35
452.21, 9.02, 272.41
452.32, 9.15, 272.48
452.44, 9.27, 272.54
452.57, 9.40, 272.60
452.69, 9.54, 272.67
452.82, 9.68, 272.74
448.46, 7.19, 270.53
448.69, 7.19, 270.63
¯448.95, 7.19, 270.74
449.22, 7.18, 270.86
449.36, 7.23, 270.92
449.50, 7.28, 270.99
449.65, 7.34, 271.06
449.80, 7.39, 271.13
449.96, 7.45, 271.20
450.13, 7.51, 271.28
450.31, 7.57, 271.36
450.49, 7.63, 271.44
450.65, 7.70, 271.51
450.79, 7.78, 271.58
450.93, 7.87, 271.65
451.08, 7.95, 271.72
451.22, 8.05, 271.78
451.33, 8.14, 271.84
451.44, 8.24, 271.89
451.56, 8.35, 271.95
451.68, 8.45, 272.01
451.79, 8.56, 272.07
451.90, 8.68, 272.12
452.01, 8.79, 272.17
452.12, 8.91, 272.23
452.23, 9.03, 272.29
452.35, 9.15, 272.35
452.47, 9.28, 272.41
452.59, 9.41, 272.47
452.72, 9.55, 272.53
452.85, 9.68, 272.60
448.50, 7.19, 270.47
448.74, 7.19, 270.57
448.99, 7.19, 270.67
449.24, 7.19, 270.78
449.38, 7.24, 270.84
449.52, 7.29, 270.90
449.67, 7.34, 270.97
449.83, 7.40, 271.04
449.99, 7.46, 271.11
450.16, 7.51, 271.18
450.33, 7.58, 271.26
450.51, 7.64, 271.34
450.70, 7.71, 271.42
450.88, 7.78, 271.50
451.03, 7.86, 271.57
451.18, 7.95, 271.64
451.29, 8.05, 271.69
451.40, 8.15, 271.74
451.51, 8.25, 271.80
451.61, 8.35, 271.85
451.71, 8.46, 271.90
451.82, 8.57, 271.95
¯451.92, 8.69, 272.00
452.03, 8.80, 272.05
452.14, 8.92, 272.11
452.26, 9.04, 272.16
452.38, 9.16, 272.22
452.50, 9.29, 272.28
452.62, 9.42, 272.34
452.75, 9.55, 272.40
452.88, 9.69, 272.47
448.54, 7.19, 270.40
448.78, 7.19, 270.50
449.04, 7.19, 270.60
449.26, 7.20, 270.70
449.40, 7.25, 270.76
449.55, 7.30, 270.82
449.70, 7.35, 270.88
449.85, 7.41, 270.95
450.01, 7.46, 271.02
450.18, 7.52, 271.09
450.35, 7.59, 271.16
450.54, 7.65, 271.24
450.73, 7.72, 271.32
450.93, 7.79, 271.41
451.13, 7.86, 271.49
451.25, 7.95, 271.55
451.34, 8.05, 271.59
451.44, 8.16, 271.64
451.53, 8.26, 271.68
451.63, 8.36, 271.73
451.74, 8.47, 271.78
451.84, 8.58, 271.83
451.95, 8.69, 271.88
452.06, 8.81, 271.93
452.17, 8.93, 271.98
452.28, 9.05, 272.04
452.40, 9.17, 272.09
452.52, 9.30, 272.15
452.65, 9.43, 272.21
452.77, 9.56, 272.27
452.90, 9.70, 272.33
448.58, 7.19, 270.34
448.82, 7.19, 270.43
449.08, 7.19, 270.53
449.29, 7.21, 270.61
449.42, 7.26, 270.67
449.57, 7.31, 270.73
449.72, 7.36, 270.79
449.87, 7.42, 270.86
450.03, 7.47, 270.92
450.20, 7.53, 270.99
450.38, 7.59, 271.06
¯450.56, 7.66, 271.14
450.75, 7.73, 271.22
450.95, 7.80, 271.30
451.18, 7.87, 271.40
451.27, 7.96, 271.44
451.36, 8.06, 271.48
451.46, 8.16, 271.52
451.56, 8.27, 271.57
451.66, 8.37, 271.62
451.76, 8.48, 271.66
451.87, 8.59, 271.71
451.97, 8.70, 271.76
452.08, 8.82, 271.81
452.20, 8.94, 271.86
452.31, 9.06, 271.92
452.43, 9.18, 271.97
452.55, 9.31, 272.02
452.67, 9.44, 272.08
452.80, 9.57, 272.14
452.93, 9.71, 272.20
448.62, 7.19, 270.27
448.86, 7.19, 270.36
449.12, 7.19, 270.46
449.31, 7.22, 270.53
449.45, 7.27, 270.59
449.59, 7.32, 270.65
449.74, 7.37, 270.70
449.89, 7.43, 270.77
450.06, 7.48, 270.83
450.22, 7.54, 270.90
450.40, 7.60, 270.97
450.58, 7.67, 271.04
450.77, 7.74, 271.12
451.01, 7.80, 271.21
451.21, 7.88, 271.29
451.30, 7.97, 271.33
451.39, 8.07, 271.37
451.49, 8.17, 271.41
451.59, 8.28, 271.46
451.69, 8.38, 271.50
451.79, 8.49, 271.55
451.89, 8.60, 271.59
452.00, 8.71, 271.64
452.11, 8.83, 271.69
452.22, 8.94, 271.74
452.34, 9.06, 271.79
452.45, 9.19, 271.84
452.57, 9.31, 271.90
452.70, 9.44, 271.95
452.83, 9.58, 272.01
452.96, 9.71, 272.07
¯448.65, 7.19, 270.20
448.90, 7.19, 270.29
449.16, 7.19, 270.39
449.33, 7.23, 270.45
449.47, 7.28, 270.50
449.61, 7.33, 270.56
449.76, 7.38, 270.62
449.92, 7.43, 270.68
450.08, 7.49, 270.74
450.25, 7.55, 270.80
450.42, 7.61, 270.87
450.60, 7.68, 270.94
450.83, 7.74, 271.03
451.09, 7.80, 271.12
451.23, 7.88, 271.18
451.33, 7.98, 271.22
451.42, 8.08, 271.26
451.52, 8.18, 271.30
451.61, 8.28, 271.35
451.71, 8.39, 271.39
451.81, 8.50, 271.43
451.92, 8.61, 271.48
452.03, 8.72, 271.52
452.13, 8.83, 271.57
452.25, 8.95, 271.62
452.36, 9.07, 271.67
452.48, 9.19, 271.72
452.60, 9.32, 271.77
452.72, 9.45, 271.82
452.85, 9.58, 271.88
452.98, 9.72, 271.94
448.69, 7.19, 270.14
448.94, 7.19, 270.22
449.20, 7.19, 270.32
449.35, 7.23, 270.37
449.49, 7.28, 270.42
449.63, 7.33, 270.47
449.78, 7.39, 270.53
449.94, 7.44, 270.59
450.10, 7.50, 270.65
450.27, 7.56, 270.71
450.44, 7.62, 270.77
450.66, 7.68, 270.86
450.91, 7.74, 270.94
451.16, 7.80, 271.04
451.26, 7.89, 271.08
451.35, 7.99, 271.12
451.45, 8.09, 271.15
451.54, 8.19, 271.19
451.64, 8.29, 271.24
451.74, 8.40, 271.28
¯451.84, 8.51, 271.32
451.95, 8.62, 271.36
452.05, 8.73, 271.41
452.16, 8.84, 271.45
452.27, 8.96, 271.50
452.39, 9.08, 271.55
452.51, 9.20, 271.60
452.63, 9.33, 271.65
452.75, 9.46, 271.70
452.88, 9.59, 271.75
453.01, 9.73, 271.80
448.72, 7.19, 270.07
448.97, 7.19, 270.15
449.23, 7.19, 270.24
449.37, 7.24, 270.29
449.51, 7.29, 270.34
449.65, 7.34, 270.39
449.80, 7.40, 270.44
449.96, 7.45, 270.50
450.12, 7.51, 270.56
450.29, 7.57, 270.62
450.50, 7.62, 270.69
450.74, 7.68, 270.77
450.98, 7.73, 270.86
451.20, 7.80, 270.93
451.29, 7.90, 270.97
451.38, 8.00, 271.01
451.47, 8.10, 271.05
451.57, 8.20, 271.08
451.67, 8.30, 271.12
451.77, 8.41, 271.16
451.87, 8.51, 271.21
451.97, 8.62, 271.25
452.08, 8.74, 271.29
452.19, 8.85, 271.33
452.30, 8.97, 271.38
452.41, 9.09, 271.42
452.53, 9.21, 271.47
452.65, 9.34, 271.52
452.78, 9.47, 271.57
452.90, 9.60, 271.62
453.04, 9.73, 271.67
448.76, 7.19, 270.00
449.01, 7.19, 270.08
449.25, 7.20, 270.16
449.38, 7.25, 270.20
449.52, 7.30, 270.25
449.67, 7.35, 270.30
449.82, 7.40, 270.35
449.98, 7.46, 270.41
450.14, 7.52, 270.46
¯450.35, 7.57, 270.53
450.57, 7.62, 270.61
450.81, 7.67, 270.69
451.06, 7.73, 270.77
451.22, 7.81, 270.83
451.31, 7.91, 270.87
451.41, 8.01, 270.90
451.50, 8.10, 270.94
451.60, 8.21, 270.98
451.69, 8.31, 271.01
451.79, 8.41, 271.05
451.90, 8.52, 271.09
452.00, 8.63, 271.13
452.11, 8.74, 271.17
452.22, 8.86, 271.22
452.33, 8.98, 271.26
452.44, 9.10, 271.30
452.56, 9.22, 271.35
452.68, 9.34, 271.40
452.80, 9.47, 271.44
452.93, 9.61, 271.49
453.06, 9.74, 271.54
448.79, 7.19, 269.93
449.05, 7.19, 270.01
449.27, 7.21, 270.08
449.40, 7.26, 270.12
449.54, 7.31, 270.17
449.69, 7.36, 270.22
449.84, 7.41, 270.27
450.00, 7.47, 270.32
450.20, 7.51, 270.38
450.41, 7.56, 270.45
450.64, 7.62, 270.53
450.88, 7.67, 270.60
451.13, 7.73, 270.68
451.25, 7.82, 270.73
451.34, 7.92, 270.76
451.43, 8.01, 270.79
451.53, 8.11, 270.83
451.62, 8.21, 270.87
451.72, 8.32, 270.90
451.82, 8.42, 270.94
451.92, 8.53, 270.98
452.03, 8.64, 271.02
452.14, 8.75, 271.06
452.25, 8.87, 271.10
452.36, 8.98, 271.14
452.47, 9.10, 271.18
452.59, 9.23, 271.23
452.71, 9.35, 271.27
452.83, 9.48, 271.32
¯452.96, 9.61, 271.36
453.10, 9.75, 271.42
448.83, 7.19, 269.86
449.08, 7.19, 269.94
449.28, 7.22, 270.00
449.42, 7.26, 270.04
449.56, 7.31, 270.09
449.71, 7.36, 270.13
449.86, 7.42, 270.18
450.05, 7.46, 270.24
450.26, 7.51, 270.30
450.47, 7.56, 270.37
450.70, 7.61, 270.44
450.95, 7.67, 270.52
451.18, 7.73, 270.59
451.27, 7.83, 270.62
451.36, 7.92, 270.65
451.46, 8.02, 270.69
451.55, 8.12, 270.72
451.65, 8.22, 270.76
451.75, 8.32, 270.79
451.85, 8.43, 270.83
451.95, 8.54, 270.86
452.06, 8.65, 270.90
452.16, 8.76, 270.94
452.27, 8.87, 270.98
452.39, 8.99, 271.02
452.50, 9.11, 271.06
452.62, 9.23, 271.10
452.74, 9.36, 271.15
452.87, 9.49, 271.19
453.01, 9.62, 271.25
448.86, 7.19, 269.79
449.12, 7.19, 269.86
449.30, 7.22, 269.92
449.44, 7.27, 269.96
449.58, 7.32, 270.00
449.72, 7.37, 270.05
449.91, 7.42, 270.10
450.11, 7.46, 270.16
450.32, 7.51, 270.22
450.54, 7.56, 270.29
450.77, 7.61, 270.36
451.02, 7.67, 270.43
451.21, 7.74, 270.49
451.30, 7.83, 270.52
451.39, 7.93, 270.55
451.48, 8.03, 270.58
451.58, 8.13, 270.61
451.68, 8.23, 270.65
451.77, 8.33, 270.68
¯451.88, 8.44, 270.72
451.98, 8.54, 270.75
452.08, 8.65, 270.79
452.19, 8.77, 270.83
452.30, 8.88, 270.86
452.41, 9.00, 270.90
452.53, 9.12, 270.94
452.65, 9.24, 270.98
452.79, 9.37, 271.03
452.93, 9.50, 271.08
453.08, 9.63, 271.13
448.89, 7.19, 269.72
449.15, 7.19, 269.79
449.32, 7.23, 269.84
449.45, 7.28, 269.88
449.59, 7.33, 269.92
449.77, 7.37, 269.97
449.97, 7.41, 270.02
450.17, 7.46, 270.08
450.38, 7.51, 270.14
450.60, 7.56, 270.20
450.84, 7.61, 270.27
451.09, 7.67, 270.34
451.23, 7.75, 270.38
451.32, 7.84, 270.41
451.41, 7.94, 270.44
451.51, 8.03, 270.47
451.60, 8.13, 270.51
451.70, 8.24, 270.54
451.80, 8.34, 270.57
451.90, 8.44, 270.60
452.01, 8.55, 270.64
452.11, 8.66, 270.67
452.22, 8.77, 270.71
452.33, 8.89, 270.75
452.45, 9.01, 270.78
452.58, 9.13, 270.83
452.71, 9.25, 270.87
452.85, 9.37, 270.92
453.00, 9.51, 270.96
448.92, 7.20, 269.65
449.18, 7.19, 269.72
449.33, 7.23, 269.76
449.47, 7.28, 269.80
449.64, 7.32, 269.84
449.83, 7.37, 269.89
450.02, 7.41, 269.94
450.23, 7.45, 270.00
450.44, 7.50, 270.06
450.67, 7.55, 270.12
450.91, 7.61, 270.18
¯451.16, 7.66, 270.25
451.26, 7.75, 270.28
451.35, 7.85, 270.31
451.44, 7.94, 270.34
451.53, 8.04, 270.37
451.63, 8.14, 270.40
451.73, 8.24, 270.43
451.83, 8.35, 270.46
451.93, 8.45, 270.49
452.03, 8.56, 270.53
452.14, 8.67, 270.56
452.25, 8.78, 270.59
452.37, 8.89, 270.63
452.50, 9.01, 270.67
452.64, 9.13, 270.71
452.78, 9.26, 270.76
452.92, 9.38, 270.80
453.06, 9.51, 270.85
448.95, 7.20, 269.58
449.21, 7.20, 269.64
449.35, 7.24, 269.68
449.51, 7.28, 269.72
449.69, 7.32, 269.77
449.88, 7.36, 269.81
450.08, 7.41, 269.86
450.28, 7.45, 269.92
450.50, 7.50, 269.97
450.73, 7.55, 270.03
450.97, 7.60, 270.09
451.19, 7.67, 270.15
451.28, 7.76, 270.18
451.37, 7.85, 270.20
451.46, 7.95, 270.23
451.56, 8.05, 270.26
451.65, 8.15, 270.29
451.75, 8.25, 270.32
451.85, 8.35, 270.35
451.95, 8.46, 270.38
452.06, 8.57, 270.41
452.18, 8.67, 270.45
452.31, 8.79, 270.49
452.43, 8.90, 270.52
452.56, 9.02, 270.56
452.70, 9.14, 270.60
452.84, 9.26, 270.64
452.98, 9.39, 270.68
448.98, 7.20, 269.51
449.23, 7.20, 269.56
449.39, 7.24, 269.60
449.56, 7.28, 269.65
449.74, 7.32, 269.69
¯449.93, 7.36, 269.74
450.13, 7.40, 269.78
450.34, 7.45, 269.83
450.56, 7.50, 269.89
450.80, 7.55, 269.94
451.04, 7.60, 270.00
451.22, 7.67, 270.05
451.31, 7.77, 270.07
451.40, 7.86, 270.10
451.49, 7.96, 270.13
451.58, 8.05, 270.15
451.68, 8.15, 270.18
451.78, 8.26, 270.21
451.88, 8.36, 270.24
451.99, 8.46, 270.27
452.11, 8.57, 270.31
452.24, 8.68, 270.34
452.36, 8.79, 270.38
452.49, 8.91, 270.41
452.62, 9.02, 270.45
452.76, 9.15, 270.49
452.90, 9.27, 270.53
453.04, 9.40, 270.57
449.00, 7.20, 269.43
449.25, 7.20, 269.49
449.43, 7.24, 269.53
449.61, 7.27, 269.57
449.79, 7.31, 269.61
449.99, 7.35, 269.66
450.19, 7.40, 269.70
450.40, 7.44, 269.75
450.62, 7.49, 269.80
450.86, 7.54, 269.85
451.11, 7.60, 269.91
451.24, 7.68, 269.94
451.33, 7.77, 269.97
451.42, 7.87, 269.99
451.51, 7.96, 270.02
451.61, 8.06, 270.05
451.70, 8.16, 270.07
451.82, 8.26, 270.10
451.93, 8.36, 270.13
452.05, 8.47, 270.17
452.17, 8.57, 270.20
452.29, 8.68, 270.23
452.42, 8.80, 270.27
452.55, 8.91, 270.30
452.69, 9.03, 270.34
452.82, 9.15, 270.37
452.96, 9.28, 270.41
453.11, 9.41, 270.45
¯449.03, 7.20, 269.36
449.27, 7.21, 269.41
449.45, 7.24, 269.45
449.64, 7.27, 269.49
449.85, 7.31, 269.53
450.04, 7.35, 269.57
450.24, 7.39, 269.62
450.46, 7.44, 269.67
450.69, 7.49, 269.71
450.93, 7.54, 269.77
451.17, 7.59, 269.82
451.26, 7.69, 269.84
451.35, 7.78, 269.87
451.44, 7.87, 269.89
451.54, 7.97, 269.91
451.64, 8.07, 269.94
451.75, 8.16, 269.97
451.87, 8.26, 270.00
451.98, 8.37, 270.03
452.10, 8.47, 270.06
452.23, 8.58, 270.09
452.35, 8.69, 270.12
452.48, 8.80, 270.15
452.61, 8.92, 270.19
452.75, 9.04, 270.22
452.88, 9.16, 270.26
453.03, 9.28, 270.29
454.54, 9.43, 270.61
449.05, 7.20, 269.29
449.28, 7.21, 269.33
449.47, 7.25, 269.37
449.66, 7.28, 269.41
449.86, 7.31, 269.45
450.08, 7.35, 269.49
450.30, 7.39, 269.54
450.52, 7.44, 269.58
450.75, 7.48, 269.63
450.99, 7.54, 269.67
451.20, 7.60, 269.72
451.29, 7.69, 269.74
451.38, 7.78, 269.76
451.48, 7.88, 269.79
451.58, 7.97, 269.81
451.69, 8.07, 269.84
451.81, 8.17, 269.87
451.92, 8.27, 269.89
452.04, 8.37, 269.92
452.16, 8.48, 269.95
452.28, 8.58, 269.98
452.41, 8.69, 270.01
452.54, 8.81, 270.04
¯452.67, 8.92, 270.08
452.81, 9.04, 270.11
452.95, 9.17, 270.14
453.09, 9.29, 270.18
454.54, 9.44, 270.46
449.07, 7.20, 269.21
449.30, 7.22, 269.25
449.48, 7.25, 269.29
449.67, 7.28, 269.32
449.88, 7.32, 269.36
450.09, 7.36, 269.40
450.32, 7.39, 269.44
450.56, 7.44, 269.49
450.81, 7.48, 269.54
451.05, 7.53, 269.58
451.22, 7.61, 269.62
451.31, 7.70, 269.64
451.42, 7.79, 269.66
451.52, 7.88, 269.69
451.63, 7.97, 269.71
451.74, 8.07, 269.74
451.86, 8.17, 269.76
451.97, 8.27, 269.79
452.09, 8.37, 269.82
452.21, 8.48, 269.84
452.34, 8.59, 269.87
452.47, 8.70, 269.90
452.60, 8.81, 269.93
452.73, 8.93, 269.96
452.87, 9.05, 269.99
453.01, 9.17, 270.02
454.01, 9.30, 270.21
454.55, 9.45, 270.31
449.09, 7.21, 269.14
449.31, 7.22, 269.17
449.49, 7.25, 269.21
449.69, 7.29, 269.24
449.89, 7.32, 269.28
450.11, 7.36, 269.31
450.33, 7.40, 269.35
450.57, 7.44, 269.39
450.83, 7.49, 269.44
451.10, 7.53, 269.49
451.25, 7.61, 269.52
451.36, 7.70, 269.54
451.47, 7.79, 269.56
451.57, 7.88, 269.59
451.68, 7.98, 269.61
451.79, 8.07, 269.63
451.91, 8.17, 269.66
452.03, 8.27, 269.68
¯452.15, 8.38, 269.71
452.27, 8.48, 269.73
452.39, 8.59, 269.76
452.52, 8.70, 269.79
452.66, 8.82, 269.82
452.79, 8.93, 269.85
452.93, 9.06, 269.88
453.07, 9.18, 269.91
454.01, 9.31, 270.07
454.55, 9.45, 270.17
449.11, 7.21, 269.06
449.32, 7.23, 269.10
449.51, 7.26, 269.13
449.70, 7.29, 269.16
449.91, 7.33, 269.19
450.12, 7.37, 269.22
450.35, 7.41, 269.26
450.59, 7.45, 269.30
450.84, 7.49, 269.34
451.13, 7.53, 269.39
451.27, 7.61, 269.41
451.38, 7.70, 269.44
451.49, 7.79, 269.46
451.61, 7.88, 269.48
451.72, 7.98, 269.50
451.84, 8.07, 269.53
451.96, 8.17, 269.55
452.08, 8.28, 269.57
452.20, 8.38, 269.60
452.32, 8.49, 269.62
452.45, 8.60, 269.65
452.58, 8.71, 269.68
452.71, 8.82, 269.70
452.85, 8.94, 269.73
452.99, 9.06, 269.76
453.53, 9.18, 269.85
454.02, 9.32, 269.93
454.55, 9.46, 270.02
449.13, 7.21, 268.99
449.33, 7.23, 269.02
449.52, 7.26, 269.04
449.71, 7.30, 269.07
449.92, 7.33, 269.10
450.13, 7.37, 269.14
450.36, 7.41, 269.17
450.60, 7.45, 269.21
450.86, 7.50, 269.24
451.17, 7.54, 269.29
451.28, 7.62, 269.31
451.39, 7.71, 269.33
451.50, 7.80, 269.35
¯451.62, 7.89, 269.37
451.74, 7.98, 269.39
451.86, 8.08, 269.42
451.98, 8.18, 269.44
452.11, 8.28, 269.46
452.24, 8.38, 269.49
452.37, 8.49, 269.51
452.51, 8.60, 269.54
452.64, 8.71, 269.56
452.77, 8.83, 269.59
452.91, 8.95, 269.61
453.06, 9.07, 269.64
453.54, 9.19, 269.71
454.02, 9.32, 269.79
454.56, 9.47, 269.87
449.14, 7.21, 268.91
449.34, 7.24, 268.94
449.53, 7.27, 268.96
449.73, 7.30, 268.99
449.93, 7.34, 269.02
450.15, 7.38, 269.05
450.37, 7.42, 269.08
450.62, 7.46, 269.11
450.89, 7.50, 269.15
451.18, 7.54, 269.19
451.29, 7.63, 269.21
451.40, 7.71, 269.23
451.52, 7.80, 269.25
451.63, 7.90, 269.27
451.75, 7.99, 269.29
451.87, 8.09, 269.31
452.00, 8.19, 269.33
452.12, 8.29, 269.35
452.25, 8.39, 269.37
452.39, 8.50, 269.40
452.52, 8.61, 269.42
452.67, 8.72, 269.44
452.81, 8.83, 269.47
452.96, 8.95, 269.49
453.11, 9.07, 269.52
453.54, 9.20, 269.58
454.03, 9.33, 269.65
454.56, 9.48, 269.73
449.16, 7.22, 268.83
449.36, 7.24, 268.86
449.54, 7.27, 268.88
449.74, 7.31, 268.91
449.94, 7.34, 268.93
450.16, 7.38, 268.96
450.39, 7.42, 268.99
450.63, 7.46, 269.02
¯450.92, 7.50, 269.05
451.20, 7.55, 269.09
451.30, 7.63, 269.10
451.42, 7.72, 269.12
451.53, 7.81, 269.14
451.64, 7.90, 269.16
451.76, 8.00, 269.18
451.88, 8.09, 269.20
452.01, 8.19, 269.22
452.14, 8.29, 269.24
452.27, 8.40, 269.26
452.40, 8.50, 269.28
452.54, 8.61, 269.30
452.68, 8.72, 269.32
452.83, 8.84, 269.35
452.98, 8.96, 269.37
453.16, 9.08, 269.40
453.58, 9.20, 269.45
454.04, 9.34, 269.51
454.56, 9.49, 269.58
449.17, 7.22, 268.76
449.37, 7.24, 268.78
449.55, 7.28, 268.80
449.75, 7.31, 268.82
449.95, 7.35, 268.84
450.17, 7.38, 268.87
450.40, 7.42, 268.89
450.66, 7.46, 268.92
450.96, 7.50, 268.96
451.21, 7.55, 268.98
451.32, 7.64, 269.00
451.43, 7.73, 269.02
451.54, 7.82, 269.03
451.66, 7.91, 269.05
451.78, 8.00, 269.07
451.90, 8.10, 269.09
452.02, 8.20, 269.10
452.15, 8.30, 269.12
452.28, 8.40, 269.14
452.41, 8.51, 269.16
452.55, 8.62, 269.18
452.69, 8.73, 269.20
452.84, 8.85, 269.22
453.00, 8.96, 269.25
453.22, 9.09, 269.28
453.65, 9.21, 269.33
454.11, 9.35, 269.38
454.62, 9.49, 269.44
449.19, 7.22, 268.68
449.37, 7.25, 268.70
449.56, 7.28, 268.72
¯449.76, 7.31, 268.74
449.96, 7.35, 268.76
450.18, 7.39, 268.78
450.41, 7.43, 268.80
450.69, 7.46, 268.83
450.99, 7.50, 268.86
451.22, 7.56, 268.88
451.33, 7.64, 268.90
451.44, 7.73, 268.91
451.55, 7.82, 268.93
451.67, 7.91, 268.94
451.79, 8.01, 268.96
451.91, 8.10, 268.97
452.03, 8.20, 268.99
452.16, 8.30, 269.01
452.29, 8.41, 269.03
452.43, 8.52, 269.04
452.57, 8.62, 269.06
452.71, 8.74, 269.08
452.87, 8.85, 269.10
453.03, 8.97, 269.12
453.28, 9.09, 269.15
453.72, 9.22, 269.20
454.18, 9.35, 269.25
454.69, 9.50, 269.30
449.20, 7.22, 268.60
449.38, 7.25, 268.62
449.57, 7.28, 268.64
449.77, 7.32, 268.65
449.97, 7.35, 268.67
450.19, 7.39, 268.69
450.43, 7.43, 268.71
450.72, 7.46, 268.74
451.02, 7.50, 268.76
451.23, 7.56, 268.78
451.34, 7.65, 268.79
451.45, 7.74, 268.81
451.56, 7.83, 268.82
451.68, 7.92, 268.84
451.80, 8.01, 268.85
451.92, 8.11, 268.86
452.05, 8.21, 268.88
452.18, 8.31, 268.89
452.31, 8.41, 268.91
452.44, 8.52, 268.93
452.58, 8.63, 268.94
452.73, 8.74, 268.96
452.89, 8.86, 268.98
453.05, 8.98, 269.00
453.35, 9.10, 269.03
453.78, 9.22, 269.07
¯454.26, 9.36, 269.11
454.77, 9.51, 269.16
449.21, 7.22, 268.53
449.39, 7.25, 268.54
449.58, 7.29, 268.55
449.77, 7.32, 268.57
449.98, 7.36, 268.58
450.20, 7.40, 268.60
450.46, 7.43, 268.62
450.75, 7.46, 268.64
451.06, 7.50, 268.66
451.24, 7.57, 268.68
451.35, 7.65, 268.69
451.46, 7.74, 268.70
451.58, 7.83, 268.71
451.69, 7.92, 268.73
451.81, 8.02, 268.74
451.93, 8.12, 268.75
452.06, 8.21, 268.77
452.19, 8.32, 268.78
452.32, 8.42, 268.80
452.46, 8.53, 268.81
452.61, 8.64, 268.83
452.76, 8.75, 268.84
452.91, 8.86, 268.86
453.07, 8.98, 268.87
453.41, 9.10, 268.90
453.85, 9.23, 268.94
454.33, 9.37, 268.98
454.84, 9.52, 269.02
449.22, 7.23, 268.45
449.40, 7.26, 268.46
449.59, 7.29, 268.47
449.78, 7.33, 268.48
449.99, 7.36, 268.50
450.22, 7.40, 268.51
450.49, 7.43, 268.53
450.78, 7.46, 268.55
451.09, 7.50, 268.56
451.25, 7.57, 268.58
451.36, 7.66, 268.59
451.47, 7.75, 268.60
451.59, 7.84, 268.61
451.70, 7.93, 268.62
451.82, 8.02, 268.63
451.95, 8.12, 268.64
452.07, 8.22, 268.65
452.20, 8.32, 268.67
452.34, 8.43, 268.68
452.48, 8.53, 268.69
452.63, 8.64, 268.71
¯452.78, 8.75, 268.72
452.94, 8.87, 268.73
453.10, 8.99, 268.75
453.47, 9.11, 268.78
453.92, 9.24, 268.81
454.40, 9.38, 268.84
454.92, 9.53, 268.88
449.23, 7.23, 268.37
449.40, 7.26, 268.38
449.59, 7.30, 268.39
449.79, 7.33, 268.40
450.00, 7.37, 268.41
450.24, 7.40, 268.42
450.51, 7.43, 268.44
450.81, 7.46, 268.45
451.12, 7.50, 268.46
451.26, 7.58, 268.47
451.37, 7.66, 268.48
451.48, 7.75, 268.49
451.60, 7.84, 268.50
451.72, 7.93, 268.51
451.84, 8.03, 268.52
451.96, 8.13, 268.53
452.08, 8.23, 268.54
452.22, 8.33, 268.55
452.36, 8.43, 268.56
452.50, 8.54, 268.58
452.65, 8.65, 268.59
452.80, 8.76, 268.60
452.96, 8.88, 268.61
453.12, 9.00, 268.62
453.54, 9.12, 268.65
453.99, 9.24, 268.67
454.47, 9.39, 268.70
454.99, 9.54, 268.73
449.23, 7.23, 268.29
449.41, 7.27, 268.30
449.60, 7.30, 268.31
449.80, 7.33, 268.32
450.01, 7.37, 268.32
450.27, 7.40, 268.33
450.54, 7.43, 268.34
450.83, 7.46, 268.35
451.15, 7.50, 268.36
451.27, 7.58, 268.37
451.38, 7.67, 268.38
451.49, 7.76, 268.39
451.61, 7.85, 268.39
451.73, 7.94, 268.40
451.85, 8.03, 268.41
451.97, 8.13, 268.42
¯452.10, 8.23, 268.43
452.24, 8.33, 268.44
452.38, 8.44, 268.45
452.52, 8.54, 268.46
452.67, 8.65, 268.47
452.83, 8.77, 268.48
452.98, 8.88, 268.49
453.18, 9.00, 268.50
453.60, 9.12, 268.52
454.06, 9.25, 268.54
454.54, 9.39, 268.56
455.06, 9.55, 268.58
449.24, 7.24, 268.22
449.41, 7.27, 268.22
449.60, 7.30, 268.23
449.80, 7.34, 268.23
450.03, 7.37, 268.24
450.29, 7.40, 268.24
450.57, 7.43, 268.25
450.86, 7.46, 268.26
451.17, 7.50, 268.26
451.28, 7.58, 268.27
451.39, 7.67, 268.27
451.50, 7.76, 268.28
451.62, 7.85, 268.29
451.74, 7.94, 268.29
451.86, 8.04, 268.30
451.99, 8.13, 268.31
452.12, 8.23, 268.32
452.26, 8.34, 268.32
452.40, 8.44, 268.33
452.55, 8.55, 268.34
452.69, 8.66, 268.35
452.85, 8.77, 268.36
453.01, 8.89, 268.36
453.24, 9.01, 268.37
453.66, 9.13, 268.39
454.12, 9.26, 268.40
454.61, 9.40, 268.42
449.24, 7.24, 268.14
449.42, 7.27, 268.14
449.61, 7.30, 268.14
449.81, 7.34, 268.15
450.05, 7.37, 268.15
450.31, 7.40, 268.15
450.59, 7.43, 268.15
450.89, 7.46, 268.16
451.18, 7.50, 268.16
451.29, 7.59, 268.17
451.40, 7.67, 268.17
451.51, 7.76, 268.18
¯451.63, 7.85, 268.18
451.75, 7.95, 268.19
451.87, 8.04, 268.19
452.00, 8.14, 268.20
452.14, 8.24, 268.20
452.28, 8.34, 268.21
452.42, 8.44, 268.21
452.57, 8.55, 268.22
452.72, 8.66, 268.23
452.87, 8.78, 268.23
453.03, 8.89, 268.24
453.30, 9.01, 268.25
453.73, 9.13, 268.25
454.19, 9.27, 268.26
454.68, 9.41, 268.27
449.24, 7.24, 268.06
449.42, 7.27, 268.06
449.61, 7.31, 268.06
449.83, 7.34, 268.06
450.07, 7.37, 268.06
450.33, 7.40, 268.06
450.61, 7.43, 268.06
450.91, 7.46, 268.06
451.19, 7.50, 268.06
451.30, 7.59, 268.06
451.41, 7.68, 268.07
451.52, 7.77, 268.07
451.64, 7.86, 268.07
451.76, 7.95, 268.08
451.89, 8.04, 268.08
452.02, 8.14, 268.08
452.16, 8.24, 268.09
452.30, 8.34, 268.09
452.44, 8.45, 268.10
452.59, 8.56, 268.10
452.74, 8.67, 268.11
452.89, 8.78, 268.11
453.05, 8.90, 268.11
453.36, 9.02, 268.12
453.79, 9.14, 268.12
454.25, 9.27, 268.12
454.75, 9.42, 268.13
449.25, 7.24, 267.98
449.43, 7.28, 267.98
449.61, 7.31, 267.98
449.85, 7.34, 267.98
450.09, 7.36, 267.97
450.36, 7.39, 267.97
450.64, 7.43, 267.96
450.94, 7.46, 267.96
451.20, 7.51, 267.96
¯451.31, 7.59, 267.96
451.42, 7.68, 267.96
451.53, 7.77, 267.96
451.65, 7.86, 267.97
451.78, 7.95, 267.97
451.91, 8.05, 267.97
452.04, 8.14, 267.97
452.18, 8.24, 267.97
452.32, 8.35, 267.98
452.46, 8.45, 267.98
452.61, 8.56, 267.98
452.76, 8.67, 267.98
452.92, 8.79, 267.99
453.08, 8.90, 267.99
453.42, 9.02, 267.99
453.85, 9.14, 267.99
454.31, 9.28, 267.98
454.82, 9.43, 267.98
449.25, 7.25, 267.90
449.43, 7.28, 267.90
449.63, 7.31, 267.90
449.86, 7.34, 267.89
450.11, 7.36, 267.88
450.38, 7.39, 267.88
450.66, 7.42, 267.87
450.96, 7.46, 267.86
451.21, 7.51, 267.85
451.32, 7.60, 267.86
451.43, 7.68, 267.86
451.55, 7.77, 267.86
451.67, 7.86, 267.86
451.80, 7.96, 267.86
451.93, 8.05, 267.86
452.06, 8.15, 267.86
452.20, 8.25, 267.86
452.34, 8.35, 267.86
452.48, 8.46, 267.86
452.63, 8.56, 267.86
452.78, 8.68, 267.86
452.94, 8.79, 267.86
453.10, 8.91, 267.86
453.48, 9.03, 267.86
453.91, 9.15, 267.85
454.38, 9.29, 267.84
454.89, 9.43, 267.83
449.25, 7.25, 267.83
449.43, 7.28, 267.82
449.65, 7.31, 267.81
449.88, 7.33, 267.80
450.13, 7.36, 267.79
450.40, 7.39, 267.78
¯450.68, 7.42, 267.77
450.98, 7.46, 267.76
451.22, 7.51, 267.75
451.33, 7.60, 267.75
451.44, 7.69, 267.75
451.56, 7.77, 267.75
451.69, 7.86, 267.75
451.82, 7.96, 267.75
451.95, 8.05, 267.75
452.08, 8.15, 267.74
452.22, 8.25, 267.74
452.36, 8.35, 267.74
452.50, 8.46, 267.74
452.65, 8.57, 267.74
452.80, 8.68, 267.74
452.96, 8.79, 267.74
453.12, 8.91, 267.74
453.53, 9.03, 267.72
453.97, 9.16, 267.71
454.45, 9.29, 267.70
454.96, 9.44, 267.68
449.25, 7.25, 267.75
449.44, 7.28, 267.74
449.66, 7.31, 267.73
449.90, 7.33, 267.72
450.15, 7.36, 267.70
450.41, 7.39, 267.69
450.70, 7.42, 267.67
451.01, 7.46, 267.66
451.22, 7.52, 267.65
451.34, 7.60, 267.65
451.46, 7.69, 267.64
451.58, 7.78, 267.64
451.70, 7.87, 267.64
451.83, 7.96, 267.64
451.96, 8.05, 267.63
452.10, 8.15, 267.63
452.24, 8.25, 267.63
452.38, 8.36, 267.62
452.52, 8.46, 267.62
452.67, 8.57, 267.62
452.83, 8.68, 267.61
452.98, 8.80, 267.61
453.18, 8.92, 267.61
453.59, 9.04, 267.59
454.04, 9.16, 267.57
454.54, 9.30, 267.55
455.05, 9.45, 267.53
449.25, 7.25, 267.67
449.45, 7.28, 267.66
449.67, 7.31, 267.64
¯449.91, 7.33, 267.63
450.16, 7.36, 267.61
450.43, 7.39, 267.59
450.72, 7.42, 267.58
451.02, 7.45, 267.56
451.24, 7.52, 267.55
451.35, 7.60, 267.54
451.47, 7.69, 267.54
451.59, 7.78, 267.53
451.72, 7.87, 267.53
451.85, 7.96, 267.52
451.98, 8.06, 267.52
452.11, 8.16, 267.52
452.25, 8.26, 267.51
452.39, 8.36, 267.51
452.54, 8.47, 267.50
452.69, 8.58, 267.50
452.84, 8.69, 267.49
453.00, 8.80, 267.48
453.31, 8.92, 267.47
453.74, 9.04, 267.44
454.21, 9.17, 267.42
454.73, 9.31, 267.39
438.08, 7.12, 270.22
437.90, 7.12, 270.29
437.72, 7.11, 270.37
437.52, 7.11, 270.46
437.32, 7.10, 270.55
437.10, 7.10, 270.64
436.86, 7.10, 270.75
436.60, 7.09, 270.86
436.32, 7.08, 270.99
436.01, 7.07, 271.12
435.66, 7.06, 271.27
435.31, 7.06, 271.43
434.93, 7.05, 271.59
434.52, 7.05, 271.77
434.07, 7.05, 271.97
433.66, 7.07, 272.15
433.17, 7.08, 272.36
432.59, 7.09, 272.62
431.84, 7.08, 272.94
430.99, 7.07, 273.32
430.16, 7.08, 273.68
427.74, 6.86, 274.73
427.51, 7.03, 274.84
427.51, 7.24, 274.84
427.51, 7.44, 274.85
427.51, 7.65, 274.86
427.51, 7.85, 274.86
427.51, 8.06, 274.87
¯427.51, 8.26, 274.88
427.51, 8.46, 274.88
427.51, 8.67, 274.89
438.10, 7.12, 270.28
437.93, 7.11, 270.35
437.75, 7.11, 270.44
437.55, 7.10, 270.52
437.35, 7.10, 270.62
437.13, 7.10, 270.72
436.90, 7.09, 270.82
436.63, 7.09, 270.94
436.35, 7.08, 271.07
436.04, 7.07, 271.21
435.70, 7.06, 271.36
435.34, 7.05, 271.52
434.97, 7.05, 271.69
434.56, 7.05, 271.87
434.12, 7.05, 272.07
433.72, 7.07, 272.26
433.23, 7.08, 272.48
432.66, 7.09, 272.74
431.91, 7.08, 273.07
431.08, 7.07, 273.45
430.29, 7.09, 273.81
427.91, 6.87, 274.88
427.51, 7.01, 275.06
427.51, 7.22, 275.07
427.51, 7.43, 275.07
427.51, 7.63, 275.08
427.51, 7.84, 275.09
427.51, 8.04, 275.09
427.51, 8.25, 275.10
427.51, 8.45, 275.11
427.51, 8.66, 275.11
438.13, 7.12, 270.34
437.96, 7.11, 270.41
437.78, 7.11, 270.50
437.58, 7.10, 270.59
437.38, 7.10, 270.68
437.16, 7.09, 270.79
436.93, 7.09, 270.89
436.67, 7.08, 271.02
436.38, 7.07, 271.15
436.07, 7.06, 271.29
435.74, 7.05, 271.45
435.39, 7.05, 271.61
435.02, 7.05, 271.79
434.61, 7.04, 271.97
434.18, 7.05, 272.18
433.77, 7.07, 272.37
433.30, 7.08, 272.59
¯432.73, 7.09, 272.86
431.98, 7.08, 273.20
431.21, 7.08, 273.56
430.43, 7.10, 273.93
428.08, 6.88, 275.02
427.51, 6.99, 275.29
427.51, 7.20, 275.29
427.51, 7.41, 275.30
427.51, 7.62, 275.31
427.51, 7.82, 275.31
427.51, 8.03, 275.32
427.51, 8.24, 275.33
427.51, 8.44, 275.33
427.51, 8.65, 275.34
438.16, 7.12, 270.39
437.99, 7.11, 270.47
437.81, 7.11, 270.56
437.61, 7.10, 270.65
437.41, 7.10, 270.75
437.19, 7.09, 270.86
436.96, 7.09, 270.97
436.70, 7.08, 271.09
436.42, 7.07, 271.23
436.11, 7.06, 271.38
435.78, 7.05, 271.54
435.43, 7.04, 271.70
435.06, 7.04, 271.88
434.66, 7.04, 272.08
434.23, 7.05, 272.28
433.83, 7.07, 272.47
433.37, 7.08, 272.70
432.79, 7.09, 272.97
432.06, 7.07, 273.33
431.33, 7.08, 273.68
430.56, 7.10, 274.05
428.25, 6.89, 275.16
427.51, 6.97, 275.52
427.51, 7.18, 275.52
427.51, 7.39, 275.53
427.51, 7.60, 275.54
427.51, 7.81, 275.54
427.51, 8.02, 275.55
427.51, 8.23, 275.55
427.51, 8.43, 275.56
427.51, 8.64, 275.57
438.18, 7.11, 270.45
438.01, 7.11, 270.53
437.83, 7.10, 270.62
437.64, 7.10, 270.72
437.44, 7.09, 270.82
437.22, 7.09, 270.93
¯436.99, 7.08, 271.04
436.73, 7.08, 271.17
436.45, 7.07, 271.31
436.15, 7.06, 271.46
435.82, 7.05, 271.62
435.47, 7.04, 271.80
435.11, 7.04, 271.98
434.70, 7.04, 272.18
434.29, 7.04, 272.38
433.89, 7.06, 272.58
433.44, 7.08, 272.81
432.86, 7.09, 273.09
432.12, 7.07, 273.46
431.45, 7.09, 273.79
430.70, 7.11, 274.17
428.41, 6.89, 275.30
427.51, 6.95, 275.75
427.51, 7.16, 275.75
427.51, 7.38, 275.76
427.51, 7.59, 275.77
427.51, 7.80, 275.77
427.51, 8.00, 275.78
427.51, 8.21, 275.79
427.51, 8.42, 275.79
427.51, 8.63, 275.80
438.21, 7.11, 270.51
438.04, 7.11, 270.59
437.86, 7.10, 270.68
437.67, 7.10, 270.78
437.47, 7.09, 270.89
437.26, 7.09, 270.99
437.03, 7.08, 271.11
436.77, 7.07, 271.24
436.49, 7.06, 271.39
436.19, 7.05, 271.54
435.87, 7.05, 271.71
435.51, 7.04, 271.89
435.15, 7.04, 272.07
434.75, 7.04, 272.28
434.35, 7.04, 272.48
433.95, 7.06, 272.69
433.51, 7.08, 272.91
432.93, 7.08, 273.21
432.15, 7.06, 273.61
431.57, 7.09, 273.91
430.83, 7.12, 274.29
428.61, 6.91, 275.42
427.51, 6.93, 275.98
427.51, 7.15, 275.99
427.51, 7.36, 276.00
427.51, 7.57, 276.00
¯427.51, 7.78, 276.01
427.51, 7.99, 276.01
427.51, 8.20, 276.02
427.51, 8.41, 276.02
427.51, 8.62, 276.03
438.24, 7.11, 270.56
438.07, 7.10, 270.65
437.90, 7.10, 270.75
437.71, 7.09, 270.84
437.50, 7.09, 270.95
437.29, 7.08, 271.06
437.06, 7.08, 271.19
436.80, 7.07, 271.32
436.53, 7.06, 271.47
436.23, 7.05, 271.62
435.91, 7.04, 271.79
435.56, 7.04, 271.98
435.20, 7.03, 272.17
434.80, 7.03, 272.38
434.41, 7.04, 272.58
434.01, 7.06, 272.79
433.58, 7.08, 273.02
433.00, 7.08, 273.33
432.17, 7.05, 273.76
431.67, 7.10, 274.03
430.96, 7.12, 274.40
428.85, 6.93, 275.51
427.51, 6.91, 276.22
427.51, 7.13, 276.23
427.51, 7.34, 276.23
427.51, 7.55, 276.24
427.51, 7.77, 276.24
427.51, 7.98, 276.25
427.51, 8.19, 276.26
427.51, 8.40, 276.26
427.51, 8.61, 276.27
438.27, 7.11, 270.62
438.10, 7.10, 270.71
437.93, 7.10, 270.81
437.74, 7.09, 270.91
437.54, 7.09, 271.02
437.33, 7.08, 271.13
437.09, 7.08, 271.26
436.84, 7.07, 271.40
436.57, 7.06, 271.54
436.28, 7.05, 271.70
435.96, 7.04, 271.87
435.61, 7.03, 272.06
435.25, 7.03, 272.26
434.85, 7.03, 272.47
434.46, 7.04, 272.69
¯434.07, 7.06, 272.90
433.65, 7.08, 273.13
433.07, 7.08, 273.44
432.20, 7.03, 273.91
431.75, 7.09, 274.16
431.10, 7.13, 274.52
429.09, 6.95, 275.60
427.51, 6.89, 276.46
427.51, 7.11, 276.47
427.51, 7.32, 276.47
427.51, 7.54, 276.48
427.51, 7.75, 276.48
427.51, 7.96, 276.49
427.51, 8.18, 276.50
427.51, 8.39, 276.50
427.51, 8.60, 276.51
438.30, 7.11, 270.68
438.13, 7.10, 270.77
437.96, 7.10, 270.87
437.77, 7.09, 270.97
437.57, 7.08, 271.08
437.36, 7.08, 271.20
437.13, 7.07, 271.33
436.88, 7.06, 271.47
436.61, 7.06, 271.62
436.32, 7.05, 271.78
436.00, 7.04, 271.96
435.66, 7.03, 272.15
435.30, 7.03, 272.35
434.90, 7.03, 272.57
434.52, 7.04, 272.79
434.14, 7.06, 273.00
433.71, 7.08, 273.24
433.10, 7.07, 273.58
432.25, 7.02, 274.06
