ŸVERSION 0.7
FIELDS x y z
SIZE 8 8 8
TYPE F F F
COUNT 1 1 1
WIDTH 2271
HEIGHT 1
VIEWPOINT 391.11, 13.99, 251.05 1 409.88, 9.29, 243.94
POINTS 2271
DATA ascii
422.29, 8.22, 237.47
422.72, 8.40, 237.22
423.01, 8.60, 237.04
423.30, 8.80, 236.87
423.60, 9.02, 236.69
412.50, 7.46, 243.20
412.67, 7.46, 243.10
412.85, 7.47, 242.98
413.41, 7.35, 242.65
413.65, 7.35, 242.50
413.90, 7.36, 242.35
414.17, 7.37, 242.19
414.45, 7.38, 242.01
414.76, 7.39, 241.83
415.10, 7.40, 241.62
415.48, 7.41, 241.39
415.91, 7.42, 241.13
416.40, 7.43, 240.83
416.94, 7.44, 240.50
417.55, 7.46, 240.13
418.22, 7.48, 239.72
418.99, 7.51, 239.26
419.95, 7.53, 238.67
420.65, 7.61, 238.24
421.40, 7.70, 237.78
421.58, 7.88, 237.67
421.76, 8.06, 237.56
422.02, 8.24, 237.40
422.43, 8.41, 237.15
422.76, 8.60, 236.95
423.05, 8.81, 236.77
423.34, 9.02, 236.59
423.65, 9.24, 236.40
412.47, 7.46, 243.14
412.64, 7.46, 243.04
413.16, 7.34, 242.71
413.38, 7.35, 242.58
413.61, 7.35, 242.43
413.86, 7.36, 242.28
414.12, 7.36, 242.11
414.41, 7.37, 241.93
414.71, 7.39, 241.74
415.05, 7.40, 241.53
415.43, 7.41, 241.30
415.86, 7.42, 241.03
¯416.34, 7.43, 240.73
416.88, 7.44, 240.39
417.49, 7.46, 240.01
418.14, 7.48, 239.60
418.90, 7.51, 239.12
419.86, 7.52, 238.52
420.60, 7.60, 238.06
421.28, 7.70, 237.63
421.45, 7.88, 237.52
421.63, 8.06, 237.41
421.81, 8.24, 237.29
422.14, 8.42, 237.09
422.52, 8.61, 236.85
422.80, 8.81, 236.67
423.08, 9.02, 236.49
423.39, 9.23, 236.30
412.43, 7.46, 243.09
412.60, 7.46, 242.98
413.12, 7.34, 242.65
413.34, 7.34, 242.51
413.57, 7.35, 242.36
413.81, 7.35, 242.20
414.08, 7.36, 242.03
414.36, 7.37, 241.85
414.66, 7.38, 241.66
415.00, 7.40, 241.44
415.37, 7.41, 241.20
415.80, 7.42, 240.93
416.28, 7.43, 240.62
416.82, 7.44, 240.27
417.42, 7.46, 239.89
418.06, 7.48, 239.48
418.82, 7.51, 238.99
419.77, 7.52, 238.38
420.55, 7.59, 237.88
421.16, 7.70, 237.48
421.33, 7.88, 237.37
421.51, 8.06, 237.26
421.69, 8.24, 237.14
421.87, 8.43, 237.02
422.27, 8.61, 236.76
422.55, 8.81, 236.58
422.83, 9.02, 236.40
423.17, 9.23, 236.17
423.61, 9.46, 235.89
412.40, 7.46, 243.03
412.57, 7.46, 242.92
413.09, 7.34, 242.58
413.30, 7.34, 242.44
413.53, 7.35, 242.29
413.77, 7.35, 242.13
¯414.03, 7.36, 241.96
414.31, 7.37, 241.78
414.61, 7.38, 241.58
414.94, 7.39, 241.36
415.32, 7.40, 241.11
415.75, 7.41, 240.83
416.22, 7.42, 240.51
416.75, 7.44, 240.16
417.35, 7.45, 239.77
417.98, 7.48, 239.36
418.73, 7.50, 238.86
419.68, 7.52, 238.23
420.49, 7.58, 237.70
421.04, 7.70, 237.34
421.21, 7.88, 237.22
421.38, 8.06, 237.10
421.56, 8.24, 236.99
421.74, 8.43, 236.86
421.99, 8.62, 236.70
422.31, 8.81, 236.48
422.59, 9.02, 236.30
422.95, 9.23, 236.05
423.35, 9.45, 235.79
412.37, 7.45, 242.98
412.85, 7.33, 242.65
413.05, 7.34, 242.52
413.26, 7.34, 242.38
413.48, 7.35, 242.23
413.72, 7.35, 242.06
413.99, 7.36, 241.89
414.26, 7.37, 241.70
414.56, 7.38, 241.49
414.89, 7.39, 241.27
415.27, 7.40, 241.02
415.69, 7.41, 240.73
416.16, 7.42, 240.41
416.69, 7.44, 240.06
417.27, 7.45, 239.66
417.90, 7.48, 239.23
418.65, 7.50, 238.73
419.60, 7.52, 238.08
420.44, 7.58, 237.52
420.92, 7.70, 237.19
421.08, 7.88, 237.07
421.26, 8.06, 236.95
421.43, 8.24, 236.83
421.61, 8.43, 236.71
421.80, 8.62, 236.58
422.07, 8.81, 236.39
422.38, 9.02, 236.18
422.74, 9.23, 235.93
¯423.12, 9.45, 235.68
423.71, 9.69, 235.27
412.33, 7.45, 242.93
412.81, 7.33, 242.59
413.01, 7.33, 242.46
413.22, 7.34, 242.31
413.44, 7.34, 242.16
413.68, 7.35, 241.99
413.94, 7.36, 241.81
414.21, 7.37, 241.62
414.51, 7.38, 241.41
414.84, 7.39, 241.19
415.21, 7.40, 240.93
415.63, 7.41, 240.63
416.10, 7.42, 240.31
416.62, 7.43, 239.95
417.20, 7.45, 239.54
417.82, 7.48, 239.11
418.56, 7.50, 238.60
419.51, 7.52, 237.94
420.38, 7.57, 237.33
420.80, 7.70, 237.04
420.96, 7.88, 236.92
421.13, 8.06, 236.80
421.31, 8.24, 236.68
421.48, 8.43, 236.55
421.67, 8.62, 236.42
421.86, 8.82, 236.28
422.18, 9.02, 236.06
422.53, 9.23, 235.82
422.90, 9.45, 235.56
423.45, 9.68, 235.17
412.30, 7.45, 242.87
412.78, 7.33, 242.53
412.97, 7.33, 242.40
413.17, 7.34, 242.25
413.39, 7.34, 242.09
413.63, 7.35, 241.92
413.89, 7.36, 241.74
414.16, 7.37, 241.54
414.46, 7.38, 241.33
414.78, 7.39, 241.10
415.15, 7.40, 240.83
415.57, 7.41, 240.54
416.04, 7.42, 240.21
416.55, 7.43, 239.84
417.12, 7.45, 239.43
417.74, 7.47, 238.99
418.47, 7.50, 238.47
419.42, 7.51, 237.79
420.32, 7.56, 237.15
¯420.68, 7.70, 236.89
420.84, 7.88, 236.77
421.01, 8.05, 236.65
421.18, 8.24, 236.53
421.36, 8.42, 236.40
421.57, 8.62, 236.25
421.77, 8.81, 236.10
421.98, 9.02, 235.94
422.32, 9.22, 235.70
422.68, 9.44, 235.44
423.19, 9.68, 235.07
423.82, 9.93, 234.62
412.56, 7.32, 242.60
412.74, 7.33, 242.47
412.93, 7.33, 242.33
413.13, 7.34, 242.18
413.35, 7.34, 242.02
413.58, 7.35, 241.85
413.84, 7.35, 241.67
414.11, 7.36, 241.46
414.41, 7.37, 241.25
414.73, 7.39, 241.01
415.10, 7.40, 240.74
415.51, 7.40, 240.44
415.97, 7.41, 240.11
416.47, 7.43, 239.73
417.05, 7.45, 239.32
417.65, 7.47, 238.87
418.38, 7.50, 238.34
419.32, 7.51, 237.65
420.26, 7.55, 236.96
420.55, 7.70, 236.75
420.72, 7.88, 236.62
420.88, 8.05, 236.50
421.05, 8.24, 236.37
421.27, 8.42, 236.21
421.50, 8.61, 236.04
421.67, 8.81, 235.91
421.83, 9.01, 235.79
422.11, 9.22, 235.58
422.47, 9.44, 235.32
422.93, 9.67, 234.98
423.55, 9.92, 234.52
412.52, 7.32, 242.55
412.70, 7.32, 242.41
412.88, 7.33, 242.27
413.09, 7.33, 242.12
413.30, 7.34, 241.96
413.53, 7.35, 241.78
413.79, 7.35, 241.59
414.06, 7.36, 241.39
¯414.35, 7.37, 241.17
414.67, 7.38, 240.93
415.04, 7.39, 240.65
415.45, 7.40, 240.35
415.90, 7.41, 240.01
416.40, 7.43, 239.63
416.97, 7.44, 239.20
417.57, 7.47, 238.75
418.29, 7.49, 238.21
419.23, 7.51, 237.50
420.19, 7.54, 236.78
420.43, 7.70, 236.60
420.59, 7.87, 236.48
420.76, 8.05, 236.35
420.97, 8.23, 236.19
421.20, 8.41, 236.01
421.43, 8.61, 235.84
421.58, 8.81, 235.72
421.73, 9.01, 235.60
421.91, 9.22, 235.47
422.25, 9.44, 235.21
422.68, 9.67, 234.89
423.28, 9.92, 234.43
412.48, 7.32, 242.49
412.65, 7.32, 242.36
412.84, 7.33, 242.21
413.04, 7.33, 242.06
413.25, 7.34, 241.89
413.48, 7.35, 241.72
413.73, 7.35, 241.52
414.01, 7.36, 241.31
414.30, 7.37, 241.09
414.61, 7.38, 240.85
414.98, 7.39, 240.57
415.39, 7.40, 240.25
415.83, 7.41, 239.91
416.33, 7.42, 239.53
416.89, 7.44, 239.09
417.48, 7.47, 238.63
418.20, 7.49, 238.08
419.13, 7.50, 237.36
420.13, 7.53, 236.60
420.31, 7.70, 236.45
420.47, 7.87, 236.33
420.69, 8.05, 236.16
420.91, 8.22, 235.98
421.14, 8.41, 235.80
421.33, 8.60, 235.65
421.48, 8.80, 235.53
421.64, 9.01, 235.41
421.79, 9.22, 235.29
¯422.05, 9.43, 235.09
422.43, 9.66, 234.79
412.44, 7.32, 242.43
412.61, 7.32, 242.30
412.80, 7.33, 242.15
412.99, 7.33, 242.00
413.21, 7.34, 241.83
413.43, 7.34, 241.65
413.68, 7.35, 241.45
413.95, 7.36, 241.24
414.24, 7.37, 241.01
414.55, 7.38, 240.76
414.92, 7.39, 240.48
415.32, 7.40, 240.16
415.76, 7.41, 239.81
416.25, 7.42, 239.42
416.81, 7.44, 238.98
417.40, 7.47, 238.52
418.11, 7.49, 237.95
419.04, 7.50, 237.22
420.04, 7.53, 236.43
420.20, 7.70, 236.30
420.41, 7.86, 236.13
420.62, 8.04, 235.96
420.85, 8.22, 235.78
421.08, 8.40, 235.59
421.24, 8.60, 235.47
421.39, 8.80, 235.34
421.54, 9.01, 235.22
421.70, 9.22, 235.09
421.86, 9.43, 234.96
422.19, 9.66, 234.70
412.40, 7.32, 242.38
412.57, 7.32, 242.24
412.75, 7.32, 242.09
412.95, 7.33, 241.93
413.16, 7.34, 241.76
413.38, 7.34, 241.58
413.63, 7.35, 241.38
413.89, 7.36, 241.17
414.18, 7.37, 240.93
414.49, 7.38, 240.68
414.85, 7.39, 240.39
415.25, 7.39, 240.07
415.69, 7.41, 239.72
416.17, 7.42, 239.32
416.72, 7.44, 238.88
417.31, 7.46, 238.40
418.02, 7.49, 237.83
418.94, 7.50, 237.08
419.93, 7.52, 236.27
¯420.14, 7.69, 236.11
420.34, 7.86, 235.93
420.56, 8.03, 235.76
420.78, 8.21, 235.57
421.00, 8.40, 235.40
421.14, 8.59, 235.28
421.29, 8.80, 235.15
421.44, 9.00, 235.03
421.60, 9.21, 234.90
421.76, 9.43, 234.77
421.98, 9.65, 234.59
412.36, 7.31, 242.32
412.53, 7.32, 242.18
412.71, 7.32, 242.03
412.90, 7.33, 241.87
413.11, 7.33, 241.70
413.33, 7.34, 241.51
413.57, 7.35, 241.31
413.84, 7.35, 241.09
414.12, 7.36, 240.86
414.43, 7.38, 240.60
414.79, 7.38, 240.30
415.18, 7.39, 239.98
415.61, 7.40, 239.62
416.10, 7.42, 239.22
416.64, 7.44, 238.77
417.22, 7.46, 238.29
417.91, 7.49, 237.71
418.83, 7.49, 236.94
419.78, 7.53, 236.16
420.07, 7.68, 235.91
418.19, 8.09, 237.47
418.18, 8.25, 237.47
420.72, 8.20, 235.37
420.90, 8.39, 235.21
421.05, 8.59, 235.09
421.20, 8.79, 234.96
421.35, 9.00, 234.83
421.50, 9.21, 234.70
421.66, 9.43, 234.57
421.82, 9.65, 234.43
412.31, 7.31, 242.27
412.48, 7.32, 242.13
412.66, 7.32, 241.98
412.85, 7.33, 241.81
413.06, 7.33, 241.64
413.28, 7.34, 241.45
413.52, 7.35, 241.24
413.78, 7.35, 241.02
414.07, 7.36, 240.78
414.37, 7.37, 240.52
¯414.73, 7.38, 240.22
415.11, 7.39, 239.89
415.54, 7.40, 239.53
416.02, 7.42, 239.12
416.55, 7.43, 238.66
417.11, 7.46, 238.18
417.79, 7.49, 237.60
418.03, 7.61, 237.40
418.03, 7.77, 237.40
418.03, 7.93, 237.40
418.03, 8.10, 237.40
418.02, 8.26, 237.39
420.66, 8.19, 235.16
420.81, 8.39, 235.02
420.95, 8.59, 234.90
421.10, 8.79, 234.77
421.25, 9.00, 234.64
421.40, 9.21, 234.50
421.57, 9.42, 234.36
412.27, 7.31, 242.22
412.44, 7.32, 242.07
412.61, 7.32, 241.92
412.80, 7.33, 241.75
413.00, 7.33, 241.58
413.22, 7.34, 241.38
413.46, 7.34, 241.18
413.72, 7.35, 240.95
414.00, 7.36, 240.70
414.31, 7.37, 240.44
414.66, 7.38, 240.13
415.04, 7.39, 239.80
415.46, 7.40, 239.43
415.94, 7.41, 239.02
416.47, 7.43, 238.55
417.00, 7.46, 238.08
417.67, 7.49, 237.50
418.17, 7.56, 237.06
418.14, 7.74, 237.09
418.10, 7.91, 237.12
418.07, 8.08, 237.14
417.87, 8.26, 237.32
418.25, 8.39, 236.98
420.71, 8.38, 234.84
420.85, 8.58, 234.71
421.00, 8.78, 234.58
421.15, 8.99, 234.44
421.37, 9.20, 234.25
412.23, 7.31, 242.16
412.39, 7.31, 242.02
412.56, 7.32, 241.86
412.75, 7.32, 241.69
¯412.95, 7.33, 241.51
413.17, 7.34, 241.32
413.41, 7.34, 241.11
413.66, 7.35, 240.88
413.94, 7.36, 240.63
414.25, 7.37, 240.36
414.59, 7.38, 240.05
414.96, 7.39, 239.71
415.38, 7.40, 239.34
415.85, 7.41, 238.92
416.38, 7.43, 238.45
416.90, 7.46, 237.98
417.55, 7.49, 237.40
418.37, 7.51, 236.67
418.33, 7.69, 236.70
418.30, 7.86, 236.73
418.26, 8.04, 236.75
417.71, 8.26, 237.24
418.12, 8.39, 236.88
420.61, 8.38, 234.65
420.76, 8.58, 234.52
420.90, 8.78, 234.38
421.17, 8.99, 234.13
412.18, 7.31, 242.11
412.34, 7.31, 241.96
412.51, 7.32, 241.81
412.70, 7.32, 241.64
412.90, 7.33, 241.45
413.11, 7.33, 241.26
413.35, 7.34, 241.04
413.60, 7.35, 240.81
413.88, 7.36, 240.55
414.18, 7.37, 240.28
414.52, 7.37, 239.97
414.89, 7.38, 239.63
415.31, 7.40, 239.25
415.77, 7.41, 238.82
416.29, 7.43, 238.34
416.79, 7.46, 237.89
417.43, 7.49, 237.30
418.41, 7.48, 236.40
419.05, 7.55, 235.81
419.61, 7.66, 235.29
420.02, 7.81, 234.92
417.55, 8.27, 237.17
417.98, 8.39, 236.78
420.51, 8.37, 234.46
420.70, 8.57, 234.28
420.98, 8.77, 234.02
412.14, 7.31, 242.06
412.29, 7.31, 241.91
¯412.46, 7.32, 241.75
412.65, 7.32, 241.58
412.85, 7.33, 241.39
413.06, 7.33, 241.19
413.29, 7.34, 240.98
413.54, 7.35, 240.74
413.81, 7.35, 240.48
414.12, 7.36, 240.20
414.45, 7.37, 239.89
414.82, 7.38, 239.54
415.23, 7.39, 239.16
415.69, 7.41, 238.72
416.19, 7.42, 238.25
416.68, 7.46, 237.79
417.31, 7.49, 237.20
418.27, 7.48, 236.29
418.87, 7.56, 235.73
419.43, 7.67, 235.20
419.95, 7.80, 234.72
417.40, 8.27, 237.10
417.85, 8.39, 236.68
420.51, 8.36, 234.17
420.78, 8.55, 233.92
421.06, 8.76, 233.65
412.09, 7.31, 242.01
412.25, 7.31, 241.86
412.41, 7.31, 241.69
412.60, 7.32, 241.52
412.79, 7.33, 241.33
413.00, 7.33, 241.13
413.23, 7.34, 240.91
413.48, 7.34, 240.67
413.75, 7.35, 240.41
414.05, 7.36, 240.12
414.38, 7.37, 239.81
414.74, 7.38, 239.46
415.15, 7.39, 239.07
415.60, 7.40, 238.63
416.09, 7.42, 238.16
416.57, 7.46, 237.69
417.18, 7.49, 237.10
418.11, 7.49, 236.21
418.69, 7.57, 235.65
419.26, 7.67, 235.10
419.80, 7.79, 234.58
417.25, 8.27, 237.02
417.71, 8.39, 236.58
420.59, 8.34, 233.81
420.87, 8.54, 233.54
412.04, 7.30, 241.96
412.20, 7.31, 241.80
¯412.36, 7.31, 241.64
412.54, 7.32, 241.46
412.74, 7.32, 241.27
412.94, 7.33, 241.07
413.17, 7.34, 240.85
413.41, 7.34, 240.60
413.68, 7.35, 240.34
413.98, 7.36, 240.05
414.30, 7.37, 239.73
414.66, 7.38, 239.37
415.06, 7.39, 238.98
415.51, 7.40, 238.53
415.97, 7.43, 238.08
416.46, 7.46, 237.60
417.06, 7.49, 237.01
417.94, 7.49, 236.14
418.51, 7.57, 235.57
418.99, 7.69, 235.10
418.99, 7.88, 235.09
417.10, 8.28, 236.95
417.57, 8.39, 236.48
420.67, 8.32, 233.43
412.00, 7.30, 241.91
412.15, 7.31, 241.75
412.31, 7.31, 241.59
412.49, 7.32, 241.41
412.68, 7.32, 241.22
412.89, 7.33, 241.01
413.11, 7.33, 240.78
413.35, 7.34, 240.54
413.62, 7.35, 240.27
413.91, 7.36, 239.97
414.23, 7.37, 239.65
414.58, 7.38, 239.29
414.98, 7.39, 238.89
415.43, 7.40, 238.44
415.83, 7.44, 238.03
416.34, 7.46, 237.51
416.93, 7.50, 236.92
417.77, 7.50, 236.06
418.34, 7.58, 235.49
418.90, 7.68, 234.92
418.91, 7.87, 234.91
416.95, 8.28, 236.88
417.43, 8.39, 236.39
411.95, 7.30, 241.86
412.10, 7.31, 241.70
412.26, 7.31, 241.53
412.43, 7.32, 241.35
412.62, 7.32, 241.16
412.83, 7.33, 240.95
¯413.05, 7.33, 240.72
413.29, 7.34, 240.47
413.55, 7.35, 240.20
413.84, 7.35, 239.90
414.15, 7.36, 239.57
414.50, 7.37, 239.21
414.90, 7.38, 238.80
415.34, 7.40, 238.34
415.69, 7.45, 237.98
416.23, 7.46, 237.42
416.80, 7.50, 236.83
416.81, 7.65, 236.81
416.81, 7.81, 236.81
416.81, 7.97, 236.81
416.80, 8.12, 236.81
416.80, 8.28, 236.81
417.29, 8.39, 236.30
411.90, 7.30, 241.81
412.05, 7.30, 241.65
412.21, 7.31, 241.48
412.38, 7.31, 241.30
412.57, 7.32, 241.10
412.77, 7.32, 240.89
412.98, 7.33, 240.66
413.22, 7.34, 240.40
413.48, 7.34, 240.13
413.76, 7.35, 239.83
414.08, 7.36, 239.49
414.42, 7.37, 239.13
414.81, 7.38, 238.71
415.24, 7.40, 238.26
415.56, 7.45, 237.92
416.12, 7.46, 237.33
416.67, 7.50, 236.74
416.66, 7.66, 236.74
416.66, 7.81, 236.74
416.66, 7.97, 236.74
416.66, 8.13, 236.74
416.66, 8.28, 236.74
417.15, 8.39, 236.21
411.85, 7.30, 241.76
412.00, 7.30, 241.60
412.15, 7.31, 241.43
412.32, 7.31, 241.24
412.51, 7.32, 241.04
412.71, 7.32, 240.83
412.92, 7.33, 240.59
413.15, 7.34, 240.34
413.41, 7.34, 240.06
413.69, 7.35, 239.76
414.00, 7.36, 239.42
¯414.34, 7.37, 239.05
414.73, 7.38, 238.63
415.12, 7.40, 238.20
415.44, 7.46, 237.85
416.00, 7.47, 237.24
416.11, 7.59, 237.12
416.11, 7.74, 237.12
416.11, 7.89, 237.12
416.11, 8.04, 237.11
416.88, 8.08, 236.27
416.89, 8.24, 236.26
417.01, 8.39, 236.12
411.80, 7.29, 241.71
411.95, 7.30, 241.55
412.10, 7.31, 241.38
412.27, 7.31, 241.19
412.45, 7.32, 240.99
412.64, 7.32, 240.77
412.86, 7.33, 240.53
413.09, 7.33, 240.27
413.34, 7.34, 239.99
413.62, 7.35, 239.68
413.92, 7.36, 239.34
414.26, 7.37, 238.97
414.64, 7.38, 238.54
415.00, 7.41, 238.14
415.31, 7.46, 237.79
415.84, 7.48, 237.21
416.03, 7.58, 236.99
416.03, 7.73, 236.99
416.03, 7.88, 236.98
416.03, 8.03, 236.98
417.13, 8.03, 235.76
417.13, 8.19, 235.75
417.13, 8.36, 235.74
411.75, 7.29, 241.66
411.89, 7.30, 241.50
412.05, 7.30, 241.33
412.21, 7.31, 241.14
412.39, 7.31, 240.93
412.58, 7.32, 240.71
412.79, 7.33, 240.47
413.02, 7.33, 240.21
413.27, 7.34, 239.93
413.54, 7.35, 239.61
413.84, 7.36, 239.27
414.18, 7.36, 238.89
414.55, 7.38, 238.46
414.88, 7.41, 238.08
415.19, 7.46, 237.73
415.68, 7.49, 237.17
¯416.06, 7.55, 236.73
416.06, 7.70, 236.73
416.06, 7.85, 236.72
416.06, 8.00, 236.72
416.12, 8.15, 236.65
417.40, 8.14, 235.19
418.70, 8.19, 233.70
418.71, 8.39, 233.69
418.69, 8.59, 233.70
418.69, 8.78, 233.70
418.69, 8.98, 233.70
418.68, 9.18, 233.70
418.68, 9.38, 233.70
418.69, 9.58, 233.69
418.71, 9.78, 233.66
411.70, 7.29, 241.61
411.84, 7.30, 241.45
411.99, 7.30, 241.27
412.15, 7.31, 241.08
412.33, 7.31, 240.88
412.52, 7.32, 240.65
412.73, 7.32, 240.41
412.95, 7.33, 240.15
413.20, 7.34, 239.86
413.47, 7.34, 239.54
413.76, 7.35, 239.20
414.09, 7.36, 238.81
414.46, 7.37, 238.38
414.76, 7.41, 238.02
415.06, 7.47, 237.67
415.52, 7.50, 237.14
416.10, 7.52, 236.46
416.10, 7.67, 236.46
416.10, 7.83, 236.46
416.10, 7.98, 236.45
416.10, 8.13, 236.45
417.34, 8.13, 234.99
418.65, 8.17, 233.45
418.67, 8.37, 233.43
418.56, 8.58, 233.55
418.58, 8.78, 233.53
418.60, 8.98, 233.50
418.61, 9.18, 233.48
418.63, 9.38, 233.45
418.65, 9.58, 233.42
418.67, 9.78, 233.40
411.65, 7.29, 241.57
411.79, 7.29, 241.40
411.94, 7.30, 241.22
412.09, 7.31, 241.03
412.27, 7.31, 240.82
¯412.46, 7.32, 240.60
412.66, 7.32, 240.35
412.88, 7.33, 240.09
413.12, 7.33, 239.80
413.39, 7.34, 239.48
413.68, 7.35, 239.12
414.01, 7.36, 238.73
414.37, 7.37, 238.30
414.65, 7.42, 237.97
414.94, 7.47, 237.62
415.36, 7.51, 237.11
416.01, 7.51, 236.33
416.13, 7.64, 236.18
416.13, 7.80, 236.18
416.13, 7.95, 236.17
416.13, 8.11, 236.17
417.28, 8.12, 234.79
418.61, 8.16, 233.19
418.63, 8.36, 233.16
418.52, 8.57, 233.29
418.54, 8.77, 233.26
418.56, 8.97, 233.24
418.58, 9.17, 233.21
418.60, 9.38, 233.18
418.61, 9.58, 233.16
418.63, 9.78, 233.13
411.60, 7.29, 241.52
411.73, 7.29, 241.35
411.88, 7.30, 241.17
412.04, 7.30, 240.98
412.21, 7.31, 240.77
412.39, 7.31, 240.54
412.59, 7.32, 240.30
412.81, 7.33, 240.03
413.05, 7.33, 239.73
413.31, 7.34, 239.41
413.60, 7.35, 239.05
413.92, 7.36, 238.66
414.26, 7.37, 238.24
414.53, 7.42, 237.91
414.81, 7.48, 237.56
415.20, 7.52, 237.08
415.84, 7.52, 236.29
416.17, 7.60, 235.89
416.17, 7.76, 235.89
416.17, 7.92, 235.88
416.17, 8.08, 235.88
417.22, 8.11, 234.58
418.58, 8.14, 232.91
418.59, 8.35, 232.89
418.48, 8.56, 233.02
¯418.50, 8.76, 232.99
418.52, 8.97, 232.96
418.54, 9.17, 232.94
418.56, 9.38, 232.91
418.58, 9.58, 232.88
418.59, 9.79, 232.85
411.55, 7.29, 241.48
411.68, 7.29, 241.31
411.82, 7.30, 241.12
411.98, 7.30, 240.93
412.14, 7.31, 240.72
412.33, 7.31, 240.49
412.53, 7.32, 240.24
412.74, 7.32, 239.97
412.98, 7.33, 239.67
413.23, 7.34, 239.34
413.52, 7.35, 238.98
413.84, 7.35, 238.58
414.15, 7.38, 238.18
414.41, 7.43, 237.86
414.69, 7.48, 237.50
415.04, 7.53, 237.06
415.69, 7.52, 236.24
416.04, 7.60, 235.79
416.04, 7.76, 235.79
416.04, 7.92, 235.79
416.04, 8.08, 235.79
417.16, 8.10, 234.37
418.54, 8.13, 232.64
417.56, 8.42, 233.86
418.40, 8.55, 232.80
418.46, 8.75, 232.71
418.48, 8.96, 232.68
418.50, 9.17, 232.66
418.52, 9.37, 232.63
418.54, 9.58, 232.60
411.49, 7.28, 241.43
411.62, 7.29, 241.26
411.77, 7.29, 241.08
411.92, 7.30, 240.88
412.08, 7.31, 240.67
412.26, 7.31, 240.43
412.46, 7.32, 240.18
412.67, 7.32, 239.91
412.90, 7.33, 239.61
413.16, 7.34, 239.28
413.44, 7.34, 238.91
413.75, 7.35, 238.51
414.04, 7.38, 238.13
414.29, 7.43, 237.80
414.57, 7.48, 237.45
¯414.89, 7.54, 237.03
415.53, 7.53, 236.20
415.87, 7.61, 235.75
415.87, 7.77, 235.75
415.87, 7.93, 235.75
415.87, 8.09, 235.75
417.30, 8.06, 233.89
417.30, 8.24, 233.89
417.29, 8.43, 233.90
417.29, 8.62, 233.90
417.29, 8.80, 233.90
417.28, 8.99, 233.90
417.28, 9.18, 233.90
417.27, 9.36, 233.90
417.27, 9.55, 233.90
417.27, 9.73, 233.90
411.44, 7.28, 241.39
411.57, 7.29, 241.21
411.71, 7.29, 241.03
411.86, 7.30, 240.83
412.02, 7.30, 240.61
412.20, 7.31, 240.38
412.39, 7.31, 240.13
412.60, 7.32, 239.85
412.83, 7.33, 239.55
413.08, 7.33, 239.21
413.35, 7.34, 238.84
413.66, 7.35, 238.44
413.93, 7.38, 238.08
414.17, 7.43, 237.75
414.44, 7.49, 237.40
414.73, 7.55, 237.01
415.37, 7.54, 236.16
415.71, 7.62, 235.71
415.70, 7.77, 235.71
415.70, 7.93, 235.71
415.70, 8.09, 235.71
416.99, 8.08, 233.99
416.99, 8.26, 233.99
416.99, 8.44, 234.00
416.98, 8.63, 234.00
416.98, 8.81, 234.00
416.97, 8.99, 234.00
416.97, 9.17, 234.00
416.97, 9.36, 234.00
416.96, 9.54, 234.00
416.96, 9.72, 234.00
411.38, 7.28, 241.34
411.51, 7.28, 241.17
411.65, 7.29, 240.98
411.80, 7.29, 240.78
¯411.96, 7.30, 240.56
412.13, 7.31, 240.33
412.32, 7.31, 240.07
412.52, 7.32, 239.79
412.75, 7.32, 239.48
413.00, 7.33, 239.15
413.27, 7.34, 238.78
413.57, 7.35, 238.37
413.82, 7.39, 238.03
414.06, 7.44, 237.70
414.32, 7.49, 237.34
414.60, 7.55, 236.95
415.21, 7.54, 236.13
415.54, 7.62, 235.67
415.54, 7.78, 235.67
415.54, 7.94, 235.67
415.53, 8.10, 235.67
416.87, 8.07, 233.85
416.89, 8.25, 233.82
416.72, 8.45, 234.05
416.80, 8.63, 233.94
416.81, 8.81, 233.91
416.83, 8.99, 233.89
416.84, 9.17, 233.86
416.86, 9.35, 233.84
416.87, 9.54, 233.81
416.89, 9.72, 233.78
411.33, 7.28, 241.30
411.46, 7.28, 241.12
411.59, 7.29, 240.93
411.74, 7.29, 240.73
411.89, 7.30, 240.51
412.06, 7.30, 240.28
412.25, 7.31, 240.02
412.45, 7.32, 239.73
412.67, 7.32, 239.43
412.91, 7.33, 239.09
413.18, 7.34, 238.71
413.48, 7.34, 238.29
413.71, 7.39, 237.98
413.94, 7.44, 237.65
414.20, 7.49, 237.29
414.47, 7.55, 236.90
414.58, 7.67, 236.75
414.57, 7.81, 236.75
414.57, 7.95, 236.75
414.57, 8.09, 236.75
415.37, 8.10, 235.63
416.82, 8.05, 233.60
416.84, 8.24, 233.58
416.46, 8.46, 234.10
¯416.75, 8.62, 233.69
416.76, 8.80, 233.67
416.78, 8.98, 233.64
416.80, 9.17, 233.62
416.81, 9.35, 233.59
416.83, 9.54, 233.56
416.84, 9.73, 233.54
411.27, 7.28, 241.26
411.40, 7.28, 241.08
411.53, 7.28, 240.89
411.68, 7.29, 240.68
411.83, 7.30, 240.46
412.00, 7.30, 240.22
412.18, 7.31, 239.96
412.38, 7.31, 239.68
412.59, 7.32, 239.37
412.83, 7.33, 239.02
413.10, 7.33, 238.65
413.38, 7.35, 238.24
413.60, 7.39, 237.93
413.83, 7.44, 237.60
414.07, 7.50, 237.24
414.34, 7.56, 236.85
414.53, 7.65, 236.59
414.53, 7.79, 236.58
414.53, 7.93, 236.58
414.53, 8.07, 236.57
415.21, 8.10, 235.60
416.77, 8.04, 233.35
416.79, 8.22, 233.33
416.21, 8.47, 234.15
416.70, 8.61, 233.44
416.71, 8.79, 233.42
416.73, 8.98, 233.39
416.75, 9.16, 233.36
416.76, 9.35, 233.34
416.78, 9.54, 233.31
416.79, 9.73, 233.28
411.22, 7.27, 241.22
411.34, 7.28, 241.04
411.47, 7.28, 240.84
411.61, 7.29, 240.64
411.76, 7.29, 240.41
411.93, 7.30, 240.17
412.10, 7.31, 239.91
412.30, 7.31, 239.62
412.51, 7.32, 239.31
412.75, 7.32, 238.96
413.01, 7.33, 238.58
413.27, 7.35, 238.20
413.48, 7.39, 237.88
¯413.71, 7.44, 237.54
413.95, 7.50, 237.19
414.21, 7.56, 236.80
414.61, 7.60, 236.21
414.62, 7.74, 236.20
414.62, 7.89, 236.20
414.62, 8.03, 236.19
414.80, 8.15, 235.93
416.72, 8.02, 233.10
416.74, 8.21, 233.07
415.97, 8.47, 234.19
416.65, 8.59, 233.19
416.66, 8.78, 233.16
416.68, 8.97, 233.13
416.69, 9.16, 233.10
416.71, 9.35, 233.08
416.73, 9.54, 233.05
416.74, 9.73, 233.02
411.16, 7.27, 241.17
411.28, 7.28, 240.99
411.41, 7.28, 240.80
411.55, 7.29, 240.59
411.70, 7.29, 240.36
411.86, 7.30, 240.12
412.03, 7.30, 239.86
412.22, 7.31, 239.57
412.43, 7.32, 239.25
412.67, 7.32, 238.90
412.92, 7.33, 238.52
413.16, 7.35, 238.15
413.37, 7.40, 237.83
413.59, 7.45, 237.49
413.83, 7.50, 237.14
414.08, 7.56, 236.75
414.57, 7.57, 236.02
414.71, 7.69, 235.80
414.71, 7.84, 235.80
414.71, 7.99, 235.79
414.71, 8.14, 235.78
416.72, 7.99, 232.75
416.72, 8.19, 232.75
415.73, 8.48, 234.24
416.60, 8.58, 232.93
416.71, 8.77, 232.76
416.70, 8.96, 232.76
416.70, 9.15, 232.76
416.69, 9.35, 232.76
416.69, 9.54, 232.76
416.69, 9.73, 232.75
411.11, 7.27, 241.13
411.22, 7.27, 240.95
¯411.35, 7.28, 240.75
411.49, 7.28, 240.54
411.63, 7.29, 240.32
411.79, 7.29, 240.07
411.96, 7.30, 239.81
412.15, 7.31, 239.52
412.35, 7.31, 239.20
412.58, 7.32, 238.84
412.83, 7.33, 238.45
413.06, 7.35, 238.10
413.26, 7.40, 237.78
413.48, 7.45, 237.45
413.71, 7.50, 237.09
413.96, 7.56, 236.70
414.41, 7.58, 236.00
414.81, 7.63, 235.37
415.51, 7.63, 234.28
415.51, 7.81, 234.28
415.51, 7.98, 234.28
415.50, 8.15, 234.28
415.50, 8.32, 234.28
415.50, 8.49, 234.29
415.49, 8.66, 234.29
415.49, 8.83, 234.29
415.49, 9.00, 234.29
415.48, 9.17, 234.29
415.48, 9.34, 234.29
415.47, 9.50, 234.29
415.47, 9.67, 234.29
411.05, 7.27, 241.09
411.17, 7.27, 240.91
411.29, 7.28, 240.71
411.42, 7.28, 240.50
411.57, 7.29, 240.27
411.72, 7.29, 240.02
411.89, 7.30, 239.75
412.07, 7.30, 239.46
412.27, 7.31, 239.14
412.50, 7.32, 238.79
412.74, 7.32, 238.39
412.95, 7.36, 238.06
413.15, 7.40, 237.74
413.36, 7.45, 237.40
413.59, 7.51, 237.04
413.83, 7.57, 236.65
414.24, 7.59, 235.99
414.98, 7.56, 234.82
415.38, 7.63, 234.18
415.38, 7.80, 234.17
415.38, 7.97, 234.17
415.38, 8.14, 234.17
¯415.38, 8.31, 234.16
415.38, 8.48, 234.16
415.38, 8.65, 234.15
415.37, 8.82, 234.15
415.37, 8.99, 234.15
415.37, 9.16, 234.14
415.37, 9.33, 234.14
415.37, 9.50, 234.14
415.24, 9.67, 234.33
410.99, 7.26, 241.05
411.11, 7.27, 240.87
411.23, 7.27, 240.67
411.36, 7.28, 240.45
411.50, 7.28, 240.22
411.65, 7.29, 239.97
411.82, 7.30, 239.70
411.99, 7.30, 239.41
412.19, 7.31, 239.09
412.41, 7.31, 238.73
412.65, 7.32, 238.33
412.84, 7.36, 238.02
413.04, 7.40, 237.70
413.25, 7.45, 237.35
413.47, 7.51, 236.99
413.70, 7.57, 236.60
414.08, 7.60, 235.98
414.84, 7.55, 234.74
415.06, 7.67, 234.37
415.06, 7.83, 234.37
415.07, 8.00, 234.35
415.08, 8.16, 234.33
415.09, 8.33, 234.30
415.05, 8.50, 234.37
415.04, 8.67, 234.37
415.04, 8.83, 234.37
415.04, 9.00, 234.38
415.04, 9.16, 234.36
415.06, 9.33, 234.33
415.07, 9.50, 234.30
415.08, 9.66, 234.28
410.93, 7.26, 241.02
411.05, 7.27, 240.83
411.16, 7.27, 240.63
411.29, 7.28, 240.41
411.43, 7.28, 240.18
411.58, 7.29, 239.93
411.74, 7.29, 239.65
411.92, 7.30, 239.36
412.11, 7.31, 239.03
412.32, 7.31, 238.67
412.56, 7.32, 238.28
¯412.74, 7.36, 237.98
412.93, 7.41, 237.65
413.13, 7.45, 237.31
413.35, 7.51, 236.94
413.58, 7.57, 236.55
413.96, 7.60, 235.90
414.71, 7.55, 234.65
414.99, 7.65, 234.17
415.01, 7.81, 234.14
415.02, 7.98, 234.11
415.03, 8.15, 234.08
415.05, 8.31, 234.06
414.83, 8.51, 234.42
414.96, 8.66, 234.19
414.97, 8.83, 234.17
414.98, 8.99, 234.14
415.00, 9.16, 234.11
415.01, 9.33, 234.08
415.02, 9.50, 234.06
415.04, 9.67, 234.03
410.87, 7.26, 240.98
410.98, 7.26, 240.79
411.10, 7.27, 240.59
411.23, 7.27, 240.37
411.36, 7.28, 240.13
411.51, 7.28, 239.88
411.67, 7.29, 239.60
411.84, 7.30, 239.30
412.03, 7.30, 238.98
412.24, 7.31, 238.62
412.46, 7.32, 238.24
412.63, 7.36, 237.93
412.82, 7.41, 237.61
413.02, 7.46, 237.26
413.23, 7.51, 236.90
413.45, 7.57, 236.51
413.84, 7.59, 235.82
414.57, 7.55, 234.57
414.94, 7.62, 233.92
414.96, 7.79, 233.89
414.97, 7.96, 233.86
414.98, 8.13, 233.83
415.00, 8.30, 233.81
414.62, 8.51, 234.46
414.91, 8.65, 233.95
414.92, 8.82, 233.92
414.93, 8.99, 233.89
414.95, 9.16, 233.86
414.96, 9.33, 233.83
414.97, 9.50, 233.80
414.99, 9.67, 233.78
¯410.81, 7.26, 240.94
410.92, 7.26, 240.75
411.04, 7.27, 240.54
411.16, 7.27, 240.32
411.29, 7.28, 240.09
411.44, 7.28, 239.83
411.59, 7.29, 239.56
411.76, 7.29, 239.25
411.95, 7.30, 238.93
412.15, 7.31, 238.56
412.35, 7.32, 238.20
412.52, 7.37, 237.89
412.70, 7.41, 237.57
412.90, 7.46, 237.22
413.10, 7.51, 236.85
413.32, 7.57, 236.46
413.72, 7.59, 235.75
414.43, 7.54, 234.48
414.89, 7.60, 233.67
414.90, 7.77, 233.64
414.92, 7.94, 233.61
414.93, 8.11, 233.58
414.94, 8.28, 233.55
414.41, 8.52, 234.50
414.86, 8.64, 233.69
414.87, 8.81, 233.66
414.88, 8.98, 233.63
414.90, 9.15, 233.60
414.91, 9.32, 233.57
414.92, 9.50, 233.54
414.94, 9.67, 233.51
410.75, 7.26, 240.91
410.86, 7.26, 240.71
410.97, 7.26, 240.51
411.09, 7.27, 240.28
411.22, 7.27, 240.04
411.36, 7.28, 239.79
411.52, 7.28, 239.51
411.68, 7.29, 239.20
411.86, 7.30, 238.87
412.06, 7.30, 238.51
412.25, 7.33, 238.16
412.42, 7.37, 237.86
412.59, 7.41, 237.53
412.78, 7.46, 237.18
412.98, 7.51, 236.81
413.20, 7.57, 236.41
413.56, 7.60, 235.74
413.56, 7.74, 235.74
413.56, 7.89, 235.74
413.55, 8.03, 235.74
¯413.55, 8.18, 235.74
413.55, 8.32, 235.74
414.89, 8.26, 233.29
414.20, 8.52, 234.54
414.80, 8.62, 233.43
414.82, 8.80, 233.40
414.83, 8.97, 233.37
414.84, 9.15, 233.34
414.86, 9.32, 233.31
414.87, 9.50, 233.28
414.97, 9.68, 233.09
410.69, 7.25, 240.87
410.80, 7.26, 240.67
410.91, 7.26, 240.47
411.03, 7.27, 240.24
411.15, 7.27, 240.00
411.29, 7.28, 239.74
411.44, 7.28, 239.46
411.60, 7.29, 239.15
411.78, 7.29, 238.82
411.97, 7.30, 238.45
412.15, 7.33, 238.12
412.31, 7.37, 237.82
412.48, 7.41, 237.49
412.67, 7.46, 237.14
412.86, 7.52, 236.77
413.07, 7.58, 236.37
413.43, 7.60, 235.69
413.44, 7.74, 235.67
413.45, 7.88, 235.64
413.46, 8.02, 235.61
413.47, 8.16, 235.59
413.48, 8.31, 235.56
413.58, 8.43, 235.37
414.00, 8.53, 234.58
414.76, 8.61, 233.13
414.76, 8.79, 233.13
414.78, 8.96, 233.10
414.79, 9.14, 233.07
414.80, 9.32, 233.03
414.82, 9.50, 233.00
414.83, 9.68, 232.97
410.63, 7.25, 240.84
410.74, 7.25, 240.64
410.84, 7.26, 240.43
410.96, 7.26, 240.20
411.08, 7.27, 239.96
411.22, 7.27, 239.70
411.36, 7.28, 239.41
411.52, 7.28, 239.11
411.69, 7.29, 238.77
¯411.88, 7.30, 238.40
412.05, 7.33, 238.07
412.20, 7.37, 237.78
412.37, 7.41, 237.45
412.55, 7.46, 237.10
412.74, 7.52, 236.72
412.95, 7.58, 236.32
413.36, 7.58, 235.52
413.40, 7.71, 235.44
413.41, 7.86, 235.42
413.42, 8.00, 235.39
413.43, 8.14, 235.37
413.44, 8.29, 235.34
413.45, 8.43, 235.31
413.81, 8.53, 234.61
413.80, 8.69, 234.61
413.80, 8.84, 234.62
414.72, 8.96, 232.82
414.74, 9.14, 232.78
414.75, 9.32, 232.75
414.76, 9.50, 232.72
414.78, 9.68, 232.69
410.57, 7.25, 240.80
410.67, 7.25, 240.60
410.78, 7.26, 240.39
410.89, 7.26, 240.16
411.01, 7.27, 239.92
411.14, 7.27, 239.66
411.29, 7.28, 239.37
411.44, 7.28, 239.06
411.61, 7.29, 238.72
411.80, 7.29, 238.35
411.96, 7.32, 238.01
412.10, 7.37, 237.74
412.26, 7.42, 237.41
412.43, 7.46, 237.06
412.62, 7.52, 236.68
412.84, 7.57, 236.25
413.23, 7.58, 235.45
413.35, 7.69, 235.22
413.36, 7.83, 235.19
413.37, 7.98, 235.16
413.38, 8.12, 235.14
413.39, 8.27, 235.11
413.40, 8.42, 235.08
413.61, 8.54, 234.65
413.61, 8.69, 234.65
413.61, 8.85, 234.65
413.60, 9.00, 234.65
413.60, 9.15, 234.65
413.60, 9.31, 234.65
¯413.59, 9.46, 234.66
413.59, 9.62, 234.66
410.51, 7.25, 240.77
410.61, 7.25, 240.57
410.71, 7.25, 240.35
410.82, 7.26, 240.13
410.94, 7.26, 239.88
411.07, 7.27, 239.61
411.21, 7.27, 239.33
411.36, 7.28, 239.01
411.52, 7.28, 238.67
411.71, 7.29, 238.30
411.87, 7.32, 237.96
412.00, 7.37, 237.68
412.15, 7.42, 237.38
412.32, 7.47, 237.02
412.50, 7.52, 236.64
412.72, 7.57, 236.18
413.11, 7.57, 235.38
413.30, 7.66, 234.98
413.31, 7.81, 234.96
413.32, 7.96, 234.93
413.33, 8.10, 234.90
413.34, 8.25, 234.87
413.35, 8.40, 234.84
413.54, 8.53, 234.45
413.54, 8.68, 234.45
413.54, 8.84, 234.45
413.54, 8.99, 234.44
413.54, 9.15, 234.44
413.53, 9.31, 234.43
413.53, 9.46, 234.43
413.53, 9.62, 234.42
410.45, 7.25, 240.74
410.54, 7.25, 240.53
410.64, 7.25, 240.32
410.75, 7.26, 240.09
410.87, 7.26, 239.84
410.99, 7.26, 239.57
411.13, 7.27, 239.28
411.28, 7.28, 238.97
411.44, 7.28, 238.62
411.61, 7.29, 238.25
411.78, 7.31, 237.90
411.91, 7.36, 237.62
412.04, 7.41, 237.33
412.20, 7.47, 236.99
412.38, 7.52, 236.60
412.61, 7.56, 236.10
412.99, 7.57, 235.30
413.25, 7.63, 234.74
¯413.26, 7.78, 234.71
413.27, 7.93, 234.68
413.28, 8.08, 234.65
413.37, 8.22, 234.45
413.37, 8.37, 234.45
413.37, 8.53, 234.46
413.36, 8.68, 234.46
413.36, 8.84, 234.46
413.36, 8.99, 234.46
413.35, 9.15, 234.46
413.35, 9.30, 234.46
413.35, 9.46, 234.46
413.34, 9.61, 234.46
410.39, 7.24, 240.71
410.48, 7.25, 240.50
410.58, 7.25, 240.28
410.68, 7.25, 240.05
410.80, 7.26, 239.80
410.92, 7.26, 239.53
411.05, 7.27, 239.24
411.19, 7.27, 238.92
411.35, 7.28, 238.58
411.52, 7.29, 238.21
411.68, 7.31, 237.84
411.81, 7.36, 237.56
411.94, 7.41, 237.26
412.09, 7.47, 236.95
412.26, 7.52, 236.57
412.50, 7.56, 236.03
412.87, 7.56, 235.23
413.20, 7.60, 234.49
413.21, 7.75, 234.46
413.22, 7.91, 234.43
413.23, 8.06, 234.40
413.24, 8.21, 234.37
413.25, 8.37, 234.34
413.18, 8.53, 234.49
413.18, 8.69, 234.49
413.18, 8.84, 234.48
413.19, 8.99, 234.45
413.20, 9.15, 234.42
413.21, 9.30, 234.39
413.22, 9.46, 234.36
413.23, 9.61, 234.33
410.32, 7.24, 240.68
410.41, 7.24, 240.47
410.51, 7.25, 240.25
410.61, 7.25, 240.02
410.72, 7.25, 239.76
410.84, 7.26, 239.49
410.97, 7.26, 239.20
¯411.11, 7.27, 238.88
411.26, 7.27, 238.53
411.42, 7.29, 238.16
411.59, 7.30, 237.79
411.71, 7.35, 237.50
411.84, 7.41, 237.20
411.98, 7.46, 236.88
412.14, 7.52, 236.53
412.38, 7.55, 235.97
412.74, 7.56, 235.15
413.14, 7.57, 234.23
413.15, 7.72, 234.20
413.17, 7.88, 234.17
413.18, 8.04, 234.14
413.19, 8.19, 234.11
413.20, 8.35, 234.07
413.00, 8.54, 234.53
413.12, 8.67, 234.25
413.13, 8.83, 234.22
413.14, 8.98, 234.19
413.15, 9.14, 234.16
413.16, 9.30, 234.12
413.17, 9.46, 234.09
413.18, 9.62, 234.06
410.26, 7.24, 240.65
410.35, 7.24, 240.43
410.44, 7.24, 240.22
410.54, 7.25, 239.98
410.65, 7.25, 239.73
410.76, 7.26, 239.45
410.89, 7.26, 239.16
411.03, 7.27, 238.84
411.18, 7.27, 238.48
411.33, 7.28, 238.12
411.49, 7.30, 237.75
411.61, 7.35, 237.45
411.74, 7.40, 237.14
411.88, 7.46, 236.82
412.03, 7.52, 236.47
412.27, 7.55, 235.90
412.62, 7.55, 235.07
413.09, 7.54, 233.97
413.10, 7.69, 233.93
413.11, 7.85, 233.90
413.12, 8.01, 233.87
413.13, 8.17, 233.83
413.14, 8.33, 233.80
412.82, 8.54, 234.56
413.06, 8.66, 233.98
413.07, 8.82, 233.95
413.08, 8.98, 233.91
¯413.09, 9.14, 233.88
413.11, 9.30, 233.85
413.12, 9.46, 233.81
413.13, 9.62, 233.78
410.20, 7.24, 240.62
410.28, 7.24, 240.40
410.37, 7.24, 240.18
410.47, 7.24, 239.95
410.57, 7.25, 239.69
410.69, 7.25, 239.42
410.81, 7.26, 239.12
410.94, 7.26, 238.79
411.09, 7.27, 238.44
411.23, 7.28, 238.08
411.39, 7.30, 237.71
411.52, 7.34, 237.39
411.64, 7.40, 237.08
411.77, 7.45, 236.76
411.92, 7.51, 236.41
412.07, 7.58, 236.03
412.07, 7.71, 236.03
412.06, 7.84, 236.03
412.06, 7.98, 236.03
412.06, 8.11, 236.03
412.06, 8.24, 236.03
412.05, 8.37, 236.04
413.09, 8.31, 233.52
412.64, 8.54, 234.60
413.00, 8.65, 233.70
413.02, 8.81, 233.67
413.03, 8.97, 233.63
413.04, 9.13, 233.60
413.05, 9.29, 233.56
413.06, 9.46, 233.53
413.07, 9.62, 233.49
410.13, 7.24, 240.59
410.22, 7.24, 240.37
410.30, 7.24, 240.15
410.40, 7.24, 239.91
410.50, 7.25, 239.66
410.61, 7.25, 239.38
410.73, 7.25, 239.08
410.86, 7.26, 238.75
411.00, 7.26, 238.40
411.14, 7.28, 238.04
411.29, 7.30, 237.67
411.42, 7.34, 237.33
411.54, 7.39, 237.03
411.67, 7.45, 236.70
411.78, 7.52, 236.41
411.78, 7.65, 236.42
¯411.77, 7.78, 236.42
411.77, 7.90, 236.42
411.77, 8.03, 236.42
411.76, 8.16, 236.42
411.76, 8.28, 236.42
411.76, 8.41, 236.41
413.06, 8.28, 233.14
412.46, 8.55, 234.63
412.95, 8.63, 233.41
413.05, 8.79, 233.14
413.05, 8.95, 233.14
413.04, 9.12, 233.14
413.04, 9.29, 233.14
413.04, 9.46, 233.14
413.03, 9.63, 233.15
410.07, 7.23, 240.56
410.15, 7.23, 240.35
410.24, 7.24, 240.12
410.33, 7.24, 239.88
410.42, 7.24, 239.62
410.53, 7.25, 239.34
410.65, 7.25, 239.04
410.77, 7.26, 238.71
410.91, 7.26, 238.36
411.04, 7.28, 238.00
411.19, 7.30, 237.63
411.32, 7.33, 237.28
411.44, 7.38, 236.97
411.56, 7.44, 236.63
411.66, 7.52, 236.37
411.67, 7.64, 236.35
411.68, 7.77, 236.32
411.68, 7.89, 236.29
411.69, 8.01, 236.26
411.70, 8.14, 236.23
411.71, 8.27, 236.21
411.72, 8.39, 236.18
412.96, 8.26, 232.92
412.29, 8.55, 234.66
412.89, 8.62, 233.11
412.90, 8.78, 233.07
412.91, 8.95, 233.03
412.92, 9.12, 232.99
412.93, 9.29, 232.96
412.94, 9.46, 232.92
412.95, 9.63, 232.88
410.00, 7.23, 240.53
410.08, 7.23, 240.32
410.17, 7.23, 240.09
410.25, 7.24, 239.85
410.35, 7.24, 239.59
¯410.45, 7.24, 239.31
410.56, 7.25, 239.01
410.69, 7.25, 238.68
410.82, 7.26, 238.32
410.95, 7.27, 237.96
411.09, 7.29, 237.59
411.22, 7.33, 237.22
411.33, 7.38, 236.91
411.45, 7.43, 236.57
411.60, 7.49, 236.17
411.62, 7.61, 236.12
411.63, 7.73, 236.09
411.64, 7.86, 236.06
411.64, 7.99, 236.03
411.65, 8.12, 236.00
411.66, 8.24, 235.97
411.67, 8.37, 235.94
412.90, 8.24, 232.60
412.12, 8.55, 234.70
412.82, 8.60, 232.79
412.83, 8.77, 232.75
412.85, 8.94, 232.71
412.86, 9.11, 232.67
412.87, 9.28, 232.63
412.88, 9.46, 232.59
412.89, 9.63, 232.55
409.94, 7.23, 240.51
410.01, 7.23, 240.29
410.09, 7.23, 240.06
410.18, 7.23, 239.82
410.27, 7.24, 239.56
410.37, 7.24, 239.28
410.48, 7.25, 238.97
410.60, 7.25, 238.64
410.73, 7.25, 238.28
410.85, 7.27, 237.93
410.98, 7.29, 237.55
411.12, 7.32, 237.17
411.23, 7.37, 236.85
411.35, 7.43, 236.51
411.50, 7.47, 236.08
411.57, 7.57, 235.88
411.58, 7.70, 235.85
411.59, 7.83, 235.82
411.59, 7.96, 235.79
411.60, 8.09, 235.76
411.61, 8.22, 235.73
411.62, 8.35, 235.69
411.84, 8.43, 235.06
411.96, 8.55, 234.73
411.95, 8.70, 234.73
¯411.95, 8.85, 234.73
411.95, 8.99, 234.73
412.79, 9.11, 232.34
412.80, 9.28, 232.30
412.81, 9.46, 232.26
412.83, 9.64, 232.22
409.87, 7.23, 240.48
409.95, 7.23, 240.26
410.02, 7.23, 240.03
410.11, 7.23, 239.79
410.20, 7.23, 239.53
410.29, 7.24, 239.24
410.40, 7.24, 238.94
410.51, 7.25, 238.60
410.63, 7.25, 238.24
410.75, 7.27, 237.89
410.88, 7.29, 237.51
411.02, 7.32, 237.11
411.12, 7.37, 236.80
411.24, 7.42, 236.45
411.40, 7.46, 235.99
411.52, 7.54, 235.63
411.52, 7.67, 235.60
411.53, 7.80, 235.57
411.54, 7.93, 235.53
411.55, 8.06, 235.50
411.56, 8.20, 235.47
411.57, 8.33, 235.44
411.80, 8.41, 234.76
411.79, 8.56, 234.76
411.79, 8.70, 234.76
411.79, 8.85, 234.76
411.78, 8.99, 234.76
411.78, 9.13, 234.76
411.78, 9.28, 234.76
411.78, 9.42, 234.76
411.77, 9.57, 234.77
409.81, 7.23, 240.46
409.88, 7.23, 240.24
409.95, 7.23, 240.01
410.03, 7.23, 239.76
410.12, 7.23, 239.50
410.21, 7.24, 239.21
410.31, 7.24, 238.90
410.42, 7.24, 238.57
410.54, 7.25, 238.21
410.65, 7.27, 237.86
410.78, 7.29, 237.47
410.91, 7.31, 237.06
411.02, 7.36, 236.74
411.13, 7.42, 236.40
¯411.29, 7.45, 235.90
411.46, 7.50, 235.37
411.47, 7.63, 235.34
411.53, 7.74, 235.14
411.53, 7.88, 235.14
411.53, 8.02, 235.14
411.53, 8.16, 235.14
411.52, 8.30, 235.14
411.56, 8.43, 235.03
411.71, 8.55, 234.56
411.70, 8.69, 234.56
411.70, 8.84, 234.55
411.70, 8.98, 234.55
411.70, 9.13, 234.54
411.70, 9.28, 234.54
411.70, 9.42, 234.53
411.70, 9.57, 234.53
409.74, 7.22, 240.43
409.81, 7.22, 240.21
409.88, 7.23, 239.98
409.96, 7.23, 239.74
410.04, 7.23, 239.47
410.13, 7.23, 239.18
410.23, 7.24, 238.87
410.33, 7.24, 238.53
410.45, 7.25, 238.18
410.56, 7.27, 237.82
410.68, 7.28, 237.44
410.81, 7.31, 237.02
410.91, 7.35, 236.68
411.02, 7.41, 236.34
411.18, 7.44, 235.81
411.39, 7.47, 235.16
411.41, 7.59, 235.07
411.42, 7.73, 235.03
411.43, 7.87, 235.00
411.44, 8.00, 234.96
411.45, 8.14, 234.93
411.46, 8.28, 234.89
411.46, 8.42, 234.86
411.65, 8.53, 234.26
411.65, 8.68, 234.26
411.65, 8.82, 234.25
411.64, 8.97, 234.25
411.64, 9.12, 234.24
411.64, 9.27, 234.24
411.64, 9.42, 234.23
411.64, 9.57, 234.22
409.67, 7.22, 240.41
409.74, 7.22, 240.19
409.81, 7.22, 239.96
¯409.88, 7.23, 239.71
409.96, 7.23, 239.44
410.05, 7.23, 239.15
410.14, 7.23, 238.84
410.25, 7.24, 238.50
410.35, 7.25, 238.15
410.46, 7.26, 237.79
410.57, 7.28, 237.40
410.70, 7.30, 236.98
410.80, 7.35, 236.63
410.91, 7.40, 236.26
411.08, 7.43, 235.72
411.27, 7.45, 235.07
411.35, 7.55, 234.78
411.36, 7.69, 234.75
411.37, 7.83, 234.71
411.38, 7.97, 234.67
411.39, 8.11, 234.64
411.40, 8.26, 234.60
411.40, 8.40, 234.56
411.59, 8.51, 233.95
411.58, 8.66, 233.94
411.58, 8.81, 233.94
411.58, 8.96, 233.93
411.58, 9.12, 233.93
411.58, 9.27, 233.92
411.58, 9.42, 233.91
411.58, 9.58, 233.91
409.61, 7.22, 240.39
409.67, 7.22, 240.17
409.74, 7.22, 239.94
409.81, 7.22, 239.69
409.88, 7.23, 239.42
409.97, 7.23, 239.13
410.06, 7.23, 238.81
410.16, 7.23, 238.47
410.26, 7.24, 238.11
410.36, 7.26, 237.76
410.47, 7.28, 237.37
410.59, 7.30, 236.94
410.70, 7.34, 236.58
410.81, 7.39, 236.18
410.97, 7.42, 235.63
411.15, 7.44, 234.97
411.29, 7.51, 234.49
411.30, 7.65, 234.45
411.31, 7.80, 234.41
411.32, 7.94, 234.37
411.33, 8.09, 234.33
411.33, 8.23, 234.29
411.34, 8.38, 234.25
¯411.58, 8.47, 233.43
411.57, 8.63, 233.43
411.57, 8.79, 233.43
411.57, 8.95, 233.43
411.56, 9.11, 233.43
411.56, 9.27, 233.43
411.56, 9.43, 233.43
411.55, 9.58, 233.43
409.54, 7.22, 240.37
409.60, 7.22, 240.15
409.66, 7.22, 239.91
409.73, 7.22, 239.66
409.81, 7.22, 239.39
409.89, 7.23, 239.10
409.97, 7.23, 238.78
410.07, 7.23, 238.44
410.16, 7.24, 238.09
410.26, 7.26, 237.73
410.37, 7.28, 237.34
410.48, 7.30, 236.91
410.59, 7.34, 236.52
410.70, 7.38, 236.10
410.85, 7.41, 235.54
411.04, 7.43, 234.88
411.23, 7.47, 234.18
411.23, 7.61, 234.14
411.24, 7.76, 234.10
411.25, 7.91, 234.06
411.32, 8.03, 233.80
411.31, 8.19, 233.81
411.31, 8.34, 233.81
411.31, 8.50, 233.81
411.31, 8.65, 233.81
411.30, 8.80, 233.81
411.30, 8.96, 233.81
411.30, 9.11, 233.81
411.29, 9.26, 233.81
411.29, 9.42, 233.81
411.29, 9.57, 233.81
409.47, 7.21, 240.35
409.53, 7.22, 240.13
409.59, 7.22, 239.89
409.66, 7.22, 239.64
409.73, 7.22, 239.37
409.80, 7.22, 239.08
409.89, 7.23, 238.76
409.98, 7.23, 238.41
410.07, 7.23, 238.04
410.16, 7.26, 237.70
410.26, 7.27, 237.31
410.37, 7.29, 236.88
¯410.42, 7.37, 236.68
410.42, 7.49, 236.68
410.42, 7.61, 236.68
410.42, 7.73, 236.68
410.41, 7.85, 236.68
411.17, 7.57, 233.81
411.17, 7.72, 233.77
411.18, 7.87, 233.73
411.19, 8.02, 233.68
411.20, 8.17, 233.64
411.21, 8.33, 233.59
411.14, 8.50, 233.84
411.14, 8.65, 233.84
411.15, 8.80, 233.80
411.15, 8.95, 233.75
411.16, 9.11, 233.71
411.17, 9.26, 233.67
411.18, 9.42, 233.62
411.19, 9.57, 233.58
409.40, 7.21, 240.33
409.46, 7.21, 240.11
409.52, 7.22, 239.87
409.58, 7.22, 239.62
409.65, 7.22, 239.35
409.72, 7.22, 239.05
409.80, 7.22, 238.73
409.88, 7.23, 238.38
409.98, 7.23, 238.00
410.06, 7.25, 237.65
410.16, 7.27, 237.28
410.26, 7.29, 236.85
410.30, 7.38, 236.70
410.29, 7.50, 236.70
410.29, 7.62, 236.70
410.29, 7.74, 236.70
410.29, 7.86, 236.70
410.28, 7.98, 236.71
410.28, 8.10, 236.71
410.28, 8.22, 236.71
410.28, 8.33, 236.71
410.32, 8.43, 236.53
411.14, 8.30, 233.24
410.98, 8.50, 233.87
411.07, 8.63, 233.49
411.08, 8.79, 233.45
411.08, 8.94, 233.40
411.09, 9.10, 233.35
411.10, 9.26, 233.31
411.11, 9.42, 233.26
411.12, 9.58, 233.21
409.34, 7.21, 240.31
¯409.39, 7.21, 240.09
409.44, 7.21, 239.85
409.50, 7.21, 239.60
409.57, 7.22, 239.32
409.64, 7.22, 239.03
409.71, 7.22, 238.71
409.79, 7.22, 238.36
409.89, 7.22, 237.96
409.97, 7.24, 237.61
410.06, 7.26, 237.23
410.15, 7.29, 236.81
410.20, 7.36, 236.59
410.20, 7.48, 236.58
410.20, 7.60, 236.58
410.20, 7.72, 236.57
410.20, 7.84, 236.57
410.20, 7.96, 236.56
410.20, 8.08, 236.56
410.20, 8.20, 236.55
410.20, 8.32, 236.55
410.20, 8.43, 236.53
411.06, 8.27, 232.87
410.81, 8.50, 233.90
410.99, 8.61, 233.12
411.00, 8.77, 233.07
411.01, 8.93, 233.03
411.02, 9.09, 232.98
411.03, 9.25, 232.93
411.04, 9.42, 232.88
411.04, 9.58, 232.83
409.27, 7.21, 240.29
409.32, 7.21, 240.07
409.37, 7.21, 239.83
409.43, 7.21, 239.58
409.49, 7.21, 239.30
409.55, 7.22, 239.01
409.62, 7.22, 238.68
409.70, 7.22, 238.33
409.79, 7.22, 237.92
409.87, 7.24, 237.57
409.95, 7.26, 237.18
410.05, 7.28, 236.77
410.15, 7.31, 236.31
410.15, 7.43, 236.30
410.15, 7.55, 236.29
410.15, 7.68, 236.29
410.14, 7.80, 236.28
410.14, 7.92, 236.27
410.14, 8.04, 236.27
410.14, 8.17, 236.26
410.14, 8.29, 236.26
¯410.14, 8.41, 236.25
411.37, 8.10, 230.70
410.65, 8.50, 233.93
409.20, 7.21, 240.28
409.25, 7.21, 240.05
409.29, 7.21, 239.81
409.35, 7.21, 239.56
409.41, 7.21, 239.28
409.47, 7.21, 238.99
409.54, 7.22, 238.66
409.61, 7.22, 238.31
409.70, 7.21, 237.90
409.77, 7.23, 237.53
409.85, 7.25, 237.14
409.94, 7.27, 236.72
410.03, 7.30, 236.27
410.09, 7.37, 235.99
410.09, 7.50, 235.99
410.09, 7.63, 235.98
410.09, 7.75, 235.98
410.08, 7.88, 235.97
410.08, 8.01, 235.96
410.08, 8.13, 235.96
410.08, 8.26, 235.95
410.08, 8.38, 235.95
411.29, 8.06, 230.18
410.49, 8.50, 233.97
409.13, 7.20, 240.26
409.17, 7.21, 240.04
409.22, 7.21, 239.80
409.27, 7.21, 239.54
409.32, 7.21, 239.27
409.38, 7.21, 238.97
409.45, 7.21, 238.64
409.52, 7.22, 238.29
409.60, 7.21, 237.87
409.67, 7.22, 237.49
409.75, 7.24, 237.10
409.83, 7.27, 236.67
409.92, 7.29, 236.22
410.03, 7.31, 235.67
410.03, 7.45, 235.67
410.02, 7.58, 235.66
410.02, 7.71, 235.65
410.02, 7.84, 235.65
410.02, 7.97, 235.64
410.02, 8.09, 235.64
410.02, 8.22, 235.63
410.02, 8.35, 235.62
410.33, 8.51, 234.00
409.06, 7.20, 240.24
¯409.10, 7.20, 240.02
409.15, 7.20, 239.78
409.19, 7.21, 239.52
409.24, 7.21, 239.25
409.30, 7.21, 238.95
409.36, 7.21, 238.62
409.42, 7.21, 238.27
409.50, 7.21, 237.85
409.57, 7.22, 237.45
409.65, 7.24, 237.05
409.72, 7.26, 236.63
409.80, 7.29, 236.18
409.90, 7.31, 235.65
409.96, 7.39, 235.33
409.96, 7.52, 235.32
409.96, 7.66, 235.31
409.96, 7.79, 235.31
409.95, 7.92, 235.30
409.95, 8.06, 235.29
409.95, 8.19, 235.29
409.95, 8.32, 235.28
410.00, 8.43, 235.02
410.18, 8.51, 234.03
408.99, 7.20, 240.23
409.03, 7.20, 240.01
409.07, 7.20, 239.77
409.12, 7.20, 239.51
409.16, 7.21, 239.23
409.21, 7.21, 238.93
409.27, 7.21, 238.60
409.33, 7.21, 238.25
409.40, 7.20, 237.83
409.47, 7.21, 237.41
409.54, 7.23, 237.01
409.61, 7.25, 236.58
409.69, 7.28, 236.14
409.78, 7.31, 235.62
409.89, 7.32, 234.97
409.89, 7.46, 234.96
409.89, 7.60, 234.95
409.88, 7.74, 234.94
409.80, 7.93, 235.39
409.80, 8.07, 235.39
409.80, 8.20, 235.39
409.80, 8.33, 235.39
409.88, 8.43, 234.91
410.02, 8.51, 234.06
408.92, 7.20, 240.22
408.96, 7.20, 239.99
409.00, 7.20, 239.75
409.04, 7.20, 239.49
¯409.08, 7.20, 239.21
409.13, 7.20, 238.91
409.18, 7.21, 238.59
409.24, 7.21, 238.23
409.30, 7.20, 237.80
409.37, 7.20, 237.37
409.44, 7.22, 236.97
409.50, 7.24, 236.54
409.57, 7.27, 236.10
409.65, 7.31, 235.60
409.68, 7.41, 235.42
409.68, 7.54, 235.42
409.67, 7.67, 235.42
409.67, 7.81, 235.42
409.67, 7.94, 235.42
409.66, 8.07, 235.42
409.66, 8.20, 235.42
409.66, 8.33, 235.39
409.72, 8.43, 235.04
409.87, 8.51, 234.09
409.86, 8.65, 234.09
409.86, 8.80, 234.09
409.86, 8.95, 234.09
409.86, 9.09, 234.09
409.85, 9.24, 234.09
409.85, 9.39, 234.09
409.85, 9.53, 234.09
408.85, 7.20, 240.20
408.89, 7.20, 239.98
408.92, 7.20, 239.74
408.96, 7.20, 239.48
409.00, 7.20, 239.20
409.04, 7.20, 238.90
409.09, 7.20, 238.57
409.14, 7.20, 238.21
409.21, 7.20, 237.78
409.27, 7.19, 237.33
409.33, 7.21, 236.93
409.39, 7.24, 236.49
409.46, 7.27, 236.05
409.53, 7.30, 235.57
409.55, 7.40, 235.36
409.56, 7.52, 235.32
409.56, 7.65, 235.27
409.57, 7.78, 235.22
409.57, 7.91, 235.17
409.58, 8.04, 235.12
409.58, 8.17, 235.07
409.59, 8.30, 235.02
409.59, 8.43, 234.97
409.72, 8.51, 234.09
¯409.72, 8.65, 234.08
409.72, 8.80, 234.07
409.71, 8.95, 234.07
409.71, 9.09, 234.06
409.71, 9.24, 234.05
409.71, 9.39, 234.04
409.71, 9.53, 234.03
408.78, 7.19, 240.19
408.81, 7.20, 239.97
408.85, 7.20, 239.73
408.88, 7.20, 239.47
408.92, 7.20, 239.19
408.96, 7.20, 238.88
409.00, 7.20, 238.55
409.05, 7.20, 238.19
409.11, 7.19, 237.77
409.17, 7.19, 237.30
409.22, 7.21, 236.89
409.28, 7.23, 236.45
409.34, 7.26, 236.02
409.40, 7.30, 235.55
409.47, 7.33, 234.99
409.48, 7.46, 234.94
409.48, 7.59, 234.89
409.49, 7.72, 234.83
409.49, 7.86, 234.78
409.50, 7.99, 234.73
409.50, 8.12, 234.67
409.51, 8.26, 234.62
409.51, 8.40, 234.57
409.63, 8.48, 233.64
409.63, 8.63, 233.63
409.63, 8.78, 233.63
409.63, 8.93, 233.62
409.62, 9.08, 233.61
409.62, 9.23, 233.60
409.62, 9.39, 233.59
409.62, 9.54, 233.58
408.71, 7.19, 240.18
408.74, 7.19, 239.96
408.77, 7.19, 239.71
408.80, 7.19, 239.45
408.84, 7.20, 239.17
408.87, 7.20, 238.87
408.91, 7.20, 238.54
408.96, 7.20, 238.17
409.01, 7.19, 237.75
409.06, 7.18, 237.28
409.12, 7.20, 236.85
409.17, 7.22, 236.41
409.22, 7.25, 235.98
¯409.28, 7.29, 235.52
409.35, 7.31, 234.87
409.39, 7.39, 234.53
409.40, 7.53, 234.48
409.40, 7.67, 234.42
409.40, 7.80, 234.36
409.44, 7.92, 234.09
409.43, 8.06, 234.09
409.43, 8.21, 234.09
409.43, 8.36, 234.09
409.42, 8.50, 234.09
409.42, 8.65, 234.09
409.42, 8.80, 234.09
409.42, 8.94, 234.09
409.41, 9.09, 234.09
409.41, 9.23, 234.09
409.41, 9.38, 234.09
409.40, 9.52, 234.10
408.64, 7.19, 240.17
408.67, 7.19, 239.95
408.69, 7.19, 239.70
408.72, 7.19, 239.44
408.75, 7.19, 239.16
408.79, 7.19, 238.86
408.82, 7.20, 238.53
408.86, 7.19, 238.16
408.91, 7.19, 237.73
408.96, 7.18, 237.26
409.01, 7.19, 236.82
409.06, 7.21, 236.37
409.10, 7.25, 235.94
409.15, 7.29, 235.47
409.22, 7.31, 234.85
409.30, 7.32, 234.10
409.30, 7.46, 234.04
409.31, 7.60, 233.98
409.31, 7.75, 233.92
409.32, 7.89, 233.85
409.32, 8.03, 233.79
409.32, 8.18, 233.73
409.33, 8.32, 233.67
409.27, 8.50, 234.12
409.28, 8.65, 234.04
409.28, 8.79, 233.98
409.29, 8.93, 233.92
409.29, 9.08, 233.85
409.30, 9.23, 233.79
409.30, 9.38, 233.72
409.31, 9.53, 233.66
408.57, 7.19, 240.16
408.59, 7.19, 239.94
¯408.62, 7.19, 239.69
408.64, 7.19, 239.43
408.67, 7.19, 239.15
408.70, 7.19, 238.85
408.73, 7.19, 238.51
408.77, 7.19, 238.14
408.81, 7.18, 237.72
408.85, 7.18, 237.24
408.90, 7.18, 236.78
408.94, 7.20, 236.33
408.98, 7.24, 235.90
409.03, 7.28, 235.43
409.08, 7.30, 234.83
409.20, 7.24, 233.63
409.20, 7.39, 233.57
409.21, 7.54, 233.50
409.21, 7.68, 233.43
409.21, 7.83, 233.37
409.22, 7.98, 233.30
409.22, 8.13, 233.23
409.22, 8.28, 233.17
409.13, 8.50, 234.15
409.18, 8.62, 233.55
409.19, 8.77, 233.48
409.19, 8.92, 233.41
409.19, 9.07, 233.34
409.20, 9.22, 233.28
409.20, 9.38, 233.21
409.20, 9.54, 233.13
408.50, 7.19, 240.16
408.52, 7.19, 239.93
408.54, 7.19, 239.68
408.56, 7.19, 239.42
