žVERSION 0.7
FIELDS x y z
SIZE 8 8 8
TYPE F F F
COUNT 1 1 1
WIDTH 2271
HEIGHT 1
VIEWPOINT 338.75, 6.88, 312.60 1 333.38, 2.50, 332.01
POINTS 2271
DATA ascii
338.05, 0.46, 349.17
338.63, 0.45, 352.45
335.58, 0.34, 334.90
335.63, 0.34, 335.14
335.68, 0.34, 335.40
335.73, 0.35, 335.68
335.79, 0.35, 335.98
335.84, 0.37, 336.24
335.85, 0.45, 336.31
¯335.90, 0.49, 336.55
335.97, 0.49, 336.95
336.06, 0.50, 337.40
336.17, 0.49, 337.97
336.28, 0.49, 338.56
336.41, 0.49, 339.24
336.55, 0.49, 340.01
336.73, 0.48, 340.95
336.95, 0.47, 342.07
337.19, 0.47, 343.33
337.48, 0.47, 344.86
337.84, 0.47, 346.73
338.29, 0.46, 349.13
335.65, 0.34, 334.89
335.70, 0.34, 335.13
335.76, 0.34, 335.39
335.81, 0.35, 335.67
335.87, 0.35, 335.97
335.88, 0.43, 335.99
335.91, 0.48, 336.16
335.99, 0.49, 336.53
336.07, 0.49, 336.93
336.16, 0.50, 337.37
336.28, 0.49, 337.95
336.40, 0.49, 338.54
336.53, 0.49, 339.22
336.69, 0.49, 339.99
336.88, 0.48, 340.92
337.11, 0.47, 342.04
337.36, 0.47, 343.31
337.67, 0.47, 344.83
338.05, 0.47, 346.70
338.54, 0.47, 349.09
335.73, 0.34, 334.88
335.78, 0.34, 335.12
335.83, 0.34, 335.37
335.89, 0.35, 335.65
335.91, 0.41, 335.73
335.94, 0.47, 335.85
336.00, 0.49, 336.14
336.08, 0.49, 336.50
336.16, 0.50, 336.89
336.26, 0.50, 337.33
336.38, 0.49, 337.93
336.51, 0.49, 338.52
336.66, 0.49, 339.19
336.82, 0.49, 339.96
337.03, 0.48, 340.90
337.26, 0.47, 342.01
337.54, 0.47, 343.28
337.87, 0.47, 344.79
¯338.27, 0.47, 346.67
338.78, 0.47, 349.04
335.80, 0.34, 334.86
335.85, 0.34, 335.10
335.91, 0.34, 335.36
335.94, 0.39, 335.50
335.96, 0.45, 335.57
336.01, 0.48, 335.78
336.08, 0.49, 336.11
336.16, 0.49, 336.47
336.25, 0.50, 336.86
336.35, 0.51, 337.30
336.49, 0.49, 337.91
336.63, 0.49, 338.50
336.78, 0.49, 339.17
336.96, 0.49, 339.94
337.17, 0.48, 340.87
337.42, 0.47, 341.97
337.71, 0.47, 343.25
338.06, 0.47, 344.76
338.49, 0.47, 346.63
339.03, 0.47, 348.99
339.70, 0.77, 351.95
339.77, 1.04, 352.25
335.87, 0.34, 334.85
335.93, 0.34, 335.08
335.97, 0.36, 335.28
335.98, 0.44, 335.31
336.02, 0.48, 335.46
336.09, 0.49, 335.76
336.17, 0.49, 336.08
336.25, 0.50, 336.44
336.35, 0.50, 336.83
336.45, 0.51, 337.26
336.60, 0.49, 337.89
336.74, 0.49, 338.48
336.91, 0.49, 339.14
337.09, 0.49, 339.91
337.31, 0.48, 340.83
337.58, 0.47, 341.94
337.89, 0.47, 343.21
338.25, 0.47, 344.72
338.70, 0.47, 346.59
339.27, 0.47, 348.95
339.46, 0.66, 349.73
339.46, 0.92, 349.74
339.65, 1.13, 350.53
340.09, 1.32, 352.36
340.31, 3.42, 353.29
335.94, 0.34, 334.83
336.00, 0.34, 335.07
¯336.00, 0.42, 335.07
336.03, 0.47, 335.19
336.09, 0.48, 335.43
336.17, 0.49, 335.73
336.25, 0.49, 336.05
336.34, 0.50, 336.41
336.44, 0.50, 336.80
336.55, 0.51, 337.23
336.71, 0.49, 337.86
336.86, 0.49, 338.45
337.03, 0.49, 339.12
337.22, 0.49, 339.88
337.46, 0.48, 340.80
337.74, 0.47, 341.90
338.06, 0.47, 343.17
338.45, 0.47, 344.68
338.92, 0.47, 346.54
339.44, 0.50, 348.57
339.27, 0.80, 347.90
339.31, 1.03, 348.09
339.55, 1.22, 349.04
340.12, 1.37, 351.27
336.01, 0.34, 334.81
336.03, 0.40, 334.88
336.05, 0.45, 334.96
336.10, 0.48, 335.14
336.17, 0.49, 335.40
336.25, 0.49, 335.70
336.33, 0.50, 336.02
336.43, 0.50, 336.37
336.53, 0.51, 336.76
336.65, 0.51, 337.19
336.81, 0.49, 337.82
336.97, 0.49, 338.42
337.15, 0.49, 339.09
337.36, 0.49, 339.85
337.60, 0.48, 340.76
337.89, 0.47, 341.86
338.24, 0.47, 343.13
338.64, 0.47, 344.64
339.14, 0.47, 346.49
339.13, 0.69, 346.49
339.13, 0.91, 346.49
339.24, 1.11, 346.90
339.48, 1.28, 347.78
336.05, 0.37, 334.69
336.06, 0.44, 334.74
336.10, 0.48, 334.87
336.17, 0.48, 335.11
336.24, 0.49, 335.37
336.32, 0.49, 335.67
¯336.41, 0.50, 335.99
336.51, 0.50, 336.34
336.62, 0.51, 336.73
336.74, 0.52, 337.15
336.91, 0.49, 337.77
337.09, 0.49, 338.39
337.28, 0.49, 339.05
337.49, 0.49, 339.81
337.74, 0.48, 340.72
338.05, 0.47, 341.82
338.41, 0.47, 343.09
338.83, 0.47, 344.59
339.35, 0.47, 346.44
340.26, 0.38, 349.68
340.54, 0.56, 350.69
340.65, 0.81, 351.09
339.52, 1.32, 347.05
336.07, 0.43, 334.52
336.11, 0.47, 334.63
336.17, 0.48, 334.84
336.24, 0.49, 335.08
336.32, 0.49, 335.34
336.40, 0.50, 335.64
336.50, 0.50, 335.96
336.60, 0.51, 336.31
336.71, 0.51, 336.69
336.84, 0.52, 337.11
337.01, 0.50, 337.71
337.20, 0.49, 338.36
337.40, 0.49, 339.02
337.62, 0.49, 339.78
337.89, 0.48, 340.68
338.21, 0.47, 341.77
338.58, 0.47, 343.05
339.02, 0.47, 344.54
339.56, 0.47, 346.39
340.26, 0.46, 348.76
340.48, 0.65, 349.51
340.48, 0.92, 349.52
339.58, 1.35, 346.44
341.34, 1.31, 352.45
341.37, 1.61, 352.54
341.45, 1.90, 352.81
336.12, 0.46, 334.42
336.17, 0.47, 334.59
336.24, 0.48, 334.81
336.31, 0.49, 335.05
336.39, 0.50, 335.31
336.48, 0.50, 335.61
336.58, 0.50, 335.92
336.68, 0.51, 336.27
¯336.80, 0.52, 336.65
336.93, 0.52, 337.07
337.11, 0.51, 337.66
337.32, 0.49, 338.33
337.52, 0.49, 338.99
337.75, 0.49, 339.74
338.03, 0.48, 340.64
338.36, 0.47, 341.72
338.75, 0.47, 343.00
339.21, 0.47, 344.49
340.00, 0.39, 347.05
340.22, 0.55, 347.77
340.33, 0.76, 348.15
340.27, 1.02, 347.95
341.41, 1.05, 351.65
341.47, 1.33, 351.85
341.55, 1.62, 352.10
341.67, 1.91, 352.51
336.17, 0.47, 334.35
336.23, 0.48, 334.56
336.31, 0.48, 334.79
336.38, 0.49, 335.02
336.46, 0.50, 335.28
336.55, 0.50, 335.56
336.66, 0.51, 335.89
336.77, 0.51, 336.23
336.89, 0.52, 336.61
337.02, 0.53, 337.03
337.21, 0.51, 337.60
337.43, 0.49, 338.30
337.64, 0.49, 338.95
337.88, 0.49, 339.70
338.17, 0.48, 340.59
338.51, 0.47, 341.67
338.92, 0.47, 342.95
339.40, 0.47, 344.44
340.03, 0.45, 346.39
340.18, 0.63, 346.87
340.20, 0.86, 346.94
340.03, 1.13, 346.40
341.56, 1.08, 351.19
341.65, 1.35, 351.45
341.79, 1.62, 351.89
341.96, 1.91, 352.42
336.23, 0.47, 334.33
336.30, 0.48, 334.54
336.38, 0.48, 334.76
336.45, 0.49, 334.99
336.54, 0.50, 335.24
336.63, 0.51, 335.52
336.74, 0.51, 335.85
¯336.85, 0.51, 336.19
336.98, 0.52, 336.57
337.12, 0.53, 336.99
337.30, 0.52, 337.54
337.54, 0.49, 338.26
337.76, 0.49, 338.91
338.01, 0.49, 339.66
338.31, 0.48, 340.54
338.67, 0.47, 341.62
339.09, 0.47, 342.90
339.59, 0.47, 344.38
340.62, 0.33, 347.46
341.46, 0.33, 349.98
341.58, 0.57, 350.34
341.65, 0.83, 350.56
341.76, 1.09, 350.88
341.90, 1.35, 351.29
342.10, 1.62, 351.91
336.29, 0.47, 334.30
336.37, 0.48, 334.51
336.44, 0.48, 334.73
336.52, 0.50, 334.96
336.61, 0.50, 335.21
336.70, 0.51, 335.48
336.82, 0.51, 335.82
336.94, 0.52, 336.16
337.07, 0.52, 336.53
337.21, 0.53, 336.94
337.40, 0.52, 337.48
337.66, 0.49, 338.22
337.88, 0.49, 338.87
338.14, 0.49, 339.62
338.45, 0.48, 340.50
338.82, 0.48, 341.57
339.26, 0.47, 342.84
339.78, 0.47, 344.32
340.85, 0.33, 347.39
341.01, 0.52, 347.86
341.05, 0.76, 347.98
341.86, 0.84, 350.32
342.00, 1.09, 350.71
342.24, 1.34, 351.41
336.35, 0.48, 334.27
336.43, 0.48, 334.48
336.51, 0.49, 334.70
336.59, 0.50, 334.92
336.68, 0.51, 335.17
336.78, 0.51, 335.44
336.90, 0.51, 335.78
337.02, 0.52, 336.12
337.15, 0.53, 336.49
¯337.30, 0.53, 336.90
337.49, 0.53, 337.41
337.77, 0.49, 338.18
338.00, 0.49, 338.83
338.27, 0.49, 339.58
338.59, 0.48, 340.44
338.97, 0.48, 341.51
339.43, 0.47, 342.78
339.96, 0.47, 344.25
341.07, 0.33, 347.31
341.10, 0.56, 347.39
341.15, 0.79, 347.55
341.32, 1.00, 348.00
336.42, 0.48, 334.25
336.49, 0.48, 334.45
336.58, 0.49, 334.67
336.66, 0.50, 334.89
336.75, 0.51, 335.14
336.85, 0.52, 335.41
336.98, 0.52, 335.74
337.10, 0.52, 336.07
337.24, 0.53, 336.44
337.39, 0.54, 336.85
337.58, 0.54, 337.35
337.88, 0.49, 338.14
338.12, 0.49, 338.79
338.40, 0.49, 339.53
338.72, 0.49, 340.39
339.12, 0.48, 341.45
339.60, 0.47, 342.72
340.57, 0.33, 345.30
341.18, 0.36, 346.93
341.18, 0.60, 346.93
341.25, 0.82, 347.13
341.45, 1.02, 347.64
336.48, 0.48, 334.22
336.56, 0.48, 334.42
336.64, 0.49, 334.64
336.73, 0.50, 334.86
336.82, 0.51, 335.10
336.93, 0.52, 335.37
337.06, 0.52, 335.70
337.18, 0.52, 336.03
337.33, 0.53, 336.40
337.48, 0.54, 336.80
337.67, 0.54, 337.28
337.99, 0.49, 338.10
338.24, 0.49, 338.74
338.53, 0.49, 339.48
338.86, 0.49, 340.34
339.27, 0.48, 341.39
¯339.77, 0.47, 342.66
340.76, 0.33, 345.22
341.26, 0.40, 346.49
341.26, 0.63, 346.49
341.35, 0.85, 346.72
341.57, 1.04, 347.29
336.54, 0.48, 334.20
336.62, 0.49, 334.39
336.71, 0.49, 334.61
336.80, 0.50, 334.83
336.89, 0.51, 335.06
337.00, 0.52, 335.33
337.13, 0.52, 335.65
337.27, 0.53, 335.99
337.41, 0.53, 336.35
337.57, 0.54, 336.75
337.76, 0.55, 337.21
338.10, 0.49, 338.06
338.36, 0.49, 338.70
338.66, 0.49, 339.43
339.00, 0.49, 340.28
339.42, 0.48, 341.33
339.93, 0.47, 342.59
340.96, 0.33, 345.14
341.34, 0.44, 346.07
341.34, 0.67, 346.07
341.44, 0.87, 346.33
341.69, 1.06, 346.95
336.60, 0.48, 334.17
336.69, 0.49, 334.36
336.78, 0.49, 334.58
336.87, 0.50, 334.81
336.96, 0.52, 335.03
337.07, 0.53, 335.29
337.20, 0.53, 335.59
337.35, 0.53, 335.95
337.50, 0.54, 336.31
337.66, 0.55, 336.70
337.85, 0.55, 337.14
338.20, 0.49, 337.98
338.48, 0.49, 338.65
338.78, 0.49, 339.38
339.14, 0.49, 340.23
339.57, 0.48, 341.26
340.09, 0.47, 342.52
341.16, 0.33, 345.06
341.41, 0.48, 345.67
341.42, 0.70, 345.70
341.53, 0.90, 345.95
343.25, 0.82, 350.08
343.84, 1.02, 351.49
¯336.67, 0.48, 334.14
336.75, 0.49, 334.33
336.84, 0.49, 334.55
336.94, 0.50, 334.78
337.03, 0.52, 334.99
337.14, 0.53, 335.25
337.27, 0.54, 335.53
337.43, 0.53, 335.90
337.58, 0.54, 336.26
337.75, 0.55, 336.65
337.94, 0.56, 337.09
338.29, 0.50, 337.90
338.59, 0.49, 338.60
338.91, 0.49, 339.33
339.27, 0.49, 340.17
339.71, 0.48, 341.19
340.25, 0.47, 342.44
341.35, 0.33, 344.98
341.48, 0.51, 345.28
341.51, 0.72, 345.34
341.61, 0.92, 345.58
343.14, 0.89, 349.12
343.80, 1.06, 350.64
336.73, 0.48, 334.11
336.81, 0.49, 334.30
336.91, 0.50, 334.51
337.01, 0.50, 334.74
337.10, 0.52, 334.95
337.22, 0.53, 335.21
337.34, 0.54, 335.49
337.51, 0.53, 335.86
337.66, 0.54, 336.21
337.84, 0.55, 336.60
338.03, 0.56, 337.03
338.38, 0.51, 337.81
338.71, 0.49, 338.55
339.03, 0.49, 339.27
339.41, 0.49, 340.11
339.86, 0.48, 341.12
340.41, 0.47, 342.36
341.55, 0.33, 344.90
341.55, 0.54, 344.90
341.59, 0.75, 345.00
341.69, 0.94, 345.23
342.77, 0.99, 347.64
336.79, 0.48, 334.08
336.87, 0.49, 334.27
336.97, 0.50, 334.48
337.08, 0.50, 334.71
337.17, 0.52, 334.92
337.29, 0.53, 335.16
¯337.42, 0.54, 335.44
337.58, 0.54, 335.81
337.75, 0.54, 336.16
337.93, 0.55, 336.55
338.12, 0.56, 336.98
338.47, 0.52, 337.73
338.82, 0.49, 338.50
339.16, 0.49, 339.21
339.54, 0.49, 340.05
340.00, 0.48, 341.05
341.04, 0.33, 343.28
341.62, 0.36, 344.54
341.62, 0.57, 344.54
341.67, 0.77, 344.66
341.78, 0.97, 344.90
342.92, 1.00, 347.36
336.85, 0.48, 334.05
336.94, 0.49, 334.24
337.03, 0.50, 334.44
337.14, 0.50, 334.67
337.24, 0.52, 334.88
337.36, 0.54, 335.12
337.49, 0.55, 335.40
337.66, 0.54, 335.76
337.83, 0.55, 336.11
338.01, 0.56, 336.49
338.21, 0.56, 336.92
338.56, 0.52, 337.64
338.94, 0.49, 338.44
339.28, 0.49, 339.16
339.67, 0.49, 339.98
340.15, 0.48, 340.98
341.21, 0.33, 343.20
341.68, 0.40, 344.19
341.68, 0.60, 344.19
341.75, 0.80, 344.33
341.88, 0.98, 344.62
343.06, 1.01, 347.09
336.91, 0.48, 334.02
337.00, 0.49, 334.21
337.10, 0.50, 334.41
337.21, 0.51, 334.63
337.32, 0.52, 334.85
337.43, 0.54, 335.08
337.56, 0.55, 335.35
337.73, 0.55, 335.69
337.91, 0.55, 336.06
338.10, 0.56, 336.44
338.30, 0.57, 336.86
338.64, 0.53, 337.55
339.05, 0.49, 338.39
¯339.40, 0.49, 339.10
339.81, 0.49, 339.92
340.29, 0.48, 340.90
341.37, 0.33, 343.10
341.74, 0.43, 343.85
341.74, 0.63, 343.85
341.82, 0.82, 344.02
341.98, 1.00, 344.34
343.20, 1.02, 346.83
343.40, 1.24, 347.22
343.35, 1.49, 347.12
343.35, 1.74, 347.12
343.43, 1.98, 347.29
336.97, 0.48, 333.99
337.06, 0.49, 334.17
337.16, 0.50, 334.37
337.27, 0.51, 334.59
337.39, 0.52, 334.82
337.50, 0.54, 335.03
337.63, 0.55, 335.30
337.80, 0.55, 335.62
337.99, 0.55, 336.01
338.18, 0.56, 336.38
338.39, 0.57, 336.80
338.73, 0.54, 337.46
339.17, 0.49, 338.33
339.52, 0.49, 339.03
339.94, 0.49, 339.85
340.43, 0.48, 340.82
341.53, 0.33, 343.00
341.80, 0.46, 343.53
341.80, 0.66, 343.53
341.90, 0.84, 343.71
342.08, 1.01, 344.07
343.34, 1.03, 346.57
343.58, 1.25, 347.03
343.53, 1.50, 346.93
343.53, 1.74, 346.93
343.61, 1.99, 347.10
337.03, 0.48, 333.95
337.12, 0.49, 334.14
337.22, 0.50, 334.33
337.34, 0.51, 334.55
337.46, 0.52, 334.78
337.57, 0.54, 334.99
337.70, 0.55, 335.26
337.86, 0.56, 335.55
338.07, 0.55, 335.95
338.26, 0.56, 336.33
338.48, 0.57, 336.74
338.81, 0.55, 337.37
¯339.28, 0.49, 338.27
339.64, 0.49, 338.97
340.07, 0.49, 339.78
340.57, 0.48, 340.74
341.69, 0.34, 342.89
341.86, 0.49, 343.21
341.87, 0.69, 343.23
341.97, 0.86, 343.41
342.17, 1.03, 343.81
343.48, 1.04, 346.31
343.76, 1.25, 346.84
343.71, 1.50, 346.75
343.71, 1.75, 346.75
343.80, 1.99, 346.91
337.08, 0.48, 333.92
337.18, 0.49, 334.11
337.28, 0.50, 334.29
337.40, 0.51, 334.51
337.53, 0.52, 334.75
337.64, 0.54, 334.95
337.78, 0.56, 335.21
337.93, 0.57, 335.50
338.15, 0.56, 335.90
338.35, 0.57, 336.27
338.57, 0.58, 336.68
338.89, 0.56, 337.27
339.38, 0.49, 338.19
339.76, 0.49, 338.90
340.20, 0.49, 339.71
341.18, 0.34, 341.53
341.85, 0.34, 342.79
341.92, 0.52, 342.90
341.94, 0.71, 342.94
342.03, 0.88, 343.12
342.27, 1.04, 343.55
343.61, 1.05, 346.05
343.93, 1.25, 346.65
343.89, 1.50, 346.56
343.89, 1.75, 346.56
343.98, 1.99, 346.72
337.14, 0.49, 333.89
337.25, 0.49, 334.07
337.35, 0.50, 334.26
337.47, 0.51, 334.47
337.60, 0.52, 334.71
337.71, 0.54, 334.92
337.85, 0.56, 335.16
338.00, 0.57, 335.44
338.23, 0.56, 335.85
338.43, 0.57, 336.21
338.65, 0.58, 336.62
¯338.97, 0.57, 337.18
339.46, 0.50, 338.08
339.88, 0.49, 338.84
340.33, 0.49, 339.64
341.32, 0.35, 341.44
341.97, 0.35, 342.61
341.97, 0.54, 342.61
342.00, 0.73, 342.66
342.10, 0.90, 342.84
342.36, 1.06, 343.30
343.74, 1.06, 345.80
344.11, 1.26, 346.46
344.06, 1.51, 346.38
344.06, 1.75, 346.38
344.15, 1.99, 346.54
337.20, 0.49, 333.85
337.31, 0.49, 334.04
337.41, 0.50, 334.22
337.53, 0.51, 334.43
337.66, 0.52, 334.66
337.79, 0.54, 334.88
337.91, 0.56, 335.11
338.08, 0.57, 335.39
338.29, 0.57, 335.77
338.51, 0.57, 336.15
338.74, 0.58, 336.55
339.04, 0.57, 337.08
339.55, 0.51, 337.97
340.00, 0.49, 338.77
340.45, 0.49, 339.56
341.47, 0.35, 341.34
342.02, 0.38, 342.32
342.02, 0.57, 342.32
342.07, 0.75, 342.39
342.16, 0.92, 342.56
342.44, 1.07, 343.05
346.73, 0.69, 350.58
344.28, 1.26, 346.28
344.24, 1.51, 346.20
344.24, 1.75, 346.20
344.33, 1.99, 346.36
337.26, 0.49, 333.81
337.37, 0.49, 334.00
337.47, 0.50, 334.19
337.59, 0.51, 334.39
337.73, 0.52, 334.62
337.86, 0.54, 334.84
337.98, 0.56, 335.06
338.15, 0.57, 335.34
338.35, 0.58, 335.69
338.59, 0.57, 336.09
¯338.82, 0.58, 336.49
339.12, 0.58, 336.99
339.62, 0.52, 337.86
340.12, 0.49, 338.70
340.58, 0.49, 339.49
341.61, 0.35, 341.25
342.07, 0.41, 342.04
342.07, 0.59, 342.04
342.13, 0.77, 342.13
342.23, 0.94, 342.29
343.72, 0.89, 344.85
344.69, 0.99, 346.50
344.46, 1.26, 346.10
344.41, 1.51, 346.01
344.41, 1.75, 346.02
344.51, 1.99, 346.17
337.31, 0.49, 333.78
337.42, 0.49, 333.96
337.54, 0.50, 334.15
337.65, 0.52, 334.34
337.79, 0.52, 334.57
337.93, 0.54, 334.80
338.06, 0.56, 335.02
338.22, 0.58, 335.28
338.41, 0.58, 335.61
338.67, 0.57, 336.03
338.91, 0.58, 336.42
339.19, 0.59, 336.89
339.70, 0.53, 337.74
340.23, 0.49, 338.63
340.71, 0.49, 339.41
341.76, 0.35, 341.16
342.12, 0.43, 341.76
342.12, 0.62, 341.76
342.19, 0.79, 341.87
342.29, 0.96, 342.03
343.83, 0.91, 344.59
344.86, 1.00, 346.30
344.63, 1.27, 345.91
344.58, 1.51, 345.83
344.59, 1.75, 345.84
344.68, 1.99, 345.99
337.37, 0.49, 333.74
337.48, 0.49, 333.93
337.60, 0.50, 334.11
337.72, 0.52, 334.30
337.86, 0.52, 334.53
338.00, 0.54, 334.76
338.13, 0.56, 334.98
338.29, 0.58, 335.23
338.48, 0.59, 335.53
¯338.75, 0.58, 335.97
338.99, 0.59, 336.36
339.26, 0.60, 336.79
339.78, 0.54, 337.63
340.35, 0.49, 338.55
340.83, 0.49, 339.33
341.91, 0.35, 341.07
342.64, 0.34, 342.26
342.99, 0.46, 342.81
342.25, 0.81, 341.62
342.36, 0.97, 341.80
343.94, 0.92, 344.34
345.03, 1.00, 346.11
344.80, 1.27, 345.73
344.75, 1.51, 345.66
344.76, 1.75, 345.66
344.85, 1.99, 345.81
337.42, 0.49, 333.70
337.54, 0.49, 333.89
337.66, 0.50, 334.07
337.78, 0.52, 334.26
337.92, 0.53, 334.48
338.07, 0.53, 334.72
338.21, 0.56, 334.93
338.36, 0.58, 335.17
338.55, 0.59, 335.47
338.82, 0.58, 335.90
339.07, 0.59, 336.29
339.35, 0.60, 336.72
339.85, 0.55, 337.51
340.46, 0.49, 338.48
341.43, 0.35, 340.00
342.05, 0.35, 340.97
342.80, 0.34, 342.14
343.04, 0.49, 342.52
343.02, 0.69, 342.49
342.48, 0.98, 341.64
344.04, 0.93, 344.10
345.20, 1.00, 345.91
344.97, 1.27, 345.55
344.92, 1.52, 345.48
344.93, 1.75, 345.48
345.02, 1.99, 345.63
337.48, 0.49, 333.66
337.60, 0.49, 333.85
337.72, 0.50, 334.03
337.84, 0.52, 334.22
337.98, 0.53, 334.43
338.14, 0.53, 334.67
338.28, 0.56, 334.89
338.43, 0.58, 335.12
¯338.62, 0.60, 335.41
338.88, 0.59, 335.81
339.15, 0.59, 336.22
339.43, 0.60, 336.65
339.92, 0.56, 337.40
340.57, 0.49, 338.39
341.56, 0.35, 339.91
342.19, 0.35, 340.87
342.95, 0.35, 342.03
343.09, 0.51, 342.25
343.05, 0.71, 342.19
342.86, 0.94, 341.89
344.14, 0.94, 343.86
345.37, 1.01, 345.72
345.14, 1.28, 345.37
345.09, 1.52, 345.30
345.10, 1.76, 345.31
345.19, 1.99, 345.45
337.53, 0.49, 333.63
337.65, 0.50, 333.80
337.78, 0.50, 333.99
337.91, 0.52, 334.18
338.04, 0.53, 334.39
338.20, 0.54, 334.62
338.35, 0.55, 334.85
338.51, 0.58, 335.07
338.69, 0.60, 335.35
338.94, 0.60, 335.72
339.23, 0.59, 336.16
339.51, 0.61, 336.58
339.99, 0.57, 337.28
340.64, 0.50, 338.26
341.69, 0.35, 339.82
342.33, 0.35, 340.77
343.10, 0.35, 341.91
343.14, 0.53, 341.97
343.09, 0.73, 341.90
342.98, 0.94, 341.73
344.25, 0.95, 343.62
345.53, 1.01, 345.53
345.31, 1.28, 345.20
345.26, 1.52, 345.13
345.27, 1.76, 345.13
345.36, 1.99, 345.28
337.59, 0.49, 333.59
337.71, 0.50, 333.76
337.84, 0.50, 333.95
337.97, 0.52, 334.14
338.11, 0.53, 334.34
338.27, 0.54, 334.57
338.43, 0.55, 334.80
¯338.58, 0.58, 335.03
338.76, 0.60, 335.29
339.00, 0.61, 335.63
339.31, 0.60, 336.09
339.60, 0.61, 336.50
340.05, 0.58, 337.16
340.71, 0.51, 338.12
341.82, 0.35, 339.73
342.47, 0.35, 340.67
343.23, 0.35, 341.77
343.23, 0.54, 341.77
344.20, 0.56, 343.18
344.24, 0.76, 343.24
344.34, 0.96, 343.38
345.70, 1.01, 345.35
345.47, 1.28, 345.02
345.43, 1.52, 344.95
345.43, 1.76, 344.96
345.53, 1.99, 345.10
337.64, 0.49, 333.54
337.77, 0.50, 333.72
337.90, 0.50, 333.91
338.03, 0.51, 334.10
338.17, 0.53, 334.29
338.33, 0.54, 334.52
338.50, 0.55, 334.76
338.66, 0.58, 334.98
338.83, 0.60, 335.23
339.05, 0.62, 335.54
339.39, 0.60, 336.02
339.68, 0.61, 336.43
340.12, 0.59, 337.04
340.78, 0.52, 337.98
341.95, 0.35, 339.63
342.61, 0.35, 340.57
343.39, 0.35, 341.68
344.29, 0.36, 342.95
344.29, 0.57, 342.94
344.34, 0.77, 343.01
344.45, 0.97, 343.17
345.86, 1.02, 345.16
345.64, 1.28, 344.84
345.59, 1.52, 344.78
345.60, 1.76, 344.78
345.70, 1.99, 344.92
337.69, 0.49, 333.50
337.82, 0.50, 333.68
337.96, 0.50, 333.87
338.09, 0.51, 334.05
338.23, 0.53, 334.25
338.39, 0.54, 334.47
¯338.57, 0.55, 334.71
338.73, 0.58, 334.93
338.90, 0.60, 335.17
339.12, 0.62, 335.47
339.45, 0.61, 335.92
339.76, 0.61, 336.35
340.18, 0.60, 336.93
340.84, 0.53, 337.84
342.07, 0.35, 339.54
342.74, 0.35, 340.46
343.54, 0.35, 341.56
344.38, 0.37, 342.72
344.38, 0.58, 342.71
344.44, 0.78, 342.79
344.56, 0.98, 342.96
346.03, 1.02, 344.98
345.80, 1.28, 344.67
345.76, 1.52, 344.60
345.77, 1.76, 344.61
345.87, 1.99, 344.75
337.75, 0.49, 333.46
337.87, 0.50, 333.63
338.01, 0.50, 333.82
338.15, 0.51, 334.01
338.30, 0.53, 334.20
338.46, 0.54, 334.41
338.64, 0.55, 334.66
338.81, 0.57, 334.88
338.98, 0.60, 335.12
339.19, 0.62, 335.40
339.50, 0.62, 335.82
339.84, 0.62, 336.27
340.24, 0.61, 336.81
340.90, 0.55, 337.70
342.19, 0.35, 339.44
342.88, 0.35, 340.35
343.69, 0.35, 341.44
344.47, 0.39, 342.49
344.47, 0.60, 342.49
344.53, 0.79, 342.57
344.67, 0.98, 342.75
346.19, 1.02, 344.80
345.97, 1.28, 344.50
345.92, 1.52, 344.43
345.93, 1.76, 344.44
346.03, 1.99, 344.57
337.80, 0.49, 333.42
337.93, 0.50, 333.59
338.07, 0.50, 333.77
338.21, 0.51, 333.96
338.36, 0.53, 334.15
¯338.52, 0.54, 334.36
338.70, 0.55, 334.61
338.88, 0.57, 334.84
339.06, 0.60, 335.07
339.26, 0.62, 335.34
339.55, 0.63, 335.72
339.92, 0.62, 336.19
340.30, 0.62, 336.69
340.96, 0.56, 337.56
342.32, 0.35, 339.34
343.01, 0.35, 340.24
343.83, 0.35, 341.32
344.55, 0.40, 342.27
344.56, 0.61, 342.26
344.62, 0.80, 342.35
344.77, 0.99, 342.54
346.33, 1.02, 344.58
346.13, 1.28, 344.32
346.09, 1.52, 344.26
346.09, 1.76, 344.27
346.20, 1.99, 344.40
337.85, 0.49, 333.38
337.98, 0.50, 333.55
338.12, 0.50, 333.73
338.27, 0.51, 333.92
338.42, 0.53, 334.11
338.58, 0.54, 334.31
338.77, 0.55, 334.55
338.95, 0.57, 334.79
339.13, 0.60, 335.02
339.33, 0.62, 335.27
339.60, 0.64, 335.61
340.00, 0.62, 336.12
340.35, 0.63, 336.57
341.02, 0.57, 337.42
342.44, 0.35, 339.23
343.14, 0.35, 340.13
343.98, 0.35, 341.20
344.64, 0.41, 342.05
344.64, 0.62, 342.04
344.72, 0.81, 342.14
344.87, 1.00, 342.34
346.42, 1.03, 344.31
346.30, 1.28, 344.15
346.25, 1.52, 344.09
346.26, 1.76, 344.10
346.36, 1.99, 344.23
337.90, 0.49, 333.33
338.03, 0.50, 333.50
338.18, 0.50, 333.68
338.33, 0.51, 333.87
¯338.48, 0.53, 334.06
338.65, 0.54, 334.26
338.83, 0.55, 334.49
339.03, 0.57, 334.74
339.21, 0.59, 334.96
339.41, 0.62, 335.21
339.66, 0.64, 335.52
340.05, 0.63, 336.01
340.42, 0.64, 336.47
341.07, 0.58, 337.28
342.56, 0.35, 339.13
343.27, 0.35, 340.02
344.12, 0.35, 341.08
344.73, 0.43, 341.83
344.73, 0.63, 341.83
344.80, 0.82, 341.92
344.97, 1.00, 342.13
346.50, 1.04, 344.03
346.46, 1.28, 343.98
346.41, 1.52, 343.92
346.42, 1.76, 343.92
346.53, 1.99, 344.06
337.95, 0.49, 333.29
338.09, 0.50, 333.45
338.23, 0.50, 333.63
338.39, 0.51, 333.82
338.55, 0.52, 334.01
338.71, 0.54, 334.21
338.89, 0.55, 334.43
339.10, 0.56, 334.68
339.29, 0.59, 334.91
339.49, 0.62, 335.15
339.73, 0.64, 335.45
340.10, 0.64, 335.90
340.50, 0.64, 336.38
341.12, 0.59, 337.14
342.67, 0.35, 339.03
343.40, 0.35, 339.90
344.26, 0.35, 340.95
344.85, 0.43, 341.67
344.85, 0.63, 341.67
344.89, 0.83, 341.71
345.07, 1.01, 341.93
346.58, 1.05, 343.77
346.62, 1.28, 343.81
346.58, 1.52, 343.75
346.58, 1.75, 343.75
346.69, 1.98, 343.88
338.00, 0.49, 333.25
338.14, 0.50, 333.41
338.29, 0.51, 333.58
¯338.45, 0.51, 333.77
338.61, 0.52, 333.96
338.77, 0.54, 334.16
338.96, 0.55, 334.37
339.17, 0.56, 334.63
339.36, 0.59, 334.86
339.57, 0.62, 335.10
339.80, 0.65, 335.37
340.15, 0.65, 335.79
340.58, 0.64, 336.30
341.17, 0.61, 337.00
342.79, 0.35, 338.92
343.52, 0.35, 339.79
344.40, 0.35, 340.82
345.46, 0.35, 342.08
345.65, 0.53, 342.31
345.60, 0.75, 342.24
345.25, 1.00, 341.82
346.67, 1.06, 343.50
346.79, 1.28, 343.64
346.74, 1.52, 343.58
346.74, 1.75, 343.58
346.85, 1.98, 343.71
338.05, 0.49, 333.20
338.19, 0.50, 333.36
338.34, 0.51, 333.53
338.50, 0.51, 333.72
338.67, 0.52, 333.91
338.84, 0.54, 334.11
339.02, 0.55, 334.32
339.23, 0.57, 334.56
339.44, 0.59, 334.80
339.65, 0.62, 335.04
339.87, 0.65, 335.30
340.20, 0.66, 335.68
340.66, 0.64, 336.21
341.22, 0.62, 336.86
342.09, 0.54, 337.87
343.24, 0.44, 339.20
344.53, 0.35, 340.69
345.60, 0.35, 341.93
345.74, 0.54, 342.08
345.68, 0.76, 342.01
346.42, 0.88, 342.87
346.75, 1.07, 343.24
346.95, 1.28, 343.47
346.90, 1.52, 343.41
346.90, 1.75, 343.42
347.02, 1.98, 343.54
338.10, 0.49, 333.16
338.24, 0.50, 333.31
¯338.39, 0.51, 333.48
338.56, 0.51, 333.67
338.73, 0.52, 333.86
338.90, 0.54, 334.05
339.09, 0.55, 334.26
339.29, 0.57, 334.50
339.51, 0.58, 334.75
339.72, 0.61, 334.98
339.95, 0.64, 335.24
340.24, 0.67, 335.56
340.71, 0.65, 336.09
341.27, 0.63, 336.72
342.08, 0.57, 337.64
342.29, 0.67, 337.87
343.50, 0.58, 339.24
345.74, 0.35, 341.76
346.35, 0.46, 342.46
346.36, 0.68, 342.46
346.48, 0.89, 342.60
347.35, 1.02, 343.58
347.11, 1.28, 343.30
347.06, 1.52, 343.24
347.07, 1.75, 343.25
347.18, 1.98, 343.37
338.15, 0.49, 333.11
338.29, 0.50, 333.27
338.44, 0.51, 333.43
338.61, 0.51, 333.62
338.78, 0.52, 333.81
338.96, 0.54, 334.00
339.15, 0.55, 334.21
339.35, 0.57, 334.43
339.59, 0.58, 334.69
339.80, 0.61, 334.93
340.03, 0.64, 335.18
340.30, 0.67, 335.48
340.75, 0.66, 335.97
341.87, 0.50, 337.20
342.07, 0.59, 337.42
342.27, 0.69, 337.64
342.48, 0.80, 337.87
345.85, 0.35, 341.58
346.41, 0.48, 342.19
346.42, 0.70, 342.21
346.54, 0.90, 342.34
347.52, 1.02, 343.41
347.27, 1.28, 343.13
347.22, 1.52, 343.08
347.23, 1.75, 343.08
347.34, 1.98, 343.20
338.20, 0.49, 333.06
¯338.34, 0.50, 333.22
338.50, 0.51, 333.38
338.66, 0.51, 333.56
338.84, 0.52, 333.76
339.02, 0.53, 333.95
339.21, 0.55, 334.15
339.42, 0.57, 334.37
339.66, 0.58, 334.63
339.88, 0.61, 334.87
340.12, 0.64, 335.12
340.37, 0.67, 335.39
340.79, 0.67, 335.84
341.86, 0.52, 337.00
342.05, 0.62, 337.20
342.26, 0.72, 337.42
342.47, 0.82, 337.64
342.69, 0.93, 337.88
346.46, 0.49, 341.93
346.48, 0.71, 341.95
346.61, 0.91, 342.08
347.68, 1.02, 343.24
347.43, 1.28, 342.97
347.38, 1.52, 342.91
347.39, 1.75, 342.91
347.50, 1.98, 343.03
338.24, 0.49, 333.02
338.39, 0.50, 333.17
338.55, 0.51, 333.33
338.72, 0.51, 333.51
338.90, 0.52, 333.70
339.08, 0.53, 333.89
339.28, 0.55, 334.09
339.49, 0.57, 334.31
339.72, 0.58, 334.56
339.96, 0.61, 334.81
340.20, 0.64, 335.06
340.46, 0.67, 335.33
340.83, 0.68, 335.72
341.85, 0.55, 336.80
342.04, 0.64, 336.99
342.24, 0.74, 337.20
342.45, 0.84, 337.41
342.66, 0.95, 337.64
342.89, 1.06, 337.88
346.54, 0.72, 341.70
346.67, 0.92, 341.83
347.85, 1.02, 343.07
347.60, 1.28, 342.80
347.54, 1.52, 342.74
347.54, 1.75, 342.74
347.66, 1.98, 342.86
¯338.29, 0.49, 332.97
338.44, 0.50, 333.12
338.60, 0.51, 333.28
338.77, 0.51, 333.45
338.95, 0.52, 333.64
339.14, 0.53, 333.84
339.34, 0.55, 334.04
339.55, 0.56, 334.25
339.78, 0.58, 334.49
340.03, 0.60, 334.75
340.28, 0.63, 334.99
340.54, 0.67, 335.26
340.87, 0.69, 335.60
341.85, 0.57, 336.60
342.03, 0.66, 336.79
342.22, 0.76, 336.98
342.43, 0.86, 337.19
342.64, 0.97, 337.41
342.87, 1.08, 337.64
343.10, 1.20, 337.88
346.77, 0.92, 341.63
348.02, 1.02, 342.90
347.76, 1.28, 342.63
347.70, 1.51, 342.57
347.70, 1.75, 342.57
347.82, 1.97, 342.69
338.34, 0.49, 332.92
338.49, 0.50, 333.07
338.65, 0.51, 333.23
338.82, 0.51, 333.40
339.01, 0.52, 333.59
339.20, 0.53, 333.78
339.40, 0.55, 333.98
339.61, 0.56, 334.19
339.85, 0.58, 334.43
340.11, 0.60, 334.69
340.36, 0.63, 334.93
340.62, 0.66, 335.20
340.92, 0.70, 335.49
341.84, 0.60, 336.41
342.02, 0.69, 336.59
342.21, 0.78, 336.78
342.41, 0.88, 336.98
342.62, 0.99, 337.18
342.84, 1.10, 337.40
343.07, 1.21, 337.63
343.32, 1.33, 337.88
348.96, 0.94, 343.51
349.30, 1.16, 343.85
349.41, 1.41, 343.95
349.38, 1.67, 343.92
¯349.05, 1.94, 343.58
338.38, 0.49, 332.87
338.53, 0.50, 333.02
338.70, 0.51, 333.18
338.87, 0.51, 333.34
339.06, 0.52, 333.53
339.26, 0.53, 333.72
339.46, 0.55, 333.92
339.68, 0.56, 334.13
339.91, 0.58, 334.36
340.18, 0.60, 334.62
340.43, 0.63, 334.87
340.71, 0.66, 335.13
341.00, 0.70, 335.42
341.83, 0.62, 336.22
342.01, 0.71, 336.40
342.19, 0.80, 336.58
342.39, 0.90, 336.77
342.60, 1.00, 336.97
342.81, 1.11, 337.18
343.04, 1.23, 337.40
343.28, 1.35, 337.63
343.54, 1.48, 337.87
349.33, 1.17, 343.51
349.41, 1.42, 343.59
349.37, 1.68, 343.55
349.85, 1.92, 344.01
338.43, 0.49, 332.82
338.58, 0.50, 332.97
338.74, 0.51, 333.12
338.92, 0.51, 333.29
339.11, 0.52, 333.47
339.32, 0.53, 333.66
339.52, 0.54, 333.86
339.74, 0.56, 334.07
339.98, 0.58, 334.30
340.25, 0.60, 334.55
340.51, 0.62, 334.80
340.79, 0.66, 335.06
341.09, 0.69, 335.35
341.82, 0.64, 336.04
341.99, 0.73, 336.21
342.18, 0.82, 336.38
342.37, 0.92, 336.56
342.58, 1.02, 336.75
342.79, 1.13, 336.96
343.01, 1.24, 337.17
343.25, 1.36, 337.39
343.49, 1.49, 337.62
343.76, 1.62, 337.87
350.64, 1.36, 344.41
¯350.65, 1.63, 344.42
350.49, 1.91, 344.26
338.47, 0.49, 332.77
338.63, 0.50, 332.91
338.79, 0.51, 333.07
338.97, 0.51, 333.23
339.16, 0.52, 333.41
339.37, 0.53, 333.60
339.58, 0.54, 333.80
339.80, 0.56, 334.00
340.05, 0.58, 334.23
340.31, 0.60, 334.47
340.59, 0.62, 334.73
340.87, 0.65, 334.99
341.17, 0.69, 335.27
341.82, 0.66, 335.88
341.96, 0.75, 336.00
342.14, 0.85, 336.17
342.33, 0.94, 336.34
342.52, 1.04, 336.52
342.73, 1.15, 336.71
342.94, 1.26, 336.90
343.17, 1.38, 337.11
343.41, 1.51, 337.33
343.66, 1.64, 337.56
350.64, 1.36, 344.04
350.65, 1.63, 344.04
350.96, 1.90, 344.33
338.52, 0.49, 332.72
338.67, 0.50, 332.86
338.84, 0.51, 333.01
339.02, 0.51, 333.18
339.21, 0.52, 333.35
339.42, 0.53, 333.54
339.64, 0.54, 333.74
339.86, 0.56, 333.94
340.11, 0.58, 334.16
340.38, 0.60, 334.40
340.67, 0.62, 334.67
340.95, 0.65, 334.92
341.26, 0.68, 335.20
341.85, 0.67, 335.74
341.97, 0.77, 335.84
342.09, 0.87, 335.95
342.27, 0.97, 336.11
342.46, 1.07, 336.28
342.66, 1.17, 336.46
342.87, 1.28, 336.65
343.09, 1.40, 336.85
343.32, 1.52, 337.05
343.56, 1.65, 337.27
¯344.08, 1.77, 337.73
350.78, 1.63, 343.80
350.96, 1.90, 343.96
352.81, 2.15, 345.62
338.56, 0.49, 332.67
338.72, 0.50, 332.81
338.89, 0.51, 332.96
339.07, 0.51, 333.12
339.26, 0.52, 333.29
339.47, 0.53, 333.48
339.70, 0.54, 333.67
339.93, 0.56, 333.88
340.17, 0.57, 334.09
340.44, 0.59, 334.33
340.75, 0.61, 334.60
341.03, 0.65, 334.85
341.35, 0.68, 335.13
341.88, 0.68, 335.60
342.00, 0.78, 335.70
342.11, 0.88, 335.80
342.23, 0.99, 335.91
342.40, 1.09, 336.06
342.60, 1.19, 336.23
342.80, 1.30, 336.40
343.02, 1.42, 336.59
343.24, 1.54, 336.79
343.48, 1.66, 336.99
343.72, 1.79, 337.21
350.78, 1.64, 343.44
350.97, 1.90, 343.60
352.73, 2.15, 345.15
338.60, 0.49, 332.62
338.76, 0.50, 332.76
338.93, 0.51, 332.90
339.11, 0.51, 333.06
339.31, 0.52, 333.23
339.52, 0.53, 333.41
339.75, 0.54, 333.61
339.99, 0.55, 333.81
340.24, 0.57, 334.03
340.51, 0.59, 334.26
340.81, 0.61, 334.52
341.11, 0.64, 334.78
341.43, 0.68, 335.05
341.91, 0.69, 335.47
342.02, 0.79, 335.56
342.14, 0.89, 335.66
342.26, 1.00, 335.76
342.39, 1.10, 335.87
342.54, 1.21, 336.00
342.74, 1.32, 336.17
¯342.94, 1.43, 336.34
343.16, 1.55, 336.53
343.39, 1.67, 336.72
343.63, 1.80, 336.93
344.39, 1.92, 337.58
351.64, 1.88, 343.82
352.65, 2.15, 344.69
338.64, 0.49, 332.57
338.80, 0.50, 332.70
338.98, 0.51, 332.85
339.16, 0.51, 333.00
339.36, 0.52, 333.17
339.57, 0.53, 333.35
339.81, 0.54, 333.55
340.05, 0.55, 333.74
340.30, 0.57, 333.96
340.57, 0.59, 334.19
340.88, 0.61, 334.44
341.19, 0.64, 334.71
341.83, 0.60, 335.24
341.94, 0.70, 335.33
342.05, 0.80, 335.43
342.17, 0.90, 335.52
342.29, 1.00, 335.62
342.41, 1.11, 335.72
342.54, 1.22, 335.83
342.67, 1.34, 335.94
342.87, 1.45, 336.11
343.08, 1.56, 336.28
343.31, 1.69, 336.47
343.54, 1.81, 336.66
343.92, 1.94, 336.98
351.63, 1.89, 343.45
352.58, 2.15, 344.25
338.68, 0.49, 332.51
338.85, 0.50, 332.65
339.02, 0.51, 332.79
339.21, 0.51, 332.94
339.41, 0.52, 333.11
339.62, 0.53, 333.28
339.86, 0.54, 333.48
340.10, 0.55, 333.68
340.36, 0.57, 333.89
340.64, 0.59, 334.12
340.94, 0.61, 334.37
341.27, 0.63, 334.63
341.85, 0.61, 335.11
341.96, 0.71, 335.20
342.08, 0.80, 335.29
342.20, 0.91, 335.39
342.31, 1.01, 335.48
¯342.44, 1.12, 335.58
342.56, 1.23, 335.68
342.70, 1.34, 335.79
342.83, 1.46, 335.90
343.01, 1.58, 336.04
343.23, 1.70, 336.22
343.45, 1.82, 336.40
343.69, 1.95, 336.60
344.70, 2.07, 337.42
352.51, 2.15, 343.81
338.72, 0.49, 332.46
338.89, 0.50, 332.59
339.06, 0.50, 332.73
339.25, 0.51, 332.88
339.45, 0.52, 333.05
339.67, 0.53, 333.22
339.91, 0.54, 333.41
340.16, 0.55, 333.61
340.42, 0.57, 333.82
340.70, 0.59, 334.04
341.01, 0.61, 334.29
341.35, 0.63, 334.56
341.88, 0.62, 334.98
341.99, 0.71, 335.07
342.10, 0.81, 335.16
342.22, 0.91, 335.25
342.34, 1.02, 335.34
342.46, 1.13, 335.44
342.59, 1.24, 335.54
342.72, 1.35, 335.64
342.85, 1.46, 335.75
342.99, 1.58, 335.85
343.15, 1.71, 335.98
343.37, 1.83, 336.15
343.60, 1.96, 336.34
344.21, 2.09, 336.82
352.48, 2.15, 343.42
338.76, 0.49, 332.41
338.93, 0.50, 332.54
339.11, 0.50, 332.68
339.30, 0.51, 332.82
339.50, 0.52, 332.98
339.72, 0.53, 333.15
339.96, 0.54, 333.34
340.22, 0.55, 333.54
340.48, 0.57, 333.75
340.77, 0.58, 333.97
341.08, 0.61, 334.21
341.42, 0.63, 334.48
341.91, 0.63, 334.86
342.02, 0.72, 334.94
¯342.13, 0.82, 335.03
342.25, 0.92, 335.12
342.37, 1.03, 335.21
342.49, 1.13, 335.30
342.61, 1.24, 335.40
342.74, 1.35, 335.50
342.88, 1.47, 335.60
343.01, 1.59, 335.70
343.15, 1.71, 335.81
343.30, 1.84, 335.92
343.52, 1.97, 336.09
343.77, 2.10, 336.28
345.02, 2.23, 337.26
338.80, 0.49, 332.35
338.97, 0.50, 332.48
339.15, 0.50, 332.62
339.34, 0.51, 332.76
339.55, 0.52, 332.92
339.77, 0.53, 333.09
340.01, 0.54, 333.27
340.28, 0.55, 333.47
340.54, 0.56, 333.67
340.83, 0.58, 333.89
341.14, 0.60, 334.13
341.49, 0.63, 334.39
341.93, 0.64, 334.73
342.04, 0.73, 334.81
342.16, 0.83, 334.90
342.27, 0.93, 334.98
342.39, 1.03, 335.07
342.51, 1.14, 335.16
342.64, 1.25, 335.26
342.77, 1.36, 335.35
342.90, 1.47, 335.45
343.04, 1.59, 335.55
343.18, 1.71, 335.66
343.32, 1.84, 335.77
343.47, 1.97, 335.88
343.66, 2.10, 336.02
344.60, 2.23, 336.73
338.84, 0.49, 332.30
339.01, 0.50, 332.42
339.19, 0.50, 332.56
339.38, 0.51, 332.70
339.59, 0.52, 332.86
339.82, 0.53, 333.02
340.06, 0.54, 333.20
340.33, 0.55, 333.40
340.60, 0.56, 333.60
340.89, 0.58, 333.82
341.21, 0.60, 334.05
¯341.85, 0.55, 334.53
341.96, 0.64, 334.61
342.07, 0.74, 334.69
342.18, 0.84, 334.77
342.30, 0.94, 334.85
342.41, 1.04, 334.94
342.54, 1.14, 335.03
342.66, 1.25, 335.12
342.79, 1.36, 335.21
342.92, 1.48, 335.31
343.06, 1.60, 335.41
343.20, 1.72, 335.51
343.34, 1.84, 335.61
343.49, 1.97, 335.72
343.65, 2.10, 335.83
344.36, 2.24, 336.36
338.88, 0.49, 332.25
339.05, 0.50, 332.37
339.23, 0.50, 332.50
339.43, 0.51, 332.64
339.64, 0.52, 332.79
339.86, 0.53, 332.96
340.11, 0.54, 333.13
340.37, 0.55, 333.32
340.66, 0.56, 333.53
340.95, 0.58, 333.74
341.27, 0.60, 333.97
341.88, 0.56, 334.41
341.98, 0.65, 334.48
342.09, 0.75, 334.56
342.20, 0.84, 334.64
342.32, 0.94, 334.72
342.44, 1.04, 334.81
342.56, 1.15, 334.89
342.68, 1.26, 334.98
342.81, 1.37, 335.07
342.94, 1.48, 335.16
343.08, 1.60, 335.26
343.25, 1.72, 335.38
343.42, 1.84, 335.50
343.59, 1.97, 335.63
343.79, 2.10, 335.76
344.13, 2.24, 336.01
338.92, 0.49, 332.19
339.09, 0.50, 332.31
339.27, 0.50, 332.44
339.47, 0.51, 332.58
339.68, 0.52, 332.73
339.91, 0.53, 332.89
340.15, 0.54, 333.06
340.42, 0.55, 333.25
¯340.71, 0.56, 333.45
341.01, 0.58, 333.66
341.33, 0.60, 333.89
341.90, 0.57, 334.29
342.01, 0.66, 334.36
342.12, 0.75, 334.44
342.23, 0.85, 334.51
342.34, 0.95, 334.59
342.46, 1.05, 334.67
342.59, 1.15, 334.76
342.73, 1.26, 334.86
342.88, 1.37, 334.97
343.04, 1.48, 335.08
343.20, 1.59, 335.19
343.37, 1.71, 335.30
343.54, 1.84, 335.42
343.73, 1.96, 335.55
343.97, 2.10, 335.72
344.23, 2.24, 335.90
338.96, 0.49, 332.14
339.12, 0.50, 332.25
339.31, 0.50, 332.38
339.51, 0.51, 332.52
339.72, 0.52, 332.66
339.95, 0.53, 332.82
340.20, 0.54, 332.99
340.47, 0.55, 333.18
340.77, 0.56, 333.38
341.07, 0.57, 333.58
341.40, 0.59, 333.81
341.92, 0.58, 334.17
342.03, 0.67, 334.24
342.15, 0.76, 334.32
342.28, 0.85, 334.41
342.41, 0.95, 334.50
342.55, 1.05, 334.59
342.70, 1.15, 334.69
342.85, 1.25, 334.79
343.00, 1.36, 334.89
343.16, 1.47, 335.00
343.32, 1.59, 335.11
343.50, 1.71, 335.23
343.67, 1.83, 335.35
343.89, 1.96, 335.50
344.15, 2.09, 335.67
344.42, 2.23, 335.86
338.99, 0.49, 332.08
339.16, 0.50, 332.20
339.35, 0.50, 332.32
339.55, 0.51, 332.45
339.76, 0.52, 332.60
¯340.00, 0.53, 332.75
340.25, 0.53, 332.92
340.52, 0.54, 333.10
340.82, 0.56, 333.30
341.13, 0.57, 333.51
341.46, 0.59, 333.73
341.99, 0.57, 334.08
342.12, 0.66, 334.16
342.25, 0.75, 334.25
342.38, 0.84, 334.34
342.52, 0.94, 334.43
342.66, 1.04, 334.52
342.81, 1.14, 334.62
342.96, 1.24, 334.72
343.12, 1.35, 334.82
343.28, 1.46, 334.93
343.45, 1.58, 335.04
343.62, 1.70, 335.15
343.82, 1.83, 335.28
344.07, 1.95, 335.45
344.34, 2.09, 335.62
344.62, 2.23, 335.81
345.64, 2.38, 336.49
339.03, 0.49, 332.03
339.20, 0.49, 332.14
339.39, 0.50, 332.26
339.59, 0.51, 332.39
339.81, 0.52, 332.53
340.04, 0.53, 332.68
340.29, 0.53, 332.85
340.57, 0.54, 333.02
340.87, 0.55, 333.22
341.19, 0.57, 333.43
341.52, 0.59, 333.64
342.09, 0.56, 334.01
342.22, 0.65, 334.10
342.35, 0.74, 334.18
342.48, 0.83, 334.27
342.62, 0.93, 334.36
342.77, 1.03, 334.45
342.92, 1.13, 334.54
343.07, 1.24, 334.64
343.23, 1.34, 334.75
343.40, 1.46, 334.85
343.57, 1.57, 334.96
343.75, 1.70, 335.07
344.00, 1.82, 335.23
344.26, 1.95, 335.40
344.53, 2.08, 335.58
344.82, 2.23, 335.76
345.34, 2.38, 336.10
¯339.07, 0.49, 331.97
339.24, 0.49, 332.08
339.42, 0.50, 332.20
339.63, 0.51, 332.33
339.85, 0.52, 332.46
340.08, 0.52, 332.61
340.34, 0.53, 332.77
340.61, 0.54, 332.95
340.91, 0.55, 333.14
341.24, 0.57, 333.35
341.94, 0.50, 333.79
342.14, 0.56, 333.92
342.31, 0.64, 334.02
342.45, 0.73, 334.11
342.59, 0.82, 334.19
342.73, 0.92, 334.28
342.88, 1.02, 334.38
343.03, 1.12, 334.47
343.19, 1.23, 334.57
343.35, 1.34, 334.67
343.52, 1.45, 334.77
343.70, 1.57, 334.88
343.92, 1.69, 335.02
344.17, 1.81, 335.18
344.44, 1.94, 335.35
344.73, 2.08, 335.53
345.02, 2.22, 335.71
345.34, 2.38, 335.91
339.10, 0.48, 331.92
339.28, 0.49, 332.02
339.46, 0.50, 332.14
339.66, 0.51, 332.26
339.89, 0.52, 332.40
340.12, 0.52, 332.54
340.38, 0.53, 332.70
340.66, 0.54, 332.87
340.96, 0.55, 333.06
341.29, 0.57, 333.26
341.96, 0.50, 333.68
342.17, 0.57, 333.80
342.38, 0.64, 333.93
342.55, 0.72, 334.04
342.69, 0.82, 334.12
342.84, 0.91, 334.21
342.99, 1.01, 334.30
343.15, 1.11, 334.39
343.31, 1.22, 334.49
343.47, 1.33, 334.59
343.64, 1.44, 334.70
343.85, 1.56, 334.82
344.10, 1.68, 334.97
¯344.36, 1.80, 335.13
344.63, 1.93, 335.30
344.93, 2.07, 335.47
345.23, 2.22, 335.66
345.56, 2.37, 335.86
339.14, 0.48, 331.86
339.31, 0.49, 331.96
339.50, 0.50, 332.08
339.70, 0.51, 332.20
339.92, 0.52, 332.33
340.16, 0.52, 332.47
340.42, 0.53, 332.63
340.70, 0.54, 332.80
341.01, 0.55, 332.98
341.34, 0.56, 333.18
341.99, 0.51, 333.57
342.19, 0.57, 333.69
342.41, 0.64, 333.82
342.63, 0.72, 333.95
342.80, 0.81, 334.05
342.95, 0.90, 334.14
343.10, 1.00, 334.23
343.26, 1.10, 334.32
343.42, 1.21, 334.41
343.59, 1.32, 334.51
343.77, 1.44, 334.62
344.02, 1.55, 334.77
344.27, 1.67, 334.92
344.54, 1.79, 335.08
344.83, 1.93, 335.24
345.13, 2.07, 335.42
345.43, 2.21, 335.60
339.17, 0.48, 331.80
339.35, 0.49, 331.91
339.54, 0.50, 332.02
339.74, 0.51, 332.13
339.96, 0.51, 332.26
340.20, 0.52, 332.40
340.46, 0.53, 332.55
340.74, 0.54, 332.72
341.05, 0.55, 332.90
341.39, 0.56, 333.09
342.01, 0.52, 333.46
342.22, 0.58, 333.58
342.43, 0.65, 333.70
342.66, 0.72, 333.83
342.89, 0.80, 333.97
343.06, 0.89, 334.06
343.21, 0.99, 334.15
343.38, 1.10, 334.24
343.54, 1.20, 334.34
¯343.72, 1.31, 334.44
343.94, 1.42, 334.57
344.19, 1.54, 334.71
344.46, 1.66, 334.86
344.74, 1.78, 335.02
345.01, 1.92, 335.18
345.29, 2.06, 335.34
345.59, 2.21, 335.51
339.21, 0.48, 331.75
339.38, 0.49, 331.85
339.57, 0.50, 331.95
339.78, 0.51, 332.07
340.00, 0.51, 332.19
340.24, 0.52, 332.33
340.50, 0.53, 332.48
340.79, 0.54, 332.64
341.10, 0.55, 332.81
341.44, 0.56, 333.01
342.04, 0.52, 333.35
342.24, 0.59, 333.46
342.46, 0.65, 333.58
342.68, 0.73, 333.71
342.92, 0.80, 333.84
343.17, 0.88, 333.98
343.33, 0.98, 334.07
343.49, 1.09, 334.16
343.66, 1.19, 334.26
343.87, 1.30, 334.37
344.11, 1.41, 334.51
344.37, 1.53, 334.65
344.63, 1.65, 334.80
344.89, 1.78, 334.94
345.16, 1.91, 335.09
345.44, 2.06, 335.25
339.24, 0.48, 331.69
339.42, 0.49, 331.79
339.61, 0.50, 331.89
339.81, 0.50, 332.00
340.03, 0.51, 332.12
340.28, 0.52, 332.26
340.54, 0.53, 332.40
340.83, 0.54, 332.56
341.14, 0.55, 332.73
341.48, 0.56, 332.92
342.06, 0.53, 333.24
342.26, 0.59, 333.35
342.48, 0.66, 333.47
342.70, 0.73, 333.59
342.94, 0.81, 333.72
343.19, 0.89, 333.85
343.44, 0.97, 333.99
¯343.61, 1.08, 334.08
343.79, 1.18, 334.18
344.04, 1.29, 334.31
344.27, 1.40, 334.44
344.51, 1.52, 334.57
344.76, 1.64, 334.71
345.03, 1.77, 334.85
345.31, 1.91, 335.00
345.60, 2.05, 335.16
339.27, 0.48, 331.63
339.45, 0.49, 331.73
339.64, 0.49, 331.83
339.85, 0.50, 331.94
340.07, 0.51, 332.06
340.31, 0.52, 332.19
340.58, 0.53, 332.33
340.87, 0.54, 332.48
341.18, 0.55, 332.65
341.89, 0.47, 333.03
342.08, 0.53, 333.13
342.29, 0.60, 333.24
342.50, 0.66, 333.35
342.73, 0.74, 333.47
342.96, 0.81, 333.60
343.21, 0.89, 333.73
343.47, 0.97, 333.87
343.73, 1.07, 334.00
343.94, 1.17, 334.12
344.17, 1.28, 334.23
344.40, 1.39, 334.36
344.65, 1.51, 334.48
344.90, 1.63, 334.62
345.17, 1.77, 334.76
345.46, 1.90, 334.91
339.30, 0.48, 331.57
339.49, 0.48, 331.67
339.68, 0.49, 331.77
339.89, 0.50, 331.87
340.11, 0.51, 331.99
340.35, 0.52, 332.11
340.62, 0.53, 332.25
340.91, 0.54, 332.40
341.22, 0.55, 332.57
341.91, 0.47, 332.93
342.11, 0.54, 333.02
342.31, 0.60, 333.13
342.52, 0.67, 333.24
342.75, 0.74, 333.35
342.98, 0.81, 333.47
343.23, 0.89, 333.60
343.49, 0.98, 333.74
¯343.78, 1.07, 333.88
344.07, 1.16, 334.03
344.29, 1.27, 334.15
344.53, 1.38, 334.27
344.78, 1.50, 334.40
345.04, 1.63, 334.53
345.32, 1.76, 334.67
345.61, 1.90, 334.82
339.34, 0.48, 331.51
339.52, 0.48, 331.60
339.71, 0.49, 331.70
339.92, 0.50, 331.81
340.15, 0.51, 331.92
340.39, 0.52, 332.04
340.65, 0.53, 332.18
340.94, 0.54, 332.32
341.26, 0.55, 332.48
341.93, 0.48, 332.82
342.13, 0.54, 332.92
342.33, 0.60, 333.02
342.54, 0.67, 333.12
342.77, 0.74, 333.24
343.00, 0.82, 333.35
343.25, 0.90, 333.48
343.52, 0.98, 333.61
343.81, 1.07, 333.75
344.14, 1.16, 333.92
344.42, 1.26, 334.06
344.66, 1.37, 334.18
344.92, 1.49, 334.31
345.19, 1.62, 334.44
345.47, 1.75, 334.58
339.37, 0.47, 331.45
339.55, 0.48, 331.54
339.75, 0.49, 331.64
339.96, 0.50, 331.74
340.18, 0.51, 331.85
340.42, 0.52, 331.97
340.69, 0.53, 332.10
340.98, 0.54, 332.24
341.30, 0.55, 332.40
341.95, 0.48, 332.72
342.15, 0.54, 332.81
342.35, 0.61, 332.91
342.56, 0.68, 333.01
342.79, 0.75, 333.12
343.02, 0.82, 333.23
343.28, 0.90, 333.36
343.54, 0.98, 333.48
343.83, 1.07, 333.63
344.17, 1.16, 333.79
¯344.53, 1.25, 333.96
344.80, 1.37, 334.09
345.06, 1.49, 334.21
345.33, 1.61, 334.34
345.61, 1.75, 334.48
339.39, 0.47, 331.39
339.58, 0.48, 331.48
339.78, 0.49, 331.57
339.99, 0.50, 331.67
340.22, 0.51, 331.78
340.46, 0.51, 331.90
340.73, 0.53, 332.02
341.02, 0.54, 332.16
341.34, 0.55, 332.31
341.97, 0.49, 332.61
342.17, 0.55, 332.70
342.37, 0.61, 332.80
342.58, 0.68, 332.90
342.81, 0.75, 333.00
343.05, 0.83, 333.12
343.30, 0.90, 333.23
343.57, 0.99, 333.36
343.86, 1.07, 333.50
344.20, 1.16, 333.65
344.56, 1.25, 333.82
344.93, 1.36, 334.00
345.20, 1.48, 334.12
345.47, 1.60, 334.25
356.99, 1.13, 339.71
339.42, 0.47, 331.33
339.61, 0.48, 331.42
339.81, 0.49, 331.51
340.02, 0.49, 331.61
340.25, 0.50, 331.71
340.50, 0.51, 331.83
340.76, 0.52, 331.95
341.05, 0.53, 332.08
341.38, 0.54, 332.23
341.99, 0.49, 332.51
342.19, 0.55, 332.60
342.39, 0.62, 332.69
342.60, 0.68, 332.79
342.83, 0.75, 332.89
343.07, 0.83, 333.00
343.32, 0.91, 333.11
343.59, 0.99, 333.23
343.89, 1.07, 333.37
344.22, 1.16, 333.52
344.58, 1.25, 333.69
344.97, 1.36, 333.86
345.34, 1.47, 334.03
¯345.62, 1.60, 334.15
356.36, 1.17, 339.08
339.45, 0.47, 331.27
339.64, 0.48, 331.36
339.84, 0.48, 331.45
340.05, 0.49, 331.54
340.28, 0.50, 331.64
340.53, 0.51, 331.75
340.80, 0.52, 331.87
341.09, 0.53, 332.00
341.41, 0.54, 332.14
342.01, 0.49, 332.41
342.21, 0.56, 332.49
342.41, 0.62, 332.58
342.63, 0.69, 332.68
342.85, 0.76, 332.78
343.09, 0.83, 332.88
343.35, 0.91, 332.99
343.61, 0.99, 333.11
343.91, 1.07, 333.24
344.25, 1.16, 333.39
344.61, 1.26, 333.55
345.00, 1.36, 333.72
345.41, 1.46, 333.90
355.08, 0.96, 338.20
355.76, 1.20, 338.50
356.77, 1.45, 338.94
339.47, 0.47, 331.21
339.67, 0.48, 331.29
339.87, 0.48, 331.38
340.08, 0.49, 331.47
340.32, 0.50, 331.57
340.57, 0.51, 331.68
340.83, 0.52, 331.79
341.13, 0.53, 331.92
341.84, 0.44, 332.23
342.03, 0.50, 332.31
342.23, 0.56, 332.39
342.43, 0.62, 332.48
342.65, 0.69, 332.57
342.88, 0.76, 332.67
343.12, 0.83, 332.77
343.37, 0.91, 332.87
343.64, 0.99, 332.99
343.94, 1.08, 333.11
344.27, 1.16, 333.26
344.63, 1.26, 333.41
345.02, 1.36, 333.57
345.44, 1.46, 333.75
354.69, 0.99, 337.73
355.25, 1.23, 337.97
¯356.13, 1.47, 338.34
339.50, 0.47, 331.15
339.69, 0.48, 331.23
339.90, 0.48, 331.31
340.12, 0.49, 331.40
340.35, 0.50, 331.50
340.60, 0.51, 331.60
340.87, 0.52, 331.72
341.16, 0.53, 331.84
341.86, 0.44, 332.13
342.05, 0.50, 332.21
342.25, 0.56, 332.29
342.45, 0.62, 332.37
342.67, 0.69, 332.46
342.90, 0.76, 332.55
343.14, 0.83, 332.65
343.39, 0.91, 332.75
343.66, 0.99, 332.86
343.96, 1.08, 332.99
344.30, 1.16, 333.13
344.66, 1.26, 333.27
345.04, 1.36, 333.43
345.56, 1.46, 333.65
354.40, 1.01, 337.32
354.92, 1.25, 337.53
355.55, 1.49, 337.79
356.94, 1.74, 338.36
339.52, 0.47, 331.09
339.72, 0.47, 331.16
339.93, 0.48, 331.25
340.14, 0.49, 331.34
340.38, 0.50, 331.43
340.63, 0.51, 331.53
340.90, 0.52, 331.64
341.20, 0.53, 331.76
341.88, 0.45, 332.03
342.07, 0.50, 332.11
342.27, 0.56, 332.18
342.47, 0.63, 332.27
342.69, 0.69, 332.35
342.92, 0.76, 332.44
343.16, 0.84, 332.54
343.41, 0.91, 332.64
343.68, 0.99, 332.74
343.98, 1.08, 332.86
344.32, 1.16, 333.00
344.68, 1.26, 333.14
345.11, 1.35, 333.31
353.64, 0.81, 336.73
354.11, 1.03, 336.92
354.61, 1.26, 337.12
¯355.25, 1.51, 337.36
356.31, 1.75, 337.79
339.55, 0.47, 331.03
339.74, 0.47, 331.10
339.95, 0.48, 331.18
340.17, 0.49, 331.27
340.41, 0.49, 331.36
340.66, 0.50, 331.46
340.94, 0.51, 331.56
341.23, 0.52, 331.68
341.90, 0.45, 331.94
342.09, 0.51, 332.01
342.29, 0.57, 332.08
342.49, 0.63, 332.16
342.71, 0.70, 332.24
342.94, 0.76, 332.33
343.18, 0.84, 332.42
343.43, 0.91, 332.52
343.70, 1.00, 332.62
344.01, 1.08, 332.74
344.34, 1.16, 332.86
344.70, 1.26, 333.00
345.25, 1.34, 333.21
353.08, 0.86, 336.25
353.84, 1.05, 336.54
354.33, 1.28, 336.72
354.98, 1.51, 336.97
355.82, 1.76, 337.29
357.12, 2.02, 337.78
328.80, 0.17, 329.37
328.59, 0.17, 329.37
328.38, 0.18, 329.37
328.14, 0.19, 329.37
327.91, 0.20, 329.38
327.65, 0.21, 329.38
327.37, 0.23, 329.38
327.04, 0.23, 329.38
326.68, 0.23, 329.38
326.28, 0.24, 329.38
325.87, 0.25, 329.39
325.42, 0.26, 329.39
324.82, 0.24, 329.39
324.14, 0.23, 329.40
323.41, 0.23, 329.40
322.32, 0.17, 329.41
321.35, 0.17, 329.41
320.15, 0.15, 329.42
318.48, 0.10, 329.43
316.21, 0.01, 329.45
314.12, 0.00, 329.46
311.65, 0.00, 329.48
¯328.80, 0.17, 329.44
328.60, 0.18, 329.45
328.38, 0.19, 329.45
328.15, 0.20, 329.45
327.91, 0.21, 329.46
327.66, 0.22, 329.46
327.37, 0.23, 329.47
327.04, 0.23, 329.47
326.68, 0.23, 329.48
326.28, 0.24, 329.49
325.87, 0.25, 329.49
325.40, 0.25, 329.50
324.79, 0.24, 329.51
324.12, 0.23, 329.53
323.32, 0.21, 329.54
322.23, 0.16, 329.56
321.24, 0.16, 329.58
319.99, 0.13, 329.60
318.30, 0.08, 329.64
316.09, 0.00, 329.68
314.07, 0.00, 329.71
311.59, 0.00, 329.76
328.81, 0.18, 329.51
328.61, 0.18, 329.52
328.39, 0.19, 329.53
328.16, 0.20, 329.53
327.93, 0.21, 329.54
327.67, 0.22, 329.55
327.37, 0.23, 329.56
327.04, 0.23, 329.57
326.68, 0.24, 329.58
326.29, 0.24, 329.59
325.88, 0.25, 329.60
325.38, 0.25, 329.62
324.77, 0.24, 329.64
324.09, 0.23, 329.66
323.24, 0.20, 329.68
322.15, 0.15, 329.72
321.14, 0.14, 329.75
319.85, 0.12, 329.79
318.08, 0.05, 329.84
316.03, 0.00, 329.91
314.02, 0.00, 329.97
311.52, 0.00, 330.04
328.82, 0.18, 329.59
328.62, 0.19, 329.59
328.40, 0.20, 329.60
328.18, 0.21, 329.61
327.94, 0.22, 329.62
327.68, 0.23, 329.63
327.38, 0.23, 329.65
¯327.05, 0.24, 329.66
326.69, 0.24, 329.67
326.29, 0.24, 329.69
325.88, 0.25, 329.71
325.36, 0.25, 329.73
324.75, 0.24, 329.76
324.07, 0.23, 329.79
323.15, 0.19, 329.83
322.08, 0.14, 329.87
321.04, 0.13, 329.92
319.72, 0.10, 329.97
317.99, 0.05, 330.05
316.00, 0.00, 330.14
313.97, 0.00, 330.22
311.46, 0.00, 330.33
328.83, 0.18, 329.66
328.63, 0.19, 329.67
328.42, 0.20, 329.68
328.19, 0.21, 329.69
327.95, 0.22, 329.70
327.69, 0.23, 329.72
327.38, 0.24, 329.73
327.05, 0.24, 329.75
326.69, 0.24, 329.77
326.30, 0.25, 329.79
325.88, 0.26, 329.82
325.34, 0.25, 329.85
324.72, 0.23, 329.88
324.04, 0.22, 329.92
323.07, 0.17, 329.97
321.99, 0.13, 330.03
320.93, 0.11, 330.09
319.60, 0.08, 330.16
317.90, 0.04, 330.26
315.96, 0.00, 330.37
313.93, 0.00, 330.48
311.41, 0.00, 330.62
328.84, 0.19, 329.73
328.64, 0.20, 329.74
328.43, 0.21, 329.75
328.20, 0.21, 329.77
327.96, 0.23, 329.79
327.69, 0.23, 329.80
327.39, 0.24, 329.82
327.06, 0.24, 329.85
326.70, 0.25, 329.87
326.30, 0.25, 329.90
325.87, 0.25, 329.93
325.32, 0.24, 329.96
324.70, 0.23, 330.00
323.97, 0.21, 330.05
¯322.99, 0.16, 330.12
321.92, 0.12, 330.19
320.85, 0.10, 330.27
319.49, 0.07, 330.36
317.82, 0.03, 330.47
315.93, 0.00, 330.60
313.89, 0.00, 330.74
311.35, 0.00, 330.91
328.85, 0.19, 329.80
328.65, 0.20, 329.81
328.44, 0.21, 329.83
328.21, 0.22, 329.85
327.98, 0.23, 329.87
327.70, 0.24, 329.89
327.40, 0.24, 329.91
327.07, 0.24, 329.94
326.71, 0.25, 329.97
326.31, 0.25, 330.00
