ŸVERSION 0.7
FIELDS x y z
SIZE 8 8 8
TYPE F F F
COUNT 1 1 1
WIDTH 2271
HEIGHT 1
VIEWPOINT 437.94, 13.88, 292.05 1 435.92, 9.42, 312.08
POINTS 2271
DATA ascii
¯424.67, 8.19, 310.30
424.68, 8.33, 310.30
424.68, 8.47, 310.30
424.69, 8.61, 310.29
424.69, 8.75, 310.29
424.20, 8.87, 310.35
430.08, 7.20, 309.65
429.85, 7.20, 309.68
429.60, 7.20, 309.72
429.33, 7.20, 309.76
429.04, 7.20, 309.81
428.78, 7.22, 309.84
428.53, 7.24, 309.88
428.26, 7.27, 309.92
427.97, 7.30, 309.97
427.67, 7.33, 310.01
427.36, 7.37, 310.06
426.90, 7.38, 310.13
426.32, 7.38, 310.22
425.68, 7.39, 310.31
425.00, 7.40, 310.42
424.21, 7.41, 310.54
423.31, 7.42, 310.67
424.48, 7.74, 310.49
424.48, 7.89, 310.48
424.49, 8.03, 310.48
424.49, 8.18, 310.47
424.50, 8.32, 310.47
424.50, 8.46, 310.46
424.51, 8.61, 310.46
424.51, 8.75, 310.46
424.11, 8.87, 310.51
430.09, 7.20, 309.72
429.86, 7.20, 309.76
429.61, 7.20, 309.80
429.34, 7.20, 309.84
429.05, 7.20, 309.89
428.81, 7.23, 309.93
428.56, 7.25, 309.97
428.29, 7.28, 310.01
428.00, 7.31, 310.06
427.70, 7.34, 310.11
427.40, 7.38, 310.16
426.90, 7.38, 310.24
426.32, 7.38, 310.34
425.67, 7.38, 310.44
424.98, 7.39, 310.56
424.19, 7.41, 310.69
423.28, 7.42, 310.84
422.22, 7.43, 311.01
424.00, 7.83, 310.71
¯424.40, 8.02, 310.64
424.40, 8.17, 310.63
424.40, 8.31, 310.63
424.02, 8.43, 310.69
424.03, 8.58, 310.68
424.00, 8.72, 310.68
423.92, 8.87, 310.69
430.10, 7.20, 309.79
429.87, 7.20, 309.83
429.62, 7.20, 309.88
429.35, 7.20, 309.92
429.07, 7.21, 309.97
428.84, 7.23, 310.01
428.59, 7.26, 310.06
428.32, 7.28, 310.10
428.04, 7.31, 310.15
427.73, 7.34, 310.21
427.42, 7.38, 310.26
426.90, 7.38, 310.35
426.31, 7.38, 310.46
425.66, 7.38, 310.57
424.96, 7.39, 310.70
424.17, 7.40, 310.84
423.25, 7.41, 311.00
422.19, 7.43, 311.19
423.80, 7.80, 310.89
424.52, 8.04, 310.76
424.52, 8.18, 310.76
424.51, 8.32, 310.75
423.82, 8.42, 310.87
423.83, 8.57, 310.87
423.80, 8.72, 310.87
423.72, 8.87, 310.88
430.11, 7.20, 309.86
429.88, 7.20, 309.91
429.63, 7.20, 309.95
429.37, 7.20, 310.00
429.10, 7.21, 310.05
428.87, 7.24, 310.10
428.62, 7.26, 310.14
428.35, 7.29, 310.19
428.07, 7.32, 310.25
427.77, 7.35, 310.30
427.43, 7.38, 310.37
426.90, 7.38, 310.47
426.32, 7.38, 310.58
425.65, 7.38, 310.71
424.95, 7.39, 310.84
424.15, 7.40, 310.99
423.23, 7.41, 311.17
422.16, 7.42, 311.37
¯420.90, 7.44, 311.61
424.63, 8.05, 310.88
424.63, 8.19, 310.88
424.63, 8.34, 310.88
413.24, 7.63, 313.06
430.13, 7.20, 309.93
429.90, 7.20, 309.98
429.65, 7.21, 310.03
429.38, 7.21, 310.08
429.13, 7.22, 310.14
428.90, 7.24, 310.18
428.65, 7.27, 310.23
428.39, 7.30, 310.28
428.11, 7.33, 310.34
427.81, 7.36, 310.40
427.43, 7.38, 310.48
426.91, 7.38, 310.58
426.33, 7.38, 310.70
425.64, 7.37, 310.84
424.93, 7.38, 310.98
424.13, 7.39, 311.15
423.20, 7.41, 311.33
422.13, 7.42, 311.55
420.88, 7.44, 311.80
424.75, 8.06, 311.00
424.74, 8.21, 311.00
424.74, 8.35, 311.00
413.06, 7.62, 313.38
430.14, 7.20, 310.00
429.91, 7.21, 310.05
429.66, 7.21, 310.11
429.39, 7.21, 310.17
429.16, 7.23, 310.22
428.93, 7.25, 310.26
428.68, 7.28, 310.32
428.42, 7.30, 310.37
428.14, 7.33, 310.43
427.84, 7.37, 310.50
427.44, 7.38, 310.58
426.92, 7.38, 310.69
426.34, 7.38, 310.82
425.63, 7.37, 310.97
424.92, 7.38, 311.13
424.11, 7.39, 311.30
423.18, 7.40, 311.50
422.10, 7.42, 311.73
420.85, 7.44, 312.00
424.86, 8.08, 311.12
424.85, 8.22, 311.12
424.85, 8.36, 311.12
412.89, 7.61, 313.71
¯430.16, 7.21, 310.08
429.93, 7.21, 310.13
429.68, 7.21, 310.19
429.41, 7.21, 310.25
429.19, 7.23, 310.30
428.96, 7.26, 310.35
428.72, 7.28, 310.40
428.46, 7.31, 310.46
428.18, 7.34, 310.52
427.87, 7.37, 310.59
427.45, 7.38, 310.69
426.93, 7.38, 310.81
426.35, 7.38, 310.94
425.62, 7.37, 311.11
424.91, 7.38, 311.27
424.10, 7.39, 311.46
423.16, 7.40, 311.67
422.07, 7.41, 311.92
420.83, 7.43, 312.20
424.97, 8.09, 311.24
424.96, 8.23, 311.24
424.96, 8.37, 311.23
412.74, 7.60, 314.05
430.17, 7.21, 310.15
429.94, 7.21, 310.20
429.69, 7.21, 310.26
429.44, 7.21, 310.32
429.22, 7.24, 310.38
428.99, 7.26, 310.43
428.75, 7.29, 310.49
428.49, 7.32, 310.55
428.20, 7.34, 310.62
427.89, 7.37, 310.69
427.46, 7.38, 310.80
426.94, 7.38, 310.92
426.36, 7.38, 311.06
425.61, 7.36, 311.24
424.90, 7.37, 311.42
424.08, 7.38, 311.61
423.14, 7.39, 311.84
422.04, 7.41, 312.10
425.08, 7.96, 311.36
425.07, 8.10, 311.35
425.07, 8.24, 311.35
425.07, 8.38, 311.35
412.58, 7.59, 314.38
430.19, 7.21, 310.22
429.96, 7.21, 310.28
429.71, 7.21, 310.34
429.47, 7.22, 310.40
429.25, 7.24, 310.45
¯429.03, 7.27, 310.51
428.78, 7.29, 310.57
428.51, 7.32, 310.64
428.22, 7.34, 310.72
427.90, 7.37, 310.80
427.48, 7.38, 310.90
426.96, 7.38, 311.03
426.37, 7.38, 311.19
425.61, 7.36, 311.38
425.04, 7.39, 311.52
424.07, 7.38, 311.77
423.13, 7.39, 312.01
422.02, 7.40, 312.29
425.18, 7.98, 311.47
425.18, 8.11, 311.47
425.18, 8.25, 311.47
425.17, 8.39, 311.46
412.43, 7.58, 314.72
430.20, 7.21, 310.29
429.98, 7.21, 310.35
429.73, 7.21, 310.42
429.50, 7.22, 310.48
429.28, 7.25, 310.53
429.05, 7.27, 310.60
428.79, 7.29, 310.66
428.52, 7.32, 310.74
428.23, 7.34, 310.81
427.91, 7.37, 310.90
427.49, 7.38, 311.01
426.97, 7.38, 311.15
426.37, 7.37, 311.31
425.60, 7.36, 311.52
425.26, 7.43, 311.61
425.25, 7.57, 311.60
425.25, 7.71, 311.60
425.25, 7.84, 311.60
425.29, 7.99, 311.58
425.28, 8.12, 311.58
425.28, 8.26, 311.58
425.28, 8.40, 311.58
430.22, 7.21, 310.36
429.99, 7.21, 310.42
429.75, 7.21, 310.49
429.53, 7.23, 310.55
429.30, 7.25, 310.62
429.07, 7.27, 310.68
428.81, 7.29, 310.75
428.54, 7.32, 310.83
428.25, 7.34, 310.91
427.92, 7.37, 311.00
427.51, 7.38, 311.12
¯426.99, 7.38, 311.26
426.37, 7.37, 311.44
425.60, 7.35, 311.65
424.88, 7.36, 311.85
424.05, 7.37, 312.09
423.10, 7.38, 312.35
421.97, 7.39, 312.67
425.29, 7.99, 311.72
425.30, 8.13, 311.72
425.30, 8.26, 311.71
425.31, 8.40, 311.71
430.24, 7.21, 310.43
430.01, 7.21, 310.50
430.06, 7.31, 310.48
429.95, 7.36, 310.51
429.32, 7.25, 310.70
429.08, 7.27, 310.77
428.83, 7.29, 310.84
428.56, 7.32, 310.92
428.27, 7.34, 311.01
427.94, 7.37, 311.10
427.53, 7.38, 311.22
427.01, 7.38, 311.37
426.37, 7.37, 311.56
425.60, 7.35, 311.79
424.88, 7.36, 312.00
424.05, 7.36, 312.25
423.08, 7.37, 312.53
421.96, 7.39, 312.86
420.71, 7.41, 313.23
419.90, 7.52, 313.46
418.27, 7.56, 313.94
415.59, 7.56, 314.73
430.26, 7.21, 310.50
430.03, 7.22, 310.57
430.11, 7.33, 310.54
430.01, 7.37, 310.57
429.34, 7.25, 310.78
429.10, 7.27, 310.85
428.85, 7.29, 310.93
428.58, 7.32, 311.01
428.29, 7.34, 311.10
427.95, 7.37, 311.20
427.55, 7.38, 311.33
427.03, 7.38, 311.49
426.37, 7.36, 311.69
425.60, 7.34, 311.93
424.87, 7.35, 312.15
424.04, 7.36, 312.41
423.06, 7.37, 312.71
421.94, 7.38, 313.05
¯420.68, 7.41, 313.44
420.00, 7.53, 313.64
418.17, 7.55, 314.20
415.46, 7.54, 315.03
430.28, 7.22, 310.57
430.06, 7.22, 310.64
430.16, 7.34, 310.60
430.06, 7.39, 310.64
429.36, 7.25, 310.86
429.12, 7.27, 310.94
428.87, 7.29, 311.02
428.60, 7.32, 311.11
428.31, 7.34, 311.20
427.97, 7.36, 311.31
427.57, 7.38, 311.43
427.05, 7.38, 311.60
426.38, 7.36, 311.82
425.60, 7.34, 312.07
424.87, 7.35, 312.30
424.04, 7.36, 312.57
423.04, 7.36, 312.89
421.93, 7.38, 313.24
420.66, 7.40, 313.65
420.11, 7.54, 313.82
418.06, 7.54, 314.48
415.34, 7.53, 315.35
430.30, 7.22, 310.64
430.08, 7.22, 310.71
430.22, 7.35, 310.66
430.12, 7.40, 310.70
430.01, 7.45, 310.73
429.14, 7.27, 311.03
428.89, 7.29, 311.11
428.62, 7.32, 311.20
428.32, 7.34, 311.30
427.99, 7.36, 311.41
427.59, 7.38, 311.54
427.08, 7.38, 311.71
426.39, 7.36, 311.94
425.61, 7.34, 312.20
424.88, 7.34, 312.45
424.05, 7.35, 312.73
423.03, 7.36, 313.07
421.92, 7.37, 313.44
420.64, 7.39, 313.86
429.82, 8.63, 310.76
429.89, 8.72, 310.74
429.86, 8.79, 310.75
430.33, 7.22, 310.71
430.36, 7.31, 310.69
430.27, 7.36, 310.72
¯430.17, 7.41, 310.76
430.07, 7.46, 310.79
429.16, 7.27, 311.11
428.91, 7.29, 311.20
428.64, 7.32, 311.29
428.34, 7.34, 311.40
428.01, 7.36, 311.51
427.62, 7.38, 311.65
427.10, 7.38, 311.83
426.40, 7.35, 312.07
425.61, 7.33, 312.34
424.88, 7.34, 312.60
424.04, 7.35, 312.89
423.01, 7.35, 313.25
429.75, 8.46, 310.88
429.75, 8.54, 310.88
429.91, 8.64, 310.82
429.97, 8.72, 310.80
429.93, 8.80, 310.80
429.74, 8.86, 310.87
429.74, 8.95, 310.87
430.35, 7.22, 310.78
430.42, 7.33, 310.75
430.32, 7.37, 310.78
430.22, 7.42, 310.82
430.12, 7.47, 310.85
430.02, 7.52, 310.89
428.93, 7.29, 311.29
428.66, 7.32, 311.38
428.36, 7.34, 311.49
428.03, 7.36, 311.61
427.64, 7.38, 311.75
427.12, 7.38, 311.94
426.41, 7.35, 312.20
425.62, 7.33, 312.48
424.90, 7.34, 312.75
424.03, 7.34, 313.06
423.00, 7.34, 313.43
429.83, 8.47, 310.93
429.83, 8.55, 310.93
430.01, 8.65, 310.87
430.03, 8.73, 310.85
430.01, 8.81, 310.86
429.82, 8.87, 310.93
430.37, 7.22, 310.85
430.47, 7.34, 310.81
430.37, 7.38, 310.84
430.28, 7.43, 310.88
430.18, 7.48, 310.91
430.08, 7.53, 310.95
428.96, 7.29, 311.38
¯428.69, 7.32, 311.48
428.38, 7.34, 311.59
428.05, 7.36, 311.72
427.67, 7.38, 311.86
427.13, 7.38, 312.06
426.42, 7.35, 312.33
425.64, 7.33, 312.62
424.91, 7.33, 312.89
424.02, 7.33, 313.23
422.99, 7.34, 313.61
429.91, 8.48, 310.99
429.91, 8.56, 310.99
429.96, 8.64, 310.97
429.96, 8.72, 310.96
429.96, 8.80, 310.96
429.90, 8.88, 310.98
430.40, 7.22, 310.91
430.52, 7.35, 310.87
430.43, 7.39, 310.90
430.33, 7.44, 310.93
430.23, 7.49, 310.97
430.14, 7.55, 311.01
430.03, 7.60, 311.05
430.01, 7.67, 311.06
430.01, 7.76, 311.05
430.00, 7.84, 311.05
430.00, 7.92, 311.05
427.15, 7.37, 312.18
426.44, 7.34, 312.45
425.65, 7.32, 312.76
424.93, 7.33, 313.04
424.02, 7.33, 313.40
422.99, 7.33, 313.80
421.89, 7.35, 314.22
420.69, 7.38, 314.69
429.88, 8.63, 311.08
429.88, 8.71, 311.08
429.88, 8.79, 311.08
430.66, 7.31, 310.89
430.57, 7.36, 310.92
430.48, 7.41, 310.96
430.38, 7.45, 310.99
430.28, 7.50, 311.03
430.17, 7.55, 311.08
430.05, 7.60, 311.12
428.73, 7.31, 311.66
428.42, 7.33, 311.79
430.02, 7.84, 311.13
430.02, 7.92, 311.13
430.02, 8.00, 311.12
430.03, 8.09, 311.12
¯430.03, 8.17, 311.12
430.03, 8.25, 311.12
430.03, 8.33, 311.11
430.03, 8.41, 311.11
430.01, 8.49, 311.12
430.01, 8.57, 311.11
430.27, 8.68, 311.01
430.27, 8.75, 311.01
430.22, 8.82, 311.03
430.02, 8.88, 311.10
430.45, 7.22, 311.05
430.57, 7.35, 311.00
430.47, 7.39, 311.04
430.36, 7.44, 311.08
430.25, 7.48, 311.13
430.13, 7.53, 311.18
429.03, 7.29, 311.64
428.76, 7.31, 311.76
428.45, 7.33, 311.88
428.11, 7.35, 312.02
427.75, 7.38, 312.17
427.19, 7.37, 312.41
426.47, 7.34, 312.71
425.69, 7.32, 313.04
424.96, 7.32, 313.34
424.02, 7.31, 313.74
423.00, 7.32, 314.16
430.14, 8.50, 311.15
430.14, 8.58, 311.15
430.35, 8.68, 311.06
430.35, 8.76, 311.06
430.28, 8.83, 311.08
430.13, 8.89, 311.14
430.48, 7.23, 311.12
430.54, 7.33, 311.09
430.44, 7.37, 311.13
430.33, 7.42, 311.18
430.21, 7.46, 311.23
430.10, 7.51, 311.28
429.06, 7.29, 311.73
428.78, 7.31, 311.85
428.47, 7.33, 311.98
428.14, 7.35, 312.13
427.78, 7.38, 312.28
427.21, 7.36, 312.53
426.49, 7.34, 312.84
425.71, 7.31, 313.17
424.98, 7.32, 313.49
424.02, 7.31, 313.91
423.01, 7.31, 314.34
430.22, 8.51, 311.20
¯430.22, 8.59, 311.20
430.42, 8.69, 311.11
430.42, 8.76, 311.11
430.35, 8.83, 311.14
430.21, 8.90, 311.19
430.51, 7.23, 311.19
430.51, 7.31, 311.18
430.40, 7.35, 311.23
430.29, 7.40, 311.28
430.18, 7.44, 311.33
429.33, 7.27, 311.71
429.09, 7.29, 311.82
428.80, 7.31, 311.94
428.50, 7.33, 312.08
428.16, 7.35, 312.23
427.80, 7.38, 312.39
427.23, 7.36, 312.64
426.52, 7.33, 312.97
425.74, 7.31, 313.31
425.01, 7.32, 313.64
424.02, 7.30, 314.08
430.30, 8.44, 311.25
430.29, 8.52, 311.25
430.36, 8.61, 311.22
430.40, 8.69, 311.20
430.40, 8.76, 311.20
430.40, 8.84, 311.19
430.28, 8.90, 311.24
430.54, 7.23, 311.25
430.32, 7.23, 311.35
430.37, 7.33, 311.32
430.26, 7.38, 311.38
430.14, 7.42, 311.43
429.36, 7.27, 311.79
429.11, 7.29, 311.91
428.83, 7.31, 312.04
428.52, 7.33, 312.18
428.19, 7.35, 312.33
427.83, 7.37, 312.50
427.26, 7.36, 312.76
426.54, 7.33, 313.09
425.76, 7.31, 313.45
425.02, 7.31, 313.79
424.03, 7.30, 314.25
430.23, 8.43, 311.36
430.31, 8.52, 311.33
430.31, 8.60, 311.32
430.31, 8.67, 311.32
430.31, 8.75, 311.32
430.32, 8.83, 311.31
430.32, 8.90, 311.31
¯430.57, 7.23, 311.32
430.35, 7.23, 311.42
430.34, 7.31, 311.42
430.23, 7.36, 311.48
429.62, 7.24, 311.77
429.39, 7.26, 311.88
429.14, 7.29, 312.00
428.86, 7.31, 312.13
428.55, 7.33, 312.28
428.22, 7.35, 312.43
427.86, 7.37, 312.60
427.28, 7.36, 312.88
426.57, 7.33, 313.22
425.79, 7.30, 313.59
425.04, 7.31, 313.95
424.04, 7.29, 314.43
422.99, 7.29, 314.93
421.71, 7.29, 315.53
421.16, 7.41, 315.79
419.13, 7.38, 316.76
416.38, 7.33, 318.07
430.60, 7.23, 311.38
430.38, 7.23, 311.49
430.15, 7.23, 311.60
430.19, 7.34, 311.58
429.65, 7.24, 311.85
429.42, 7.26, 311.96
429.17, 7.29, 312.09
428.89, 7.30, 312.22
428.58, 7.32, 312.37
428.25, 7.35, 312.53
427.89, 7.37, 312.71
427.31, 7.35, 313.00
426.60, 7.32, 313.35
425.83, 7.30, 313.73
425.05, 7.30, 314.11
424.02, 7.28, 314.62
422.98, 7.28, 315.13
421.68, 7.27, 315.76
421.21, 7.41, 316.00
419.02, 7.36, 317.07
430.63, 7.23, 311.45
430.42, 7.23, 311.56
430.19, 7.24, 311.67
429.94, 7.24, 311.80
429.68, 7.24, 311.93
429.45, 7.26, 312.05
429.20, 7.28, 312.17
428.91, 7.30, 312.32
428.61, 7.32, 312.47
428.29, 7.35, 312.63
¯427.92, 7.37, 312.82
427.34, 7.35, 313.11
426.64, 7.32, 313.47
425.86, 7.30, 313.86
425.07, 7.30, 314.27
424.02, 7.27, 314.80
422.98, 7.27, 315.33
421.66, 7.26, 316.00
421.13, 7.39, 316.26
418.91, 7.34, 317.39
430.66, 7.23, 311.52
430.45, 7.24, 311.63
430.22, 7.24, 311.75
429.98, 7.24, 311.87
429.71, 7.24, 312.01
429.48, 7.26, 312.13
429.23, 7.28, 312.26
428.94, 7.30, 312.41
428.64, 7.32, 312.57
428.32, 7.35, 312.73
427.94, 7.36, 312.93
427.38, 7.35, 313.23
426.67, 7.32, 313.60
425.90, 7.30, 314.00
425.09, 7.29, 314.43
424.02, 7.26, 314.98
422.97, 7.26, 315.53
421.63, 7.25, 316.23
421.06, 7.38, 316.52
418.79, 7.32, 317.71
430.69, 7.23, 311.58
430.48, 7.24, 311.69
430.26, 7.24, 311.82
430.01, 7.24, 311.95
429.75, 7.24, 312.09
429.51, 7.26, 312.22
429.26, 7.28, 312.35
428.98, 7.30, 312.50
428.68, 7.32, 312.66
428.36, 7.34, 312.83
427.97, 7.36, 313.04
427.41, 7.35, 313.34
426.71, 7.32, 313.72
425.95, 7.30, 314.13
425.08, 7.28, 314.60
424.03, 7.25, 315.16
422.96, 7.25, 315.74
421.60, 7.24, 316.47
420.99, 7.36, 316.79
418.58, 7.29, 318.10
430.73, 7.24, 311.65
¯430.52, 7.24, 311.76
430.29, 7.24, 311.89
430.05, 7.24, 312.02
429.79, 7.25, 312.16
429.55, 7.26, 312.30
429.29, 7.28, 312.44
429.01, 7.30, 312.59
428.72, 7.32, 312.76
428.40, 7.34, 312.93
428.00, 7.36, 313.15
427.45, 7.34, 313.46
426.75, 7.32, 313.84
425.99, 7.30, 314.27
425.08, 7.27, 314.77
424.04, 7.24, 315.35
422.95, 7.24, 315.95
421.56, 7.22, 316.72
420.92, 7.34, 317.07
418.30, 7.25, 318.53
430.76, 7.24, 311.71
430.56, 7.24, 311.83
430.33, 7.24, 311.96
430.09, 7.24, 312.09
429.83, 7.25, 312.24
429.58, 7.26, 312.38
429.32, 7.28, 312.53
429.05, 7.30, 312.68
428.76, 7.32, 312.85
428.44, 7.34, 313.03
428.03, 7.35, 313.26
427.49, 7.34, 313.57
426.80, 7.32, 313.97
426.03, 7.29, 314.40
425.07, 7.26, 314.95
424.05, 7.23, 315.54
422.94, 7.23, 316.17
421.61, 7.22, 316.92
420.83, 7.32, 317.37
417.98, 7.20, 319.00
430.80, 7.24, 311.77
430.59, 7.24, 311.89
430.37, 7.24, 312.02
430.13, 7.25, 312.16
429.87, 7.25, 312.31
429.61, 7.26, 312.47
429.36, 7.28, 312.62
429.09, 7.30, 312.77
428.80, 7.32, 312.94
428.48, 7.34, 313.13
428.06, 7.35, 313.38
427.53, 7.34, 313.69
¯426.84, 7.31, 314.09
426.06, 7.29, 314.55
425.07, 7.24, 315.13
424.06, 7.22, 315.72
422.94, 7.21, 316.38
421.67, 7.22, 317.12
420.75, 7.30, 317.66
417.56, 7.14, 319.53
430.83, 7.24, 311.84
430.63, 7.24, 311.96
430.41, 7.24, 312.09
430.17, 7.25, 312.24
429.92, 7.25, 312.39
429.65, 7.25, 312.55
429.40, 7.27, 312.70
429.13, 7.29, 312.86
428.84, 7.32, 313.04
428.52, 7.34, 313.23
428.09, 7.35, 313.49
427.57, 7.34, 313.80
426.89, 7.31, 314.21
426.06, 7.28, 314.71
425.07, 7.23, 315.31
424.08, 7.22, 315.91
422.92, 7.20, 316.61
421.72, 7.21, 317.33
420.58, 7.27, 318.02
416.63, 7.02, 320.40
430.87, 7.24, 311.90
430.67, 7.24, 312.03
430.45, 7.25, 312.16
430.22, 7.25, 312.31
429.96, 7.25, 312.46
429.69, 7.25, 312.63
429.44, 7.27, 312.79
429.17, 7.29, 312.95
428.88, 7.32, 313.13
428.57, 7.34, 313.32
428.13, 7.34, 313.60
427.61, 7.34, 313.92
426.94, 7.31, 314.33
426.07, 7.27, 314.87
425.07, 7.22, 315.49
424.09, 7.21, 316.10
422.90, 7.19, 316.84
421.78, 7.21, 317.53
420.49, 7.24, 318.33
430.91, 7.24, 311.96
430.71, 7.24, 312.09
430.49, 7.25, 312.23
430.26, 7.25, 312.38
¯430.01, 7.25, 312.54
429.73, 7.26, 312.71
429.48, 7.27, 312.87
429.21, 7.29, 313.04
428.92, 7.32, 313.23
428.60, 7.34, 313.43
428.16, 7.34, 313.71
427.66, 7.33, 314.03
426.99, 7.31, 314.45
426.09, 7.26, 315.03
425.08, 7.21, 315.67
424.11, 7.20, 316.29
422.89, 7.17, 317.07
421.81, 7.20, 317.75
420.41, 7.22, 318.64
430.95, 7.24, 312.02
430.75, 7.24, 312.16
430.53, 7.25, 312.30
430.30, 7.25, 312.45
430.05, 7.25, 312.61
429.78, 7.26, 312.79
429.52, 7.27, 312.96
429.25, 7.29, 313.13
428.97, 7.31, 313.32
428.64, 7.33, 313.53
428.20, 7.33, 313.82
427.70, 7.33, 314.14
427.01, 7.30, 314.60
426.10, 7.25, 315.19
425.10, 7.20, 315.85
424.13, 7.19, 316.48
422.88, 7.16, 317.30
421.85, 7.20, 317.97
420.33, 7.20, 318.97
430.99, 7.24, 312.09
430.79, 7.25, 312.22
430.58, 7.25, 312.36
430.35, 7.25, 312.52
430.10, 7.25, 312.68
429.83, 7.26, 312.86
429.56, 7.27, 313.04
429.30, 7.29, 313.22
429.01, 7.31, 313.41
428.68, 7.33, 313.63
428.24, 7.33, 313.93
427.75, 7.33, 314.26
427.03, 7.29, 314.74
426.12, 7.24, 315.36
425.13, 7.19, 316.02
424.14, 7.18, 316.68
422.87, 7.14, 317.54
¯421.88, 7.19, 318.20
420.09, 7.15, 319.41
431.03, 7.24, 312.15
430.83, 7.25, 312.28
430.62, 7.25, 312.43
430.39, 7.25, 312.59
430.15, 7.26, 312.76
429.88, 7.26, 312.94
429.60, 7.27, 313.13
429.34, 7.29, 313.31
429.06, 7.31, 313.50
428.72, 7.33, 313.74
428.28, 7.33, 314.04
427.79, 7.33, 314.38
427.05, 7.28, 314.89
426.14, 7.22, 315.52
425.16, 7.18, 316.19
424.15, 7.16, 316.89
422.86, 7.12, 317.78
421.92, 7.18, 318.42
419.99, 7.13, 319.76
431.07, 7.25, 312.21
430.87, 7.25, 312.35
430.66, 7.25, 312.49
430.44, 7.25, 312.65
430.19, 7.26, 312.83
429.93, 7.26, 313.01
429.65, 7.27, 313.21
429.39, 7.29, 313.40
429.11, 7.31, 313.60
428.76, 7.32, 313.84
428.32, 7.32, 314.15
427.84, 7.32, 314.49
427.08, 7.27, 315.03
426.16, 7.21, 315.68
425.19, 7.17, 316.37
424.16, 7.15, 317.10
422.85, 7.11, 318.02
421.95, 7.17, 318.66
419.69, 7.07, 320.26
431.11, 7.25, 312.27
430.92, 7.25, 312.41
430.71, 7.25, 312.56
430.49, 7.26, 312.72
430.24, 7.26, 312.90
429.98, 7.26, 313.09
429.69, 7.27, 313.30
429.43, 7.29, 313.48
429.15, 7.31, 313.69
428.80, 7.32, 313.94
428.37, 7.32, 314.26
¯427.89, 7.32, 314.60
427.11, 7.27, 315.17
426.18, 7.20, 315.85
425.22, 7.16, 316.55
424.17, 7.13, 317.31
422.85, 7.09, 318.27
421.98, 7.16, 318.90
419.59, 7.04, 320.63
431.15, 7.25, 312.33
430.96, 7.25, 312.47
430.76, 7.25, 312.62
430.53, 7.26, 312.79
430.29, 7.26, 312.97
430.03, 7.26, 313.16
429.75, 7.27, 313.37
429.48, 7.29, 313.57
429.20, 7.31, 313.78
428.84, 7.32, 314.05
428.41, 7.31, 314.37
427.94, 7.32, 314.72
427.14, 7.26, 315.32
426.21, 7.19, 316.01
425.25, 7.15, 316.73
424.18, 7.12, 317.53
422.86, 7.08, 318.51
421.98, 7.14, 319.16
419.28, 6.98, 321.17
431.20, 7.25, 312.39
431.01, 7.25, 312.53
430.80, 7.25, 312.69
430.58, 7.26, 312.86
430.34, 7.26, 313.04
430.09, 7.27, 313.23
429.81, 7.27, 313.45
429.53, 7.28, 313.66
429.25, 7.31, 313.87
428.89, 7.31, 314.15
428.46, 7.31, 314.48
427.98, 7.31, 314.84
427.17, 7.25, 315.46
426.24, 7.18, 316.17
425.28, 7.14, 316.91
424.19, 7.11, 317.74
422.88, 7.06, 318.74
421.98, 7.13, 319.43
419.20, 6.95, 321.56
431.24, 7.25, 312.44
431.05, 7.25, 312.59
430.85, 7.26, 312.75
430.63, 7.26, 312.92
430.40, 7.26, 313.11
¯430.14, 7.27, 313.31
429.86, 7.27, 313.52
429.58, 7.28, 313.75
429.30, 7.30, 313.96
428.94, 7.31, 314.25
428.52, 7.31, 314.58
428.02, 7.30, 314.97
427.20, 7.24, 315.61
426.27, 7.17, 316.34
425.31, 7.13, 317.10
424.21, 7.09, 317.96
422.90, 7.05, 318.98
421.98, 7.11, 319.70
418.85, 6.89, 322.16
431.29, 7.25, 312.50
431.10, 7.25, 312.65
430.90, 7.26, 312.81
430.68, 7.26, 312.99
430.45, 7.26, 313.17
430.20, 7.27, 313.38
429.92, 7.27, 313.60
429.63, 7.28, 313.83
429.36, 7.30, 314.05
428.98, 7.30, 314.35
428.58, 7.31, 314.68
428.06, 7.30, 315.09
427.24, 7.23, 315.75
426.32, 7.17, 316.49
425.34, 7.12, 317.28
424.23, 7.08, 318.18
422.93, 7.04, 319.22
421.98, 7.10, 319.98
418.82, 6.86, 322.52
431.33, 7.25, 312.56
431.15, 7.26, 312.71
430.95, 7.26, 312.88
430.73, 7.26, 313.05
430.50, 7.27, 313.24
430.25, 7.27, 313.45
429.98, 7.27, 313.67
429.68, 7.28, 313.92
429.41, 7.30, 314.14
429.03, 7.30, 314.45
428.64, 7.31, 314.78
428.11, 7.29, 315.21
427.28, 7.22, 315.90
426.38, 7.16, 316.64
425.38, 7.11, 317.47
424.25, 7.06, 318.39
422.95, 7.02, 319.47
421.97, 7.08, 320.27
¯418.38, 6.78, 323.24
431.38, 7.25, 312.62
431.20, 7.26, 312.77
431.00, 7.26, 312.94
430.79, 7.26, 313.12
430.56, 7.27, 313.31
430.31, 7.27, 313.52
430.04, 7.27, 313.75
429.74, 7.28, 314.00
429.46, 7.30, 314.23
429.09, 7.30, 314.55
428.70, 7.31, 314.88
428.16, 7.29, 315.33
427.32, 7.21, 316.04
426.44, 7.15, 316.79
425.42, 7.10, 317.65
424.30, 7.05, 318.59
422.94, 7.00, 319.74
421.93, 7.05, 320.60
417.91, 6.69, 324.00
431.43, 7.25, 312.67
431.24, 7.26, 312.83
431.05, 7.26, 313.00
430.84, 7.26, 313.18
430.61, 7.27, 313.38
430.37, 7.27, 313.59
430.10, 7.28, 313.82
429.81, 7.28, 314.07
429.51, 7.29, 314.33
429.15, 7.30, 314.64
428.76, 7.31, 314.97
428.21, 7.28, 315.45
427.37, 7.20, 316.19
426.50, 7.15, 316.94
425.46, 7.09, 317.84
424.36, 7.04, 318.79
422.94, 6.98, 320.02
421.89, 7.02, 320.93
417.64, 6.63, 324.62
431.47, 7.26, 312.73
431.29, 7.26, 312.89
431.10, 7.26, 313.06
430.89, 7.27, 313.24
430.67, 7.27, 313.44
430.42, 7.27, 313.66
430.16, 7.28, 313.89
429.87, 7.28, 314.15
429.56, 7.29, 314.42
429.21, 7.30, 314.73
428.83, 7.30, 315.07
428.26, 7.28, 315.57
¯427.41, 7.20, 316.33
426.56, 7.14, 317.09
425.51, 7.07, 318.02
424.41, 7.03, 319.00
422.95, 6.96, 320.30
421.85, 7.00, 321.27
417.70, 6.61, 324.96
431.52, 7.26, 312.78
431.34, 7.26, 312.94
431.15, 7.26, 313.12
430.95, 7.27, 313.30
430.73, 7.27, 313.51
430.48, 7.27, 313.73
430.22, 7.28, 313.96
429.94, 7.28, 314.22
429.62, 7.29, 314.51
429.28, 7.30, 314.82
428.90, 7.30, 315.17
428.32, 7.27, 315.69
427.47, 7.19, 316.47
426.63, 7.14, 317.23
425.55, 7.06, 318.22
424.46, 7.02, 319.21
422.99, 6.95, 320.55
421.77, 6.96, 321.66
417.78, 6.60, 325.29
431.57, 7.26, 312.84
431.39, 7.26, 313.00
431.21, 7.26, 313.18
431.00, 7.27, 313.37
430.78, 7.27, 313.57
430.54, 7.28, 313.79
430.29, 7.28, 314.03
430.00, 7.29, 314.30
429.68, 7.29, 314.59
429.34, 7.29, 314.91
428.96, 7.30, 315.27
428.38, 7.27, 315.81
427.54, 7.18, 316.60
426.70, 7.13, 317.38
425.60, 7.05, 318.41
424.52, 7.01, 319.42
423.04, 6.93, 320.79
421.66, 6.92, 322.08
431.62, 7.26, 312.89
431.45, 7.26, 313.06
431.26, 7.27, 313.24
431.06, 7.27, 313.43
430.84, 7.27, 313.63
430.61, 7.28, 313.86
430.35, 7.28, 314.10
¯430.07, 7.29, 314.37
429.75, 7.29, 314.67
429.41, 7.29, 315.00
429.03, 7.30, 315.36
428.44, 7.26, 315.93
427.61, 7.18, 316.73
426.76, 7.12, 317.53
425.66, 7.04, 318.58
424.57, 7.00, 319.63
423.09, 6.92, 321.04
421.54, 6.88, 322.52
431.67, 7.26, 312.94
431.50, 7.26, 313.11
431.31, 7.27, 313.29
431.12, 7.27, 313.49
430.90, 7.27, 313.70
430.67, 7.28, 313.92
430.41, 7.28, 314.17
430.14, 7.29, 314.44
429.82, 7.29, 314.75
429.47, 7.29, 315.09
429.10, 7.30, 315.46
428.51, 7.26, 316.04
427.68, 7.17, 316.85
426.83, 7.12, 317.68
425.73, 7.03, 318.76
424.63, 6.99, 319.84
423.15, 6.90, 321.29
421.31, 6.81, 323.09
431.72, 7.26, 313.00
431.55, 7.26, 313.17
431.37, 7.27, 313.35
431.17, 7.27, 313.55
430.96, 7.28, 313.76
430.73, 7.28, 313.99
430.48, 7.28, 314.24
430.21, 7.29, 314.52
429.89, 7.29, 314.83
429.54, 7.29, 315.18
429.17, 7.30, 315.55
428.57, 7.25, 316.15
427.76, 7.17, 316.98
426.91, 7.11, 317.83
425.81, 7.02, 318.93
424.70, 6.97, 320.05
423.21, 6.89, 321.54
421.02, 6.73, 323.74
431.77, 7.26, 313.05
431.61, 7.26, 313.22
431.43, 7.27, 313.41
431.23, 7.27, 313.61
¯431.02, 7.28, 313.82
430.79, 7.28, 314.05
430.55, 7.29, 314.31
430.27, 7.29, 314.59
429.96, 7.29, 314.91
429.61, 7.29, 315.27
429.25, 7.30, 315.64
428.64, 7.25, 316.27
427.86, 7.17, 317.07
426.98, 7.11, 317.97
425.91, 7.02, 319.08
424.77, 6.96, 320.26
423.27, 6.87, 321.80
420.64, 6.64, 324.50
431.83, 7.26, 313.10
431.66, 7.27, 313.27
431.48, 7.27, 313.46
431.29, 7.27, 313.66
431.08, 7.28, 313.88
430.86, 7.28, 314.12
430.61, 7.29, 314.37
430.34, 7.29, 314.66
430.04, 7.29, 314.98
429.68, 7.29, 315.36
429.32, 7.29, 315.74
428.71, 7.24, 316.38
427.97, 7.18, 317.16
427.06, 7.10, 318.12
426.02, 7.02, 319.22
424.85, 6.95, 320.45
423.30, 6.85, 322.08
420.74, 6.63, 324.79
431.88, 7.26, 313.15
431.72, 7.27, 313.33
431.54, 7.27, 313.52
431.35, 7.27, 313.72
431.15, 7.28, 313.94
430.92, 7.28, 314.18
430.68, 7.29, 314.44
430.41, 7.29, 314.73
430.11, 7.29, 315.06
429.76, 7.29, 315.44
429.40, 7.29, 315.83
428.80, 7.25, 316.47
428.08, 7.18, 317.25
427.15, 7.09, 318.26
426.13, 7.02, 319.36
424.95, 6.95, 320.63
423.36, 6.83, 322.35
420.84, 6.62, 325.07
431.93, 7.26, 313.20
¯431.77, 7.27, 313.38
431.60, 7.27, 313.57
431.41, 7.28, 313.78
431.21, 7.28, 314.00
430.99, 7.28, 314.24
430.75, 7.29, 314.51
430.48, 7.29, 314.80
430.18, 7.29, 315.13
429.84, 7.29, 315.51
429.47, 7.29, 315.92
428.90, 7.25, 316.55
428.19, 7.19, 317.34
427.24, 7.09, 318.40
426.24, 7.02, 319.50
425.05, 6.94, 320.82
423.45, 6.82, 322.59
420.96, 6.60, 325.35
431.99, 7.27, 313.25
431.83, 7.27, 313.43
431.66, 7.27, 313.62
431.47, 7.28, 313.83
431.27, 7.28, 314.06
431.06, 7.29, 314.30
430.82, 7.29, 314.57
430.56, 7.29, 314.87
430.26, 7.29, 315.21
429.92, 7.29, 315.59
429.55, 7.29, 316.01
429.00, 7.25, 316.63
428.30, 7.19, 317.43
427.35, 7.09, 318.51
426.36, 7.02, 319.63
425.15, 6.93, 321.00
423.54, 6.81, 322.83
421.08, 6.59, 325.63
432.04, 7.27, 313.30
431.88, 7.27, 313.48
431.72, 7.27, 313.68
431.53, 7.28, 313.89
431.34, 7.28, 314.12
431.12, 7.29, 314.36
430.89, 7.29, 314.64
430.63, 7.29, 314.94
430.34, 7.29, 315.28
430.00, 7.29, 315.67
429.63, 7.29, 316.10
429.10, 7.25, 316.71
428.42, 7.20, 317.51
427.46, 7.09, 318.63
426.48, 7.02, 319.76
425.26, 6.93, 321.18
¯423.65, 6.80, 323.06
421.20, 6.58, 325.90
432.10, 7.27, 313.35
431.94, 7.27, 313.53
431.78, 7.27, 313.73
431.60, 7.28, 313.94
431.40, 7.28, 314.17
431.19, 7.29, 314.42
430.96, 7.29, 314.70
430.70, 7.29, 315.01
430.42, 7.29, 315.35
430.08, 7.29, 315.74
429.71, 7.29, 316.19
429.21, 7.26, 316.79
428.54, 7.20, 317.58
427.57, 7.09, 318.74
426.60, 7.02, 319.89
425.37, 6.92, 321.37
423.75, 6.79, 323.30
421.34, 6.57, 326.17
432.15, 7.27, 313.39
432.00, 7.27, 313.58
431.84, 7.28, 313.78
431.66, 7.28, 314.00
431.47, 7.28, 314.23
431.26, 7.29, 314.48
431.03, 7.29, 314.76
430.78, 7.29, 315.07
430.49, 7.30, 315.42
430.17, 7.29, 315.82
429.80, 7.29, 316.27
429.31, 7.26, 316.87
428.66, 7.21, 317.66
427.68, 7.09, 318.86
426.73, 7.02, 320.02
425.48, 6.91, 321.55
423.87, 6.78, 323.51
421.63, 6.59, 326.25
432.21, 7.27, 313.44
432.06, 7.27, 313.63
431.90, 7.28, 313.83
431.72, 7.28, 314.05
431.54, 7.28, 314.28
431.33, 7.29, 314.54
431.10, 7.29, 314.83
430.85, 7.29, 315.14
430.57, 7.30, 315.49
430.25, 7.29, 315.89
429.89, 7.29, 316.34
429.41, 7.27, 316.94
428.78, 7.21, 317.73
¯427.82, 7.10, 318.94
426.86, 7.02, 320.14
425.60, 6.91, 321.72
424.04, 6.78, 323.68
421.97, 6.62, 326.27
432.27, 7.27, 313.49
432.12, 7.27, 313.68
431.96, 7.28, 313.88
431.79, 7.28, 314.10
431.60, 7.29, 314.34
431.40, 7.29, 314.60
431.18, 7.29, 314.89
430.93, 7.30, 315.20
430.65, 7.30, 315.55
430.34, 7.29, 315.96
429.98, 7.29, 316.42
429.52, 7.27, 317.01
428.90, 7.22, 317.80
427.98, 7.11, 318.99
426.99, 7.02, 320.26
425.72, 6.90, 321.90
424.21, 6.78, 323.84
422.28, 6.64, 326.32
420.81, 6.66, 328.21
432.33, 7.27, 313.53
432.18, 7.27, 313.72
432.02, 7.28, 313.93
431.85, 7.28, 314.15
431.67, 7.29, 314.39
431.47, 7.29, 314.66
431.25, 7.29, 314.95
431.01, 7.30, 315.27
430.74, 7.30, 315.62
430.42, 7.29, 316.03
430.07, 7.29, 316.50
429.63, 7.27, 317.08
429.03, 7.23, 317.87
428.14, 7.12, 319.04
427.14, 7.02, 320.37
425.87, 6.90, 322.04
424.38, 6.78, 323.99
422.58, 6.66, 326.37
421.24, 6.70, 328.14
432.38, 7.27, 313.58
432.24, 7.28, 313.77
432.09, 7.28, 313.98
431.92, 7.28, 314.20
431.74, 7.29, 314.44
431.54, 7.29, 314.71
431.32, 7.29, 315.01
431.08, 7.30, 315.33
¯430.82, 7.30, 315.69
430.51, 7.30, 316.10
430.16, 7.29, 316.57
429.73, 7.28, 317.15
429.16, 7.23, 317.93
428.30, 7.13, 319.09
427.29, 7.03, 320.46
426.06, 6.91, 322.13
424.57, 6.78, 324.14
422.88, 6.68, 326.41
421.82, 6.76, 327.85
432.44, 7.27, 313.62
432.30, 7.28, 313.81
432.15, 7.28, 314.02
431.99, 7.28, 314.25
431.81, 7.29, 314.50
431.61, 7.29, 314.77
431.40, 7.29, 315.07
431.16, 7.30, 315.39
430.90, 7.30, 315.75
430.60, 7.30, 316.17
430.26, 7.29, 316.64
429.84, 7.28, 317.23
429.29, 7.24, 317.99
428.47, 7.15, 319.13
427.45, 7.03, 320.54
426.25, 6.92, 322.21
424.77, 6.79, 324.26
423.18, 6.70, 326.46
422.40, 6.83, 327.54
421.58, 6.98, 328.68
432.50, 7.27, 313.66
432.36, 7.28, 313.86
432.21, 7.28, 314.07
432.05, 7.29, 314.30
431.88, 7.29, 314.55
431.69, 7.29, 314.82
431.47, 7.29, 315.12
431.24, 7.30, 315.45
430.99, 7.30, 315.81
430.69, 7.30, 316.24
430.35, 7.29, 316.72
429.94, 7.28, 317.31
429.41, 7.24, 318.06
428.63, 7.16, 319.17
427.60, 7.04, 320.63
426.45, 6.93, 322.28
424.98, 6.80, 324.36
423.48, 6.72, 326.50
422.97, 6.90, 327.22
422.04, 7.02, 328.54
¯432.78, 7.41, 313.38
432.43, 7.28, 313.90
432.28, 7.28, 314.12
432.12, 7.29, 314.35
431.95, 7.29, 314.60
431.76, 7.29, 314.88
431.55, 7.29, 315.18
431.32, 7.30, 315.51
431.07, 7.30, 315.88
430.78, 7.30, 316.31
430.45, 7.30, 316.79
430.04, 7.28, 317.38
429.53, 7.25, 318.12
428.78, 7.17, 319.22
427.77, 7.05, 320.70
426.66, 6.94, 322.32
425.21, 6.81, 324.45
423.77, 6.74, 326.54
423.28, 6.92, 327.26
422.49, 7.06, 328.40
421.94, 7.28, 329.20
432.84, 7.41, 313.42
432.49, 7.28, 313.95
432.34, 7.28, 314.16
432.19, 7.29, 314.39
432.02, 7.29, 314.65
431.83, 7.29, 314.93
431.63, 7.30, 315.23
431.41, 7.30, 315.57
431.16, 7.30, 315.94
430.87, 7.30, 316.37
430.55, 7.30, 316.86
430.15, 7.28, 317.45
429.66, 7.25, 318.19
428.94, 7.18, 319.26
427.96, 7.06, 320.73
426.87, 6.96, 322.36
425.43, 6.82, 324.53
424.08, 6.77, 326.55
423.58, 6.94, 327.30
422.89, 7.09, 328.32
422.49, 7.33, 328.92
432.89, 7.41, 313.46
432.77, 7.41, 313.65
432.41, 7.28, 314.21
432.26, 7.29, 314.44
432.09, 7.29, 314.70
431.91, 7.29, 314.98
431.71, 7.30, 315.29
431.49, 7.30, 315.63
431.25, 7.30, 316.00
¯430.96, 7.30, 316.43
430.64, 7.30, 316.92
430.26, 7.28, 317.52
429.78, 7.26, 318.26
429.10, 7.19, 319.30
428.16, 7.08, 320.75
427.09, 6.97, 322.40
425.65, 6.83, 324.61
424.39, 6.79, 326.55
423.89, 6.95, 327.33
423.29, 7.12, 328.25
422.93, 7.36, 328.79
422.41, 7.59, 329.58
432.95, 7.41, 313.50
432.83, 7.41, 313.69
432.48, 7.28, 314.25
432.33, 7.29, 314.49
432.16, 7.29, 314.75
431.98, 7.29, 315.03
431.79, 7.30, 315.34
431.57, 7.30, 315.68
431.33, 7.30, 316.06
431.06, 7.30, 316.50
430.74, 7.30, 316.99
430.36, 7.28, 317.59
429.89, 7.26, 318.33
429.26, 7.20, 319.34
428.35, 7.09, 320.77
427.30, 6.99, 322.44
425.94, 6.86, 324.59
424.70, 6.81, 326.55
424.21, 6.98, 327.32
423.67, 7.15, 328.17
423.33, 7.39, 328.70
422.96, 7.63, 329.28
433.01, 7.41, 313.53
432.89, 7.41, 313.73
432.76, 7.42, 313.93
432.40, 7.29, 314.53
432.23, 7.29, 314.80
432.06, 7.29, 315.08
431.87, 7.30, 315.40
431.65, 7.30, 315.74
431.42, 7.30, 316.12
431.15, 7.30, 316.56
430.84, 7.30, 317.05
430.47, 7.29, 317.65
430.01, 7.26, 318.40
429.42, 7.21, 319.37
428.55, 7.11, 320.78
427.51, 7.00, 322.47
¯426.28, 6.90, 324.47
425.00, 6.83, 326.55
424.53, 7.00, 327.31
424.02, 7.18, 328.13
423.72, 7.41, 328.62
423.38, 7.65, 329.17
422.89, 7.90, 329.95
433.07, 7.41, 313.57
432.95, 7.41, 313.77
432.83, 7.42, 313.97
432.47, 7.29, 314.58
432.31, 7.29, 314.84
432.13, 7.29, 315.13
431.95, 7.30, 315.45
431.74, 7.30, 315.79
431.51, 7.30, 316.17
431.24, 7.30, 316.62
430.94, 7.30, 317.12
430.58, 7.29, 317.72
430.13, 7.26, 318.47
429.58, 7.22, 319.40
428.74, 7.13, 320.80
427.72, 7.02, 322.50
426.60, 6.93, 324.38
425.30, 6.86, 326.55
424.85, 7.02, 327.30
424.35, 7.20, 328.12
424.05, 7.43, 328.62
423.77, 7.68, 329.08
423.42, 7.93, 329.65
433.13, 7.41, 313.61
433.01, 7.41, 313.80
432.89, 7.42, 314.01
432.76, 7.42, 314.24
432.38, 7.29, 314.89
432.21, 7.29, 315.18
432.03, 7.30, 315.50
431.82, 7.30, 315.85
431.60, 7.30, 316.23
431.34, 7.30, 316.68
431.05, 7.30, 317.18
430.70, 7.29, 317.78
430.26, 7.27, 318.53
429.73, 7.23, 319.44
428.94, 7.14, 320.80
427.93, 7.03, 322.53
426.91, 6.96, 324.29
425.59, 6.88, 326.54
425.16, 7.04, 327.29
424.68, 7.22, 328.10
424.36, 7.44, 328.65
¯424.10, 7.69, 329.09
423.83, 7.95, 329.55
433.19, 7.41, 313.64
433.07, 7.41, 313.84
432.95, 7.42, 314.05
432.82, 7.42, 314.28
432.68, 7.43, 314.53
432.29, 7.30, 315.23
432.11, 7.30, 315.55
431.91, 7.30, 315.90
431.69, 7.31, 316.28
431.44, 7.30, 316.73
431.15, 7.30, 317.24
430.81, 7.29, 317.84
430.38, 7.27, 318.60
429.87, 7.24, 319.50
429.13, 7.16, 320.81
428.16, 7.05, 322.53
427.22, 7.00, 324.19
425.86, 6.89, 326.58
425.46, 7.06, 327.28
425.01, 7.24, 328.08
424.69, 7.46, 328.64
424.41, 7.70, 329.13
424.15, 7.96, 329.58
423.88, 8.23, 330.06
433.24, 7.41, 313.68
433.14, 7.41, 313.88
433.02, 7.42, 314.09
432.89, 7.42, 314.32
432.75, 7.43, 314.57
432.37, 7.30, 315.27
432.19, 7.30, 315.60
432.00, 7.30, 315.95
431.78, 7.31, 316.34
431.53, 7.31, 316.79
431.25, 7.30, 317.30
430.92, 7.29, 317.90
430.51, 7.27, 318.66
430.01, 7.24, 319.56
429.32, 7.17, 320.81
428.38, 7.07, 322.52
427.52, 7.03, 324.09
426.08, 6.90, 326.70
425.77, 7.08, 327.27
425.33, 7.26, 328.07
425.02, 7.48, 328.62
424.72, 7.71, 329.16
424.47, 7.97, 329.61
424.20, 8.24, 330.10
433.30, 7.41, 313.71
¯433.20, 7.41, 313.91
433.08, 7.42, 314.12
432.96, 7.42, 314.36
432.83, 7.43, 314.61
432.68, 7.43, 314.88
432.27, 7.30, 315.64
432.08, 7.30, 316.00
431.87, 7.31, 316.39
431.63, 7.31, 316.84
431.36, 7.30, 317.36
431.04, 7.30, 317.96
430.63, 7.27, 318.71
430.15, 7.25, 319.62
429.51, 7.19, 320.81
428.61, 7.09, 322.50
427.77, 7.05, 324.07
426.31, 6.90, 326.81
426.00, 7.08, 327.38
425.64, 7.28, 328.05
425.34, 7.49, 328.60
425.04, 7.73, 329.16
424.78, 7.98, 329.64
424.50, 8.25, 330.16
433.37, 7.41, 313.74
433.26, 7.41, 313.94
433.15, 7.42, 314.16
433.03, 7.42, 314.39
432.90, 7.43, 314.65
432.75, 7.43, 314.92
432.36, 7.30, 315.69
432.17, 7.30, 316.05
431.96, 7.31, 316.44
431.73, 7.31, 316.90
431.46, 7.30, 317.41
431.15, 7.30, 318.01
430.76, 7.28, 318.77
430.29, 7.25, 319.68
429.70, 7.21, 320.81
428.83, 7.11, 322.49
428.00, 7.07, 324.08
426.53, 6.90, 326.93
426.23, 7.09, 327.50
425.91, 7.28, 328.10
425.66, 7.51, 328.59
425.37, 7.74, 329.14
425.09, 7.99, 329.67
424.81, 8.25, 330.22
433.43, 7.41, 313.78
433.32, 7.41, 313.98
433.21, 7.42, 314.20
433.10, 7.42, 314.43
¯432.97, 7.43, 314.68
432.83, 7.43, 314.97
432.67, 7.43, 315.27
432.26, 7.30, 316.10
432.06, 7.31, 316.50
431.83, 7.31, 316.95
431.57, 7.31, 317.47
431.27, 7.30, 318.07
430.88, 7.28, 318.82
430.43, 7.25, 319.73
429.86, 7.21, 320.85
429.05, 7.12, 322.47
428.24, 7.08, 324.09
426.86, 6.93, 326.82
426.46, 7.09, 327.62
426.14, 7.29, 328.25
425.91, 7.51, 328.69
425.70, 7.76, 329.12
425.40, 8.00, 329.70
425.11, 8.26, 330.27
433.49, 7.41, 313.81
433.39, 7.41, 314.01
433.28, 7.42, 314.23
433.17, 7.42, 314.47
433.04, 7.43, 314.72
432.90, 7.43, 315.01
432.75, 7.43, 315.31
432.35, 7.30, 316.14
432.15, 7.31, 316.55
431.92, 7.31, 317.01
431.67, 7.31, 317.52
431.38, 7.30, 318.12
431.01, 7.28, 318.88
430.57, 7.26, 319.78
430.03, 7.22, 320.90
429.27, 7.14, 322.45
428.47, 7.10, 324.09
427.20, 6.97, 326.68
426.69, 7.09, 327.73
426.37, 7.29, 328.39
426.13, 7.51, 328.87
425.94, 7.76, 329.25
425.73, 8.01, 329.67
425.41, 8.27, 330.33
433.55, 7.41, 313.84
433.45, 7.42, 314.04
433.35, 7.42, 314.26
433.24, 7.42, 314.50
433.11, 7.43, 314.76
432.98, 7.43, 315.04
432.83, 7.43, 315.35
¯432.67, 7.44, 315.70
432.24, 7.31, 316.60
432.02, 7.31, 317.06
431.78, 7.31, 317.58
431.50, 7.31, 318.17
431.14, 7.29, 318.93
430.72, 7.26, 319.83
430.19, 7.23, 320.94
429.49, 7.16, 322.42
428.70, 7.11, 324.08
427.54, 7.00, 326.54
426.92, 7.09, 327.85
426.59, 7.28, 328.54
426.35, 7.51, 329.05
426.16, 7.76, 329.43
425.97, 8.01, 329.83
425.71, 8.27, 330.38
433.61, 7.41, 313.87
433.52, 7.42, 314.07
433.41, 7.42, 314.29
433.31, 7.42, 314.53
433.19, 7.43, 314.80
433.05, 7.43, 315.08
432.91, 7.43, 315.40
432.75, 7.44, 315.74
432.34, 7.31, 316.65
432.12, 7.31, 317.11
431.88, 7.31, 317.64
431.61, 7.31, 318.23
431.27, 7.29, 318.98
430.86, 7.27, 319.87
430.35, 7.23, 320.97
429.70, 7.18, 322.40
428.93, 7.13, 324.08
427.82, 7.02, 326.50
427.15, 7.10, 327.96
426.82, 7.28, 328.68
426.57, 7.51, 329.23
426.39, 7.75, 329.62
426.20, 8.01, 330.02
425.89, 8.27, 330.68
433.67, 7.41, 313.90
433.58, 7.42, 314.10
433.48, 7.42, 314.33
433.38, 7.42, 314.57
433.26, 7.43, 314.83
433.13, 7.43, 315.12
432.99, 7.43, 315.43
432.84, 7.44, 315.78
432.67, 7.44, 316.16
432.22, 7.31, 317.16
¯431.99, 7.31, 317.69
431.73, 7.31, 318.28
431.40, 7.29, 319.02
431.00, 7.27, 319.92
430.52, 7.24, 321.02
429.88, 7.18, 322.45
429.16, 7.14, 324.07
428.04, 7.03, 326.59
427.38, 7.10, 328.07
427.05, 7.28, 328.82
426.79, 7.50, 329.41
426.61, 7.75, 329.80
426.28, 7.99, 330.54
426.04, 8.26, 331.07
433.74, 7.41, 313.92
433.65, 7.42, 314.13
433.55, 7.42, 314.36
433.45, 7.42, 314.60
433.33, 7.43, 314.87
433.21, 7.43, 315.16
433.07, 7.43, 315.47
432.92, 7.44, 315.82
432.76, 7.44, 316.21
432.33, 7.31, 317.21
432.10, 7.31, 317.74
431.84, 7.31, 318.34
431.53, 7.30, 319.07
431.15, 7.28, 319.96
430.68, 7.24, 321.06
430.06, 7.19, 322.48
429.39, 7.16, 324.06
428.27, 7.03, 326.67
427.61, 7.10, 328.20
427.28, 7.28, 328.97
427.01, 7.50, 329.59
426.84, 7.75, 329.99
426.43, 7.97, 330.94
426.20, 8.25, 331.47
433.80, 7.41, 313.95
433.71, 7.42, 314.16
433.62, 7.42, 314.39
433.52, 7.42, 314.63
433.41, 7.43, 314.90
433.29, 7.43, 315.19
433.15, 7.43, 315.51
433.01, 7.44, 315.86
432.85, 7.44, 316.25
432.67, 7.44, 316.68
432.21, 7.31, 317.79
431.96, 7.31, 318.39
431.66, 7.30, 319.11
¯431.29, 7.28, 320.00
430.84, 7.25, 321.09
430.25, 7.20, 322.51
429.62, 7.17, 324.03
428.55, 7.05, 326.62
427.82, 7.09, 328.38
427.51, 7.28, 329.11
427.23, 7.49, 329.78
426.96, 7.73, 330.43
426.58, 7.96, 331.33
433.86, 7.41, 313.98
433.78, 7.42, 314.19
433.69, 7.42, 314.42
433.59, 7.42, 314.66
433.48, 7.43, 314.93
433.36, 7.43, 315.23
433.24, 7.43, 315.55
433.10, 7.44, 315.89
432.94, 7.44, 316.29
432.76, 7.44, 316.72
432.56, 7.44, 317.22
432.07, 7.31, 318.45
431.78, 7.30, 319.17
431.44, 7.28, 320.04
431.00, 7.26, 321.13
430.44, 7.21, 322.53
429.83, 7.18, 324.05
428.83, 7.07, 326.56
428.00, 7.08, 328.62
427.74, 7.28, 329.26
427.46, 7.49, 329.96
427.00, 7.69, 331.11
426.74, 7.94, 331.74
433.93, 7.41, 314.00
433.85, 7.42, 314.22
433.76, 7.42, 314.44
433.66, 7.42, 314.69
433.56, 7.43, 314.96
433.44, 7.43, 315.26
433.32, 7.43, 315.58
433.18, 7.44, 315.93
433.03, 7.44, 316.33
432.86, 7.44, 316.76
432.67, 7.44, 317.26
432.19, 7.31, 318.50
431.91, 7.30, 319.23
431.58, 7.29, 320.08
431.16, 7.26, 321.16
430.62, 7.22, 322.55
430.03, 7.19, 324.09
429.10, 7.09, 326.50
¯428.19, 7.06, 328.86
427.94, 7.26, 329.51
427.62, 7.47, 330.31
427.13, 7.66, 331.59
433.99, 7.41, 314.03
433.91, 7.42, 314.24
433.83, 7.42, 314.47
433.73, 7.42, 314.72
433.63, 7.43, 314.99
433.52, 7.43, 315.29
433.40, 7.43, 315.61
433.27, 7.44, 315.97
433.12, 7.44, 316.36
432.96, 7.44, 316.80
432.77, 7.44, 317.31
432.56, 7.44, 317.88
432.03, 7.30, 319.29
431.72, 7.29, 320.13
431.33, 7.27, 321.19
430.81, 7.23, 322.57
430.23, 7.19, 324.13
429.38, 7.11, 326.43
428.38, 7.05, 329.10
428.13, 7.25, 329.77
427.68, 7.42, 330.98
427.30, 7.64, 332.00
434.06, 7.41, 314.05
433.98, 7.42, 314.27
433.90, 7.42, 314.50
433.81, 7.42, 314.75
433.71, 7.43, 315.02
433.60, 7.43, 315.32
433.48, 7.43, 315.65
433.36, 7.44, 316.00
433.21, 7.44, 316.40
433.06, 7.44, 316.84
432.87, 7.44, 317.35
432.67, 7.44, 317.92
432.16, 7.30, 319.34
431.86, 7.29, 320.19
431.49, 7.27, 321.21
431.00, 7.23, 322.58
430.43, 7.20, 324.17
429.65, 7.13, 326.35
428.57, 7.03, 329.35
428.33, 7.24, 330.03
427.74, 7.37, 331.68
434.12, 7.41, 314.08
434.05, 7.42, 314.29
433.97, 7.42, 314.52
433.88, 7.42, 314.78
¯433.78, 7.43, 315.05
433.68, 7.43, 315.35
433.57, 7.43, 315.68
433.44, 7.44, 316.04
433.31, 7.44, 316.44
433.15, 7.44, 316.88
432.98, 7.44, 317.39
432.78, 7.44, 317.96
432.55, 7.44, 318.64
431.99, 7.29, 320.25
431.65, 7.28, 321.24
431.18, 7.24, 322.59
430.63, 7.20, 324.21
429.86, 7.13, 326.43
428.77, 7.02, 329.60
428.27, 7.15, 331.04
434.19, 7.41, 314.10
434.11, 7.42, 314.31
434.04, 7.42, 314.55
433.95, 7.42, 314.80
433.86, 7.43, 315.08
433.76, 7.43, 315.38
433.65, 7.43, 315.71
433.53, 7.44, 316.07
433.40, 7.44, 316.47
433.25, 7.44, 316.91
433.08, 7.44, 317.43
432.89, 7.44, 318.01
432.67, 7.44, 318.68
432.13, 7.29, 320.30
431.80, 7.28, 321.30
431.37, 7.25, 322.60
430.83, 7.21, 324.24
430.07, 7.13, 326.52
428.97, 7.00, 329.85
428.34, 7.09, 331.75
434.25, 7.41, 314.12
434.18, 7.42, 314.34
434.11, 7.42, 314.57
434.03, 7.42, 314.83
433.94, 7.43, 315.11
433.84, 7.43, 315.41
433.74, 7.44, 315.73
433.62, 7.44, 316.10
433.49, 7.44, 316.50
433.35, 7.44, 316.95
433.19, 7.44, 317.46
433.00, 7.44, 318.05
432.79, 7.44, 318.73
432.53, 7.43, 319.52
431.95, 7.28, 321.36
¯431.56, 7.26, 322.61
431.02, 7.21, 324.28
430.29, 7.13, 326.60
429.03, 6.93, 330.56
434.32, 7.42, 314.14
434.25, 7.42, 314.36
434.18, 7.42, 314.60
434.10, 7.42, 314.85
434.01, 7.43, 315.13
433.92, 7.43, 315.44
433.82, 7.44, 315.76
433.71, 7.44, 316.13
433.59, 7.44, 316.53
433.45, 7.44, 316.98
433.29, 7.44, 317.50
433.12, 7.44, 318.09
432.91, 7.44, 318.77
432.66, 7.43, 319.57
432.38, 7.42, 320.51
431.73, 7.26, 322.64
431.22, 7.22, 324.31
430.50, 7.13, 326.67
428.94, 6.80, 331.82
434.38, 7.42, 314.16
434.32, 7.42, 314.38
434.25, 7.42, 314.62
434.17, 7.42, 314.88
434.09, 7.43, 315.16
434.00, 7.43, 315.46
433.91, 7.44, 315.79
433.80, 7.44, 316.16
433.68, 7.44, 316.56
433.55, 7.44, 317.02
433.40, 7.44, 317.54
433.23, 7.44, 318.13
433.03, 7.44, 318.81
432.79, 7.43, 319.62
432.52, 7.42, 320.56
431.90, 7.26, 322.71
431.42, 7.22, 324.34
430.72, 7.13, 326.74
434.45, 7.42, 314.18
434.39, 7.42, 314.40
434.32, 7.42, 314.64
434.25, 7.42, 314.90
434.17, 7.43, 315.18
434.09, 7.43, 315.49
433.99, 7.44, 315.81
433.89, 7.44, 316.18
433.78, 7.44, 316.59
433.65, 7.44, 317.05
¯433.51, 7.44, 317.57
433.34, 7.44, 318.16
433.15, 7.44, 318.85
432.93, 7.43, 319.66
432.66, 7.42, 320.61
432.35, 7.41, 321.74
431.62, 7.23, 324.37
430.94, 7.14, 326.80
434.51, 7.42, 314.20
434.46, 7.42, 314.42
434.39, 7.42, 314.66
434.32, 7.42, 314.92
434.25, 7.43, 315.20
434.17, 7.43, 315.51
434.08, 7.44, 315.84
433.98, 7.44, 316.21
433.87, 7.44, 316.62
433.75, 7.44, 317.08
433.61, 7.44, 317.60
433.46, 7.44, 318.20
433.27, 7.44, 318.89
433.06, 7.43, 319.70
432.81, 7.42, 320.66
432.50, 7.41, 321.79
432.13, 7.39, 323.22
431.16, 7.14, 326.86
434.58, 7.42, 314.22
434.53, 7.42, 314.44
434.46, 7.42, 314.68
434.40, 7.42, 314.94
434.33, 7.43, 315.23
434.25, 7.43, 315.53
434.17, 7.44, 315.86
434.07, 7.44, 316.24
433.97, 7.44, 316.65
433.85, 7.44, 317.11
433.72, 7.44, 317.63
433.57, 7.44, 318.23
433.40, 7.44, 318.93
433.19, 7.43, 319.74
432.95, 7.42, 320.70
432.66, 7.41, 321.84
432.30, 7.39, 323.28
431.39, 7.14, 326.91
434.65, 7.42, 314.23
434.60, 7.42, 314.46
434.54, 7.42, 314.70
434.47, 7.42, 314.96
434.41, 7.43, 315.25
434.33, 7.43, 315.55
434.25, 7.44, 315.88
¯434.16, 7.44, 316.26
434.07, 7.44, 316.67
433.96, 7.44, 317.13
433.83, 7.44, 317.66
433.69, 7.44, 318.26
433.52, 7.44, 318.96
433.32, 7.43, 319.78
433.09, 7.42, 320.74
432.82, 7.41, 321.89
432.48, 7.39, 323.33
432.01, 7.34, 325.28
434.72, 7.42, 314.25
434.66, 7.42, 314.47
434.61, 7.42, 314.72
434.55, 7.42, 314.98
434.49, 7.43, 315.27
434.42, 7.43, 315.57
434.34, 7.44, 315.91
434.26, 7.44, 316.28
434.16, 7.44, 316.70
434.06, 7.44, 317.16
433.94, 7.44, 317.69
433.80, 7.44, 318.29
433.64, 7.44, 318.99
433.46, 7.43, 319.82
433.24, 7.42, 320.78
432.98, 7.41, 321.94
432.65, 7.39, 323.39
432.21, 7.34, 325.35
434.78, 7.42, 314.27
434.73, 7.42, 314.49
434.68, 7.42, 314.74
434.63, 7.42, 315.00
434.57, 7.43, 315.29
434.50, 7.43, 315.59
434.43, 7.44, 315.93
434.35, 7.44, 316.30
434.26, 7.44, 316.72
434.16, 7.44, 317.18
434.05, 7.44, 317.71
433.92, 7.44, 318.32
433.77, 7.44, 319.03
433.59, 7.43, 319.85
433.39, 7.42, 320.82
433.14, 7.41, 321.98
432.83, 7.39, 323.44
432.41, 7.34, 325.41
434.85, 7.42, 314.28
434.80, 7.42, 314.51
434.76, 7.42, 314.75
434.70, 7.42, 315.02
¯434.64, 7.43, 315.30
434.58, 7.43, 315.61
434.52, 7.44, 315.95
434.44, 7.44, 316.32
434.36, 7.44, 316.74
434.26, 7.44, 317.20
434.16, 7.44, 317.74
434.03, 7.44, 318.35
433.89, 7.44, 319.05
433.73, 7.43, 319.88
433.53, 7.42, 320.86
433.30, 7.41, 322.02
433.00, 7.38, 323.49
432.61, 7.34, 325.47
434.92, 7.42, 314.29
434.88, 7.42, 314.52
434.83, 7.42, 314.77
434.78, 7.42, 315.03
434.72, 7.43, 315.32
434.67, 7.43, 315.63
434.60, 7.44, 315.96
434.53, 7.44, 316.34
434.45, 7.44, 316.76
434.37, 7.44, 317.23
434.27, 7.44, 317.76
434.15, 7.44, 318.37
434.02, 7.44, 319.08
433.86, 7.43, 319.92
433.68, 7.42, 320.89
433.46, 7.41, 322.06
433.18, 7.38, 323.53
432.81, 7.34, 325.52
434.99, 7.42, 314.31
434.95, 7.42, 314.53
434.90, 7.42, 314.78
434.86, 7.42, 315.05
434.81, 7.43, 315.34
434.75, 7.43, 315.64
434.69, 7.44, 315.98
434.63, 7.44, 316.36
434.55, 7.44, 316.78
434.47, 7.44, 317.25
434.38, 7.44, 317.78
434.27, 7.44, 318.39
434.14, 7.44, 319.11
434.00, 7.43, 319.94
433.83, 7.42, 320.92
433.62, 7.41, 322.09
433.36, 7.38, 323.57
433.01, 7.33, 325.57
435.05, 7.42, 314.32
¯435.02, 7.42, 314.55
434.98, 7.42, 314.79
434.93, 7.42, 315.06
434.89, 7.43, 315.35
434.84, 7.43, 315.66
434.78, 7.44, 316.00
434.72, 7.44, 316.38
434.65, 7.44, 316.79
434.57, 7.44, 317.26
434.49, 7.44, 317.80
434.39, 7.44, 318.42
434.27, 7.44, 319.13
434.13, 7.43, 319.97
433.98, 7.42, 320.95
433.78, 7.41, 322.12
433.54, 7.38, 323.61
433.22, 7.33, 325.62
435.12, 7.42, 314.33
435.09, 7.42, 314.56
435.05, 7.42, 314.81
435.01, 7.42, 315.07
434.97, 7.43, 315.36
434.92, 7.43, 315.67
434.87, 7.44, 316.01
434.81, 7.44, 316.39
434.75, 7.44, 316.81
434.68, 7.44, 317.28
434.60, 7.44, 317.82
434.51, 7.44, 318.44
434.40, 7.44, 319.15
434.27, 7.43, 319.99
434.12, 7.42, 320.98
433.95, 7.41, 322.15
433.72, 7.38, 323.65
433.42, 7.33, 325.66
435.19, 7.42, 314.34
435.16, 7.42, 314.57
435.12, 7.42, 314.82
435.09, 7.42, 315.09
435.05, 7.43, 315.38
435.00, 7.43, 315.68
434.96, 7.44, 316.02
434.91, 7.44, 316.41
434.85, 7.44, 316.82
434.78, 7.44, 317.30
434.71, 7.44, 317.84
434.62, 7.44, 318.45
434.52, 7.44, 319.17
434.41, 7.43, 320.02
434.27, 7.42, 321.00
434.11, 7.41, 322.18
¯433.90, 7.38, 323.68
433.63, 7.33, 325.69
435.26, 7.42, 314.35
435.23, 7.42, 314.58
435.20, 7.42, 314.83
435.16, 7.42, 315.10
435.13, 7.43, 315.39
435.09, 7.43, 315.69
435.05, 7.44, 316.04
435.00, 7.44, 316.42
434.95, 7.44, 316.84
434.89, 7.44, 317.31
434.82, 7.44, 317.85
434.74, 7.44, 318.47
434.65, 7.44, 319.19
434.55, 7.43, 320.04
434.42, 7.42, 321.02
434.27, 7.41, 322.20
434.09, 7.38, 323.71
433.83, 7.33, 325.73
435.33, 7.42, 314.36
435.30, 7.42, 314.59
435.27, 7.42, 314.84
435.24, 7.42, 315.11
435.21, 7.43, 315.40
435.17, 7.43, 315.71
435.14, 7.44, 316.05
435.09, 7.44, 316.43
435.05, 7.44, 316.85
434.99, 7.44, 317.32
434.93, 7.44, 317.86
434.86, 7.44, 318.49
434.78, 7.44, 319.21
434.68, 7.43, 320.05
434.57, 7.42, 321.04
434.44, 7.41, 322.23
434.27, 7.38, 323.74
434.04, 7.33, 325.76
435.39, 7.42, 314.37
435.37, 7.42, 314.60
435.35, 7.42, 314.85
435.32, 7.42, 315.12
435.29, 7.43, 315.41
435.26, 7.43, 315.71
435.23, 7.44, 316.06
435.19, 7.44, 316.44
435.14, 7.44, 316.86
435.10, 7.44, 317.34
435.04, 7.44, 317.88
434.98, 7.44, 318.50
434.91, 7.44, 319.22
¯434.82, 7.43, 320.07
434.72, 7.42, 321.06
434.60, 7.41, 322.25
434.45, 7.38, 323.76
434.25, 7.33, 325.78
435.46, 7.42, 314.37
435.44, 7.42, 314.61
435.42, 7.42, 314.85
435.40, 7.42, 315.12
435.37, 7.43, 315.41
435.34, 7.43, 315.72
435.31, 7.44, 316.07
435.28, 7.44, 316.45
435.24, 7.44, 316.87
435.20, 7.44, 317.35
435.15, 7.44, 317.89
435.10, 7.44, 318.51
435.03, 7.44, 319.24
434.96, 7.43, 320.08
434.87, 7.42, 321.08
434.77, 7.41, 322.26
434.63, 7.38, 323.78
434.46, 7.33, 325.80
435.53, 7.42, 314.38
435.51, 7.42, 314.61
435.50, 7.42, 314.86
435.48, 7.42, 315.13
