ŸVERSION 0.7
FIELDS x y z
SIZE 8 8 8
TYPE F F F
COUNT 1 1 1
WIDTH 2271
HEIGHT 1
VIEWPOINT 394.12, 12.30, 327.68 1 414.18, 8.06, 329.81
POINTS 2271
DATA ascii
419.55, 7.15, 330.77
419.73, 7.22, 330.80
419.92, 7.30, 330.83
420.09, 7.38, 330.86
420.26, 7.47, 330.89
420.44, 7.55, 330.92
420.63, 7.65, 330.95
420.83, 7.74, 330.98
421.05, 7.85, 331.02
421.29, 7.95, 331.06
421.54, 8.06, 331.10
421.81, 8.18, 331.14
422.23, 8.31, 331.21
422.74, 8.46, 331.30
423.26, 8.61, 331.38
423.69, 8.78, 331.45
417.58, 6.36, 330.37
417.75, 6.38, 330.40
417.92, 6.41, 330.43
418.03, 6.45, 330.44
¯418.12, 6.50, 330.46
418.21, 6.56, 330.47
418.30, 6.62, 330.48
418.40, 6.67, 330.50
418.54, 6.72, 330.52
418.68, 6.78, 330.54
418.82, 6.83, 330.56
418.97, 6.89, 330.59
419.13, 6.95, 330.61
419.29, 7.01, 330.64
419.46, 7.08, 330.66
419.64, 7.15, 330.69
419.83, 7.22, 330.72
420.01, 7.29, 330.75
420.18, 7.38, 330.77
420.35, 7.46, 330.80
420.54, 7.55, 330.83
420.73, 7.65, 330.86
420.95, 7.74, 330.89
421.19, 7.84, 330.93
421.43, 7.95, 330.97
421.69, 8.07, 331.01
422.03, 8.19, 331.06
422.51, 8.32, 331.13
423.03, 8.47, 331.21
423.44, 8.62, 331.27
417.62, 6.35, 330.31
417.79, 6.37, 330.34
417.97, 6.40, 330.36
418.06, 6.45, 330.37
418.14, 6.50, 330.39
418.23, 6.56, 330.40
418.34, 6.61, 330.41
418.47, 6.66, 330.43
418.61, 6.71, 330.45
418.75, 6.77, 330.47
418.90, 6.82, 330.49
419.05, 6.88, 330.51
419.21, 6.94, 330.54
419.38, 7.00, 330.56
419.55, 7.07, 330.58
419.74, 7.14, 330.61
419.93, 7.21, 330.64
420.09, 7.29, 330.66
420.27, 7.37, 330.69
420.45, 7.46, 330.71
420.64, 7.55, 330.74
420.86, 7.64, 330.77
421.08, 7.74, 330.80
421.33, 7.84, 330.83
421.58, 7.95, 330.87
¯421.85, 8.07, 330.91
422.29, 8.19, 330.97
422.80, 8.33, 331.04
423.21, 8.48, 331.10
423.64, 8.64, 331.16
417.66, 6.34, 330.25
417.83, 6.37, 330.27
417.99, 6.39, 330.29
418.08, 6.45, 330.31
418.17, 6.50, 330.32
418.27, 6.55, 330.33
418.40, 6.60, 330.35
418.54, 6.65, 330.36
418.68, 6.70, 330.38
418.82, 6.75, 330.40
418.97, 6.81, 330.42
419.13, 6.87, 330.44
419.29, 6.93, 330.46
419.47, 6.99, 330.48
419.65, 7.06, 330.51
419.83, 7.13, 330.53
420.01, 7.20, 330.55
420.18, 7.28, 330.57
420.36, 7.37, 330.60
420.55, 7.45, 330.62
420.76, 7.54, 330.65
420.98, 7.64, 330.68
421.22, 7.74, 330.71
421.47, 7.84, 330.74
421.73, 7.95, 330.77
422.08, 8.07, 330.82
422.57, 8.20, 330.88
422.98, 8.34, 330.93
423.39, 8.49, 330.98
417.70, 6.34, 330.19
417.88, 6.36, 330.21
418.01, 6.39, 330.23
418.10, 6.44, 330.24
418.21, 6.49, 330.25
418.34, 6.54, 330.26
418.47, 6.59, 330.28
418.61, 6.64, 330.30
418.75, 6.69, 330.31
418.90, 6.74, 330.33
419.05, 6.80, 330.35
419.21, 6.86, 330.36
419.38, 6.92, 330.38
419.56, 6.98, 330.40
419.74, 7.05, 330.42
419.93, 7.12, 330.45
420.10, 7.20, 330.47
¯420.27, 7.28, 330.49
420.46, 7.36, 330.51
420.67, 7.45, 330.53
420.89, 7.54, 330.56
421.11, 7.64, 330.58
421.36, 7.74, 330.61
421.61, 7.84, 330.64
421.88, 7.96, 330.67
422.35, 8.08, 330.73
422.77, 8.21, 330.77
423.16, 8.35, 330.82
423.58, 8.50, 330.87
417.74, 6.33, 330.13
417.92, 6.35, 330.15
418.03, 6.39, 330.16
418.15, 6.43, 330.17
418.27, 6.48, 330.18
418.40, 6.53, 330.20
418.54, 6.57, 330.21
418.68, 6.62, 330.22
418.82, 6.68, 330.24
418.97, 6.73, 330.25
419.13, 6.79, 330.27
419.30, 6.85, 330.29
419.47, 6.91, 330.30
419.65, 6.97, 330.32
419.84, 7.04, 330.34
420.01, 7.11, 330.36
420.18, 7.19, 330.38
420.37, 7.27, 330.40
420.58, 7.35, 330.42
420.79, 7.44, 330.44
421.01, 7.53, 330.46
421.25, 7.63, 330.49
421.50, 7.73, 330.51
421.76, 7.84, 330.54
422.14, 7.96, 330.58
422.56, 8.08, 330.62
422.94, 8.21, 330.66
423.34, 8.35, 330.70
423.78, 8.51, 330.75
417.78, 6.32, 330.07
417.96, 6.34, 330.08
418.08, 6.38, 330.09
418.21, 6.42, 330.10
418.33, 6.47, 330.11
418.47, 6.51, 330.13
418.60, 6.56, 330.14
418.75, 6.61, 330.15
418.90, 6.66, 330.16
419.05, 6.72, 330.18
¯419.21, 6.78, 330.19
419.38, 6.83, 330.21
419.56, 6.90, 330.22
419.74, 6.96, 330.24
419.93, 7.03, 330.26
420.10, 7.11, 330.27
420.29, 7.18, 330.29
420.48, 7.26, 330.31
420.69, 7.35, 330.33
420.91, 7.44, 330.35
421.14, 7.53, 330.37
421.39, 7.63, 330.39
421.64, 7.73, 330.41
421.94, 7.84, 330.44
422.37, 7.96, 330.48
422.73, 8.08, 330.51
423.11, 8.22, 330.54
423.53, 8.36, 330.58
417.78, 6.32, 330.00
417.97, 6.34, 330.01
418.10, 6.38, 330.02
418.23, 6.42, 330.03
418.37, 6.46, 330.04
418.51, 6.50, 330.05
418.66, 6.55, 330.07
418.82, 6.60, 330.08
418.97, 6.65, 330.09
419.13, 6.71, 330.10
419.29, 6.76, 330.11
419.47, 6.82, 330.13
419.65, 6.88, 330.14
419.83, 6.95, 330.16
420.01, 7.02, 330.17
420.20, 7.10, 330.18
420.39, 7.17, 330.20
420.60, 7.25, 330.22
420.81, 7.34, 330.23
421.04, 7.43, 330.25
421.28, 7.52, 330.27
421.53, 7.62, 330.29
421.79, 7.73, 330.31
422.17, 7.84, 330.34
422.52, 7.96, 330.36
422.89, 8.08, 330.39
423.29, 8.22, 330.42
423.73, 8.37, 330.46
417.78, 6.32, 329.93
417.98, 6.34, 329.94
418.11, 6.38, 329.95
418.24, 6.42, 329.96
418.38, 6.46, 329.97
¯418.52, 6.51, 329.98
418.67, 6.55, 329.99
418.82, 6.60, 330.00
418.99, 6.65, 330.01
419.16, 6.70, 330.02
419.33, 6.76, 330.03
419.52, 6.82, 330.04
419.72, 6.88, 330.06
419.93, 6.94, 330.07
420.11, 7.01, 330.08
420.31, 7.09, 330.09
420.51, 7.16, 330.11
420.72, 7.25, 330.12
420.94, 7.33, 330.13
421.17, 7.42, 330.15
421.41, 7.52, 330.17
421.67, 7.62, 330.18
421.99, 7.72, 330.20
422.32, 7.84, 330.22
422.68, 7.96, 330.25
423.07, 8.09, 330.27
423.48, 8.23, 330.30
417.78, 6.32, 329.87
417.98, 6.34, 329.88
418.11, 6.38, 329.88
418.24, 6.42, 329.89
418.38, 6.46, 329.90
418.52, 6.51, 329.90
418.67, 6.55, 329.91
418.83, 6.60, 329.92
418.99, 6.65, 329.93
419.16, 6.70, 329.94
419.34, 6.76, 329.95
419.53, 6.82, 329.96
419.72, 6.88, 329.97
419.97, 6.93, 329.98
420.17, 7.01, 329.99
420.37, 7.08, 330.00
420.58, 7.16, 330.01
420.80, 7.24, 330.02
421.04, 7.33, 330.03
421.28, 7.42, 330.05
421.54, 7.51, 330.06
421.82, 7.61, 330.07
422.13, 7.72, 330.09
422.48, 7.84, 330.11
422.85, 7.96, 330.13
423.24, 8.09, 330.15
423.67, 8.23, 330.17
417.79, 6.32, 329.80
417.99, 6.34, 329.81
¯418.11, 6.38, 329.81
418.25, 6.42, 329.82
418.39, 6.46, 329.82
418.53, 6.51, 329.83
418.68, 6.55, 329.83
418.83, 6.60, 329.84
419.00, 6.65, 329.85
419.17, 6.70, 329.85
419.35, 6.76, 329.86
419.53, 6.82, 329.87
419.74, 6.88, 329.87
420.02, 6.93, 329.89
420.21, 7.00, 329.89
420.42, 7.08, 329.90
420.63, 7.15, 329.91
420.86, 7.24, 329.92
421.10, 7.32, 329.93
421.35, 7.41, 329.94
421.61, 7.51, 329.95
421.95, 7.61, 329.96
422.29, 7.72, 329.97
422.64, 7.83, 329.99
423.02, 7.96, 330.00
423.43, 8.09, 330.02
417.79, 6.32, 329.73
417.99, 6.34, 329.74
418.12, 6.38, 329.74
418.25, 6.42, 329.74
418.39, 6.46, 329.75
418.53, 6.51, 329.75
418.68, 6.55, 329.76
418.84, 6.60, 329.76
419.00, 6.65, 329.76
419.17, 6.71, 329.77
419.35, 6.76, 329.77
419.54, 6.82, 329.78
419.83, 6.86, 329.79
420.07, 6.92, 329.79
420.26, 7.00, 329.80
420.47, 7.07, 329.80
420.69, 7.15, 329.81
420.92, 7.23, 329.82
421.16, 7.32, 329.82
421.41, 7.41, 329.83
421.72, 7.51, 329.84
422.10, 7.61, 329.85
422.44, 7.72, 329.86
422.81, 7.83, 329.87
423.20, 7.96, 329.88
423.62, 8.09, 329.89
417.80, 6.32, 329.67
¯417.99, 6.34, 329.67
418.12, 6.38, 329.67
418.25, 6.42, 329.67
418.39, 6.46, 329.67
418.54, 6.51, 329.68
418.69, 6.55, 329.68
418.84, 6.60, 329.68
419.01, 6.65, 329.68
419.18, 6.71, 329.69
419.35, 6.76, 329.69
419.55, 6.82, 329.69
419.92, 6.85, 329.70
420.11, 6.92, 329.70
420.31, 6.99, 329.70
420.52, 7.07, 329.70
420.74, 7.15, 329.71
420.97, 7.23, 329.71
421.22, 7.32, 329.71
421.47, 7.41, 329.72
421.92, 7.50, 329.72
422.25, 7.60, 329.73
422.60, 7.71, 329.73
422.98, 7.83, 329.74
423.38, 7.96, 329.74
417.80, 6.32, 329.60
418.00, 6.34, 329.60
418.12, 6.38, 329.60
418.26, 6.42, 329.60
418.40, 6.46, 329.60
418.54, 6.51, 329.60
418.69, 6.55, 329.60
418.85, 6.60, 329.60
419.01, 6.65, 329.60
419.18, 6.71, 329.60
419.36, 6.76, 329.60
419.64, 6.80, 329.60
419.97, 6.85, 329.60
420.16, 6.91, 329.60
420.36, 6.99, 329.60
420.58, 7.06, 329.60
420.80, 7.14, 329.60
421.03, 7.22, 329.60
421.28, 7.31, 329.61
421.66, 7.40, 329.61
422.06, 7.49, 329.61
422.40, 7.60, 329.61
422.77, 7.71, 329.61
423.16, 7.83, 329.61
423.71, 7.96, 329.61
417.80, 6.32, 329.53
418.00, 6.34, 329.53
¯418.13, 6.38, 329.53
418.26, 6.42, 329.53
418.40, 6.46, 329.53
418.54, 6.51, 329.53
418.69, 6.55, 329.52
418.85, 6.60, 329.52
419.01, 6.65, 329.52
419.18, 6.71, 329.52
419.36, 6.76, 329.52
419.72, 6.79, 329.51
420.01, 6.84, 329.51
420.21, 6.91, 329.51
420.41, 6.98, 329.50
420.63, 7.06, 329.50
420.85, 7.14, 329.50
421.09, 7.22, 329.50
421.38, 7.31, 329.49
421.88, 7.38, 329.49
422.21, 7.48, 329.48
422.56, 7.59, 329.48
422.93, 7.70, 329.48
423.41, 7.83, 329.47
417.81, 6.32, 329.47
418.00, 6.34, 329.46
418.13, 6.38, 329.46
418.26, 6.42, 329.46
418.40, 6.46, 329.45
418.54, 6.51, 329.45
418.69, 6.55, 329.45
418.85, 6.60, 329.44
419.01, 6.65, 329.44
419.19, 6.71, 329.43
419.44, 6.75, 329.43
419.81, 6.78, 329.42
420.06, 6.83, 329.41
420.26, 6.90, 329.41
420.46, 6.98, 329.40
420.68, 7.05, 329.40
420.91, 7.13, 329.39
421.15, 7.22, 329.39
421.60, 7.29, 329.38
422.02, 7.38, 329.37
422.36, 7.48, 329.36
422.72, 7.58, 329.35
423.12, 7.70, 329.34
423.81, 7.82, 329.32
417.81, 6.32, 329.40
418.00, 6.34, 329.39
418.13, 6.38, 329.39
418.26, 6.42, 329.38
418.40, 6.46, 329.38
¯418.55, 6.51, 329.37
418.70, 6.55, 329.37
418.85, 6.60, 329.36
419.02, 6.65, 329.36
419.19, 6.71, 329.35
419.53, 6.73, 329.34
419.90, 6.76, 329.32
420.10, 6.83, 329.32
420.30, 6.90, 329.31
420.51, 6.97, 329.30
420.73, 7.05, 329.29
420.97, 7.13, 329.29
421.32, 7.20, 329.27
421.82, 7.27, 329.25
422.17, 7.37, 329.24
422.52, 7.47, 329.23
422.89, 7.58, 329.22
423.50, 7.69, 329.19
417.81, 6.32, 329.33
418.00, 6.34, 329.32
418.13, 6.38, 329.32
418.26, 6.42, 329.31
418.40, 6.46, 329.30
418.55, 6.51, 329.30
418.70, 6.55, 329.29
418.85, 6.60, 329.28
419.02, 6.65, 329.27
419.26, 6.69, 329.26
419.61, 6.72, 329.25
419.96, 6.75, 329.23
420.15, 6.82, 329.22
420.35, 6.89, 329.21
420.56, 6.96, 329.20
420.79, 7.04, 329.19
421.06, 7.12, 329.18
421.53, 7.18, 329.15
421.98, 7.26, 329.13
422.32, 7.36, 329.11
422.68, 7.46, 329.10
423.20, 7.57, 329.07
425.04, 7.64, 328.98
417.81, 6.32, 329.27
418.00, 6.34, 329.25
418.13, 6.38, 329.25
418.26, 6.42, 329.24
418.40, 6.46, 329.23
418.55, 6.51, 329.22
418.70, 6.55, 329.21
418.86, 6.60, 329.20
419.02, 6.65, 329.19
419.33, 6.68, 329.17
¯419.69, 6.70, 329.15
420.00, 6.75, 329.13
420.20, 6.81, 329.12
420.40, 6.88, 329.11
420.62, 6.96, 329.09
420.84, 7.03, 329.08
421.26, 7.10, 329.06
421.75, 7.16, 329.02
422.13, 7.25, 329.00
422.47, 7.35, 328.98
422.92, 7.45, 328.95
423.59, 7.55, 328.91
417.81, 6.32, 329.20
418.00, 6.34, 329.18
418.13, 6.38, 329.18
418.26, 6.42, 329.17
418.40, 6.46, 329.16
418.55, 6.51, 329.14
418.70, 6.55, 329.13
418.86, 6.60, 329.12
419.08, 6.64, 329.11
419.41, 6.66, 329.08
419.78, 6.69, 329.05
420.04, 6.74, 329.03
420.24, 6.81, 329.02
420.45, 6.88, 329.00
420.67, 6.95, 328.99
421.00, 7.02, 328.96
421.46, 7.08, 328.93
421.94, 7.15, 328.89
422.27, 7.24, 328.87
422.65, 7.34, 328.84
423.28, 7.43, 328.80
424.91, 7.49, 328.67
417.81, 6.32, 329.13
418.00, 6.34, 329.12
418.13, 6.38, 329.10
418.26, 6.42, 329.09
418.40, 6.46, 329.08
418.55, 6.51, 329.07
418.70, 6.55, 329.06
418.86, 6.60, 329.04
419.15, 6.63, 329.02
419.49, 6.65, 328.99
419.86, 6.67, 328.95
420.09, 6.73, 328.94
420.29, 6.80, 328.92
420.50, 6.87, 328.90
420.75, 6.94, 328.88
421.19, 6.99, 328.84
421.68, 7.05, 328.80
¯422.08, 7.13, 328.76
422.42, 7.23, 328.73
422.99, 7.31, 328.69
423.67, 7.41, 328.63
431.54, 7.21, 327.94
436.83, 7.28, 327.47
417.81, 6.32, 329.06
418.00, 6.34, 329.05
418.13, 6.38, 329.03
418.26, 6.42, 329.02
418.40, 6.46, 329.01
418.55, 6.50, 328.99
418.70, 6.55, 328.98
418.90, 6.59, 328.96
419.22, 6.61, 328.93
419.57, 6.63, 328.89
419.94, 6.66, 328.85
420.13, 6.72, 328.84
420.33, 6.79, 328.82
420.55, 6.86, 328.79
420.93, 6.92, 328.76
421.39, 6.97, 328.71
421.89, 7.03, 328.66
422.22, 7.12, 328.63
422.71, 7.20, 328.58
423.36, 7.29, 328.52
424.78, 7.35, 328.37
431.56, 7.21, 327.70
436.57, 7.29, 327.20
417.80, 6.32, 329.00
418.00, 6.33, 328.98
418.13, 6.37, 328.96
418.26, 6.42, 328.95
418.40, 6.46, 328.93
418.55, 6.50, 328.92
418.70, 6.55, 328.90
418.96, 6.58, 328.87
419.29, 6.59, 328.83
419.64, 6.62, 328.79
419.98, 6.65, 328.76
420.17, 6.71, 328.73
420.38, 6.78, 328.71
420.68, 6.84, 328.68
421.12, 6.89, 328.63
421.60, 6.94, 328.58
422.03, 7.02, 328.53
422.45, 7.10, 328.48
423.06, 7.17, 328.41
423.75, 7.26, 328.34
425.67, 7.30, 328.12
431.58, 7.21, 327.46
¯436.31, 7.30, 326.93
417.80, 6.32, 328.93
418.00, 6.33, 328.91
418.12, 6.37, 328.89
418.26, 6.41, 328.87
418.40, 6.46, 328.86
418.54, 6.50, 328.84
418.72, 6.54, 328.82
419.02, 6.56, 328.78
419.36, 6.58, 328.74
419.72, 6.60, 328.69
420.02, 6.64, 328.66
420.22, 6.71, 328.63
420.44, 6.77, 328.60
420.85, 6.82, 328.55
421.31, 6.86, 328.50
421.82, 6.92, 328.43
422.19, 7.00, 328.39
422.77, 7.07, 328.31
423.43, 7.14, 328.23
424.56, 7.21, 328.09
429.53, 7.08, 327.47
431.61, 7.21, 327.21
436.06, 7.31, 326.66
417.79, 6.32, 328.86
417.99, 6.33, 328.84
418.12, 6.37, 328.82
418.26, 6.41, 328.80
418.40, 6.46, 328.78
418.54, 6.50, 328.76
418.78, 6.53, 328.73
419.09, 6.54, 328.69
419.43, 6.56, 328.64
419.80, 6.58, 328.59
420.06, 6.63, 328.55
420.26, 6.70, 328.53
420.61, 6.74, 328.48
421.04, 6.79, 328.42
421.52, 6.84, 328.36
421.98, 6.90, 328.29
422.50, 6.96, 328.22
423.12, 7.03, 328.14
423.67, 7.12, 328.06
424.93, 7.18, 327.89
429.47, 7.09, 327.27
431.65, 7.20, 326.97
435.81, 7.32, 326.40
417.79, 6.32, 328.80
417.99, 6.33, 328.77
418.12, 6.37, 328.75
418.25, 6.41, 328.73
¯418.39, 6.45, 328.71
418.55, 6.50, 328.68
418.84, 6.51, 328.64
419.16, 6.53, 328.59
419.50, 6.54, 328.54
419.89, 6.56, 328.48
420.10, 6.62, 328.45
420.37, 6.68, 328.41
420.78, 6.72, 328.35
421.23, 6.76, 328.28
421.73, 6.81, 328.21
422.23, 6.87, 328.13
422.70, 6.94, 328.07
423.19, 7.03, 327.99
423.93, 7.10, 327.88
425.32, 7.15, 327.67
429.40, 7.09, 327.06
431.68, 7.20, 326.72
435.56, 7.32, 326.14
417.78, 6.31, 328.73
417.99, 6.33, 328.70
418.12, 6.37, 328.68
418.25, 6.41, 328.65
418.39, 6.45, 328.63
418.60, 6.48, 328.60
418.90, 6.50, 328.55
419.22, 6.51, 328.50
419.58, 6.53, 328.44
419.94, 6.55, 328.38
420.14, 6.61, 328.35
420.53, 6.65, 328.29
420.95, 6.69, 328.22
421.43, 6.73, 328.14
421.86, 6.79, 328.07
422.29, 6.86, 328.00
422.74, 6.94, 327.93
423.24, 7.02, 327.85
424.25, 7.08, 327.68
425.74, 7.12, 327.44
429.33, 7.09, 326.86
431.71, 7.20, 326.48
435.31, 7.33, 325.89
417.77, 6.31, 328.66
417.98, 6.33, 328.63
418.11, 6.37, 328.60
418.25, 6.41, 328.58
418.39, 6.45, 328.56
418.65, 6.47, 328.51
418.96, 6.48, 328.46
419.29, 6.49, 328.40
419.65, 6.51, 328.34
¯419.98, 6.54, 328.28
420.29, 6.58, 328.22
420.69, 6.62, 328.15
421.07, 6.67, 328.09
421.44, 6.73, 328.02
421.90, 6.78, 327.94
422.33, 6.85, 327.87
422.78, 6.93, 327.79
423.29, 7.01, 327.70
424.60, 7.05, 327.47
427.46, 7.01, 326.97
429.26, 7.10, 326.66
431.74, 7.20, 326.23
435.06, 7.34, 325.65
417.77, 6.31, 328.60
417.98, 6.32, 328.56
418.11, 6.36, 328.53
418.24, 6.41, 328.51
418.42, 6.44, 328.47
418.71, 6.45, 328.42
419.02, 6.46, 328.36
419.35, 6.48, 328.30
419.73, 6.49, 328.23
420.06, 6.52, 328.17
420.40, 6.56, 328.10
420.72, 6.61, 328.04
421.06, 6.67, 327.98
421.42, 6.73, 327.91
421.94, 6.77, 327.82
422.36, 6.85, 327.74
422.83, 6.92, 327.65
423.50, 6.99, 327.52
424.97, 7.02, 327.25
427.49, 7.00, 326.78
429.18, 7.10, 326.46
431.76, 7.20, 325.98
434.86, 7.34, 325.40
417.76, 6.31, 328.53
417.97, 6.32, 328.49
418.10, 6.36, 328.46
418.24, 6.40, 328.43
418.47, 6.42, 328.39
418.76, 6.43, 328.33
419.08, 6.44, 328.27
419.42, 6.46, 328.20
419.80, 6.47, 328.12
420.10, 6.51, 328.06
420.39, 6.56, 328.00
420.70, 6.61, 327.94
421.04, 6.67, 327.87
421.40, 6.72, 327.80
¯421.97, 6.77, 327.69
422.40, 6.84, 327.60
422.87, 6.92, 327.51
423.94, 6.95, 327.29
425.35, 6.98, 327.01
427.51, 7.00, 326.58
429.11, 7.10, 326.26
431.79, 7.19, 325.73
434.69, 7.35, 325.15
417.75, 6.31, 328.46
417.96, 6.32, 328.42
418.10, 6.36, 328.39
418.25, 6.40, 328.35
418.52, 6.40, 328.30
418.82, 6.41, 328.23
419.14, 6.43, 328.17
419.46, 6.44, 328.10
419.77, 6.47, 328.03
420.08, 6.51, 327.97
420.37, 6.56, 327.90
420.69, 6.61, 327.84
421.02, 6.66, 327.77
421.39, 6.72, 327.69
422.00, 6.76, 327.56
422.44, 6.83, 327.47
422.91, 6.91, 327.37
424.26, 6.92, 327.08
425.77, 6.95, 326.76
427.52, 7.00, 326.38
429.05, 7.10, 326.06
431.69, 7.20, 325.50
434.51, 7.35, 324.90
417.74, 6.31, 328.39
417.95, 6.32, 328.35
418.09, 6.36, 328.32
418.30, 6.38, 328.27
418.57, 6.39, 328.21
418.87, 6.40, 328.14
419.15, 6.42, 328.08
419.43, 6.45, 328.01
419.74, 6.48, 327.94
420.06, 6.51, 327.87
420.36, 6.56, 327.80
420.67, 6.61, 327.73
421.01, 6.66, 327.66
421.40, 6.72, 327.57
422.04, 6.75, 327.43
422.47, 6.82, 327.33
423.01, 6.90, 327.21
424.60, 6.88, 326.85
426.51, 6.88, 326.42
¯427.54, 6.99, 326.19
429.00, 7.10, 325.86
431.56, 7.20, 325.28
434.29, 7.36, 324.67
417.73, 6.31, 328.33
417.94, 6.32, 328.28
418.08, 6.35, 328.24
418.34, 6.36, 328.18
418.61, 6.37, 328.12
418.86, 6.40, 328.06
419.12, 6.42, 328.00
419.41, 6.45, 327.93
419.72, 6.48, 327.85
420.05, 6.51, 327.78
420.34, 6.56, 327.71
420.65, 6.61, 327.63
420.99, 6.66, 327.55
421.45, 6.71, 327.44
422.07, 6.74, 327.29
422.51, 6.82, 327.19
423.47, 6.84, 326.96
424.96, 6.85, 326.60
426.53, 6.88, 326.23
427.50, 6.99, 326.00
428.95, 7.10, 325.65
431.45, 7.20, 325.06
434.05, 7.36, 324.44
417.71, 6.31, 328.26
417.93, 6.32, 328.21
418.12, 6.34, 328.16
418.36, 6.35, 328.10
418.59, 6.37, 328.04
418.83, 6.40, 327.98
419.10, 6.42, 327.91
419.38, 6.45, 327.84
419.70, 6.48, 327.76
420.03, 6.51, 327.68
420.32, 6.56, 327.61
420.63, 6.61, 327.53
420.97, 6.66, 327.44
421.51, 6.70, 327.31
422.10, 6.74, 327.16
422.55, 6.81, 327.05
423.91, 6.79, 326.71
425.34, 6.81, 326.35
426.50, 6.88, 326.05
427.46, 6.99, 325.81
428.90, 7.10, 325.45
431.33, 7.21, 324.84
433.81, 7.37, 324.22
417.70, 6.31, 328.19
¯417.92, 6.32, 328.14
418.12, 6.33, 328.08
418.34, 6.35, 328.03
418.56, 6.38, 327.97
418.81, 6.40, 327.90
419.07, 6.42, 327.83
419.35, 6.45, 327.76
419.67, 6.48, 327.67
420.01, 6.51, 327.58
420.30, 6.55, 327.51
420.61, 6.61, 327.43
420.95, 6.66, 327.34
421.56, 6.68, 327.18
422.13, 6.73, 327.02
422.58, 6.80, 326.91
424.22, 6.76, 326.47
425.57, 6.78, 326.12
426.46, 6.88, 325.88
427.42, 6.99, 325.63
428.84, 7.10, 325.25
431.21, 7.21, 324.63
433.58, 7.37, 324.00
417.69, 6.30, 328.13
417.89, 6.32, 328.07
418.10, 6.33, 328.01
418.31, 6.35, 327.96
418.54, 6.38, 327.89
418.78, 6.40, 327.83
419.04, 6.43, 327.75
419.32, 6.45, 327.68
419.65, 6.48, 327.59
419.99, 6.51, 327.49
420.28, 6.55, 327.41
420.59, 6.60, 327.32
420.93, 6.66, 327.23
421.61, 6.67, 327.04
422.16, 6.72, 326.89
422.93, 6.75, 326.67
424.56, 6.72, 326.22
425.50, 6.78, 325.96
426.41, 6.88, 325.71
427.38, 6.99, 325.44
428.78, 7.10, 325.05
431.08, 7.21, 324.41
433.37, 7.38, 323.78
417.66, 6.31, 328.06
417.87, 6.32, 328.00
418.07, 6.33, 327.95
418.29, 6.36, 327.88
418.51, 6.38, 327.82
418.75, 6.40, 327.75
¯419.01, 6.43, 327.67
419.29, 6.45, 327.59
419.62, 6.48, 327.50
419.97, 6.50, 327.39
420.26, 6.55, 327.31
420.57, 6.60, 327.22
420.93, 6.65, 327.12
421.66, 6.66, 326.90
422.19, 6.71, 326.75
423.37, 6.70, 326.41
424.57, 6.71, 326.06
425.44, 6.78, 325.81
426.36, 6.88, 325.54
427.34, 6.99, 325.25
428.72, 7.10, 324.85
430.96, 7.21, 324.20
433.16, 7.38, 323.56
417.64, 6.31, 328.00
417.84, 6.32, 327.94
418.05, 6.34, 327.88
418.26, 6.36, 327.81
418.48, 6.38, 327.75
418.72, 6.40, 327.67
418.98, 6.43, 327.59
419.26, 6.46, 327.51
419.59, 6.48, 327.41
419.95, 6.50, 327.30
420.24, 6.55, 327.21
420.55, 6.60, 327.12
420.97, 6.64, 326.99
421.71, 6.65, 326.76
422.22, 6.70, 326.61
423.74, 6.65, 326.15
424.51, 6.71, 325.91
425.38, 6.79, 325.65
426.31, 6.88, 325.37
427.29, 6.99, 325.07
428.66, 7.10, 324.65
430.91, 7.21, 323.97
432.94, 7.39, 323.35
417.62, 6.31, 327.94
417.82, 6.32, 327.87
418.02, 6.34, 327.81
418.23, 6.36, 327.74
418.46, 6.38, 327.67
418.69, 6.40, 327.60
418.95, 6.43, 327.51
419.23, 6.46, 327.43
419.56, 6.48, 327.32
419.93, 6.50, 327.20
420.22, 6.55, 327.11
¯420.53, 6.60, 327.01
421.01, 6.63, 326.86
421.76, 6.63, 326.62
422.39, 6.67, 326.42
423.65, 6.65, 326.02
424.44, 6.71, 325.77
425.31, 6.79, 325.50
426.27, 6.88, 325.19
427.25, 6.99, 324.88
428.60, 7.10, 324.45
430.86, 7.21, 323.74
432.72, 7.39, 323.15
417.59, 6.31, 327.88
417.79, 6.32, 327.81
418.00, 6.34, 327.74
418.20, 6.36, 327.67
418.43, 6.38, 327.60
418.66, 6.40, 327.52
418.92, 6.43, 327.44
419.20, 6.46, 327.34
419.53, 6.48, 327.23
419.90, 6.50, 327.11
420.19, 6.55, 327.01
420.50, 6.60, 326.91
421.05, 6.62, 326.73
421.80, 6.62, 326.48
422.76, 6.62, 326.17
423.57, 6.66, 325.90
424.38, 6.71, 325.63
425.25, 6.79, 325.34
426.21, 6.87, 325.02
427.20, 6.99, 324.70
428.53, 7.10, 324.26
430.80, 7.21, 323.50
432.49, 7.39, 322.94
417.57, 6.31, 327.81
417.76, 6.32, 327.74
417.97, 6.34, 327.67
418.18, 6.36, 327.60
418.40, 6.38, 327.53
418.63, 6.41, 327.44
418.89, 6.43, 327.36
419.17, 6.46, 327.26
419.50, 6.48, 327.15
419.87, 6.50, 327.02
420.17, 6.54, 326.91
420.48, 6.60, 326.81
421.08, 6.61, 326.60
421.85, 6.61, 326.34
422.68, 6.62, 326.05
423.48, 6.66, 325.77
¯424.31, 6.72, 325.49
425.18, 6.79, 325.19
426.16, 6.87, 324.85
427.15, 6.98, 324.51
428.52, 7.10, 324.04
430.74, 7.21, 323.28
432.26, 7.40, 322.75
417.54, 6.31, 327.75
417.73, 6.33, 327.68
417.94, 6.34, 327.61
418.15, 6.36, 327.53
418.37, 6.38, 327.45
418.60, 6.41, 327.37
418.85, 6.43, 327.28
419.14, 6.46, 327.18
419.47, 6.48, 327.06
419.84, 6.50, 326.93
420.15, 6.54, 326.82
420.45, 6.59, 326.71
421.12, 6.59, 326.47
421.89, 6.60, 326.19
422.60, 6.63, 325.94
423.40, 6.66, 325.65
424.24, 6.72, 325.35
425.11, 6.79, 325.04
426.11, 6.87, 324.68
427.10, 6.98, 324.33
428.51, 7.09, 323.82
430.64, 7.21, 323.06
432.17, 7.40, 322.51
417.16, 6.43, 327.82
417.45, 6.41, 327.71
417.91, 6.34, 327.54
418.12, 6.36, 327.46
418.34, 6.38, 327.38
418.57, 6.41, 327.30
418.82, 6.43, 327.20
419.11, 6.46, 327.10
419.44, 6.48, 326.97
419.80, 6.50, 326.84
420.12, 6.54, 326.72
420.48, 6.58, 326.58
421.15, 6.58, 326.33
421.84, 6.60, 326.08
422.52, 6.63, 325.83
423.31, 6.67, 325.53
424.17, 6.72, 325.21
425.05, 6.79, 324.89
426.05, 6.87, 324.51
427.05, 6.98, 324.14
428.50, 7.09, 323.60
¯430.54, 7.21, 322.84
432.18, 7.39, 322.23
417.13, 6.43, 327.76
417.31, 6.44, 327.69
417.54, 6.44, 327.60
418.09, 6.36, 327.39
418.30, 6.38, 327.31
418.54, 6.41, 327.22
418.78, 6.43, 327.13
419.07, 6.46, 327.01
419.40, 6.48, 326.89
419.76, 6.50, 326.75
420.09, 6.54, 326.62
420.50, 6.57, 326.46
421.18, 6.57, 326.20
421.77, 6.60, 325.97
422.44, 6.63, 325.71
423.22, 6.67, 325.41
424.10, 6.72, 325.07
424.97, 6.79, 324.74
426.00, 6.87, 324.34
426.99, 6.98, 323.96
428.49, 7.08, 323.38
430.44, 7.21, 322.62
432.20, 7.39, 321.94
417.10, 6.43, 327.71
417.28, 6.44, 327.63
417.47, 6.46, 327.56
417.68, 6.47, 327.48
418.27, 6.38, 327.24
418.50, 6.41, 327.15
418.75, 6.43, 327.05
419.04, 6.46, 326.93
419.37, 6.48, 326.80
419.73, 6.50, 326.66
420.07, 6.54, 326.52
420.53, 6.56, 326.34
421.14, 6.57, 326.09
421.70, 6.60, 325.87
422.36, 6.64, 325.60
423.13, 6.68, 325.29
424.02, 6.72, 324.94
424.90, 6.79, 324.59
425.95, 6.87, 324.17
426.94, 6.98, 323.77
428.47, 7.08, 323.16
430.34, 7.21, 322.41
432.21, 7.38, 321.66
417.07, 6.43, 327.65
417.25, 6.45, 327.58
417.44, 6.46, 327.50
¯417.64, 6.47, 327.41
417.86, 6.49, 327.32
418.47, 6.41, 327.07
418.71, 6.43, 326.97
419.01, 6.45, 326.85
419.33, 6.48, 326.72
419.69, 6.50, 326.57
420.04, 6.53, 326.42
420.55, 6.55, 326.21
421.07, 6.57, 326.00
421.63, 6.61, 325.76
422.27, 6.64, 325.50
423.04, 6.68, 325.18
423.95, 6.72, 324.80
424.83, 6.79, 324.44
425.89, 6.86, 324.00
426.88, 6.97, 323.59
428.45, 7.07, 322.94
430.23, 7.21, 322.20
432.23, 7.38, 321.37
417.05, 6.43, 327.59
417.22, 6.45, 327.52
417.41, 6.46, 327.44
417.61, 6.47, 327.35
417.83, 6.49, 327.26
418.06, 6.51, 327.16
418.68, 6.43, 326.90
418.97, 6.45, 326.77
419.30, 6.48, 326.63
419.65, 6.50, 326.48
420.01, 6.53, 326.32
420.51, 6.54, 326.11
421.00, 6.57, 325.90
421.55, 6.61, 325.66
422.19, 6.65, 325.39
422.95, 6.68, 325.06
423.87, 6.72, 324.67
424.75, 6.79, 324.29
425.84, 6.86, 323.82
426.82, 6.97, 323.40
428.40, 7.07, 322.72
430.13, 7.20, 321.98
432.24, 7.37, 321.08
417.02, 6.43, 327.54
417.19, 6.45, 327.46
417.38, 6.46, 327.38
417.58, 6.48, 327.29
417.79, 6.49, 327.19
418.02, 6.51, 327.09
418.26, 6.53, 326.99
418.94, 6.45, 326.69
¯419.26, 6.47, 326.55
419.61, 6.50, 326.39
419.98, 6.53, 326.23
420.45, 6.55, 326.02
420.93, 6.58, 325.80
421.48, 6.61, 325.56
422.10, 6.65, 325.28
422.85, 6.69, 324.95
423.78, 6.72, 324.54
424.66, 6.79, 324.15
425.78, 6.86, 323.65
426.77, 6.97, 323.22
428.36, 7.07, 322.51
430.02, 7.20, 321.77
432.26, 7.36, 320.78
416.99, 6.44, 327.48
417.16, 6.45, 327.40
417.35, 6.46, 327.32
417.54, 6.48, 327.23
417.76, 6.49, 327.13
417.98, 6.51, 327.03
418.22, 6.53, 326.92
418.48, 6.55, 326.80
419.22, 6.47, 326.46
419.57, 6.50, 326.30
419.95, 6.52, 326.13
420.38, 6.55, 325.93
420.87, 6.58, 325.71
421.40, 6.61, 325.46
422.02, 6.65, 325.18
422.76, 6.69, 324.84
423.68, 6.73, 324.42
424.56, 6.79, 324.01
425.68, 6.86, 323.50
426.74, 6.96, 323.02
428.31, 7.06, 322.30
429.91, 7.20, 321.57
432.28, 7.36, 320.48
416.96, 6.44, 327.43
417.13, 6.45, 327.35
417.31, 6.46, 327.26
417.51, 6.48, 327.17
417.72, 6.49, 327.07
417.94, 6.51, 326.96
418.18, 6.53, 326.85
418.44, 6.55, 326.73
419.18, 6.47, 326.38
419.53, 6.50, 326.21
419.90, 6.52, 326.04
420.32, 6.55, 325.84
420.79, 6.58, 325.61
¯421.33, 6.62, 325.36
421.93, 6.66, 325.08
422.66, 6.69, 324.73
423.57, 6.73, 324.30
424.46, 6.79, 323.88
425.57, 6.86, 323.35
426.71, 6.96, 322.82
428.23, 7.06, 322.10
429.79, 7.20, 321.36
432.31, 7.35, 320.17
416.93, 6.44, 327.37
417.10, 6.45, 327.29
417.28, 6.46, 327.20
417.47, 6.48, 327.11
417.68, 6.49, 327.00
417.90, 6.51, 326.90
418.14, 6.53, 326.78
418.39, 6.56, 326.66
418.67, 6.58, 326.52
419.48, 6.50, 326.13
419.84, 6.53, 325.95
420.25, 6.56, 325.75
420.72, 6.59, 325.52
421.25, 6.62, 325.26
421.85, 6.66, 324.97
422.57, 6.70, 324.62
423.46, 6.73, 324.19
424.36, 6.80, 323.75
425.47, 6.86, 323.21
426.68, 6.95, 322.62
428.15, 7.06, 321.90
429.68, 7.20, 321.15
432.33, 7.34, 319.86
416.89, 6.44, 327.32
417.06, 6.45, 327.24
417.24, 6.46, 327.14
417.44, 6.48, 327.05
417.65, 6.49, 326.94
417.86, 6.51, 326.83
418.10, 6.53, 326.72
418.35, 6.56, 326.59
418.62, 6.58, 326.45
418.93, 6.60, 326.30
419.78, 6.53, 325.87
420.19, 6.56, 325.66
420.65, 6.59, 325.43
421.17, 6.62, 325.17
421.76, 6.66, 324.87
422.47, 6.70, 324.51
423.35, 6.74, 324.07
424.25, 6.80, 323.62
¯425.36, 6.86, 323.06
426.64, 6.94, 322.42
428.07, 7.05, 321.70
429.59, 7.19, 320.93
432.35, 7.33, 319.54
416.86, 6.44, 327.27
417.03, 6.45, 327.18
417.21, 6.46, 327.09
417.40, 6.48, 326.99
417.61, 6.50, 326.88
417.82, 6.52, 326.77
418.05, 6.54, 326.65
418.30, 6.56, 326.52
418.58, 6.58, 326.38
418.88, 6.61, 326.22
419.22, 6.63, 326.04
420.12, 6.56, 325.58
420.58, 6.59, 325.34
421.09, 6.62, 325.07
421.68, 6.66, 324.77
422.37, 6.70, 324.41
423.23, 6.74, 323.96
424.15, 6.80, 323.49
425.25, 6.86, 322.92
426.59, 6.94, 322.22
427.99, 7.05, 321.50
429.50, 7.19, 320.71
432.37, 7.33, 319.22
416.83, 6.44, 327.21
417.00, 6.45, 327.13
417.17, 6.47, 327.03
417.36, 6.48, 326.93
417.57, 6.50, 326.82
417.78, 6.52, 326.71
418.01, 6.54, 326.58
418.26, 6.56, 326.45
418.53, 6.58, 326.31
418.83, 6.61, 326.15
419.16, 6.63, 325.97
420.05, 6.56, 325.49
420.51, 6.59, 325.25
421.02, 6.63, 324.98
421.59, 6.67, 324.67
422.27, 6.71, 324.31
423.11, 6.75, 323.86
424.04, 6.80, 323.36
425.14, 6.86, 322.78
426.48, 6.94, 322.06
427.90, 7.05, 321.30
429.41, 7.19, 320.49
432.40, 7.32, 318.90
¯416.80, 6.44, 327.16
416.96, 6.45, 327.07
417.14, 6.47, 326.97
417.33, 6.48, 326.87
417.53, 6.50, 326.76
417.74, 6.52, 326.64
417.96, 6.54, 326.52
418.21, 6.56, 326.38
418.48, 6.58, 326.24
418.77, 6.61, 326.07
419.11, 6.63, 325.89
419.48, 6.66, 325.69
420.43, 6.59, 325.16
420.94, 6.63, 324.88
421.50, 6.67, 324.57
422.17, 6.71, 324.20
423.00, 6.75, 323.75
423.94, 6.80, 323.23
425.02, 6.86, 322.64
426.37, 6.94, 321.90
427.81, 7.04, 321.10
429.31, 7.18, 320.28
432.42, 7.31, 318.57
416.76, 6.44, 327.11
416.93, 6.45, 327.02
417.10, 6.47, 326.92
417.29, 6.48, 326.81
417.49, 6.50, 326.70
417.69, 6.52, 326.58
417.92, 6.54, 326.45
418.16, 6.56, 326.32
418.43, 6.58, 326.17
418.72, 6.61, 326.00
419.05, 6.63, 325.81
419.42, 6.66, 325.61
419.82, 6.69, 325.38
420.85, 6.63, 324.79
421.41, 6.67, 324.48
422.07, 6.71, 324.11
422.88, 6.75, 323.65
423.83, 6.80, 323.11
424.91, 6.86, 322.50
426.26, 6.94, 321.73
427.72, 7.04, 320.90
429.20, 7.18, 320.07
432.25, 7.31, 318.34
416.73, 6.44, 327.06
416.89, 6.45, 326.96
417.06, 6.47, 326.86
417.25, 6.48, 326.75
417.44, 6.50, 326.64
¯417.65, 6.52, 326.52
417.87, 6.54, 326.39
418.11, 6.56, 326.25
418.38, 6.59, 326.10
418.66, 6.61, 325.93
418.99, 6.64, 325.74
419.35, 6.66, 325.53
419.75, 6.70, 325.30
420.77, 6.63, 324.70
421.33, 6.67, 324.38
421.96, 6.72, 324.01
422.76, 6.76, 323.55
423.70, 6.80, 323.00
424.79, 6.86, 322.36
426.14, 6.93, 321.57
427.60, 7.04, 320.72
429.09, 7.18, 319.86
432.01, 7.31, 318.15
416.69, 6.44, 327.01
416.85, 6.45, 326.91
417.03, 6.47, 326.81
417.21, 6.48, 326.70
417.40, 6.50, 326.58
417.60, 6.52, 326.46
417.83, 6.54, 326.33
418.06, 6.56, 326.18
418.32, 6.59, 326.03
418.61, 6.61, 325.86
418.93, 6.64, 325.66
419.29, 6.66, 325.45
419.68, 6.70, 325.22
420.12, 6.73, 324.95
421.24, 6.67, 324.29
421.85, 6.72, 323.91
422.64, 6.76, 323.44
423.56, 6.81, 322.89
424.66, 6.87, 322.23
426.03, 6.93, 321.41
427.48, 7.03, 320.54
428.98, 7.17, 319.65
431.77, 7.31, 317.98
416.66, 6.44, 326.96
416.82, 6.45, 326.86
416.99, 6.47, 326.75
417.17, 6.48, 326.64
417.36, 6.50, 326.52
417.56, 6.52, 326.40
417.78, 6.54, 326.26
418.02, 6.56, 326.12
418.27, 6.59, 325.96
418.55, 6.61, 325.79
¯418.87, 6.64, 325.59
419.23, 6.67, 325.37
419.61, 6.70, 325.14
420.04, 6.73, 324.87
421.14, 6.68, 324.19
421.75, 6.72, 323.82
422.52, 6.76, 323.35
423.43, 6.81, 322.79
424.51, 6.87, 322.12
425.91, 6.93, 321.26
427.36, 7.03, 320.37
428.86, 7.17, 319.44
431.54, 7.31, 317.79
416.62, 6.44, 326.91
416.78, 6.45, 326.81
416.95, 6.47, 326.70
417.13, 6.48, 326.58
417.31, 6.50, 326.47
417.51, 6.52, 326.34
417.73, 6.54, 326.20
417.96, 6.56, 326.05
418.21, 6.59, 325.90
418.50, 6.61, 325.72
418.81, 6.64, 325.52
419.16, 6.67, 325.30
419.53, 6.70, 325.06
419.97, 6.73, 324.79
420.44, 6.77, 324.49
421.64, 6.73, 323.73
422.40, 6.77, 323.25
423.29, 6.81, 322.68
424.35, 6.87, 322.01
425.80, 6.93, 321.10
427.21, 7.03, 320.21
428.75, 7.16, 319.23
431.34, 7.30, 317.59
416.58, 6.44, 326.86
416.74, 6.45, 326.75
416.91, 6.47, 326.64
417.09, 6.48, 326.53
417.27, 6.50, 326.41
417.47, 6.52, 326.28
417.68, 6.54, 326.14
417.91, 6.56, 325.99
418.16, 6.59, 325.83
418.44, 6.61, 325.65
418.75, 6.64, 325.44
419.09, 6.67, 325.23
419.46, 6.70, 324.98
419.89, 6.74, 324.71
420.35, 6.78, 324.40
¯421.53, 6.73, 323.64
422.28, 6.77, 323.15
423.16, 6.82, 322.58
424.20, 6.88, 321.91
425.61, 6.93, 320.99
427.05, 7.03, 320.05
428.64, 7.16, 319.02
431.13, 7.30, 317.40
416.55, 6.44, 326.81
416.70, 6.45, 326.70
416.87, 6.47, 326.59
417.04, 6.48, 326.47
417.22, 6.50, 326.35
417.42, 6.52, 326.22
417.63, 6.54, 326.08
417.86, 6.56, 325.93
418.10, 6.59, 325.77
418.38, 6.61, 325.58
418.69, 6.64, 325.37
419.02, 6.67, 325.15
419.39, 6.70, 324.91
419.81, 6.74, 324.63
420.26, 6.78, 324.32
420.80, 6.82, 323.97
422.16, 6.77, 323.06
423.02, 6.82, 322.48
424.05, 6.88, 321.80
425.42, 6.94, 320.88
426.89, 7.03, 319.90
428.52, 7.16, 318.81
430.91, 7.30, 317.22
416.51, 6.44, 326.76
416.66, 6.46, 326.65
416.83, 6.47, 326.54
417.00, 6.48, 326.42
417.18, 6.50, 326.30
417.37, 6.52, 326.16
417.58, 6.54, 326.02
417.81, 6.56, 325.86
418.05, 6.59, 325.70
418.32, 6.62, 325.51
418.63, 6.64, 325.30
418.95, 6.67, 325.08
419.32, 6.70, 324.83
419.73, 6.74, 324.55
420.17, 6.78, 324.24
420.70, 6.82, 323.88
422.03, 6.78, 322.97
422.88, 6.82, 322.39
423.89, 6.88, 321.70
425.23, 6.94, 320.78
¯426.73, 7.03, 319.75
428.41, 7.15, 318.60
430.69, 7.30, 317.03
416.47, 6.44, 326.71
416.62, 6.46, 326.60
416.78, 6.47, 326.49
416.96, 6.48, 326.36
417.13, 6.50, 326.24
417.32, 6.52, 326.11
417.53, 6.54, 325.96
417.76, 6.57, 325.80
417.99, 6.59, 325.64
418.26, 6.62, 325.45
418.56, 6.64, 325.23
418.88, 6.67, 325.01
419.24, 6.70, 324.76
419.65, 6.74, 324.47
420.08, 6.78, 324.16
420.60, 6.82, 323.80
421.91, 6.78, 322.88
422.75, 6.83, 322.29
423.72, 6.89, 321.61
425.04, 6.94, 320.68
426.56, 7.03, 319.61
428.29, 7.15, 318.40
430.47, 7.30, 316.86
416.43, 6.44, 326.66
416.58, 6.46, 326.55
416.74, 6.47, 326.44
416.91, 6.48, 326.31
417.09, 6.50, 326.19
417.28, 6.52, 326.05
417.48, 6.54, 325.90
417.70, 6.57, 325.74
417.93, 6.59, 325.58
418.20, 6.62, 325.38
418.50, 6.64, 325.16
418.81, 6.67, 324.94
419.17, 6.71, 324.68
419.57, 6.74, 324.39
419.99, 6.78, 324.09
420.50, 6.83, 323.72
421.10, 6.87, 323.29
422.60, 6.83, 322.20
423.55, 6.89, 321.52
424.85, 6.95, 320.58
426.40, 7.03, 319.46
428.14, 7.14, 318.21
430.25, 7.29, 316.69
416.39, 6.44, 326.61
416.54, 6.46, 326.50
¯416.70, 6.47, 326.38
416.87, 6.48, 326.26
417.04, 6.50, 326.13
417.23, 6.52, 325.99
417.43, 6.54, 325.84
417.65, 6.57, 325.68
417.87, 6.59, 325.51
418.14, 6.62, 325.32
418.44, 6.64, 325.10
418.73, 6.68, 324.88
419.09, 6.71, 324.61
419.49, 6.74, 324.32
419.90, 6.78, 324.01
420.40, 6.83, 323.64
420.98, 6.87, 323.21
422.46, 6.83, 322.12
423.37, 6.89, 321.44
424.66, 6.95, 320.49
426.23, 7.03, 319.32
427.98, 7.14, 318.03
430.02, 7.29, 316.52
416.35, 6.44, 326.57
416.50, 6.46, 326.45
416.66, 6.47, 326.33
416.82, 6.48, 326.21
416.99, 6.50, 326.08
417.18, 6.52, 325.94
417.38, 6.54, 325.79
417.60, 6.57, 325.62
417.82, 6.59, 325.45
418.08, 6.62, 325.25
418.37, 6.64, 325.03
418.66, 6.68, 324.81
419.02, 6.71, 324.54
419.41, 6.74, 324.24
419.81, 6.79, 323.94
420.30, 6.83, 323.56
420.87, 6.88, 323.13
422.31, 6.84, 322.04
423.20, 6.90, 321.36
424.47, 6.96, 320.40
426.07, 7.02, 319.18
427.82, 7.13, 317.85
429.79, 7.29, 316.36
416.31, 6.44, 326.52
416.46, 6.46, 326.41
416.61, 6.47, 326.28
416.78, 6.48, 326.15
416.94, 6.50, 326.03
417.13, 6.52, 325.88
417.33, 6.54, 325.73
¯417.54, 6.57, 325.56
417.76, 6.59, 325.39
418.02, 6.62, 325.19
418.31, 6.64, 324.96
418.59, 6.68, 324.74
418.94, 6.71, 324.47
419.32, 6.74, 324.17
419.72, 6.79, 323.86
420.20, 6.83, 323.48
420.76, 6.88, 323.05
421.44, 6.93, 322.52
423.03, 6.90, 321.29
424.27, 6.96, 320.31
425.90, 7.02, 319.05
427.62, 7.13, 317.71
429.49, 7.29, 316.25
416.27, 6.44, 326.47
416.41, 6.46, 326.36
416.57, 6.47, 326.23
416.73, 6.48, 326.10
416.89, 6.50, 325.97
417.08, 6.52, 325.83
417.27, 6.54, 325.67
417.48, 6.57, 325.50
417.70, 6.59, 325.33
417.95, 6.62, 325.13
418.24, 6.64, 324.90
418.52, 6.68, 324.67
418.86, 6.71, 324.40
419.24, 6.74, 324.10
419.62, 6.79, 323.79
420.10, 6.83, 323.41
420.64, 6.88, 322.97
421.31, 6.93, 322.44
422.85, 6.91, 321.21
424.07, 6.96, 320.24
425.71, 7.02, 318.93
427.38, 7.13, 317.60
429.25, 7.29, 316.10
416.23, 6.44, 326.43
416.37, 6.45, 326.31
416.52, 6.47, 326.19
416.69, 6.48, 326.05
416.85, 6.50, 325.92
417.02, 6.52, 325.78
417.22, 6.54, 325.62
417.43, 6.57, 325.44
417.64, 6.59, 325.27
417.89, 6.62, 325.06
418.17, 6.64, 324.83
418.45, 6.68, 324.61
¯418.78, 6.71, 324.33
419.15, 6.75, 324.03
419.53, 6.79, 323.72
420.00, 6.83, 323.33
420.53, 6.88, 322.90
421.17, 6.93, 322.37
422.68, 6.91, 321.14
423.87, 6.97, 320.16
425.45, 7.03, 318.87
427.14, 7.13, 317.49
429.00, 7.29, 315.96
416.19, 6.44, 326.38
416.33, 6.45, 326.26
416.48, 6.47, 326.14
416.64, 6.48, 326.00
416.80, 6.50, 325.87
416.97, 6.52, 325.72
417.16, 6.54, 325.56
417.37, 6.57, 325.39
417.58, 6.59, 325.21
417.83, 6.62, 325.00
418.11, 6.64, 324.77
418.37, 6.68, 324.54
418.71, 6.71, 324.26
419.06, 6.75, 323.97
419.44, 6.79, 323.65
419.89, 6.84, 323.27
420.42, 6.88, 322.83
421.04, 6.94, 322.30
422.52, 6.91, 321.06
423.65, 6.97, 320.11
425.20, 7.03, 318.81
426.90, 7.14, 317.38
428.76, 7.28, 315.82
416.14, 6.44, 326.34
416.28, 6.45, 326.22
416.43, 6.47, 326.09
416.59, 6.48, 325.95
416.75, 6.50, 325.82
416.92, 6.52, 325.67
417.11, 6.54, 325.51
417.31, 6.57, 325.33
417.52, 6.59, 325.15
417.76, 6.62, 324.94
418.04, 6.64, 324.71
418.30, 6.68, 324.48
418.63, 6.71, 324.20
418.97, 6.75, 323.90
419.34, 6.79, 323.58
419.78, 6.84, 323.20
420.30, 6.89, 322.75
¯420.91, 6.94, 322.23
421.64, 7.00, 321.60
423.44, 6.98, 320.06
424.94, 7.04, 318.76
426.66, 7.14, 317.28
428.52, 7.28, 315.68
416.10, 6.44, 326.29
416.24, 6.45, 326.17
416.39, 6.47, 326.04
416.54, 6.48, 325.90
416.70, 6.50, 325.77
416.87, 6.52, 325.62
417.05, 6.54, 325.45
417.26, 6.57, 325.27
417.46, 6.59, 325.10
417.70, 6.62, 324.88
417.97, 6.64, 324.64
418.22, 6.68, 324.42
418.55, 6.71, 324.13
418.88, 6.75, 323.84
419.25, 6.79, 323.51
419.68, 6.84, 323.13
420.19, 6.89, 322.68
420.78, 6.94, 322.16
421.50, 7.00, 321.53
423.23, 6.98, 320.00
424.69, 7.04, 318.71
426.44, 7.14, 317.17
428.28, 7.28, 315.55
416.06, 6.44, 326.25
416.19, 6.45, 326.13
416.34, 6.47, 326.00
416.49, 6.48, 325.86
416.64, 6.50, 325.72
416.81, 6.52, 325.57
417.00, 6.54, 325.40
417.20, 6.56, 325.22
417.39, 6.59, 325.04
417.63, 6.62, 324.82
417.90, 6.64, 324.58
418.15, 6.68, 324.36
418.47, 6.71, 324.07
418.79, 6.75, 323.77
419.15, 6.79, 323.45
419.57, 6.84, 323.07
420.07, 6.89, 322.61
420.64, 6.94, 322.10
421.35, 7.00, 321.46
423.03, 6.99, 319.94
424.45, 7.05, 318.66
426.21, 7.13, 317.07
¯428.03, 7.28, 315.41
416.01, 6.44, 326.21
416.15, 6.45, 326.08
416.29, 6.47, 325.95
416.44, 6.48, 325.81
416.59, 6.50, 325.67
416.76, 6.52, 325.52
416.94, 6.54, 325.35
417.14, 6.56, 325.16
417.33, 6.59, 324.98
417.57, 6.62, 324.77
417.83, 6.64, 324.52
418.07, 6.68, 324.30
418.39, 6.71, 324.00
418.70, 6.75, 323.71
419.06, 6.80, 323.38
419.46, 6.84, 323.01
419.96, 6.89, 322.55
420.51, 6.95, 322.03
421.20, 7.00, 321.39
422.83, 6.99, 319.89
424.20, 7.05, 318.61
425.98, 7.13, 316.97
427.79, 7.27, 315.29
415.97, 6.44, 326.17
416.10, 6.45, 326.04
416.24, 6.47, 325.90
416.39, 6.48, 325.76
416.54, 6.50, 325.62
416.71, 6.52, 325.47
416.89, 6.54, 325.29
417.08, 6.56, 325.11
417.27, 6.59, 324.93
417.50, 6.62, 324.71
417.76, 6.64, 324.46
418.00, 6.68, 324.24
418.31, 6.71, 323.94
418.61, 6.75, 323.65
418.96, 6.80, 323.32
419.35, 6.84, 322.95
419.84, 6.89, 322.48
420.38, 6.95, 321.97
421.05, 7.00, 321.33
421.84, 7.07, 320.58
423.96, 7.06, 318.57
425.74, 7.13, 316.88
427.51, 7.27, 315.20
415.93, 6.44, 326.12
416.06, 6.45, 326.00
416.20, 6.47, 325.86
416.34, 6.48, 325.72
¯416.49, 6.50, 325.57
416.65, 6.52, 325.42
416.83, 6.54, 325.24
417.02, 6.56, 325.06
417.21, 6.59, 324.87
417.43, 6.62, 324.65
417.69, 6.64, 324.40
417.92, 6.68, 324.18
418.23, 6.71, 323.88
418.52, 6.75, 323.59
418.87, 6.80, 323.25
419.25, 6.85, 322.88
419.73, 6.89, 322.42
420.25, 6.95, 321.91
420.89, 7.01, 321.28
421.67, 7.08, 320.53
423.72, 7.06, 318.53
425.42, 7.14, 316.88
427.22, 7.27, 315.12
415.88, 6.44, 326.08
416.01, 6.45, 325.95
416.15, 6.47, 325.82
416.29, 6.48, 325.67
416.44, 6.50, 325.53
416.59, 6.52, 325.37
416.77, 6.54, 325.19
416.96, 6.56, 325.00
417.14, 6.59, 324.82
417.37, 6.62, 324.60
417.62, 6.64, 324.35
417.85, 6.68, 324.12
418.14, 6.71, 323.82
418.44, 6.75, 323.53
418.77, 6.80, 323.19
419.14, 6.85, 322.83
419.61, 6.89, 322.35
420.11, 6.95, 321.85
420.74, 7.01, 321.23
421.50, 7.08, 320.47
423.46, 7.07, 318.51
425.10, 7.15, 316.88
426.93, 7.27, 315.05
415.84, 6.44, 326.04
415.96, 6.45, 325.91
416.10, 6.46, 325.77
416.24, 6.48, 325.62
416.38, 6.50, 325.48
416.54, 6.52, 325.32
416.71, 6.54, 325.14
416.90, 6.56, 324.95
417.08, 6.59, 324.77
¯417.30, 6.62, 324.54
417.55, 6.64, 324.29
417.77, 6.68, 324.06
418.06, 6.71, 323.76
418.35, 6.75, 323.47
418.67, 6.80, 323.13
419.03, 6.85, 322.77
419.49, 6.89, 322.29
419.98, 6.95, 321.79
420.58, 7.01, 321.18
421.33, 7.08, 320.42
423.21, 7.07, 318.50
424.78, 7.15, 316.89
426.65, 7.27, 314.98
415.79, 6.44, 326.00
415.91, 6.45, 325.87
416.05, 6.46, 325.73
416.19, 6.48, 325.58
416.33, 6.50, 325.43
416.48, 6.52, 325.27
416.65, 6.54, 325.09
416.84, 6.56, 324.90
417.02, 6.59, 324.71
417.23, 6.62, 324.49
417.47, 6.64, 324.23
417.69, 6.68, 324.00
417.98, 6.71, 323.70
418.26, 6.75, 323.41
418.58, 6.80, 323.07
418.92, 6.85, 322.71
419.38, 6.90, 322.23
419.85, 6.95, 321.74
420.43, 7.02, 321.13
421.16, 7.08, 320.36
422.96, 7.08, 318.49
424.47, 7.16, 316.90
426.37, 7.27, 314.91
415.74, 6.44, 325.96
415.87, 6.45, 325.83
416.00, 6.46, 325.69
416.14, 6.48, 325.54
416.28, 6.50, 325.39
416.43, 6.52, 325.23
416.59, 6.54, 325.05
416.78, 6.56, 324.85
416.95, 6.59, 324.66
417.16, 6.62, 324.44
417.40, 6.64, 324.18
417.62, 6.68, 323.94
417.90, 6.71, 323.64
418.17, 6.75, 323.35
¯418.48, 6.80, 323.01
418.82, 6.85, 322.65
419.26, 6.90, 322.17
419.72, 6.96, 321.68
420.28, 7.02, 321.08
420.99, 7.08, 320.31
421.83, 7.16, 319.41
424.18, 7.16, 316.90
426.09, 7.27, 314.85
415.70, 6.44, 325.92
415.82, 6.45, 325.79
415.95, 6.46, 325.64
416.09, 6.48, 325.49
416.22, 6.50, 325.34
416.37, 6.52, 325.18
416.53, 6.54, 325.00
416.71, 6.56, 324.80
416.89, 6.59, 324.61
417.09, 6.61, 324.38
417.33, 6.64, 324.12
417.54, 6.68, 323.89
417.81, 6.71, 323.59
418.08, 6.75, 323.30
418.38, 6.80, 322.96
418.71, 6.85, 322.60
419.15, 6.90, 322.12
419.59, 6.96, 321.63
420.13, 7.02, 321.03
420.83, 7.09, 320.26
421.64, 7.16, 319.37
423.90, 7.16, 316.88
425.81, 7.27, 314.79
415.65, 6.44, 325.88
415.77, 6.45, 325.75
415.90, 6.46, 325.60
416.03, 6.48, 325.45
416.17, 6.50, 325.30
416.31, 6.52, 325.13
416.47, 6.54, 324.95
416.65, 6.56, 324.75
416.82, 6.59, 324.56
417.02, 6.61, 324.33
417.25, 6.64, 324.07
417.46, 6.68, 323.83
417.73, 6.71, 323.53
417.99, 6.75, 323.24
418.29, 6.80, 322.90
418.60, 6.85, 322.54
419.03, 6.90, 322.06
419.46, 6.96, 321.58
419.98, 7.02, 320.98
¯420.66, 7.09, 320.22
421.44, 7.17, 319.33
423.61, 7.17, 316.89
425.50, 7.27, 314.77
415.60, 6.43, 325.85
415.72, 6.45, 325.71
415.85, 6.46, 325.56
415.98, 6.47, 325.41
416.11, 6.50, 325.25
416.25, 6.52, 325.09
416.41, 6.54, 324.90
416.59, 6.56, 324.70
416.76, 6.59, 324.51
416.95, 6.61, 324.28
417.18, 6.64, 324.02
417.38, 6.68, 323.78
417.65, 6.71, 323.48
417.90, 6.75, 323.19
418.19, 6.80, 322.85
418.50, 6.85, 322.49
418.91, 6.90, 322.01
419.33, 6.96, 321.52
419.84, 7.02, 320.94
420.49, 7.09, 320.18
421.25, 7.17, 319.30
423.33, 7.17, 316.91
425.19, 7.27, 314.76
415.55, 6.43, 325.81
415.67, 6.45, 325.67
415.79, 6.46, 325.52
415.93, 6.47, 325.36
416.06, 6.49, 325.21
416.20, 6.52, 325.05
416.35, 6.54, 324.86
416.52, 6.56, 324.66
416.69, 6.59, 324.46
416.88, 6.61, 324.23
417.11, 6.64, 323.96
417.31, 6.68, 323.73
417.56, 6.71, 323.42
417.81, 6.75, 323.13
418.09, 6.80, 322.79
418.39, 6.85, 322.44
418.80, 6.90, 321.95
419.20, 6.96, 321.48
419.69, 7.02, 320.89
420.31, 7.09, 320.15
421.06, 7.17, 319.26
423.04, 7.18, 316.92
424.88, 7.27, 314.75
415.51, 6.43, 325.77
¯415.62, 6.45, 325.63
415.74, 6.46, 325.48
415.87, 6.47, 325.32
416.00, 6.49, 325.17
416.14, 6.51, 325.00
416.29, 6.53, 324.81
416.46, 6.56, 324.61
416.62, 6.58, 324.41
416.81, 6.61, 324.18
417.03, 6.64, 323.91
417.23, 6.68, 323.67
417.48, 6.71, 323.37
417.72, 6.75, 323.08
417.99, 6.80, 322.74
418.28, 6.85, 322.38
418.68, 6.90, 321.90
419.07, 6.96, 321.43
419.54, 7.03, 320.85
420.14, 7.09, 320.13
420.87, 7.17, 319.23
421.81, 7.26, 318.10
424.58, 7.27, 314.74
427.46, 7.38, 311.24
415.46, 6.43, 325.73
415.57, 6.44, 325.59
415.69, 6.46, 325.44
415.82, 6.47, 325.28
415.94, 6.49, 325.13
416.08, 6.51, 324.96
416.23, 6.53, 324.77
416.39, 6.55, 324.56
416.56, 6.58, 324.36
416.74, 6.61, 324.14
416.95, 6.63, 323.86
417.15, 6.67, 323.62
417.39, 6.71, 323.32
417.62, 6.75, 323.03
417.89, 6.80, 322.69
418.18, 6.85, 322.33
418.56, 6.90, 321.85
418.94, 6.96, 321.38
419.40, 7.03, 320.81
419.97, 7.10, 320.10
420.69, 7.17, 319.20
421.58, 7.26, 318.08
424.28, 7.27, 314.74
427.04, 7.38, 311.30
415.41, 6.43, 325.69
415.52, 6.44, 325.56
415.64, 6.46, 325.41
415.76, 6.47, 325.24
¯415.89, 6.49, 325.08
416.02, 6.51, 324.91
416.17, 6.53, 324.72
416.33, 6.55, 324.52
416.49, 6.58, 324.31
416.66, 6.61, 324.09
416.88, 6.63, 323.81
417.07, 6.67, 323.57
417.30, 6.71, 323.27
417.53, 6.75, 322.97
417.80, 6.80, 322.64
418.07, 6.85, 322.28
418.45, 6.90, 321.80
418.81, 6.96, 321.34
419.25, 7.03, 320.77
419.80, 7.10, 320.08
420.50, 7.17, 319.17
421.36, 7.26, 318.07
423.96, 7.27, 314.76
426.63, 7.38, 311.36
415.36, 6.43, 325.66
415.47, 6.44, 325.52
415.58, 6.46, 325.37
415.71, 6.47, 325.20
415.83, 6.49, 325.04
415.96, 6.51, 324.87
416.10, 6.53, 324.68
416.26, 6.55, 324.47
416.42, 6.58, 324.27
416.59, 6.61, 324.04
416.80, 6.63, 323.77
416.99, 6.67, 323.52
417.22, 6.71, 323.22
417.44, 6.75, 322.92
417.70, 6.80, 322.59
417.97, 6.85, 322.23
418.33, 6.90, 321.76
418.68, 6.96, 321.30
419.11, 7.03, 320.73
419.63, 7.10, 320.05
420.31, 7.17, 319.15
421.15, 7.26, 318.06
423.61, 7.28, 314.85
426.33, 7.37, 311.28
415.31, 6.43, 325.62
415.41, 6.44, 325.48
415.53, 6.45, 325.33
415.65, 6.47, 325.17
415.77, 6.49, 325.00
415.90, 6.51, 324.83
416.04, 6.53, 324.64
¯416.20, 6.55, 324.43
416.35, 6.58, 324.22
416.52, 6.61, 324.00
416.73, 6.63, 323.72
416.91, 6.67, 323.47
417.13, 6.71, 323.17
417.35, 6.75, 322.87
417.60, 6.80, 322.54
417.86, 6.85, 322.19
418.21, 6.90, 321.72
418.55, 6.96, 321.25
418.97, 7.03, 320.69
419.46, 7.10, 320.03
420.12, 7.18, 319.15
420.93, 7.26, 318.05
423.24, 7.28, 314.95
426.04, 7.37, 311.20
415.26, 6.42, 325.59
415.36, 6.44, 325.45
415.48, 6.45, 325.29
415.60, 6.47, 325.13
415.71, 6.49, 324.96
415.84, 6.51, 324.79
415.98, 6.53, 324.60
416.13, 6.55, 324.39
416.28, 6.58, 324.18
416.45, 6.61, 323.95
416.65, 6.63, 323.67
416.83, 6.67, 323.42
417.05, 6.70, 323.12
417.26, 6.75, 322.82
417.50, 6.80, 322.49
417.75, 6.85, 322.14
418.09, 6.90, 321.68
418.42, 6.96, 321.21
418.82, 7.03, 320.66
419.30, 7.10, 320.00
419.92, 7.18, 319.14
420.72, 7.26, 318.04
422.89, 7.29, 315.05
425.24, 7.39, 311.83
425.25, 8.20, 311.76
415.21, 6.42, 325.55
415.31, 6.44, 325.41
415.42, 6.45, 325.26
415.54, 6.47, 325.09
415.66, 6.48, 324.92
415.78, 6.51, 324.75
415.91, 6.53, 324.56
416.07, 6.55, 324.34
416.21, 6.57, 324.13
¯416.37, 6.61, 323.91
416.57, 6.63, 323.63
416.75, 6.67, 323.37
416.96, 6.70, 323.07
417.17, 6.75, 322.77
417.40, 6.80, 322.45
417.65, 6.85, 322.09
417.97, 6.90, 321.64
418.30, 6.96, 321.17
418.68, 7.03, 320.62
419.14, 7.10, 319.97
419.73, 7.18, 319.14
420.51, 7.27, 318.03
422.55, 7.29, 315.15
425.02, 7.38, 311.67
425.02, 8.19, 311.61
415.16, 6.42, 325.52
415.26, 6.44, 325.38
415.37, 6.45, 325.22
415.48, 6.46, 325.05
415.60, 6.48, 324.88
415.72, 6.50, 324.71
415.85, 6.52, 324.52
416.00, 6.55, 324.30
416.15, 6.57, 324.09
416.30, 6.60, 323.86
416.49, 6.63, 323.58
416.67, 6.67, 323.33
416.87, 6.70, 323.03
417.08, 6.75, 322.73
417.30, 6.80, 322.40
417.54, 6.85, 322.05
417.85, 6.90, 321.60
418.17, 6.96, 321.14
418.54, 7.03, 320.59
418.98, 7.11, 319.95
419.54, 7.18, 319.13
420.30, 7.27, 318.03
421.26, 7.37, 316.64
424.80, 7.37, 311.51
424.84, 8.18, 311.41
415.11, 6.42, 325.48
415.20, 6.44, 325.35
415.31, 6.45, 325.19
415.42, 6.46, 325.02
415.54, 6.48, 324.85
415.66, 6.50, 324.67
415.79, 6.52, 324.48
415.93, 6.54, 324.26
416.08, 6.57, 324.04
416.23, 6.60, 323.82
¯416.41, 6.63, 323.54
416.59, 6.66, 323.28
416.78, 6.70, 322.98
416.99, 6.75, 322.68
417.20, 6.80, 322.36
417.44, 6.85, 322.00
417.73, 6.90, 321.56
418.04, 6.96, 321.10
418.40, 7.03, 320.56
418.82, 7.11, 319.93
419.36, 7.19, 319.13
420.08, 7.27, 318.05
421.01, 7.37, 316.66
424.36, 7.37, 311.68
424.65, 8.17, 311.21
426.17, 8.80, 308.91
415.06, 6.42, 325.45
415.15, 6.43, 325.31
415.25, 6.45, 325.15
415.37, 6.46, 324.98
415.48, 6.48, 324.81
415.60, 6.50, 324.63
415.72, 6.52, 324.44
415.86, 6.54, 324.22
416.01, 6.57, 324.00
416.15, 6.60, 323.77
416.34, 6.62, 323.49
416.51, 6.66, 323.23
416.70, 6.70, 322.94
416.90, 6.74, 322.63
417.10, 6.79, 322.32
417.33, 6.85, 321.96
417.62, 6.90, 321.52
417.91, 6.96, 321.07
418.26, 7.03, 320.53
418.67, 7.11, 319.91
419.17, 7.19, 319.13
419.86, 7.27, 318.07
420.76, 7.37, 316.69
423.93, 7.38, 311.86
425.76, 7.57, 309.06
425.33, 7.88, 309.69
424.46, 8.16, 311.01
425.27, 8.46, 309.75
425.24, 8.75, 309.78
415.01, 6.41, 325.42
415.10, 6.43, 325.28
415.20, 6.45, 325.12
415.31, 6.46, 324.95
415.42, 6.48, 324.77
415.53, 6.50, 324.59
¯415.66, 6.52, 324.40
415.80, 6.54, 324.18
415.94, 6.57, 323.96
416.08, 6.60, 323.73
416.26, 6.62, 323.45
416.42, 6.66, 323.19
416.61, 6.70, 322.90
