ŸVERSION 0.7
FIELDS x y z
SIZE 8 8 8
TYPE F F F
COUNT 1 1 1
WIDTH 2271
HEIGHT 1
VIEWPOINT 403.75, 12.47, 331.57 1 422.22, 9.03, 323.08
POINTS 2271
DATA ascii
¯424.40, 7.21, 315.88
424.72, 7.23, 315.34
425.03, 7.26, 314.81
425.41, 7.30, 314.17
425.95, 7.31, 313.27
426.50, 7.35, 312.33
427.23, 7.38, 311.09
429.97, 7.12, 306.49
429.11, 7.94, 307.89
429.10, 8.17, 307.89
422.65, 7.07, 318.71
422.78, 7.08, 318.49
422.91, 7.09, 318.25
423.06, 7.11, 318.00
423.21, 7.12, 317.72
423.39, 7.14, 317.42
423.57, 7.16, 317.10
423.78, 7.18, 316.74
424.01, 7.20, 316.34
424.28, 7.21, 315.86
424.59, 7.23, 315.32
424.90, 7.27, 314.78
425.27, 7.30, 314.14
425.81, 7.31, 313.21
426.35, 7.35, 312.26
427.05, 7.38, 311.05
429.72, 7.12, 306.42
428.95, 7.93, 307.72
428.94, 8.16, 307.71
422.58, 7.07, 318.69
422.70, 7.08, 318.46
422.83, 7.10, 318.23
422.97, 7.11, 317.98
423.13, 7.12, 317.70
423.29, 7.14, 317.40
423.48, 7.16, 317.08
423.68, 7.18, 316.72
423.90, 7.20, 316.32
424.17, 7.22, 315.84
424.47, 7.24, 315.30
424.77, 7.27, 314.75
425.13, 7.30, 314.11
425.65, 7.31, 313.19
426.20, 7.34, 312.20
426.86, 7.38, 311.01
429.39, 7.13, 306.51
428.78, 7.92, 307.54
428.78, 8.15, 307.54
430.22, 8.31, 304.96
430.21, 8.58, 304.95
430.09, 8.85, 305.15
¯430.08, 9.11, 305.14
430.08, 9.37, 305.14
422.51, 7.08, 318.67
422.63, 7.09, 318.44
422.75, 7.10, 318.21
422.89, 7.11, 317.96
423.04, 7.13, 317.68
423.20, 7.14, 317.38
423.38, 7.16, 317.06
423.57, 7.18, 316.70
423.79, 7.20, 316.30
424.05, 7.22, 315.82
424.34, 7.24, 315.28
424.64, 7.27, 314.73
424.99, 7.30, 314.08
425.48, 7.32, 313.18
426.04, 7.34, 312.15
426.68, 7.38, 310.98
429.14, 7.13, 306.47
428.62, 7.91, 307.37
428.61, 8.14, 307.36
429.65, 8.32, 305.45
429.63, 8.58, 305.47
429.61, 8.84, 305.49
429.59, 9.09, 305.50
429.57, 9.35, 305.52
422.44, 7.08, 318.65
422.55, 7.09, 318.42
422.68, 7.10, 318.19
422.81, 7.12, 317.94
422.95, 7.13, 317.66
423.11, 7.15, 317.36
423.28, 7.17, 317.04
423.47, 7.19, 316.68
423.68, 7.21, 316.28
423.93, 7.22, 315.80
424.21, 7.24, 315.27
424.51, 7.27, 314.70
424.85, 7.30, 314.05
425.32, 7.32, 313.17
425.89, 7.34, 312.09
426.49, 7.38, 310.95
428.89, 7.13, 306.43
429.18, 7.33, 305.86
429.16, 7.58, 305.88
428.45, 7.90, 307.19
428.45, 8.13, 307.18
428.86, 8.34, 306.40
428.84, 8.58, 306.42
429.00, 8.83, 306.08
428.99, 9.07, 306.10
¯428.98, 9.32, 306.09
428.99, 9.57, 306.06
422.36, 7.08, 318.63
422.48, 7.09, 318.41
422.60, 7.10, 318.17
422.73, 7.12, 317.92
422.87, 7.13, 317.64
423.02, 7.15, 317.35
423.18, 7.17, 317.02
423.37, 7.19, 316.66
423.57, 7.21, 316.26
423.82, 7.23, 315.79
424.09, 7.25, 315.25
424.38, 7.27, 314.68
424.72, 7.30, 314.02
425.16, 7.32, 313.16
425.72, 7.34, 312.05
426.30, 7.38, 310.92
428.63, 7.13, 306.39
428.64, 7.37, 306.37
428.39, 7.64, 306.84
428.29, 7.89, 307.01
428.28, 8.12, 307.01
428.33, 8.35, 306.89
428.32, 8.58, 306.90
428.47, 8.82, 306.58
428.46, 9.06, 306.59
428.45, 9.29, 306.59
428.45, 9.53, 306.57
428.78, 9.81, 305.90
422.29, 7.08, 318.61
422.40, 7.09, 318.39
422.52, 7.11, 318.15
422.64, 7.12, 317.90
422.78, 7.14, 317.63
422.93, 7.15, 317.33
423.09, 7.17, 317.00
423.26, 7.19, 316.65
423.46, 7.21, 316.25
423.70, 7.23, 315.78
423.96, 7.25, 315.24
424.25, 7.27, 314.66
424.58, 7.31, 314.00
425.00, 7.33, 313.15
425.54, 7.34, 312.05
426.12, 7.38, 310.90
428.38, 7.13, 306.36
428.47, 7.35, 306.17
427.90, 7.67, 307.29
427.88, 7.90, 307.31
427.86, 8.13, 307.33
¯427.85, 8.36, 307.34
427.83, 8.58, 307.36
427.81, 8.81, 307.37
427.98, 9.04, 307.02
428.31, 9.29, 306.33
422.22, 7.09, 318.59
422.33, 7.10, 318.37
422.44, 7.11, 318.14
422.56, 7.12, 317.89
422.69, 7.14, 317.61
422.84, 7.16, 317.31
422.99, 7.17, 316.99
423.16, 7.19, 316.63
423.35, 7.22, 316.23
423.58, 7.23, 315.77
423.84, 7.25, 315.23
424.12, 7.28, 314.64
424.44, 7.31, 313.98
424.84, 7.33, 313.15
425.36, 7.34, 312.06
425.95, 7.38, 310.85
428.14, 7.12, 306.33
427.66, 7.44, 307.28
427.44, 7.70, 307.72
427.42, 7.92, 307.74
427.41, 8.14, 307.75
427.39, 8.36, 307.77
427.37, 8.58, 307.78
427.36, 8.80, 307.80
427.91, 9.04, 306.64
428.34, 9.29, 305.71
428.53, 9.56, 305.30
428.53, 9.81, 305.29
422.15, 7.09, 318.58
422.25, 7.10, 318.36
422.36, 7.11, 318.12
422.48, 7.13, 317.87
422.61, 7.14, 317.60
422.74, 7.16, 317.30
422.89, 7.18, 316.98
423.06, 7.20, 316.62
423.25, 7.22, 316.22
423.46, 7.24, 315.76
423.71, 7.26, 315.22
423.99, 7.28, 314.62
424.30, 7.31, 313.96
424.68, 7.33, 313.15
425.18, 7.35, 312.06
425.77, 7.37, 310.80
427.89, 7.12, 306.30
427.24, 7.47, 307.65
¯425.34, 7.97, 311.68
425.32, 8.14, 311.69
425.31, 8.30, 311.70
426.96, 8.37, 308.17
426.95, 8.58, 308.18
426.93, 8.79, 308.20
427.74, 9.03, 306.46
428.16, 9.29, 305.52
428.35, 9.55, 305.10
428.34, 9.81, 305.09
421.92, 7.20, 318.91
422.18, 7.10, 318.34
422.28, 7.11, 318.11
422.40, 7.13, 317.86
422.52, 7.14, 317.58
422.65, 7.16, 317.29
422.80, 7.18, 316.96
422.96, 7.20, 316.61
423.14, 7.22, 316.21
423.34, 7.24, 315.75
423.58, 7.26, 315.22
423.86, 7.28, 314.61
424.16, 7.31, 313.94
424.52, 7.34, 313.15
425.01, 7.35, 312.07
425.16, 7.47, 311.71
425.16, 7.64, 311.70
425.16, 7.80, 311.70
425.13, 7.97, 311.73
425.13, 8.13, 311.73
425.12, 8.30, 311.72
426.56, 8.37, 308.55
426.54, 8.58, 308.56
426.53, 8.79, 308.57
427.56, 9.02, 306.27
427.98, 9.28, 305.32
428.16, 9.55, 304.90
428.15, 9.80, 304.89
421.85, 7.20, 318.90
422.10, 7.10, 318.33
422.20, 7.12, 318.10
422.31, 7.13, 317.84
422.43, 7.15, 317.57
422.56, 7.16, 317.28
422.70, 7.18, 316.95
422.86, 7.20, 316.60
423.03, 7.22, 316.20
423.23, 7.24, 315.75
423.46, 7.26, 315.22
423.72, 7.28, 314.61
424.02, 7.31, 313.92
°424.37, 7.34, 313.14
424.83, 7.35, 312.08
425.37, 7.38, 310.84
426.12, 7.39, 309.13
426.41, 7.54, 308.44
425.01, 7.96, 311.60
425.01, 8.13, 311.60
425.00, 8.29, 311.59
426.18, 8.38, 308.90
426.16, 8.58, 308.91
426.15, 8.78, 308.93
427.39, 9.01, 306.08
427.79, 9.27, 305.12
428.08, 9.55, 304.44
421.78, 7.20, 318.88
421.87, 7.22, 318.69
422.13, 7.12, 318.08
422.23, 7.13, 317.83
422.35, 7.15, 317.56
422.47, 7.17, 317.26
422.61, 7.18, 316.94
422.76, 7.20, 316.59
422.92, 7.23, 316.19
423.11, 7.25, 315.75
423.33, 7.27, 315.22
423.59, 7.29, 314.62
423.89, 7.31, 313.91
424.22, 7.34, 313.13
424.65, 7.36, 312.09
425.17, 7.38, 310.86
425.90, 7.39, 309.13
426.04, 7.56, 308.79
425.86, 7.79, 309.20
424.89, 8.12, 311.47
424.88, 8.28, 311.46
425.82, 8.38, 309.24
425.80, 8.58, 309.25
425.79, 8.77, 309.26
427.21, 9.00, 305.89
427.61, 9.27, 304.92
427.89, 9.54, 304.24
425.79, 9.95, 309.15
425.77, 10.14, 309.16
421.72, 7.20, 318.87
421.80, 7.22, 318.68
422.05, 7.12, 318.07
422.15, 7.14, 317.82
422.26, 7.15, 317.55
422.38, 7.17, 317.25
422.51, 7.19, 316.93
422.65, 7.21, 316.58
°422.82, 7.23, 316.19
423.00, 7.25, 315.74
423.21, 7.27, 315.22
423.45, 7.29, 314.62
423.74, 7.31, 313.91
424.07, 7.34, 313.12
424.48, 7.36, 312.11
424.98, 7.39, 310.88
425.68, 7.40, 309.18
425.69, 7.59, 309.12
425.52, 7.81, 309.52
424.76, 8.10, 311.33
424.76, 8.27, 311.33
425.48, 8.39, 309.55
425.46, 8.58, 309.57
425.45, 8.77, 309.58
427.03, 9.00, 305.70
425.54, 9.15, 309.33
425.52, 9.34, 309.34
425.51, 9.53, 309.35
425.50, 9.73, 309.36
425.49, 9.92, 309.37
425.48, 10.11, 309.38
421.65, 7.21, 318.86
421.73, 7.22, 318.66
421.81, 7.23, 318.45
422.07, 7.14, 317.81
422.17, 7.15, 317.54
422.29, 7.17, 317.25
422.42, 7.19, 316.93
422.55, 7.21, 316.57
422.71, 7.23, 316.18
422.88, 7.25, 315.74
423.09, 7.27, 315.22
423.32, 7.29, 314.63
423.60, 7.31, 313.91
423.92, 7.34, 313.11
424.30, 7.36, 312.12
424.78, 7.39, 310.91
425.37, 7.42, 309.42
425.21, 7.64, 309.81
425.19, 7.83, 309.82
424.64, 8.09, 311.20
424.63, 8.26, 311.19
425.16, 8.39, 309.86
425.14, 8.57, 309.87
425.13, 8.76, 309.88
426.32, 8.97, 306.85
425.25, 9.14, 309.54
425.24, 9.32, 309.55
425.22, 9.51, 309.55
±425.21, 9.70, 309.56
425.20, 9.89, 309.57
425.19, 10.08, 309.58
421.59, 7.21, 318.85
421.66, 7.22, 318.65
421.74, 7.24, 318.44
421.82, 7.25, 318.22
422.09, 7.16, 317.53
422.20, 7.17, 317.24
422.32, 7.19, 316.92
422.45, 7.21, 316.57
422.60, 7.23, 316.18
422.77, 7.25, 315.73
422.96, 7.28, 315.23
423.19, 7.30, 314.64
423.46, 7.32, 313.92
423.77, 7.34, 313.11
424.13, 7.37, 312.14
424.59, 7.39, 310.94
425.05, 7.45, 309.71
424.90, 7.66, 310.09
424.89, 7.85, 310.11
424.51, 8.08, 311.06
424.51, 8.25, 311.06
424.85, 8.39, 310.14
424.84, 8.57, 310.15
424.82, 8.75, 310.17
425.95, 8.96, 307.19
424.98, 9.12, 309.71
424.97, 9.31, 309.72
424.96, 9.49, 309.72
424.95, 9.68, 309.73
424.94, 9.86, 309.73
424.93, 10.05, 309.74
421.52, 7.21, 318.83
421.59, 7.22, 318.64
421.67, 7.24, 318.43
421.75, 7.25, 318.20
422.00, 7.16, 317.53
422.11, 7.17, 317.23
422.23, 7.19, 316.91
422.35, 7.21, 316.56
422.50, 7.23, 316.17
422.66, 7.26, 315.73
422.84, 7.28, 315.23
423.05, 7.30, 314.65
423.32, 7.32, 313.92
423.61, 7.34, 313.12
423.96, 7.37, 312.16
424.40, 7.39, 310.97
424.75, 7.47, 309.99
±424.61, 7.68, 310.37
424.59, 7.86, 310.38
424.38, 8.07, 310.93
424.38, 8.24, 310.92
424.56, 8.39, 310.41
424.54, 8.57, 310.43
424.53, 8.75, 310.44
424.82, 8.93, 309.64
424.73, 9.11, 309.85
424.72, 9.29, 309.85
424.71, 9.48, 309.86
424.70, 9.66, 309.86
424.69, 9.84, 309.87
424.68, 10.03, 309.88
421.46, 7.21, 318.82
421.52, 7.22, 318.63
421.60, 7.24, 318.42
421.68, 7.25, 318.19
421.76, 7.27, 317.95
422.02, 7.18, 317.23
422.13, 7.20, 316.91
422.25, 7.22, 316.56
422.39, 7.24, 316.17
422.55, 7.26, 315.73
422.72, 7.28, 315.24
422.92, 7.30, 314.66
423.17, 7.32, 313.94
423.46, 7.34, 313.14
423.79, 7.37, 312.19
424.21, 7.40, 311.00
424.60, 7.46, 309.89
424.36, 7.70, 310.53
424.36, 7.87, 310.53
424.25, 8.06, 310.79
424.25, 8.23, 310.78
424.24, 8.40, 310.78
424.33, 8.57, 310.50
424.33, 8.74, 310.49
424.52, 8.92, 309.92
424.49, 9.10, 309.98
424.48, 9.28, 309.99
424.47, 9.46, 309.99
424.46, 9.64, 310.00
424.45, 9.82, 310.00
424.44, 10.00, 310.00
421.39, 7.21, 318.81
421.46, 7.22, 318.62
421.53, 7.24, 318.41
421.60, 7.25, 318.18
421.68, 7.27, 317.94
421.93, 7.18, 317.22
¯422.04, 7.20, 316.90
422.16, 7.22, 316.56
422.29, 7.24, 316.17
422.43, 7.26, 315.73
422.60, 7.28, 315.25
422.79, 7.31, 314.67
423.03, 7.32, 313.96
423.31, 7.35, 313.15
423.62, 7.37, 312.21
424.02, 7.40, 311.04
424.50, 7.43, 309.61
424.23, 7.68, 310.39
424.16, 7.87, 310.56
424.12, 8.05, 310.65
424.12, 8.22, 310.64
424.11, 8.39, 310.64
424.11, 8.56, 310.60
424.12, 8.73, 310.57
424.24, 8.91, 310.18
424.27, 9.09, 310.08
424.26, 9.27, 310.08
424.25, 9.44, 310.08
424.24, 9.62, 310.09
424.23, 9.80, 310.09
424.22, 9.98, 310.10
421.32, 7.21, 318.81
421.39, 7.22, 318.61
421.45, 7.24, 318.40
421.53, 7.25, 318.18
421.60, 7.27, 317.93
421.69, 7.29, 317.67
421.94, 7.20, 316.90
422.06, 7.22, 316.56
422.18, 7.24, 316.17
422.32, 7.26, 315.73
422.48, 7.29, 315.25
422.66, 7.31, 314.68
422.89, 7.33, 313.98
423.15, 7.35, 313.17
423.46, 7.38, 312.24
423.83, 7.40, 311.08
424.29, 7.43, 309.66
424.09, 7.67, 310.24
423.90, 7.88, 310.80
423.89, 8.05, 310.81
423.88, 8.22, 310.82
423.87, 8.39, 310.83
423.85, 8.56, 310.84
423.86, 8.73, 310.82
423.88, 8.90, 310.72
424.15, 9.08, 309.86
¯424.04, 9.25, 310.17
424.03, 9.43, 310.17
424.02, 9.61, 310.18
424.01, 9.78, 310.18
424.00, 9.96, 310.19
421.26, 7.21, 318.80
421.32, 7.22, 318.60
421.38, 7.24, 318.39
421.45, 7.26, 318.17
421.53, 7.27, 317.93
421.61, 7.29, 317.67
421.85, 7.20, 316.90
421.96, 7.22, 316.56
422.08, 7.24, 316.17
422.21, 7.26, 315.74
422.36, 7.29, 315.26
422.53, 7.31, 314.70
422.75, 7.33, 314.00
423.00, 7.35, 313.19
423.29, 7.38, 312.27
423.65, 7.40, 311.12
424.08, 7.43, 309.72
423.96, 7.65, 310.10
423.70, 7.88, 310.89
423.69, 8.05, 310.88
423.69, 8.22, 310.88
423.68, 8.39, 310.87
423.67, 8.55, 310.86
423.67, 8.72, 310.86
423.66, 8.89, 310.85
424.00, 9.08, 309.72
423.83, 9.24, 310.26
423.82, 9.42, 310.26
423.81, 9.59, 310.27
423.80, 9.77, 310.27
423.79, 9.94, 310.27
421.19, 7.21, 318.79
421.25, 7.22, 318.59
421.31, 7.24, 318.39
421.38, 7.26, 318.16
421.45, 7.27, 317.92
421.53, 7.29, 317.66
421.61, 7.31, 317.38
421.86, 7.22, 316.56
421.97, 7.24, 316.17
422.10, 7.27, 315.74
422.24, 7.29, 315.26
422.41, 7.32, 314.71
422.61, 7.33, 314.03
422.85, 7.35, 313.21
423.13, 7.38, 312.30
¯423.47, 7.41, 311.16
423.88, 7.44, 309.78
423.82, 7.63, 309.95
423.57, 7.87, 310.75
423.56, 8.04, 310.74
423.55, 8.21, 310.74
423.55, 8.38, 310.73
423.54, 8.54, 310.72
423.54, 8.71, 310.72
423.53, 8.88, 310.71
423.83, 9.07, 309.67
423.65, 9.23, 310.27
423.64, 9.41, 310.26
423.63, 9.58, 310.25
423.63, 9.76, 310.24
423.62, 9.93, 310.23
421.13, 7.21, 318.78
421.18, 7.23, 318.59
421.24, 7.24, 318.38
421.30, 7.26, 318.16
421.37, 7.27, 317.92
421.45, 7.29, 317.66
421.52, 7.31, 317.38
421.76, 7.23, 316.56
421.87, 7.25, 316.18
421.99, 7.27, 315.75
422.13, 7.29, 315.27
422.28, 7.32, 314.73
422.47, 7.34, 314.05
422.71, 7.35, 313.24
422.96, 7.38, 312.33
423.29, 7.41, 311.20
423.68, 7.44, 309.82
424.10, 7.49, 308.34
423.43, 7.86, 310.61
423.43, 8.02, 310.60
423.42, 8.19, 310.59
423.41, 8.36, 310.59
423.41, 8.53, 310.58
423.40, 8.70, 310.57
423.40, 8.87, 310.57
423.67, 9.06, 309.59
423.53, 9.23, 310.05
423.52, 9.40, 310.04
423.51, 9.58, 310.03
423.51, 9.76, 310.02
423.50, 9.94, 310.01
421.06, 7.21, 318.78
421.11, 7.23, 318.58
421.17, 7.24, 318.37
421.23, 7.26, 318.15
¯421.30, 7.27, 317.91
421.37, 7.29, 317.65
421.44, 7.31, 317.38
421.52, 7.34, 317.07
421.77, 7.25, 316.19
421.88, 7.27, 315.76
422.01, 7.29, 315.28
422.16, 7.32, 314.75
422.34, 7.34, 314.08
422.56, 7.36, 313.26
422.80, 7.38, 312.37
423.11, 7.41, 311.25
423.48, 7.44, 309.87
423.88, 7.49, 308.40
423.30, 7.84, 310.46
423.29, 8.01, 310.46
423.29, 8.18, 310.45
423.28, 8.35, 310.44
423.27, 8.52, 310.43
423.27, 8.69, 310.43
423.26, 8.87, 310.42
423.52, 9.05, 309.43
423.40, 9.22, 309.83
423.40, 9.40, 309.82
423.39, 9.58, 309.81
423.39, 9.76, 309.80
423.38, 9.94, 309.79
421.00, 7.21, 318.77
421.05, 7.23, 318.58
421.10, 7.24, 318.37
421.16, 7.26, 318.15
421.22, 7.27, 317.91
421.28, 7.29, 317.65
421.35, 7.31, 317.38
421.43, 7.34, 317.07
421.66, 7.25, 316.20
421.77, 7.27, 315.77
421.90, 7.30, 315.29
422.03, 7.32, 314.77
422.20, 7.34, 314.11
422.41, 7.36, 313.30
422.64, 7.39, 312.40
422.93, 7.41, 311.30
423.29, 7.44, 309.92
423.68, 7.49, 308.37
423.16, 7.82, 310.32
423.16, 8.00, 310.31
423.15, 8.17, 310.30
423.14, 8.34, 310.29
423.14, 8.51, 310.29
423.13, 8.68, 310.28
¯423.12, 8.86, 310.27
423.37, 9.05, 309.28
423.28, 9.22, 309.60
423.27, 9.40, 309.59
423.27, 9.58, 309.58
423.26, 9.77, 309.57
423.25, 9.95, 309.56
420.93, 7.21, 318.77
420.98, 7.23, 318.57
421.03, 7.24, 318.37
421.08, 7.26, 318.14
421.14, 7.27, 317.90
421.20, 7.30, 317.66
421.27, 7.32, 317.38
421.34, 7.34, 317.07
421.43, 7.36, 316.74
421.67, 7.27, 315.78
421.78, 7.30, 315.31
421.91, 7.32, 314.78
422.07, 7.35, 314.14
422.26, 7.36, 313.34
422.48, 7.39, 312.44
422.75, 7.41, 311.34
423.09, 7.44, 309.98
423.47, 7.49, 308.43
423.02, 7.81, 310.17
423.02, 7.98, 310.16
423.01, 8.16, 310.15
423.00, 8.33, 310.15
423.00, 8.50, 310.14
422.99, 8.68, 310.13
422.98, 8.85, 310.12
423.27, 9.04, 308.90
423.15, 9.22, 309.37
423.14, 9.40, 309.36
423.14, 9.59, 309.35
423.13, 9.77, 309.33
423.12, 9.95, 309.32
420.87, 7.21, 318.76
420.91, 7.23, 318.57
420.96, 7.24, 318.36
421.01, 7.26, 318.14
421.07, 7.27, 317.90
421.12, 7.30, 317.66
421.19, 7.32, 317.38
421.26, 7.34, 317.07
421.33, 7.36, 316.74
421.56, 7.28, 315.80
421.67, 7.30, 315.33
421.79, 7.33, 314.80
421.93, 7.35, 314.17
¯422.12, 7.37, 313.38
422.33, 7.39, 312.48
422.58, 7.42, 311.39
422.89, 7.44, 310.05
423.26, 7.48, 308.48
422.88, 7.79, 310.02
422.88, 7.97, 310.01
422.87, 8.14, 310.00
422.86, 8.32, 309.99
422.85, 8.49, 309.99
422.85, 8.67, 309.98
422.84, 8.84, 309.97
423.02, 9.21, 309.13
423.01, 9.40, 309.12
423.00, 9.59, 309.11
423.00, 9.77, 309.09
422.99, 9.96, 309.08
420.80, 7.21, 318.76
420.84, 7.23, 318.57
420.89, 7.24, 318.36
420.94, 7.26, 318.14
420.99, 7.27, 317.90
421.04, 7.30, 317.66
421.10, 7.32, 317.38
421.17, 7.34, 317.08
421.24, 7.36, 316.75
421.32, 7.38, 316.37
421.55, 7.30, 315.35
421.67, 7.33, 314.82
421.80, 7.35, 314.20
421.97, 7.37, 313.42
422.17, 7.39, 312.52
422.41, 7.42, 311.45
422.70, 7.45, 310.12
423.05, 7.48, 308.51
422.74, 7.77, 309.86
422.73, 7.95, 309.86
422.72, 8.13, 309.85
422.72, 8.30, 309.84
422.71, 8.48, 309.83
422.70, 8.66, 309.82
422.69, 8.83, 309.82
422.88, 9.21, 308.89
422.87, 9.40, 308.87
422.87, 9.59, 308.86
422.86, 9.78, 308.85
422.85, 9.97, 308.83
420.74, 7.21, 318.76
420.78, 7.23, 318.57
420.82, 7.24, 318.36
420.86, 7.26, 318.14
¯420.91, 7.27, 317.90
420.96, 7.30, 317.66
421.02, 7.32, 317.38
421.08, 7.34, 317.08
421.15, 7.36, 316.75
421.22, 7.38, 316.38
421.44, 7.30, 315.37
421.55, 7.33, 314.85
421.67, 7.35, 314.24
421.83, 7.37, 313.46
422.02, 7.39, 312.56
422.24, 7.42, 311.50
422.51, 7.45, 310.20
422.84, 7.48, 308.58
422.59, 7.76, 309.71
422.59, 7.93, 309.70
422.58, 8.11, 309.69
422.57, 8.29, 309.68
422.56, 8.47, 309.67
422.55, 8.65, 309.67
422.55, 8.82, 309.66
422.74, 9.21, 308.63
422.73, 9.40, 308.62
422.73, 9.59, 308.61
422.72, 9.78, 308.59
422.71, 9.97, 308.58
420.67, 7.21, 318.76
420.71, 7.23, 318.57
420.75, 7.24, 318.36
420.79, 7.26, 318.14
420.84, 7.27, 317.90
420.88, 7.30, 317.67
420.94, 7.32, 317.39
420.99, 7.34, 317.09
421.06, 7.36, 316.76
421.13, 7.38, 316.39
421.20, 7.41, 315.99
421.43, 7.33, 314.87
421.54, 7.36, 314.27
421.69, 7.37, 313.50
421.87, 7.40, 312.61
422.07, 7.42, 311.56
422.32, 7.45, 310.28
422.63, 7.48, 308.66
422.62, 7.67, 308.67
422.44, 7.92, 309.54
422.43, 8.10, 309.53
422.42, 8.28, 309.52
422.41, 8.46, 309.51
422.41, 8.63, 309.51
422.40, 8.81, 309.50
¯422.60, 9.20, 308.37
422.59, 9.40, 308.36
422.58, 9.59, 308.35
422.57, 9.79, 308.33
422.57, 9.98, 308.32
420.61, 7.21, 318.76
420.64, 7.23, 318.57
420.68, 7.24, 318.36
420.72, 7.26, 318.14
420.76, 7.27, 317.90
420.80, 7.30, 317.67
420.85, 7.32, 317.39
420.91, 7.34, 317.09
420.96, 7.36, 316.77
421.03, 7.39, 316.40
421.10, 7.41, 316.00
421.31, 7.33, 314.90
421.41, 7.36, 314.31
421.55, 7.38, 313.55
421.71, 7.40, 312.66
421.90, 7.42, 311.61
422.13, 7.45, 310.35
422.43, 7.48, 308.73
422.71, 7.55, 307.17
422.29, 7.90, 309.38
422.28, 8.08, 309.37
422.27, 8.26, 309.36
422.26, 8.44, 309.35
422.25, 8.62, 309.34
422.25, 8.80, 309.33
422.45, 9.20, 308.11
422.44, 9.39, 308.09
422.43, 9.59, 308.08
422.42, 9.79, 308.06
420.54, 7.21, 318.76
420.58, 7.23, 318.57
420.61, 7.24, 318.36
420.65, 7.26, 318.14
420.69, 7.27, 317.90
420.72, 7.30, 317.68
420.77, 7.32, 317.40
420.82, 7.34, 317.11
420.87, 7.36, 316.78
420.93, 7.39, 316.41
421.00, 7.41, 316.01
421.19, 7.34, 314.93
421.29, 7.36, 314.35
421.41, 7.38, 313.60
421.56, 7.40, 312.72
421.74, 7.42, 311.67
421.95, 7.45, 310.43
¯422.22, 7.48, 308.81
422.51, 7.54, 307.12
422.13, 7.88, 309.21
422.12, 8.06, 309.20
422.12, 8.25, 309.20
422.11, 8.43, 309.19
422.30, 9.19, 307.83
420.48, 7.21, 318.76
420.51, 7.23, 318.57
420.54, 7.24, 318.36
420.57, 7.26, 318.14
420.61, 7.28, 317.91
420.65, 7.30, 317.68
420.69, 7.32, 317.41
420.73, 7.34, 317.12
420.78, 7.36, 316.79
420.84, 7.39, 316.43
420.90, 7.41, 316.03
420.97, 7.44, 315.59
421.16, 7.36, 314.39
421.28, 7.38, 313.64
421.41, 7.40, 312.78
421.58, 7.43, 311.73
421.77, 7.46, 310.52
422.02, 7.48, 308.90
422.31, 7.53, 307.07
422.53, 7.65, 305.59
422.06, 8.02, 308.44
422.05, 8.21, 308.43
422.04, 8.40, 308.42
420.42, 7.21, 318.76
420.44, 7.23, 318.57
420.47, 7.24, 318.37
420.50, 7.26, 318.15
420.53, 7.28, 317.92
420.57, 7.30, 317.69
420.61, 7.32, 317.41
420.65, 7.34, 317.13
420.69, 7.36, 316.80
420.74, 7.39, 316.44
420.80, 7.41, 316.04
420.86, 7.44, 315.60
421.04, 7.37, 314.43
421.14, 7.39, 313.69
421.27, 7.41, 312.83
421.42, 7.43, 311.79
421.59, 7.46, 310.59
421.82, 7.48, 309.01
422.08, 7.53, 307.17
422.32, 7.63, 305.50
421.90, 8.00, 308.26
¯421.89, 8.19, 308.25
421.88, 8.39, 308.24
420.35, 7.21, 318.76
420.38, 7.23, 318.57
420.40, 7.24, 318.37
420.43, 7.26, 318.15
420.46, 7.28, 317.93
420.49, 7.30, 317.70
420.52, 7.32, 317.42
420.56, 7.34, 317.14
420.60, 7.36, 316.81
420.65, 7.39, 316.45
420.70, 7.41, 316.06
420.76, 7.44, 315.63
420.82, 7.47, 315.13
421.01, 7.39, 313.74
421.12, 7.41, 312.89
421.26, 7.43, 311.86
421.41, 7.46, 310.67
421.62, 7.48, 309.12
421.77, 7.58, 307.92
421.76, 7.78, 307.93
421.73, 7.98, 308.08
421.72, 8.18, 308.07
421.71, 8.37, 308.06
420.29, 7.21, 318.77
420.31, 7.23, 318.58
420.33, 7.24, 318.37
420.36, 7.26, 318.16
420.38, 7.28, 317.94
420.41, 7.30, 317.70
420.44, 7.32, 317.43
420.48, 7.34, 317.15
420.51, 7.36, 316.82
420.56, 7.39, 316.47
420.60, 7.41, 316.08
420.65, 7.44, 315.65
420.71, 7.47, 315.15
420.88, 7.39, 313.79
420.98, 7.41, 312.95
421.10, 7.43, 311.93
421.24, 7.46, 310.75
421.42, 7.49, 309.23
421.64, 7.52, 307.36
421.89, 7.60, 305.31
421.55, 7.96, 307.90
421.54, 8.16, 307.89
420.23, 7.21, 318.77
420.24, 7.23, 318.58
420.27, 7.24, 318.38
420.29, 7.26, 318.16
¯420.31, 7.28, 317.95
420.33, 7.30, 317.71
420.36, 7.32, 317.44
420.39, 7.34, 317.16
420.42, 7.36, 316.84
420.46, 7.39, 316.48
420.50, 7.41, 316.09
420.55, 7.44, 315.67
420.60, 7.47, 315.18
420.75, 7.39, 313.84
420.83, 7.41, 313.02
420.94, 7.43, 312.01
421.07, 7.46, 310.83
421.23, 7.49, 309.34
421.43, 7.52, 307.45
421.66, 7.58, 305.29
422.20, 7.55, 300.32
422.23, 7.82, 299.85
422.27, 8.10, 299.36
420.16, 7.21, 318.77
420.18, 7.23, 318.58
420.20, 7.24, 318.38
420.22, 7.26, 318.17
420.24, 7.28, 317.96
420.26, 7.30, 317.72
420.28, 7.32, 317.45
420.31, 7.34, 317.17
420.34, 7.36, 316.85
420.37, 7.39, 316.50
420.40, 7.41, 316.11
420.44, 7.44, 315.70
420.49, 7.47, 315.21
420.54, 7.50, 314.66
420.69, 7.41, 313.08
420.79, 7.44, 312.10
420.90, 7.46, 310.91
421.04, 7.49, 309.45
421.22, 7.52, 307.55
421.43, 7.57, 305.28
421.90, 7.54, 300.38
421.93, 7.81, 299.91
421.96, 8.09, 299.43
420.10, 7.21, 318.78
420.11, 7.23, 318.59
420.13, 7.24, 318.39
420.15, 7.26, 318.17
420.16, 7.28, 317.97
420.18, 7.30, 317.73
420.20, 7.32, 317.47
420.22, 7.34, 317.19
420.25, 7.36, 316.87
¯420.28, 7.38, 316.52
420.31, 7.41, 316.13
420.34, 7.44, 315.72
420.38, 7.47, 315.24
420.42, 7.50, 314.69
420.56, 7.42, 313.14
420.63, 7.44, 312.18
420.73, 7.46, 310.99
420.85, 7.49, 309.56
421.01, 7.52, 307.64
421.20, 7.56, 305.27
421.60, 7.53, 300.56
421.62, 7.80, 300.08
421.65, 8.08, 299.58
421.67, 8.36, 299.07
420.04, 7.21, 318.78
420.05, 7.23, 318.60
420.06, 7.24, 318.40
420.08, 7.26, 318.18
420.09, 7.28, 317.98
420.10, 7.30, 317.75
420.12, 7.32, 317.48
420.14, 7.34, 317.20
420.16, 7.36, 316.89
420.19, 7.38, 316.54
420.21, 7.41, 316.15
420.24, 7.44, 315.75
420.27, 7.47, 315.27
420.31, 7.50, 314.72
420.42, 7.42, 313.21
420.49, 7.44, 312.26
420.57, 7.46, 311.08
420.67, 7.49, 309.67
420.80, 7.52, 307.79
420.98, 7.55, 305.26
421.19, 7.61, 302.22
421.32, 7.79, 300.26
421.33, 8.06, 299.77
421.35, 8.35, 299.27
419.97, 7.21, 318.79
419.98, 7.23, 318.60
419.99, 7.24, 318.40
420.01, 7.25, 318.19
420.02, 7.28, 317.99
420.03, 7.30, 317.76
420.04, 7.32, 317.49
420.06, 7.34, 317.22
420.07, 7.36, 316.90
420.09, 7.38, 316.56
420.11, 7.41, 316.18
420.14, 7.44, 315.78
¯420.16, 7.47, 315.30
420.19, 7.50, 314.76
420.23, 7.53, 314.14
420.34, 7.44, 312.35
420.41, 7.46, 311.17
420.48, 7.49, 309.79
420.59, 7.52, 307.95
420.75, 7.53, 305.26
420.92, 7.60, 302.34
421.01, 7.79, 300.54
421.03, 8.05, 299.97
421.04, 8.34, 299.47
419.91, 7.21, 318.80
419.92, 7.22, 318.61
419.93, 7.24, 318.41
419.94, 7.25, 318.20
419.94, 7.28, 318.00
419.95, 7.30, 317.77
419.96, 7.32, 317.51
419.98, 7.34, 317.24
419.99, 7.36, 316.92
420.00, 7.38, 316.58
420.02, 7.41, 316.20
420.04, 7.44, 315.80
420.06, 7.47, 315.33
420.08, 7.50, 314.79
420.11, 7.53, 314.18
420.19, 7.45, 312.43
420.24, 7.47, 311.28
420.31, 7.49, 309.90
420.39, 7.52, 308.11
420.52, 7.52, 305.26
420.55, 7.70, 304.48
420.53, 7.94, 304.47
420.52, 8.18, 304.47
420.73, 8.32, 299.66
420.74, 8.62, 299.15
419.85, 7.21, 318.81
419.85, 7.22, 318.62
419.86, 7.24, 318.42
419.87, 7.25, 318.21
419.87, 7.28, 318.02
419.88, 7.30, 317.78
419.89, 7.32, 317.52
419.89, 7.34, 317.25
419.90, 7.36, 316.94
419.91, 7.38, 316.60
419.92, 7.41, 316.22
419.94, 7.44, 315.83
419.95, 7.47, 315.36
419.97, 7.50, 314.83
¯419.99, 7.53, 314.22
420.05, 7.45, 312.51
420.09, 7.47, 311.38
420.13, 7.50, 310.01
420.19, 7.52, 308.27
420.28, 7.52, 305.48
420.27, 7.74, 305.40
420.26, 7.97, 305.33
420.25, 8.19, 305.26
420.43, 8.31, 299.96
420.43, 8.60, 299.35
419.79, 7.21, 318.81
419.79, 7.22, 318.63
419.79, 7.24, 318.43
419.80, 7.25, 318.22
419.80, 7.28, 318.03
419.80, 7.30, 317.80
419.81, 7.32, 317.54
419.81, 7.34, 317.27
419.82, 7.36, 316.96
419.82, 7.38, 316.62
419.83, 7.41, 316.25
419.84, 7.44, 315.86
419.85, 7.47, 315.39
419.86, 7.50, 314.87
419.87, 7.53, 314.27
419.88, 7.56, 313.53
419.93, 7.47, 311.48
419.96, 7.50, 310.13
419.99, 7.53, 308.43
420.05, 7.53, 305.74
420.04, 7.75, 305.74
420.03, 7.97, 305.67
420.02, 8.19, 305.61
420.13, 8.30, 300.25
420.12, 8.58, 299.66
420.12, 8.88, 299.04
419.72, 7.21, 318.82
419.73, 7.22, 318.64
419.73, 7.24, 318.44
419.73, 7.25, 318.23
419.73, 7.28, 318.05
419.73, 7.30, 317.81
419.73, 7.32, 317.56
419.73, 7.34, 317.29
419.73, 7.36, 316.98
419.74, 7.38, 316.64
419.74, 7.41, 316.28
419.74, 7.44, 315.89
419.74, 7.47, 315.43
419.74, 7.50, 314.91
¯419.75, 7.53, 314.31
419.75, 7.56, 313.58
419.78, 7.47, 311.59
419.79, 7.50, 310.24
419.80, 7.53, 308.59
419.83, 7.54, 306.09
419.81, 7.76, 306.07
419.80, 7.97, 306.00
419.79, 8.19, 305.94
419.84, 8.29, 300.47
419.82, 8.57, 299.89
419.81, 8.86, 299.28
419.66, 7.21, 318.83
419.66, 7.22, 318.65
419.66, 7.24, 318.45
419.66, 7.25, 318.25
419.66, 7.28, 318.06
419.66, 7.30, 317.83
419.65, 7.31, 317.57
419.65, 7.34, 317.31
419.65, 7.36, 317.00
419.65, 7.38, 316.67
419.64, 7.41, 316.31
419.64, 7.44, 315.92
419.64, 7.46, 315.46
419.64, 7.49, 314.95
419.63, 7.53, 314.35
419.63, 7.56, 313.63
419.63, 7.48, 311.70
419.62, 7.50, 310.37
419.62, 7.53, 308.74
419.61, 7.55, 306.44
419.60, 7.73, 305.93
419.58, 7.95, 305.92
419.57, 8.17, 305.91
419.55, 8.27, 300.55
419.53, 8.55, 299.99
419.51, 8.84, 299.39
419.60, 7.21, 318.84
419.60, 7.22, 318.66
419.59, 7.24, 318.47
419.59, 7.25, 318.26
419.59, 7.28, 318.08
419.58, 7.30, 317.85
419.58, 7.31, 317.59
419.57, 7.34, 317.33
419.57, 7.36, 317.03
419.56, 7.38, 316.69
419.55, 7.41, 316.34
419.54, 7.44, 315.96
419.54, 7.46, 315.50
¯419.53, 7.49, 314.99
419.52, 7.53, 314.40
419.50, 7.56, 313.69
419.48, 7.48, 311.80
419.46, 7.50, 310.51
419.43, 7.53, 308.88
419.40, 7.55, 306.61
419.35, 7.58, 303.60
419.32, 7.76, 302.19
419.29, 8.00, 301.36
419.27, 8.26, 300.61
419.24, 8.53, 300.10
419.21, 8.83, 299.49
419.54, 7.21, 318.85
419.53, 7.22, 318.67
419.53, 7.23, 318.48
419.52, 7.25, 318.28
419.52, 7.28, 318.09
419.51, 7.30, 317.87
419.50, 7.31, 317.61
419.49, 7.34, 317.35
419.48, 7.36, 317.05
419.47, 7.38, 316.72
419.46, 7.41, 316.37
419.45, 7.44, 315.99
419.43, 7.46, 315.53
419.42, 7.49, 315.03
419.40, 7.53, 314.45
419.38, 7.56, 313.74
419.36, 7.59, 312.92
419.30, 7.51, 310.64
419.25, 7.53, 309.03
419.20, 7.56, 306.97
419.18, 7.77, 306.92
419.17, 7.97, 306.88
419.15, 8.18, 306.84
419.14, 8.39, 306.80
418.95, 8.52, 300.16
418.92, 8.81, 299.60
418.88, 9.11, 298.98
419.48, 7.21, 318.87
419.47, 7.22, 318.69
419.46, 7.23, 318.49
419.45, 7.25, 318.29
419.45, 7.28, 318.11
419.44, 7.29, 317.88
419.42, 7.31, 317.63
419.41, 7.34, 317.37
419.40, 7.36, 317.07
419.39, 7.38, 316.74
419.37, 7.41, 316.40
¯419.35, 7.43, 316.02
419.33, 7.46, 315.57
419.31, 7.49, 315.07
419.29, 7.52, 314.50
419.26, 7.55, 313.80
419.22, 7.59, 312.99
419.14, 7.51, 310.77
419.08, 7.53, 309.18
418.99, 7.55, 307.05
418.98, 7.76, 307.00
418.96, 7.96, 306.96
418.95, 8.17, 306.92
418.93, 8.38, 306.88
418.67, 8.50, 300.21
418.63, 8.79, 299.68
418.58, 9.09, 299.09
419.42, 7.21, 318.88
419.41, 7.22, 318.70
419.40, 7.23, 318.51
419.39, 7.25, 318.31
419.38, 7.27, 318.13
419.36, 7.29, 317.90
419.35, 7.31, 317.65
419.33, 7.34, 317.40
419.32, 7.36, 317.10
419.30, 7.38, 316.77
419.28, 7.40, 316.43
419.26, 7.43, 316.06
419.23, 7.46, 315.61
419.21, 7.49, 315.12
419.18, 7.52, 314.54
419.14, 7.55, 313.85
419.09, 7.59, 313.06
418.99, 7.51, 310.90
418.91, 7.53, 309.32
418.79, 7.55, 307.17
418.78, 7.75, 307.08
418.76, 7.95, 307.04
418.75, 8.16, 307.00
418.73, 8.36, 306.96
418.38, 8.48, 300.27
418.33, 8.77, 299.74
418.29, 9.07, 299.19
419.36, 7.20, 318.89
419.35, 7.22, 318.71
419.33, 7.23, 318.52
419.32, 7.25, 318.33
419.31, 7.27, 318.14
419.29, 7.29, 317.92
419.27, 7.31, 317.68
419.26, 7.34, 317.42
¯419.24, 7.35, 317.12
419.21, 7.38, 316.80
419.19, 7.40, 316.46
419.17, 7.43, 316.09
419.14, 7.46, 315.65
419.10, 7.49, 315.16
419.06, 7.52, 314.59
419.02, 7.55, 313.91
418.97, 7.59, 313.13
418.84, 7.51, 311.03
418.74, 7.53, 309.48
418.60, 7.55, 307.37
418.58, 7.74, 307.16
418.56, 7.94, 307.12
418.54, 8.15, 307.08
418.53, 8.35, 307.04
418.09, 8.46, 300.33
418.04, 8.75, 299.80
417.99, 9.05, 299.26
419.30, 7.20, 318.91
419.28, 7.22, 318.73
419.27, 7.23, 318.54
419.25, 7.25, 318.35
419.24, 7.27, 318.16
419.22, 7.29, 317.94
419.20, 7.31, 317.70
419.18, 7.33, 317.45
419.16, 7.35, 317.15
419.13, 7.38, 316.83
419.10, 7.40, 316.50
419.07, 7.43, 316.13
419.04, 7.46, 315.69
419.00, 7.49, 315.21
418.95, 7.52, 314.65
418.90, 7.55, 313.97
418.84, 7.59, 313.20
418.77, 7.63, 312.28
418.57, 7.54, 309.65
418.42, 7.55, 307.60
418.38, 7.73, 307.24
418.36, 7.93, 307.20
418.34, 8.14, 307.16
418.33, 8.34, 307.12
417.81, 8.44, 300.35
417.75, 8.73, 299.81
417.68, 9.03, 299.25
419.24, 7.20, 318.92
419.22, 7.22, 318.74
419.21, 7.23, 318.55
419.19, 7.25, 318.36
419.17, 7.27, 318.18
¯419.15, 7.29, 317.96
419.13, 7.31, 317.72
419.10, 7.33, 317.47
419.08, 7.35, 317.18
419.05, 7.37, 316.86
419.02, 7.40, 316.53
418.98, 7.43, 316.17
418.94, 7.46, 315.73
418.90, 7.49, 315.26
418.85, 7.52, 314.70
418.78, 7.55, 314.03
418.71, 7.58, 313.27
418.63, 7.62, 312.36
418.41, 7.54, 309.83
418.24, 7.56, 307.83
418.18, 7.72, 307.29
418.16, 7.92, 307.24
418.14, 8.12, 307.19
418.12, 8.33, 307.15
417.52, 8.42, 300.33
417.45, 8.71, 299.79
417.38, 9.01, 299.23
419.18, 7.20, 318.94
419.16, 7.21, 318.76
419.14, 7.23, 318.57
419.12, 7.25, 318.38
419.10, 7.27, 318.20
419.08, 7.29, 317.99
419.05, 7.31, 317.75
419.03, 7.33, 317.50
419.00, 7.35, 317.20
418.96, 7.37, 316.89
418.93, 7.40, 316.57
418.89, 7.43, 316.20
418.84, 7.46, 315.77
418.80, 7.49, 315.31
418.74, 7.52, 314.75
418.67, 7.55, 314.09
418.59, 7.58, 313.34
418.50, 7.62, 312.44
418.26, 7.54, 310.00
418.06, 7.56, 308.06
417.80, 7.58, 305.46
417.54, 7.68, 302.99
417.41, 7.89, 301.84
417.30, 8.13, 300.91
417.22, 8.40, 300.32
417.15, 8.69, 299.78
417.07, 8.99, 299.21
419.12, 7.20, 318.95
419.10, 7.21, 318.77
¯419.08, 7.23, 318.59
419.06, 7.25, 318.40
419.03, 7.27, 318.22
419.01, 7.29, 318.01
418.98, 7.31, 317.77
418.95, 7.33, 317.52
418.92, 7.35, 317.23
418.88, 7.37, 316.92
418.84, 7.40, 316.60
418.80, 7.43, 316.24
418.75, 7.45, 315.81
418.70, 7.49, 315.36
418.63, 7.52, 314.80
418.55, 7.54, 314.15
418.47, 7.58, 313.41
418.37, 7.62, 312.53
418.10, 7.54, 310.17
417.89, 7.56, 308.27
417.59, 7.58, 305.65
417.30, 7.67, 303.17
417.14, 7.87, 301.82
417.02, 8.11, 300.89
416.93, 8.38, 300.31
416.85, 8.67, 299.76
416.77, 8.97, 299.20
419.06, 7.20, 318.97
419.04, 7.21, 318.79
419.01, 7.23, 318.61
418.99, 7.24, 318.42
418.97, 7.27, 318.24
418.94, 7.29, 318.03
418.91, 7.31, 317.80
418.88, 7.33, 317.55
418.84, 7.35, 317.26
418.80, 7.37, 316.95
418.76, 7.40, 316.64
418.71, 7.43, 316.28
418.65, 7.45, 315.86
418.60, 7.49, 315.41
418.52, 7.51, 314.86
418.44, 7.54, 314.22
418.35, 7.58, 313.49
418.24, 7.62, 312.62
417.96, 7.55, 310.34
417.72, 7.57, 308.47
417.39, 7.58, 305.85
417.07, 7.66, 303.35
416.87, 7.85, 301.88
416.73, 8.09, 300.88
416.64, 8.36, 300.31
416.55, 8.65, 299.76
¯416.46, 8.95, 299.18
419.00, 7.20, 318.98
418.98, 7.21, 318.81
418.95, 7.22, 318.62
418.93, 7.24, 318.44
418.90, 7.27, 318.26
418.87, 7.29, 318.05
418.84, 7.31, 317.82
418.80, 7.33, 317.58
418.76, 7.35, 317.29
418.72, 7.37, 316.98
418.67, 7.40, 316.68
418.62, 7.43, 316.32
418.56, 7.45, 315.90
418.50, 7.48, 315.46
418.42, 7.51, 314.91
418.33, 7.54, 314.28
418.23, 7.58, 313.56
418.11, 7.61, 312.70
417.96, 7.66, 311.66
417.55, 7.57, 308.67
417.20, 7.58, 306.06
416.84, 7.65, 303.54
416.61, 7.84, 301.96
416.44, 8.07, 300.86
416.35, 8.34, 300.30
416.25, 8.63, 299.75
418.95, 7.20, 319.00
418.92, 7.21, 318.83
418.89, 7.22, 318.64
418.86, 7.24, 318.46
418.83, 7.27, 318.29
418.80, 7.29, 318.08
418.76, 7.31, 317.85
418.73, 7.33, 317.61
418.68, 7.35, 317.32
418.63, 7.37, 317.02
418.59, 7.40, 316.71
418.53, 7.43, 316.36
418.47, 7.45, 315.95
418.40, 7.48, 315.51
418.32, 7.51, 314.97
418.22, 7.54, 314.35
418.11, 7.58, 313.63
417.98, 7.61, 312.79
417.82, 7.65, 311.76
417.39, 7.57, 308.85
417.20, 7.67, 307.60
417.18, 7.87, 307.56
417.16, 8.07, 307.52
417.14, 8.27, 307.48
¯416.05, 8.32, 300.29
415.95, 8.61, 299.74
418.89, 7.20, 319.02
418.86, 7.21, 318.85
418.83, 7.22, 318.66
418.80, 7.24, 318.48
418.77, 7.26, 318.31
418.73, 7.28, 318.10
418.69, 7.30, 317.87
418.65, 7.33, 317.64
418.61, 7.35, 317.35
418.55, 7.37, 317.05
418.50, 7.40, 316.75
418.45, 7.42, 316.40
418.38, 7.45, 315.99
418.30, 7.48, 315.56
418.21, 7.51, 315.02
418.11, 7.54, 314.42
418.00, 7.57, 313.71
417.86, 7.61, 312.87
417.69, 7.65, 311.86
417.23, 7.57, 309.03
417.00, 7.65, 307.65
416.98, 7.85, 307.61
416.96, 8.05, 307.57
416.94, 8.25, 307.53
415.76, 8.30, 300.31
415.65, 8.59, 299.77
418.83, 7.19, 319.04
418.80, 7.21, 318.87
418.77, 7.22, 318.68
418.73, 7.24, 318.51
418.70, 7.26, 318.33
418.66, 7.28, 318.13
418.62, 7.30, 317.90
418.58, 7.33, 317.67
418.53, 7.34, 317.39
418.47, 7.37, 317.08
418.42, 7.39, 316.79
418.36, 7.42, 316.45
418.29, 7.45, 316.04
418.21, 7.48, 315.62
418.11, 7.51, 315.08
418.01, 7.54, 314.49
417.88, 7.57, 313.78
417.73, 7.61, 312.96
417.55, 7.65, 311.96
417.08, 7.57, 309.20
416.81, 7.64, 307.70
416.79, 7.84, 307.67
416.77, 8.04, 307.63
¯416.75, 8.24, 307.59
415.47, 8.28, 300.33
415.36, 8.57, 299.80
418.77, 7.19, 319.06
418.74, 7.21, 318.89
418.70, 7.22, 318.71
418.67, 7.24, 318.53
418.64, 7.26, 318.36
418.60, 7.28, 318.16
418.55, 7.30, 317.93
418.51, 7.32, 317.70
418.45, 7.34, 317.42
418.40, 7.36, 317.12
418.34, 7.39, 316.83
418.27, 7.42, 316.49
418.19, 7.45, 316.08
418.11, 7.48, 315.67
418.01, 7.50, 315.14
417.90, 7.54, 314.56
417.77, 7.57, 313.86
417.61, 7.61, 313.05
417.42, 7.65, 312.06
416.92, 7.57, 309.38
416.62, 7.63, 307.76
416.59, 7.83, 307.72
416.57, 8.03, 307.68
416.55, 8.23, 307.64
415.17, 8.26, 300.32
415.06, 8.55, 299.83
418.72, 7.19, 319.08
418.68, 7.20, 318.91
418.64, 7.22, 318.73
418.61, 7.24, 318.55
418.57, 7.26, 318.38
418.53, 7.28, 318.18
418.48, 7.30, 317.96
418.44, 7.32, 317.73
418.38, 7.34, 317.45
418.32, 7.36, 317.16
418.26, 7.39, 316.87
418.19, 7.42, 316.53
418.11, 7.44, 316.13
418.02, 7.48, 315.72
417.91, 7.50, 315.20
417.80, 7.54, 314.63
417.66, 7.57, 313.94
417.49, 7.60, 313.13
417.29, 7.64, 312.16
416.78, 7.56, 309.56
416.42, 7.62, 307.81
416.40, 7.81, 307.77
¯416.38, 8.01, 307.74
416.36, 8.21, 307.70
414.87, 8.24, 300.32
414.75, 8.53, 299.82
418.66, 7.19, 319.10
418.62, 7.20, 318.93
418.58, 7.22, 318.75
418.54, 7.23, 318.57
418.51, 7.26, 318.40
418.46, 7.28, 318.21
418.41, 7.30, 317.99
418.36, 7.32, 317.76
418.30, 7.34, 317.49
418.24, 7.36, 317.20
418.18, 7.39, 316.91
418.10, 7.42, 316.58
418.02, 7.44, 316.18
417.93, 7.48, 315.78
417.82, 7.50, 315.26
417.69, 7.53, 314.70
417.55, 7.56, 314.01
417.37, 7.60, 313.22
417.17, 7.64, 312.26
416.91, 7.68, 311.06
416.23, 7.60, 307.87
416.21, 7.80, 307.83
416.14, 7.99, 307.60
414.70, 7.94, 300.81
414.57, 8.22, 300.31
415.27, 8.55, 303.68
415.24, 8.80, 303.65
415.20, 9.06, 303.55
415.13, 9.32, 303.30
418.60, 7.19, 319.12
418.56, 7.20, 318.95
418.52, 7.21, 318.77
418.48, 7.23, 318.60
418.44, 7.26, 318.43
418.40, 7.28, 318.24
418.34, 7.30, 318.02
418.29, 7.32, 317.79
418.23, 7.34, 317.52
418.16, 7.36, 317.23
418.10, 7.39, 316.95
418.02, 7.42, 316.62
417.93, 7.44, 316.23
417.84, 7.47, 315.83
417.72, 7.50, 315.32
417.59, 7.53, 314.77
417.44, 7.56, 314.09
417.26, 7.60, 313.31
¯417.04, 7.64, 312.36
416.77, 7.68, 311.18
416.01, 7.58, 307.81
415.35, 7.60, 304.89
414.97, 7.75, 303.26
415.02, 8.02, 303.56
415.03, 8.28, 303.70
415.02, 8.53, 303.75
415.00, 8.79, 303.73
414.96, 9.04, 303.64
414.89, 9.30, 303.41
418.55, 7.19, 319.14
418.51, 7.20, 318.97
418.46, 7.21, 318.80
418.42, 7.23, 318.62
418.38, 7.25, 318.45
418.33, 7.28, 318.27
418.28, 7.29, 318.05
418.22, 7.32, 317.83
418.16, 7.34, 317.56
418.09, 7.36, 317.27
418.02, 7.39, 316.99
417.94, 7.41, 316.67
417.84, 7.44, 316.28
417.75, 7.47, 315.89
417.62, 7.50, 315.38
417.49, 7.53, 314.84
417.33, 7.56, 314.17
417.14, 7.60, 313.40
416.92, 7.63, 312.47
416.63, 7.67, 311.30
415.86, 7.58, 308.06
415.17, 7.59, 305.16
414.70, 7.73, 303.24
414.77, 8.00, 303.61
414.78, 8.26, 303.76
414.78, 8.52, 303.82
414.76, 8.77, 303.81
414.72, 9.02, 303.73
414.65, 9.28, 303.52
418.49, 7.19, 319.16
418.45, 7.20, 319.00
418.40, 7.21, 318.82
418.36, 7.23, 318.65
418.31, 7.25, 318.48
418.27, 7.28, 318.30
418.21, 7.29, 318.08
418.15, 7.32, 317.86
418.08, 7.34, 317.59
418.01, 7.36, 317.31
417.94, 7.39, 317.03
¯417.86, 7.41, 316.71
417.76, 7.44, 316.33
417.66, 7.47, 315.94
417.53, 7.50, 315.44
417.39, 7.53, 314.91
417.22, 7.56, 314.25
417.03, 7.59, 313.49
416.79, 7.63, 312.57
416.50, 7.67, 311.41
415.72, 7.58, 308.31
415.00, 7.59, 305.43
414.43, 7.71, 303.22
414.52, 7.99, 303.66
414.54, 8.25, 303.82
414.54, 8.50, 303.89
414.52, 8.75, 303.89
414.48, 9.00, 303.81
414.42, 9.26, 303.63
418.44, 7.18, 319.18
418.39, 7.20, 319.02
418.34, 7.21, 318.85
418.30, 7.23, 318.67
418.25, 7.25, 318.51
418.20, 7.27, 318.33
418.14, 7.29, 318.11
418.08, 7.32, 317.89
418.01, 7.33, 317.63
417.94, 7.35, 317.35
417.86, 7.38, 317.08
417.77, 7.41, 316.76
417.67, 7.43, 316.38
417.57, 7.47, 316.00
417.44, 7.49, 315.50
417.29, 7.53, 314.98
417.12, 7.56, 314.33
416.92, 7.59, 313.58
416.67, 7.63, 312.67
416.37, 7.66, 311.53
415.58, 7.59, 308.55
414.84, 7.59, 305.74
414.00, 7.65, 302.62
414.27, 7.97, 303.71
414.29, 8.23, 303.88
414.30, 8.48, 303.96
414.28, 8.73, 303.96
414.24, 8.99, 303.89
414.18, 9.24, 303.73
414.03, 9.51, 303.24
418.38, 7.18, 319.20
418.33, 7.19, 319.04
418.29, 7.21, 318.87
¯418.24, 7.22, 318.70
418.19, 7.25, 318.53
418.14, 7.27, 318.36
418.08, 7.29, 318.14
418.01, 7.31, 317.93
417.94, 7.33, 317.67
417.86, 7.35, 317.39
417.78, 7.38, 317.12
417.69, 7.41, 316.81
417.59, 7.43, 316.43
417.48, 7.47, 316.06
417.34, 7.49, 315.57
417.20, 7.52, 315.05
417.02, 7.55, 314.41
416.81, 7.59, 313.67
416.55, 7.62, 312.77
416.24, 7.66, 311.65
415.44, 7.58, 308.77
415.22, 7.73, 308.02
415.22, 7.93, 308.07
415.21, 8.13, 308.07
415.18, 8.33, 308.02
414.05, 8.46, 304.02
414.04, 8.71, 304.03
414.00, 8.97, 303.97
413.94, 9.22, 303.82
413.81, 9.49, 303.41
418.32, 7.18, 319.23
418.28, 7.19, 319.07
418.23, 7.21, 318.90
418.18, 7.22, 318.72
418.13, 7.25, 318.56
418.07, 7.27, 318.39
418.01, 7.29, 318.17
417.95, 7.31, 317.96
417.87, 7.33, 317.71
417.79, 7.35, 317.43
417.71, 7.38, 317.16
417.62, 7.41, 316.85
417.51, 7.43, 316.48
417.39, 7.46, 316.11
417.25, 7.49, 315.63
417.10, 7.52, 315.12
416.91, 7.55, 314.49
416.70, 7.58, 313.76
416.44, 7.62, 312.87
416.11, 7.66, 311.77
415.72, 7.70, 310.43
415.05, 7.72, 308.16
415.03, 7.92, 308.12
415.00, 8.11, 308.07
¯414.97, 8.31, 308.03
414.14, 8.47, 305.22
414.16, 8.70, 305.34
414.18, 8.94, 305.47
414.20, 9.17, 305.59
414.21, 9.40, 305.71
418.27, 7.18, 319.25
418.22, 7.19, 319.09
418.17, 7.20, 318.92
418.12, 7.22, 318.75
418.06, 7.24, 318.59
418.01, 7.27, 318.42
417.94, 7.28, 318.20
417.88, 7.31, 318.00
417.80, 7.33, 317.74
417.72, 7.35, 317.47
417.63, 7.38, 317.21
417.54, 7.41, 316.90
417.42, 7.43, 316.54
417.31, 7.46, 316.17
417.16, 7.49, 315.69
417.01, 7.52, 315.20
416.81, 7.55, 314.57
416.59, 7.58, 313.85
416.32, 7.62, 312.97
415.99, 7.65, 311.89
415.58, 7.70, 310.57
414.85, 7.70, 308.16
414.82, 7.90, 308.12
414.79, 8.10, 308.08
414.76, 8.30, 308.04
414.34, 8.48, 306.70
414.35, 8.70, 306.79
414.32, 8.91, 306.73
414.26, 9.14, 306.59
414.14, 9.37, 306.25
418.21, 7.17, 319.27
418.17, 7.19, 319.12
418.11, 7.20, 318.95
418.06, 7.22, 318.78
418.00, 7.24, 318.62
417.95, 7.26, 318.45
417.88, 7.28, 318.24
417.81, 7.31, 318.03
417.73, 7.33, 317.78
417.64, 7.35, 317.52
417.56, 7.38, 317.25
417.46, 7.40, 316.95
417.34, 7.43, 316.59
417.22, 7.46, 316.23
417.07, 7.48, 315.76
¯416.91, 7.52, 315.27
416.72, 7.55, 314.66
416.49, 7.58, 313.94
416.21, 7.61, 313.07
415.86, 7.65, 312.01
415.45, 7.69, 310.71
414.64, 7.68, 308.17
414.61, 7.88, 308.13
414.58, 8.08, 308.09
414.55, 8.28, 308.04
414.15, 8.46, 306.84
414.14, 8.68, 306.83
414.10, 8.90, 306.77
414.04, 9.12, 306.63
413.92, 9.35, 306.33
418.16, 7.17, 319.29
418.11, 7.19, 319.15
418.05, 7.20, 318.98
418.00, 7.21, 318.81
417.94, 7.24, 318.65
417.88, 7.26, 318.48
417.81, 7.28, 318.27
417.74, 7.30, 318.07
417.66, 7.32, 317.82
417.57, 7.35, 317.56
417.48, 7.37, 317.30
417.38, 7.40, 317.00
417.26, 7.43, 316.65
417.14, 7.46, 316.29
416.98, 7.48, 315.82
416.82, 7.52, 315.34
416.62, 7.54, 314.74
416.38, 7.58, 314.03
416.10, 7.61, 313.18
415.74, 7.64, 312.12
415.32, 7.69, 310.86
414.43, 7.66, 308.18
414.40, 7.86, 308.13
414.37, 8.06, 308.09
414.34, 8.27, 308.05
413.93, 8.44, 306.86
413.92, 8.66, 306.86
413.88, 8.88, 306.81
413.82, 9.10, 306.68
413.71, 9.33, 306.40
418.11, 7.17, 319.31
418.06, 7.19, 319.17
418.00, 7.20, 319.01
417.94, 7.21, 318.83
417.88, 7.24, 318.68
417.82, 7.26, 318.51
¯417.75, 7.28, 318.31
417.68, 7.30, 318.10
417.59, 7.32, 317.86
417.50, 7.34, 317.60
417.41, 7.37, 317.34
417.31, 7.40, 317.05
417.18, 7.42, 316.70
417.06, 7.46, 316.35
416.90, 7.48, 315.89
416.73, 7.51, 315.42
416.52, 7.54, 314.82
416.28, 7.57, 314.13
415.99, 7.61, 313.28
415.62, 7.64, 312.24
415.19, 7.68, 311.00
414.22, 7.64, 308.18
414.19, 7.84, 308.14
414.16, 8.05, 308.10
414.13, 8.25, 308.06
413.71, 8.43, 306.89
413.70, 8.65, 306.90
413.66, 8.87, 306.84
413.60, 9.09, 306.72
413.50, 9.32, 306.47
423.85, 6.91, 327.17
423.93, 6.94, 327.27
424.02, 6.98, 327.37
424.11, 7.01, 327.47
424.20, 7.04, 327.58
424.30, 7.08, 327.69
424.40, 7.12, 327.81
424.51, 7.16, 327.93
424.62, 7.20, 328.06
424.72, 7.25, 328.18
424.81, 7.31, 328.28
424.90, 7.36, 328.40
425.00, 7.42, 328.51
425.10, 7.49, 328.63
425.20, 7.55, 328.75
425.31, 7.62, 328.88
425.42, 7.69, 329.02
425.54, 7.76, 329.16
425.66, 7.84, 329.30
425.81, 7.92, 329.47
426.18, 7.96, 329.90
423.92, 6.91, 327.14
424.00, 6.94, 327.24
424.09, 6.97, 327.34
424.18, 7.01, 327.44
424.28, 7.04, 327.55
424.37, 7.08, 327.66
¯424.48, 7.12, 327.78
424.59, 7.16, 327.90
424.70, 7.20, 328.03
424.81, 7.25, 328.15
424.90, 7.30, 328.26
425.00, 7.36, 328.37
425.10, 7.42, 328.49
425.20, 7.48, 328.61
425.31, 7.55, 328.73
425.42, 7.62, 328.86
425.54, 7.69, 329.00
425.66, 7.76, 329.14
425.79, 7.84, 329.29
426.16, 7.88, 329.69
423.98, 6.91, 327.11
424.07, 6.94, 327.21
424.16, 6.97, 327.31
424.25, 7.00, 327.41
424.35, 7.04, 327.52
424.45, 7.08, 327.63
424.56, 7.12, 327.75
424.67, 7.16, 327.87
424.78, 7.20, 328.00
424.90, 7.24, 328.13
425.00, 7.30, 328.24
425.10, 7.36, 328.35
425.20, 7.42, 328.46
425.31, 7.48, 328.58
425.42, 7.55, 328.71
425.53, 7.62, 328.84
425.65, 7.69, 328.97
425.78, 7.76, 329.12
426.13, 7.80, 329.49
426.54, 7.84, 329.93
424.05, 6.90, 327.08
424.14, 6.93, 327.18
424.23, 6.97, 327.28
424.32, 7.00, 327.38
424.42, 7.04, 327.49
424.53, 7.07, 327.60
424.64, 7.11, 327.72
424.75, 7.15, 327.84
424.87, 7.20, 327.96
424.99, 7.24, 328.10
425.10, 7.29, 328.21
425.20, 7.35, 328.32
425.30, 7.42, 328.44
425.41, 7.48, 328.56
425.52, 7.54, 328.69
425.64, 7.61, 328.82
425.77, 7.69, 328.95
¯426.10, 7.72, 329.30
426.50, 7.75, 329.71
424.11, 6.90, 327.05
424.20, 6.93, 327.15
424.30, 6.96, 327.25
424.40, 7.00, 327.35
424.50, 7.03, 327.46
424.60, 7.07, 327.57
424.72, 7.11, 327.68
424.83, 7.15, 327.81
424.95, 7.19, 327.93
425.08, 7.24, 328.07
425.19, 7.29, 328.19
425.30, 7.35, 328.30
425.41, 7.41, 328.42
425.52, 7.48, 328.54
425.64, 7.54, 328.66
425.76, 7.61, 328.79
426.06, 7.65, 329.11
426.46, 7.67, 329.51
426.90, 7.71, 329.96
424.18, 6.90, 327.02
424.27, 6.93, 327.12
424.37, 6.96, 327.21
424.47, 7.00, 327.32
424.57, 7.03, 327.42
424.68, 7.07, 327.53
424.80, 7.11, 327.65
424.91, 7.15, 327.77
425.04, 7.19, 327.90
425.17, 7.24, 328.03
425.29, 7.29, 328.16
425.40, 7.35, 328.27
425.51, 7.41, 328.39
425.63, 7.47, 328.51
425.75, 7.54, 328.64
426.03, 7.57, 328.92
426.42, 7.60, 329.30
426.85, 7.62, 329.73
424.25, 6.89, 326.99
424.34, 6.92, 327.08
424.44, 6.96, 327.18
424.54, 6.99, 327.28
424.65, 7.03, 327.39
424.76, 7.07, 327.50
424.88, 7.10, 327.62
425.00, 7.15, 327.74
425.12, 7.19, 327.86
425.26, 7.23, 328.00
425.39, 7.28, 328.13
425.50, 7.34, 328.25
¯425.62, 7.40, 328.36
425.74, 7.47, 328.49
426.00, 7.50, 328.74
426.38, 7.52, 329.10
426.80, 7.54, 329.52
427.29, 7.57, 329.99
424.31, 6.89, 326.96
424.41, 6.92, 327.05
424.51, 6.95, 327.15
424.62, 6.99, 327.25
424.72, 7.03, 327.36
424.84, 7.06, 327.47
424.96, 7.10, 327.58
425.08, 7.14, 327.70
425.21, 7.19, 327.83
425.35, 7.23, 327.96
425.49, 7.28, 328.10
425.61, 7.34, 328.22
425.73, 7.40, 328.34
425.97, 7.44, 328.57
426.33, 7.45, 328.91
426.75, 7.47, 329.30
427.23, 7.48, 329.75
424.38, 6.89, 326.92
424.48, 6.92, 327.02
424.58, 6.95, 327.11
424.69, 6.99, 327.22
424.80, 7.02, 327.32
424.92, 7.06, 327.43
425.04, 7.10, 327.55
425.16, 7.14, 327.67
425.30, 7.18, 327.79
425.44, 7.23, 327.93
425.58, 7.28, 328.07
425.72, 7.33, 328.19
425.93, 7.37, 328.39
426.29, 7.38, 328.72
426.70, 7.39, 329.10
427.16, 7.40, 329.52
427.66, 7.43, 329.98
424.45, 6.88, 326.89
424.55, 6.91, 326.98
424.65, 6.95, 327.08
424.76, 6.98, 327.18
424.88, 7.02, 327.29
425.00, 7.06, 327.40
425.12, 7.10, 327.51
425.25, 7.14, 327.63
425.39, 7.18, 327.76
425.53, 7.23, 327.89
425.68, 7.27, 328.03
¯425.88, 7.31, 328.22
426.20, 7.33, 328.50
426.56, 7.34, 328.82
426.95, 7.36, 329.17
427.40, 7.38, 329.58
434.36, 6.18, 335.65
424.52, 6.88, 326.85
424.62, 6.91, 326.95
424.73, 6.94, 327.04
424.84, 6.98, 327.14
424.95, 7.01, 327.25
425.08, 7.05, 327.36
425.20, 7.09, 327.47
425.33, 7.13, 327.59
425.47, 7.18, 327.72
425.62, 7.22, 327.85
425.77, 7.27, 327.99
426.04, 7.29, 328.22
426.37, 7.31, 328.51
426.74, 7.32, 328.84
427.16, 7.34, 329.20
427.63, 7.36, 329.61
434.21, 6.25, 335.22
424.58, 6.87, 326.82
424.69, 6.91, 326.91
424.80, 6.94, 327.01
424.91, 6.97, 327.11
425.03, 7.01, 327.21
425.16, 7.05, 327.32
425.28, 7.09, 327.44
425.42, 7.13, 327.56
425.56, 7.17, 327.68
425.71, 7.22, 327.81
425.92, 7.25, 327.99
426.20, 7.28, 328.23
426.55, 7.29, 328.53
426.93, 7.30, 328.86
427.37, 7.32, 329.23
431.90, 6.53, 333.00
434.08, 6.32, 334.82
424.65, 6.87, 326.78
424.76, 6.90, 326.87
424.87, 6.94, 326.97
424.99, 6.97, 327.07
425.11, 7.01, 327.18
425.24, 7.04, 327.28
425.37, 7.08, 327.40
425.51, 7.13, 327.52
425.65, 7.17, 327.64
425.82, 7.21, 327.78
426.07, 7.24, 327.99
¯426.36, 7.26, 328.24
426.72, 7.27, 328.54
427.13, 7.28, 328.88
427.59, 7.30, 329.26
431.84, 6.58, 332.71
433.94, 6.39, 334.42
424.72, 6.86, 326.75
424.83, 6.90, 326.84
424.94, 6.93, 326.93
425.06, 6.97, 327.03
425.19, 7.00, 327.14
425.32, 7.04, 327.25
425.45, 7.08, 327.36
425.59, 7.12, 327.48
425.74, 7.17, 327.60
425.96, 7.19, 327.78
426.22, 7.22, 327.99
426.53, 7.24, 328.25
426.91, 7.25, 328.55
427.34, 7.26, 328.90
428.24, 7.19, 329.63
431.78, 6.63, 332.42
433.80, 6.46, 334.04
439.21, 5.80, 338.33
424.79, 6.86, 326.71
424.90, 6.89, 326.80
425.02, 6.93, 326.89
425.14, 6.96, 326.99
425.27, 7.00, 327.10
425.40, 7.04, 327.21
425.54, 7.08, 327.32
425.68, 7.12, 327.44
425.86, 7.15, 327.58
426.11, 7.18, 327.78
426.38, 7.20, 328.00
426.70, 7.22, 328.25
427.10, 7.23, 328.57
427.55, 7.24, 328.92
430.70, 6.71, 331.35
431.78, 6.67, 332.20
433.70, 6.52, 333.69
438.72, 5.93, 337.58
424.86, 6.86, 326.67
424.97, 6.89, 326.76
425.09, 6.92, 326.86
425.22, 6.96, 326.95
425.34, 6.99, 327.06
425.48, 7.03, 327.17
425.62, 7.07, 327.28
425.77, 7.11, 327.40
426.00, 7.14, 327.58
¯426.26, 7.16, 327.78
426.54, 7.18, 328.00
426.88, 7.20, 328.26
427.30, 7.21, 328.58
427.91, 7.18, 329.05
430.75, 6.73, 331.18
431.72, 6.71, 331.93
433.64, 6.57, 333.38
438.37, 6.04, 336.96
424.93, 6.85, 326.63
425.04, 6.88, 326.72
425.17, 6.92, 326.82
425.29, 6.95, 326.91
425.42, 6.99, 327.02
425.56, 7.03, 327.12
425.71, 7.07, 327.24
425.90, 7.10, 327.38
426.15, 7.12, 327.57
426.42, 7.14, 327.78
426.71, 7.16, 328.00
427.06, 7.18, 328.26
427.50, 7.18, 328.59
429.97, 6.77, 330.40
430.80, 6.75, 331.02
431.65, 6.76, 331.66
433.54, 6.62, 333.05
438.03, 6.14, 336.37
