žVERSION 0.7
FIELDS x y z
SIZE 8 8 8
TYPE F F F
COUNT 1 1 1
WIDTH 2271
HEIGHT 1
VIEWPOINT 349.97, 9.02, 314.92 1 368.55, 4.76, 322.78
POINTS 2271
DATA ascii
372.89, 2.66, 316.59
373.21, 2.69, 316.35
373.55, 2.73, 316.10
373.91, 2.77, 315.82
374.26, 2.82, 315.56
374.50, 2.91, 315.38
374.74, 3.00, 315.19
375.00, 3.09, 314.99
375.31, 3.19, 314.76
375.35, 3.33, 314.72
375.38, 3.47, 314.69
375.41, 3.62, 314.66
375.44, 3.76, 314.62
¯375.48, 3.91, 314.59
375.51, 4.06, 314.56
375.54, 4.20, 314.52
375.58, 4.35, 314.49
375.61, 4.50, 314.46
375.65, 4.65, 314.42
370.22, 2.49, 318.50
370.37, 2.49, 318.38
370.54, 2.50, 318.25
370.71, 2.51, 318.12
370.89, 2.52, 317.98
371.09, 2.53, 317.83
371.29, 2.54, 317.68
371.50, 2.56, 317.52
371.73, 2.57, 317.34
371.97, 2.59, 317.16
372.23, 2.61, 316.96
372.52, 2.63, 316.74
372.82, 2.66, 316.50
373.15, 2.68, 316.25
373.49, 2.72, 315.99
373.85, 2.76, 315.71
374.18, 2.81, 315.46
374.42, 2.90, 315.27
374.66, 2.99, 315.08
374.92, 3.09, 314.88
375.21, 3.18, 314.65
375.24, 3.33, 314.62
375.27, 3.47, 314.59
375.30, 3.61, 314.55
375.34, 3.76, 314.52
375.37, 3.90, 314.49
375.40, 4.05, 314.45
375.43, 4.20, 314.42
375.47, 4.35, 314.38
375.50, 4.50, 314.35
375.54, 4.65, 314.31
370.18, 2.48, 318.44
370.33, 2.49, 318.32
370.49, 2.50, 318.20
370.66, 2.51, 318.06
370.84, 2.52, 317.92
371.04, 2.52, 317.77
371.24, 2.54, 317.61
371.45, 2.55, 317.45
371.67, 2.57, 317.27
371.91, 2.59, 317.08
372.17, 2.61, 316.88
372.45, 2.63, 316.66
372.76, 2.65, 316.42
373.09, 2.68, 316.15
¯373.42, 2.71, 315.89
373.78, 2.75, 315.61
374.10, 2.81, 315.35
374.33, 2.89, 315.17
374.58, 2.98, 314.97
374.83, 3.08, 314.77
375.10, 3.18, 314.55
375.13, 3.32, 314.52
375.17, 3.46, 314.48
375.20, 3.61, 314.45
375.23, 3.75, 314.42
375.26, 3.90, 314.38
375.30, 4.04, 314.35
375.33, 4.19, 314.31
375.36, 4.34, 314.28
375.40, 4.49, 314.24
375.43, 4.64, 314.20
370.13, 2.48, 318.39
370.28, 2.49, 318.27
370.44, 2.50, 318.14
370.61, 2.50, 318.01
370.79, 2.51, 317.86
370.98, 2.52, 317.71
371.18, 2.53, 317.54
371.39, 2.55, 317.38
371.61, 2.57, 317.20
371.85, 2.58, 317.01
372.11, 2.60, 316.80
372.39, 2.62, 316.57
372.68, 2.65, 316.33
373.02, 2.67, 316.06
373.36, 2.70, 315.79
373.72, 2.74, 315.50
374.02, 2.80, 315.25
374.25, 2.89, 315.06
374.49, 2.98, 314.87
374.74, 3.07, 314.66
374.99, 3.17, 314.45
375.03, 3.32, 314.41
375.06, 3.46, 314.38
375.09, 3.60, 314.34
375.12, 3.75, 314.31
375.16, 3.89, 314.28
375.19, 4.04, 314.24
375.22, 4.18, 314.20
375.26, 4.33, 314.17
375.29, 4.48, 314.13
375.32, 4.63, 314.10
370.09, 2.48, 318.34
370.23, 2.49, 318.22
370.39, 2.49, 318.09
¯370.56, 2.50, 317.95
370.74, 2.51, 317.80
370.93, 2.52, 317.64
371.13, 2.53, 317.48
371.33, 2.55, 317.31
371.55, 2.56, 317.13
371.79, 2.58, 316.93
372.04, 2.60, 316.72
372.32, 2.62, 316.49
372.61, 2.64, 316.25
372.95, 2.66, 315.98
373.29, 2.69, 315.69
373.65, 2.73, 315.40
373.94, 2.79, 315.15
374.17, 2.88, 314.96
374.41, 2.97, 314.76
374.66, 3.06, 314.55
374.80, 3.18, 314.42
374.85, 3.32, 314.37
374.90, 3.46, 314.32
374.97, 3.60, 314.25
375.02, 3.74, 314.21
375.05, 3.89, 314.17
375.08, 4.03, 314.13
375.12, 4.18, 314.10
375.15, 4.33, 314.06
375.18, 4.47, 314.03
375.21, 4.62, 313.99
370.04, 2.48, 318.29
370.19, 2.48, 318.16
370.34, 2.49, 318.03
370.51, 2.50, 317.89
370.68, 2.51, 317.74
370.87, 2.52, 317.58
371.07, 2.53, 317.41
371.28, 2.54, 317.24
371.49, 2.56, 317.06
371.73, 2.57, 316.86
371.98, 2.59, 316.64
372.25, 2.61, 316.41
372.54, 2.64, 316.17
372.87, 2.66, 315.89
373.22, 2.69, 315.59
373.58, 2.72, 315.29
373.86, 2.79, 315.05
374.09, 2.87, 314.85
374.32, 2.96, 314.65
374.55, 3.06, 314.45
374.60, 3.19, 314.40
374.65, 3.33, 314.35
374.70, 3.47, 314.30
¯374.75, 3.61, 314.25
374.81, 3.74, 314.19
374.88, 3.88, 314.12
374.95, 4.03, 314.05
375.01, 4.17, 313.99
375.04, 4.32, 313.96
375.08, 4.47, 313.92
375.11, 4.62, 313.88
369.99, 2.48, 318.24
370.14, 2.48, 318.11
370.29, 2.49, 317.98
370.45, 2.50, 317.84
370.63, 2.51, 317.68
370.81, 2.51, 317.52
371.01, 2.52, 317.35
371.22, 2.54, 317.17
371.44, 2.55, 316.99
371.67, 2.57, 316.78
371.92, 2.59, 316.57
372.18, 2.61, 316.34
372.46, 2.64, 316.09
372.79, 2.66, 315.81
373.16, 2.68, 315.49
373.51, 2.71, 315.18
373.78, 2.78, 314.94
374.00, 2.86, 314.75
374.24, 2.95, 314.54
374.36, 3.07, 314.42
374.41, 3.20, 314.38
374.46, 3.34, 314.33
374.51, 3.47, 314.28
374.55, 3.61, 314.23
374.60, 3.75, 314.17
374.65, 3.89, 314.12
374.72, 4.03, 314.06
374.79, 4.17, 313.99
374.86, 4.31, 313.92
374.93, 4.46, 313.85
375.00, 4.61, 313.78
369.94, 2.47, 318.19
370.09, 2.48, 318.06
370.24, 2.49, 317.92
370.40, 2.49, 317.78
370.57, 2.50, 317.63
370.76, 2.51, 317.46
370.95, 2.52, 317.29
371.16, 2.53, 317.10
371.37, 2.55, 316.92
371.60, 2.57, 316.71
371.85, 2.58, 316.49
372.11, 2.61, 316.26
¯372.39, 2.63, 316.01
372.71, 2.65, 315.72
373.09, 2.67, 315.39
373.44, 2.71, 315.08
373.70, 2.77, 314.84
373.92, 2.86, 314.64
374.13, 2.95, 314.45
374.18, 3.08, 314.40
374.22, 3.21, 314.35
374.27, 3.35, 314.30
374.32, 3.48, 314.25
374.36, 3.62, 314.20
374.41, 3.75, 314.15
374.46, 3.89, 314.10
374.51, 4.03, 314.05
374.56, 4.17, 314.00
374.63, 4.31, 313.93
374.69, 4.46, 313.86
374.76, 4.60, 313.79
369.90, 2.47, 318.14
370.04, 2.48, 318.01
370.19, 2.48, 317.87
370.35, 2.49, 317.73
370.52, 2.50, 317.57
370.70, 2.51, 317.41
370.89, 2.52, 317.23
371.10, 2.53, 317.04
371.31, 2.54, 316.85
371.54, 2.56, 316.64
371.78, 2.58, 316.42
372.04, 2.60, 316.19
372.31, 2.63, 315.94
372.63, 2.65, 315.64
373.01, 2.66, 315.30
373.37, 2.70, 314.98
373.62, 2.76, 314.74
373.84, 2.85, 314.54
373.95, 2.96, 314.43
374.00, 3.09, 314.38
374.04, 3.22, 314.33
374.09, 3.35, 314.28
374.13, 3.49, 314.23
374.18, 3.62, 314.18
374.22, 3.76, 314.13
374.27, 3.89, 314.08
374.32, 4.03, 314.03
374.36, 4.17, 313.98
374.41, 4.31, 313.93
374.47, 4.45, 313.87
374.53, 4.60, 313.80
369.85, 2.47, 318.09
¯369.99, 2.48, 317.96
370.14, 2.48, 317.82
370.29, 2.49, 317.67
370.46, 2.50, 317.51
370.64, 2.51, 317.35
370.83, 2.51, 317.17
371.04, 2.52, 316.98
371.25, 2.54, 316.78
371.48, 2.56, 316.57
371.71, 2.57, 316.35
371.96, 2.60, 316.11
372.23, 2.62, 315.86
372.55, 2.64, 315.56
372.93, 2.66, 315.21
373.29, 2.69, 314.87
373.54, 2.76, 314.64
373.74, 2.85, 314.45
373.78, 2.97, 314.40
373.82, 3.10, 314.35
373.86, 3.23, 314.31
373.91, 3.36, 314.26
373.95, 3.49, 314.21
373.99, 3.62, 314.16
374.04, 3.76, 314.11
374.08, 3.89, 314.06
374.13, 4.03, 314.01
374.17, 4.17, 313.96
374.22, 4.31, 313.91
374.27, 4.45, 313.85
374.31, 4.59, 313.80
369.80, 2.47, 318.04
369.94, 2.47, 317.91
370.08, 2.48, 317.77
370.24, 2.49, 317.62
370.41, 2.49, 317.46
370.58, 2.50, 317.29
370.77, 2.51, 317.11
370.98, 2.52, 316.91
371.19, 2.53, 316.71
371.41, 2.55, 316.50
371.64, 2.57, 316.27
371.89, 2.59, 316.04
372.16, 2.62, 315.78
372.47, 2.64, 315.48
372.84, 2.65, 315.13
373.22, 2.68, 314.77
373.45, 2.75, 314.54
373.56, 2.86, 314.43
373.61, 2.98, 314.38
373.65, 3.11, 314.33
373.69, 3.24, 314.28
¯373.73, 3.37, 314.24
373.77, 3.50, 314.19
373.81, 3.63, 314.14
373.86, 3.76, 314.09
373.90, 3.89, 314.04
373.94, 4.03, 313.99
373.99, 4.17, 313.94
374.03, 4.30, 313.89
374.08, 4.44, 313.84
374.12, 4.58, 313.78
369.75, 2.46, 317.99
369.89, 2.47, 317.86
370.03, 2.48, 317.72
370.18, 2.48, 317.56
370.35, 2.49, 317.40
370.52, 2.50, 317.23
370.71, 2.51, 317.05
370.91, 2.52, 316.85
371.13, 2.53, 316.64
371.35, 2.55, 316.43
371.57, 2.57, 316.20
371.82, 2.59, 315.96
372.08, 2.61, 315.71
372.39, 2.63, 315.40
372.76, 2.65, 315.04
373.14, 2.67, 314.66
373.36, 2.74, 314.45
373.40, 2.87, 314.40
373.44, 2.99, 314.36
373.48, 3.12, 314.31
373.52, 3.25, 314.26
373.56, 3.37, 314.22
373.60, 3.50, 314.17
373.64, 3.63, 314.12
373.68, 3.76, 314.07
373.72, 3.90, 314.02
373.76, 4.03, 313.97
373.81, 4.16, 313.92
373.85, 4.30, 313.87
373.89, 4.44, 313.82
373.94, 4.58, 313.77
369.70, 2.46, 317.94
369.83, 2.47, 317.81
369.98, 2.47, 317.66
370.13, 2.48, 317.51
370.29, 2.49, 317.35
370.46, 2.50, 317.18
370.65, 2.51, 316.99
370.85, 2.52, 316.79
371.06, 2.53, 316.58
371.28, 2.54, 316.36
¯371.50, 2.56, 316.13
371.74, 2.59, 315.89
372.00, 2.61, 315.63
372.31, 2.63, 315.32
372.67, 2.64, 314.96
373.07, 2.66, 314.56
373.19, 2.76, 314.43
373.23, 2.88, 314.38
373.27, 3.00, 314.34
373.31, 3.13, 314.29
373.35, 3.25, 314.24
373.39, 3.38, 314.19
373.43, 3.51, 314.15
373.47, 3.64, 314.10
373.51, 3.77, 314.05
373.55, 3.90, 314.00
373.59, 4.03, 313.95
373.63, 4.16, 313.90
373.67, 4.30, 313.85
373.71, 4.43, 313.80
373.76, 4.57, 313.75
369.65, 2.46, 317.90
369.78, 2.47, 317.76
369.92, 2.47, 317.61
370.07, 2.48, 317.46
370.23, 2.49, 317.30
370.40, 2.49, 317.12
370.59, 2.50, 316.93
370.78, 2.51, 316.73
370.99, 2.52, 316.51
371.21, 2.54, 316.29
371.43, 2.56, 316.07
371.67, 2.58, 315.82
371.92, 2.61, 315.56
372.23, 2.62, 315.24
372.58, 2.64, 314.88
372.98, 2.65, 314.47
373.03, 2.77, 314.41
373.07, 2.89, 314.36
373.11, 3.01, 314.31
373.15, 3.14, 314.27
373.18, 3.26, 314.22
373.22, 3.39, 314.17
373.26, 3.51, 314.13
373.30, 3.64, 314.08
373.34, 3.77, 314.03
373.37, 3.90, 313.98
373.41, 4.03, 313.93
373.45, 4.16, 313.88
373.49, 4.30, 313.83
373.54, 4.43, 313.78
¯373.58, 4.57, 313.73
369.60, 2.46, 317.85
369.73, 2.46, 317.71
369.87, 2.47, 317.57
370.02, 2.48, 317.41
370.17, 2.48, 317.24
370.34, 2.49, 317.07
370.52, 2.50, 316.88
370.72, 2.51, 316.67
370.92, 2.52, 316.45
371.14, 2.53, 316.23
371.36, 2.55, 316.00
371.59, 2.58, 315.75
371.84, 2.60, 315.48
372.14, 2.62, 315.17
372.49, 2.63, 314.80
372.83, 2.66, 314.45
372.86, 2.78, 314.40
372.90, 2.90, 314.35
372.94, 3.02, 314.30
372.98, 3.14, 314.25
373.02, 3.27, 314.20
373.06, 3.39, 314.15
373.09, 3.52, 314.11
373.13, 3.64, 314.06
373.17, 3.77, 314.01
373.21, 3.90, 313.96
373.24, 4.03, 313.92
373.28, 4.16, 313.87
373.32, 4.29, 313.82
373.36, 4.43, 313.77
373.40, 4.56, 313.71
369.55, 2.45, 317.80
369.68, 2.46, 317.66
369.81, 2.47, 317.52
369.96, 2.47, 317.36
370.11, 2.48, 317.19
370.28, 2.49, 317.01
370.46, 2.50, 316.82
370.65, 2.51, 316.61
370.86, 2.52, 316.39
371.07, 2.53, 316.16
371.28, 2.55, 315.93
371.51, 2.57, 315.68
371.76, 2.60, 315.41
372.06, 2.61, 315.09
372.41, 2.63, 314.72
372.66, 2.68, 314.44
372.70, 2.80, 314.39
372.73, 2.92, 314.34
372.77, 3.03, 314.29
¯372.81, 3.15, 314.25
372.85, 3.28, 314.20
372.88, 3.40, 314.15
372.92, 3.52, 314.10
372.96, 3.65, 314.05
373.00, 3.77, 314.00
373.04, 3.90, 313.95
373.08, 4.03, 313.90
373.12, 4.16, 313.85
373.15, 4.29, 313.80
373.19, 4.42, 313.75
373.23, 4.56, 313.70
369.49, 2.45, 317.76
369.62, 2.46, 317.62
369.76, 2.46, 317.47
369.90, 2.47, 317.31
370.06, 2.48, 317.14
370.22, 2.49, 316.96
370.39, 2.49, 316.76
370.58, 2.50, 316.56
370.79, 2.51, 316.33
371.00, 2.52, 316.09
371.21, 2.55, 315.86
371.44, 2.57, 315.61
371.68, 2.59, 315.34
371.97, 2.61, 315.02
372.32, 2.62, 314.64
372.50, 2.69, 314.43
372.53, 2.81, 314.38
372.57, 2.93, 314.33
372.61, 3.05, 314.29
372.64, 3.16, 314.24
372.68, 3.28, 314.19
372.71, 3.41, 314.14
372.75, 3.53, 314.09
372.79, 3.65, 314.04
372.83, 3.78, 313.99
372.87, 3.90, 313.94
372.90, 4.03, 313.89
372.94, 4.16, 313.84
372.98, 4.29, 313.79
373.02, 4.42, 313.74
373.06, 4.55, 313.68
369.44, 2.45, 317.71
369.57, 2.46, 317.57
369.70, 2.46, 317.42
369.84, 2.47, 317.26
369.99, 2.48, 317.09
370.16, 2.48, 316.91
370.33, 2.49, 316.71
370.51, 2.50, 316.50
¯370.72, 2.51, 316.26
370.93, 2.52, 316.03
371.13, 2.54, 315.80
371.36, 2.56, 315.54
371.60, 2.59, 315.26
371.89, 2.61, 314.94
372.22, 2.62, 314.56
372.34, 2.71, 314.42
372.38, 2.82, 314.37
372.41, 2.94, 314.33
372.44, 3.06, 314.28
372.48, 3.17, 314.23
372.51, 3.29, 314.19
372.55, 3.41, 314.14
372.58, 3.53, 314.09
372.62, 3.66, 314.04
372.66, 3.78, 313.99
372.69, 3.90, 313.94
372.73, 4.03, 313.89
372.77, 4.16, 313.84
372.81, 4.29, 313.79
372.85, 4.41, 313.73
372.88, 4.55, 313.68
369.39, 2.45, 317.67
369.51, 2.45, 317.53
369.65, 2.46, 317.37
369.79, 2.47, 317.21
369.93, 2.47, 317.04
370.09, 2.48, 316.85
370.26, 2.49, 316.66
370.45, 2.50, 316.44
370.65, 2.50, 316.20
370.86, 2.51, 315.96
371.06, 2.54, 315.73
371.28, 2.56, 315.47
371.52, 2.58, 315.19
371.80, 2.60, 314.87
372.13, 2.61, 314.48
372.19, 2.72, 314.41
372.22, 2.83, 314.37
372.25, 2.95, 314.32
372.28, 3.07, 314.27
372.32, 3.18, 314.23
372.35, 3.30, 314.18
372.39, 3.42, 314.13
372.42, 3.54, 314.08
372.45, 3.66, 314.04
372.49, 3.78, 313.99
372.52, 3.91, 313.94
372.56, 4.03, 313.89
372.60, 4.16, 313.84
¯372.63, 4.28, 313.79
372.67, 4.41, 313.73
372.71, 4.54, 313.68
369.34, 2.44, 317.63
369.46, 2.45, 317.48
369.59, 2.46, 317.33
369.73, 2.46, 317.16
369.87, 2.47, 316.99
370.03, 2.48, 316.80
370.20, 2.48, 316.60
370.38, 2.49, 316.39
370.59, 2.50, 316.14
370.79, 2.51, 315.90
370.99, 2.53, 315.66
371.20, 2.55, 315.40
371.44, 2.58, 315.12
371.71, 2.60, 314.79
372.00, 2.62, 314.45
372.03, 2.73, 314.40
372.07, 2.85, 314.36
372.10, 2.96, 314.31
372.13, 3.08, 314.27
372.16, 3.19, 314.22
372.19, 3.31, 314.17
372.23, 3.43, 314.13
372.26, 3.54, 314.08
372.29, 3.66, 314.03
372.33, 3.79, 313.98
372.36, 3.91, 313.93
372.39, 4.03, 313.89
372.43, 4.16, 313.84
372.46, 4.28, 313.78
372.50, 4.41, 313.73
372.54, 4.54, 313.68
369.28, 2.44, 317.58
369.40, 2.45, 317.44
369.53, 2.45, 317.28
369.67, 2.46, 317.12
369.81, 2.47, 316.94
369.97, 2.47, 316.75
370.13, 2.48, 316.55
370.31, 2.49, 316.33
370.52, 2.49, 316.08
370.72, 2.50, 315.83
370.91, 2.53, 315.59
371.12, 2.55, 315.34
371.35, 2.57, 315.05
371.62, 2.59, 314.72
371.85, 2.63, 314.44
371.88, 2.75, 314.39
371.91, 2.86, 314.35
¯371.95, 2.97, 314.30
371.98, 3.08, 314.26
372.01, 3.20, 314.21
372.04, 3.32, 314.17
372.07, 3.43, 314.12
372.10, 3.55, 314.07
372.13, 3.67, 314.03
372.17, 3.79, 313.98
372.20, 3.91, 313.93
372.23, 4.03, 313.88
372.27, 4.15, 313.83
372.30, 4.28, 313.78
372.33, 4.40, 313.73
372.37, 4.53, 313.68
369.23, 2.44, 317.54
369.35, 2.45, 317.39
369.47, 2.45, 317.24
369.61, 2.46, 317.07
369.75, 2.46, 316.89
369.90, 2.47, 316.70
370.06, 2.48, 316.50
370.25, 2.48, 316.27
370.45, 2.49, 316.02
370.65, 2.50, 315.77
370.84, 2.52, 315.53
371.04, 2.54, 315.27
371.27, 2.57, 314.98
371.54, 2.59, 314.65
371.71, 2.65, 314.43
371.74, 2.76, 314.39
371.77, 2.87, 314.34
371.80, 2.98, 314.30
371.83, 3.09, 314.25
371.86, 3.21, 314.21
371.89, 3.32, 314.16
371.92, 3.44, 314.12
371.95, 3.55, 314.07
371.98, 3.67, 314.02
372.01, 3.79, 313.97
372.04, 3.91, 313.93
372.07, 4.03, 313.88
372.11, 4.15, 313.83
372.14, 4.28, 313.78
372.17, 4.40, 313.73
372.20, 4.53, 313.68
369.17, 2.44, 317.50
369.29, 2.44, 317.35
369.41, 2.45, 317.19
369.55, 2.45, 317.02
369.69, 2.46, 316.84
369.84, 2.47, 316.65
¯370.00, 2.48, 316.45
370.18, 2.48, 316.21
370.38, 2.48, 315.96
370.57, 2.49, 315.70
370.76, 2.51, 315.46
370.97, 2.54, 315.20
371.19, 2.56, 314.91
371.45, 2.58, 314.58
371.56, 2.66, 314.42
371.59, 2.77, 314.38
371.62, 2.88, 314.34
371.65, 2.99, 314.29
371.68, 3.10, 314.25
371.71, 3.22, 314.20
371.74, 3.33, 314.16
371.77, 3.44, 314.11
371.80, 3.56, 314.06
371.83, 3.68, 314.02
371.86, 3.79, 313.97
371.89, 3.91, 313.92
371.92, 4.03, 313.88
371.95, 4.15, 313.83
371.98, 4.28, 313.78
372.01, 4.40, 313.73
372.04, 4.52, 313.68
369.12, 2.44, 317.46
369.23, 2.44, 317.31
369.36, 2.45, 317.15
369.49, 2.45, 316.98
369.62, 2.46, 316.80
369.77, 2.46, 316.60
369.93, 2.47, 316.39
370.11, 2.47, 316.16
370.31, 2.48, 315.90
370.50, 2.49, 315.64
370.69, 2.51, 315.39
370.89, 2.53, 315.13
371.10, 2.56, 314.85
371.36, 2.58, 314.51
371.42, 2.67, 314.42
371.45, 2.78, 314.37
371.48, 2.89, 314.33
371.51, 3.00, 314.28
371.53, 3.11, 314.24
371.56, 3.22, 314.20
371.59, 3.34, 314.15
371.62, 3.45, 314.11
371.65, 3.56, 314.06
371.68, 3.68, 314.01
371.71, 3.80, 313.97
371.73, 3.91, 313.92
¯371.76, 4.03, 313.87
371.79, 4.15, 313.82
371.82, 4.27, 313.78
371.86, 4.40, 313.73
371.89, 4.52, 313.68
369.06, 2.43, 317.42
369.18, 2.44, 317.27
369.30, 2.44, 317.10
369.42, 2.45, 316.93
369.56, 2.46, 316.75
369.70, 2.46, 316.55
369.86, 2.47, 316.34
370.04, 2.47, 316.10
370.23, 2.47, 315.84
370.43, 2.48, 315.58
370.61, 2.50, 315.33
370.81, 2.53, 315.06
371.02, 2.55, 314.78
371.26, 2.57, 314.45
371.28, 2.68, 314.41
371.31, 2.79, 314.37
371.34, 2.90, 314.32
371.36, 3.01, 314.28
371.39, 3.12, 314.23
371.42, 3.23, 314.19
371.45, 3.34, 314.15
371.47, 3.45, 314.10
371.50, 3.57, 314.06
371.53, 3.68, 314.01
371.56, 3.80, 313.96
371.59, 3.91, 313.92
371.61, 4.03, 313.87
371.64, 4.15, 313.82
371.67, 4.27, 313.77
371.70, 4.39, 313.73
371.73, 4.52, 313.68
369.00, 2.43, 317.39
369.12, 2.44, 317.23
369.24, 2.44, 317.06
369.36, 2.45, 316.89
369.50, 2.45, 316.70
369.64, 2.46, 316.51
369.80, 2.46, 316.29
369.97, 2.46, 316.04
370.16, 2.47, 315.78
370.35, 2.47, 315.51
370.53, 2.50, 315.26
370.73, 2.52, 314.99
370.94, 2.54, 314.70
371.12, 2.59, 314.44
371.15, 2.69, 314.40
¯371.17, 2.80, 314.36
371.20, 2.91, 314.32
371.22, 3.02, 314.27
371.25, 3.13, 314.23
371.28, 3.24, 314.18
371.30, 3.35, 314.14
371.33, 3.46, 314.10
371.36, 3.57, 314.05
371.38, 3.69, 314.01
371.41, 3.80, 313.96
371.44, 3.92, 313.91
371.47, 4.03, 313.87
371.49, 4.15, 313.82
371.52, 4.27, 313.77
371.55, 4.39, 313.72
371.58, 4.51, 313.68
368.94, 2.43, 317.35
369.06, 2.43, 317.19
369.18, 2.44, 317.02
369.30, 2.44, 316.84
369.43, 2.45, 316.66
369.57, 2.46, 316.46
369.73, 2.46, 316.23
369.90, 2.46, 315.99
370.09, 2.46, 315.72
370.28, 2.47, 315.45
370.46, 2.49, 315.20
370.65, 2.51, 314.93
370.85, 2.54, 314.63
371.03, 2.58, 314.38
371.04, 2.69, 314.35
371.06, 2.80, 314.32
371.07, 2.91, 314.29
371.09, 3.02, 314.26
371.11, 3.13, 314.22
371.14, 3.24, 314.18
371.16, 3.35, 314.14
371.19, 3.46, 314.09
371.21, 3.58, 314.05
371.24, 3.69, 314.00
371.27, 3.80, 313.96
371.29, 3.92, 313.91
371.32, 4.03, 313.86
371.35, 4.15, 313.82
371.37, 4.27, 313.77
371.40, 4.39, 313.72
371.43, 4.51, 313.67
368.88, 2.43, 317.32
369.00, 2.43, 317.15
369.12, 2.44, 316.98
369.24, 2.44, 316.80
¯369.37, 2.45, 316.61
369.50, 2.45, 316.41
369.66, 2.45, 316.18
369.83, 2.45, 315.94
370.02, 2.46, 315.67
370.20, 2.46, 315.39
370.38, 2.48, 315.14
370.57, 2.51, 314.86
370.77, 2.53, 314.57
370.94, 2.58, 314.32
370.96, 2.68, 314.28
370.97, 2.80, 314.25
370.99, 2.91, 314.22
371.01, 3.02, 314.19
371.02, 3.13, 314.16
371.04, 3.24, 314.12
371.05, 3.35, 314.09
371.07, 3.47, 314.06
371.08, 3.58, 314.03
371.10, 3.69, 314.00
371.13, 3.80, 313.95
371.15, 3.92, 313.91
371.18, 4.03, 313.86
371.20, 4.15, 313.81
371.23, 4.27, 313.77
371.26, 4.38, 313.72
371.28, 4.50, 313.67
368.82, 2.43, 317.28
368.93, 2.43, 317.12
369.05, 2.43, 316.94
369.17, 2.44, 316.76
369.30, 2.44, 316.57
369.44, 2.45, 316.36
369.59, 2.45, 316.13
369.76, 2.45, 315.88
369.94, 2.45, 315.61
370.13, 2.46, 315.33
370.30, 2.48, 315.07
370.48, 2.50, 314.80
370.68, 2.52, 314.50
370.83, 2.58, 314.27
370.87, 2.68, 314.20
370.89, 2.79, 314.17
370.90, 2.90, 314.14
370.92, 3.01, 314.11
370.94, 3.12, 314.08
370.95, 3.23, 314.05
370.97, 3.35, 314.02
370.98, 3.46, 313.98
371.00, 3.57, 313.95
371.01, 3.69, 313.92
¯371.03, 3.80, 313.89
371.04, 3.91, 313.86
371.06, 4.03, 313.83
371.07, 4.15, 313.79
371.09, 4.26, 313.76
371.11, 4.38, 313.72
371.14, 4.50, 313.67
368.76, 2.43, 317.25
368.87, 2.43, 317.09
368.99, 2.43, 316.91
369.11, 2.44, 316.72
369.23, 2.44, 316.53
369.37, 2.44, 316.32
369.52, 2.44, 316.08
369.69, 2.44, 315.83
369.87, 2.45, 315.56
370.05, 2.45, 315.27
370.22, 2.47, 315.01
370.40, 2.49, 314.73
370.59, 2.52, 314.44
370.73, 2.58, 314.23
370.79, 2.67, 314.12
370.80, 2.78, 314.09
370.82, 2.89, 314.06
370.83, 3.00, 314.03
370.85, 3.11, 314.00
370.86, 3.23, 313.97
370.88, 3.34, 313.94
370.89, 3.45, 313.90
370.91, 3.57, 313.87
370.92, 3.68, 313.84
370.94, 3.79, 313.81
370.95, 3.91, 313.78
370.97, 4.02, 313.75
370.99, 4.14, 313.71
371.00, 4.26, 313.68
371.02, 4.38, 313.65
371.03, 4.49, 313.61
368.70, 2.43, 317.22
368.81, 2.43, 317.05
368.92, 2.43, 316.87
369.04, 2.43, 316.68
369.17, 2.44, 316.48
369.30, 2.44, 316.27
369.45, 2.44, 316.03
369.62, 2.44, 315.78
369.79, 2.44, 315.50
369.97, 2.44, 315.21
370.14, 2.46, 314.95
370.32, 2.49, 314.67
370.49, 2.52, 314.39
¯370.62, 2.58, 314.18
370.70, 2.66, 314.04
370.72, 2.77, 314.01
370.73, 2.88, 313.98
370.75, 2.99, 313.95
370.76, 3.11, 313.92
370.78, 3.22, 313.89
370.79, 3.33, 313.86
370.81, 3.44, 313.82
370.82, 3.56, 313.79
370.84, 3.67, 313.76
370.85, 3.79, 313.73
370.87, 3.90, 313.70
370.88, 4.02, 313.66
370.90, 4.14, 313.63
370.91, 4.25, 313.60
370.93, 4.37, 313.57
370.94, 4.49, 313.53
368.64, 2.43, 317.19
368.75, 2.43, 317.02
368.86, 2.43, 316.84
368.97, 2.43, 316.65
369.10, 2.44, 316.45
369.24, 2.43, 316.22
369.38, 2.44, 315.98
369.54, 2.44, 315.73
369.71, 2.44, 315.45
369.90, 2.44, 315.15
370.06, 2.46, 314.89
370.24, 2.48, 314.60
370.39, 2.52, 314.35
370.52, 2.58, 314.14
370.62, 2.65, 313.97
370.63, 2.76, 313.94
370.65, 2.87, 313.90
370.66, 2.99, 313.87
370.68, 3.10, 313.84
370.69, 3.21, 313.81
370.71, 3.32, 313.78
370.72, 3.44, 313.74
370.73, 3.55, 313.71
370.75, 3.67, 313.68
370.76, 3.78, 313.65
370.78, 3.90, 313.62
370.79, 4.01, 313.58
370.81, 4.13, 313.55
370.82, 4.25, 313.52
370.84, 4.37, 313.48
370.85, 4.48, 313.45
368.58, 2.43, 317.16
368.68, 2.43, 316.99
¯368.79, 2.43, 316.81
368.91, 2.43, 316.62
369.03, 2.43, 316.41
369.17, 2.43, 316.18
369.31, 2.43, 315.94
369.47, 2.43, 315.68
369.64, 2.43, 315.40
369.82, 2.43, 315.10
369.98, 2.45, 314.83
370.15, 2.47, 314.54
370.29, 2.52, 314.31
370.41, 2.58, 314.10
370.53, 2.64, 313.89
370.55, 2.75, 313.86
370.56, 2.87, 313.83
370.58, 2.98, 313.79
370.59, 3.09, 313.76
370.60, 3.20, 313.73
370.62, 3.32, 313.70
370.63, 3.43, 313.66
370.65, 3.54, 313.63
370.66, 3.66, 313.60
370.68, 3.77, 313.57
370.69, 3.89, 313.53
370.70, 4.01, 313.50
370.72, 4.12, 313.47
370.73, 4.24, 313.43
370.75, 4.36, 313.40
370.76, 4.48, 313.37
365.01, 2.48, 328.66
364.95, 2.47, 328.99
364.88, 2.46, 329.35
364.81, 2.45, 329.75
364.73, 2.43, 330.19
364.63, 2.42, 330.68
364.53, 2.39, 331.25
364.41, 2.37, 331.89
364.14, 2.18, 333.38
363.96, 2.13, 334.33
363.75, 2.07, 335.47
363.51, 2.01, 336.81
363.23, 1.95, 338.30
362.95, 1.93, 339.83
362.71, 1.98, 341.09
362.43, 2.03, 342.59
362.25, 2.18, 343.54
362.06, 2.35, 344.56
361.87, 2.55, 345.55
365.09, 2.48, 328.69
365.03, 2.47, 329.02
364.97, 2.45, 329.39
¯364.90, 2.44, 329.79
364.82, 2.43, 330.23
364.73, 2.41, 330.74
364.64, 2.39, 331.31
364.53, 2.36, 331.95
364.27, 2.17, 333.47
364.10, 2.12, 334.44
363.90, 2.06, 335.60
363.67, 1.99, 336.96
363.41, 1.94, 338.48
363.16, 1.93, 339.92
362.94, 1.98, 341.19
362.68, 2.04, 342.65
362.50, 2.18, 343.68
362.31, 2.35, 344.74
365.17, 2.47, 328.72
365.11, 2.46, 329.06
365.05, 2.45, 329.42
364.99, 2.44, 329.83
364.92, 2.42, 330.27
364.84, 2.40, 330.80
364.74, 2.38, 331.37
364.64, 2.36, 332.02
364.52, 2.33, 332.76
364.24, 2.11, 334.55
364.05, 2.04, 335.73
363.83, 1.98, 337.11
363.58, 1.91, 338.68
363.35, 1.91, 340.10
363.16, 1.98, 341.28
362.93, 2.04, 342.70
362.75, 2.18, 343.83
362.57, 2.34, 344.92
365.25, 2.47, 328.75
365.20, 2.46, 329.09
365.14, 2.45, 329.46
365.08, 2.43, 329.86
365.01, 2.42, 330.32
364.94, 2.40, 330.85
364.85, 2.37, 331.43
364.76, 2.35, 332.08
364.65, 2.32, 332.83
364.38, 2.09, 334.65
364.21, 2.03, 335.86
364.00, 1.96, 337.26
363.76, 1.89, 338.89
363.53, 1.87, 340.44
363.37, 1.96, 341.50
363.18, 2.05, 342.75
363.00, 2.17, 343.99
362.83, 2.33, 345.10
¯365.33, 2.47, 328.78
365.28, 2.46, 329.12
365.23, 2.44, 329.49
365.18, 2.43, 329.90
365.11, 2.41, 330.37
365.04, 2.39, 330.90
364.96, 2.37, 331.48
364.87, 2.34, 332.15
364.77, 2.31, 332.91
364.53, 2.08, 334.76
364.36, 2.02, 335.98
364.17, 1.94, 337.41
363.94, 1.87, 339.09
363.71, 1.83, 340.78
363.50, 1.85, 342.38
363.38, 2.00, 343.24
363.25, 2.16, 344.16
363.09, 2.33, 345.28
365.41, 2.46, 328.80
365.37, 2.45, 329.15
365.32, 2.44, 329.52
365.27, 2.43, 329.94
365.21, 2.40, 330.42
365.15, 2.38, 330.95
365.07, 2.36, 331.54
364.99, 2.33, 332.21
364.90, 2.30, 332.98
364.67, 2.07, 334.86
364.52, 2.00, 336.10
364.34, 1.93, 337.56
364.13, 1.85, 339.29
363.90, 1.79, 341.13
363.66, 1.76, 343.14
363.52, 1.89, 344.24
363.43, 2.09, 344.94
363.33, 2.30, 345.68
365.49, 2.46, 328.83
365.45, 2.45, 329.17
365.41, 2.44, 329.55
365.36, 2.42, 329.98
365.31, 2.40, 330.47
365.25, 2.38, 331.00
365.19, 2.35, 331.59
365.11, 2.33, 332.26
365.03, 2.29, 333.05
364.82, 2.06, 334.96
364.68, 1.99, 336.22
364.52, 1.91, 337.70
364.32, 1.82, 339.50
364.10, 1.75, 341.49
363.78, 1.59, 344.42
¯363.70, 1.79, 345.13
363.60, 1.98, 345.98
365.57, 2.46, 328.85
365.54, 2.45, 329.20
365.50, 2.43, 329.58
365.46, 2.41, 330.02
365.41, 2.39, 330.51
365.36, 2.37, 331.04
365.30, 2.35, 331.64
365.23, 2.32, 332.32
365.15, 2.29, 333.12
364.97, 2.05, 335.05
364.84, 1.97, 336.34
364.70, 1.90, 337.84
364.52, 1.80, 339.70
364.05, 1.30, 344.59
363.97, 1.48, 345.32
365.65, 2.46, 328.88
365.62, 2.44, 329.22
365.59, 2.43, 329.62
365.55, 2.41, 330.06
365.51, 2.39, 330.55
365.46, 2.37, 331.09
365.41, 2.34, 331.69
365.35, 2.31, 332.38
365.29, 2.28, 333.18
365.12, 2.03, 335.15
365.01, 1.96, 336.46
364.88, 1.88, 338.00
364.68, 1.70, 340.34
364.25, 1.17, 345.50
365.74, 2.45, 328.90
365.71, 2.44, 329.25
365.68, 2.42, 329.65
365.65, 2.40, 330.10
365.61, 2.38, 330.59
365.57, 2.36, 331.13
365.53, 2.34, 331.74
365.48, 2.31, 332.44
365.42, 2.27, 333.25
365.28, 2.02, 335.24
365.18, 1.94, 336.57
365.06, 1.86, 338.16
364.83, 1.53, 341.46
365.82, 2.45, 328.92
365.80, 2.44, 329.28
365.77, 2.42, 329.68
365.75, 2.40, 330.13
365.72, 2.38, 330.62
365.68, 2.35, 331.17
365.65, 2.33, 331.78
¯365.60, 2.30, 332.49
365.55, 2.26, 333.31
365.43, 2.01, 335.34
365.35, 1.93, 336.69
365.25, 1.83, 338.33
365.90, 2.45, 328.94
365.89, 2.43, 329.31
365.87, 2.41, 329.71
365.84, 2.39, 330.16
365.82, 2.37, 330.66
365.79, 2.35, 331.21
365.76, 2.32, 331.83
365.73, 2.29, 332.55
365.69, 2.25, 333.38
365.59, 1.99, 335.44
365.53, 1.91, 336.81
365.44, 1.81, 338.50
365.99, 2.44, 328.96
365.97, 2.43, 329.33
365.96, 2.41, 329.74
365.94, 2.39, 330.19
365.92, 2.37, 330.69
365.90, 2.34, 331.24
365.88, 2.32, 331.87
365.86, 2.28, 332.60
365.82, 2.24, 333.45
365.75, 1.98, 335.53
365.70, 1.90, 336.93
365.64, 1.79, 338.68
366.07, 2.44, 328.98
366.06, 2.42, 329.36
366.05, 2.40, 329.77
366.04, 2.38, 330.22
366.03, 2.36, 330.72
366.02, 2.34, 331.28
366.00, 2.31, 331.91
365.98, 2.28, 332.65
365.96, 2.23, 333.52
365.94, 2.17, 334.58
365.88, 1.88, 337.05
365.84, 1.76, 338.85
366.16, 2.44, 329.00
366.15, 2.42, 329.38
366.15, 2.40, 329.80
366.14, 2.38, 330.25
366.14, 2.36, 330.75
366.13, 2.33, 331.31
366.12, 2.30, 331.96
366.11, 2.27, 332.69
366.10, 2.22, 333.59
366.09, 2.16, 334.67
¯366.06, 1.86, 337.17
366.04, 1.74, 339.02
366.24, 2.43, 329.02
366.24, 2.41, 329.40
366.24, 2.39, 329.82
366.24, 2.37, 330.28
366.24, 2.35, 330.78
366.24, 2.33, 331.34
366.24, 2.30, 331.99
366.24, 2.26, 332.73
366.24, 2.21, 333.65
366.24, 2.14, 334.75
366.25, 1.85, 337.28
366.25, 1.71, 339.19
366.26, 1.37, 342.77
366.33, 2.43, 329.04
366.33, 2.41, 329.43
366.34, 2.39, 329.84
366.34, 2.37, 330.30
366.35, 2.35, 330.81
366.36, 2.32, 331.38
366.37, 2.29, 332.03
366.38, 2.26, 332.78
366.39, 2.20, 333.71
366.40, 2.13, 334.83
366.44, 1.83, 337.39
366.46, 1.69, 339.36
366.51, 1.37, 342.77
366.41, 2.42, 329.06
366.42, 2.40, 329.44
366.43, 2.38, 329.86
366.45, 2.36, 330.32
366.46, 2.34, 330.83
366.47, 2.32, 331.41
366.49, 2.28, 332.07
366.51, 2.25, 332.83
366.53, 2.19, 333.77
366.56, 2.12, 334.91
366.63, 1.81, 337.50
366.68, 1.66, 339.52
366.76, 1.38, 342.76
366.50, 2.42, 329.08
366.52, 2.40, 329.46
366.53, 2.38, 329.88
366.55, 2.36, 330.34
366.57, 2.34, 330.85
366.59, 2.31, 331.43
366.61, 2.28, 332.10
366.64, 2.24, 332.88
366.68, 2.18, 333.82
366.72, 2.11, 334.99
¯366.82, 1.79, 337.61
366.90, 1.64, 339.68
367.01, 1.38, 342.75
366.59, 2.41, 329.09
366.61, 2.39, 329.48
366.63, 2.38, 329.90
366.65, 2.35, 330.36
366.68, 2.33, 330.87
366.71, 2.30, 331.46
366.74, 2.27, 332.13
366.78, 2.23, 332.93
366.82, 2.17, 333.87
366.88, 2.09, 335.06
367.02, 1.78, 337.71
367.12, 1.62, 339.84
367.27, 1.38, 342.80
366.68, 2.41, 329.11
366.70, 2.39, 329.49
366.73, 2.37, 329.91
366.75, 2.35, 330.38
366.79, 2.33, 330.89
366.82, 2.30, 331.49
366.86, 2.27, 332.16
366.91, 2.22, 332.97
366.97, 2.16, 333.93
367.05, 2.08, 335.12
367.21, 1.76, 337.80
367.35, 1.59, 340.01
367.54, 1.34, 343.04
366.76, 2.41, 329.12
366.79, 2.39, 329.51
366.82, 2.37, 329.93
366.86, 2.35, 330.39
366.90, 2.32, 330.91
366.94, 2.29, 331.51
366.99, 2.26, 332.18
367.05, 2.21, 333.01
367.12, 2.15, 333.99
367.21, 2.07, 335.18
367.42, 1.74, 337.91
367.58, 1.56, 340.18
367.81, 1.30, 343.28
366.85, 2.40, 329.13
366.89, 2.38, 329.52
366.92, 2.36, 329.94
366.96, 2.34, 330.40
367.01, 2.32, 330.93
367.06, 2.29, 331.53
367.12, 2.25, 332.21
367.19, 2.20, 333.05
367.27, 2.14, 334.04
¯367.38, 2.06, 335.24
367.62, 1.72, 338.02
367.82, 1.53, 340.35
368.09, 1.27, 343.51
366.94, 2.40, 329.14
366.98, 2.38, 329.53
367.02, 2.36, 329.95
367.07, 2.34, 330.42
367.12, 2.31, 330.95
367.18, 2.28, 331.55
367.25, 2.25, 332.24
367.33, 2.19, 333.08
367.43, 2.13, 334.09
367.55, 2.05, 335.30
367.70, 1.93, 336.86
368.06, 1.51, 340.51
368.38, 1.23, 343.74
367.03, 2.39, 329.15
367.07, 2.37, 329.53
367.12, 2.36, 329.96
367.17, 2.33, 330.43
367.23, 2.31, 330.96
367.30, 2.28, 331.56
367.38, 2.24, 332.27
367.47, 2.19, 333.11
367.58, 2.12, 334.13
367.72, 2.04, 335.36
367.89, 1.92, 336.94
368.31, 1.48, 340.66
367.12, 2.39, 329.15
367.17, 2.37, 329.54
367.22, 2.35, 329.96
367.28, 2.33, 330.43
367.34, 2.30, 330.97
367.42, 2.27, 331.58
367.51, 2.23, 332.29
367.61, 2.18, 333.13
367.74, 2.11, 334.17
367.89, 2.02, 335.41
368.09, 1.90, 337.02
368.56, 1.45, 340.81
367.21, 2.39, 329.16
367.26, 2.37, 329.54
367.32, 2.35, 329.97
367.38, 2.33, 330.44
367.46, 2.30, 330.98
367.54, 2.27, 331.59
367.64, 2.22, 332.32
367.75, 2.17, 333.16
367.89, 2.10, 334.20
368.06, 2.01, 335.46
¯368.28, 1.89, 337.09
368.81, 1.43, 340.96
367.30, 2.38, 329.16
367.36, 2.36, 329.54
367.42, 2.34, 329.97
367.49, 2.32, 330.45
367.57, 2.29, 330.99
367.66, 2.26, 331.60
367.77, 2.22, 332.34
367.89, 2.16, 333.19
368.05, 2.09, 334.22
368.24, 2.00, 335.51
368.48, 1.87, 337.17
369.07, 1.40, 341.10
367.39, 2.38, 329.16
367.45, 2.36, 329.55
367.52, 2.34, 329.97
367.59, 2.32, 330.45
367.68, 2.29, 331.00
367.78, 2.26, 331.61
367.90, 2.21, 332.35
368.04, 2.15, 333.22
368.20, 2.09, 334.25
368.41, 1.99, 335.56
368.68, 1.86, 337.23
369.33, 1.37, 341.24
367.48, 2.38, 329.16
367.54, 2.36, 329.54
367.62, 2.34, 329.97
367.70, 2.31, 330.46
367.80, 2.28, 331.00
367.90, 2.25, 331.62
368.03, 2.20, 332.36
368.18, 2.15, 333.24
368.36, 2.08, 334.28
368.59, 1.98, 335.60
368.88, 1.84, 337.30
369.59, 1.35, 341.36
367.57, 2.37, 329.15
367.64, 2.35, 329.54
367.72, 2.33, 329.97
367.81, 2.31, 330.46
367.91, 2.28, 331.00
368.02, 2.25, 331.63
368.16, 2.20, 332.37
368.33, 2.14, 333.26
368.52, 2.07, 334.30
368.77, 1.97, 335.64
369.09, 1.83, 337.36
369.85, 1.32, 341.49
367.66, 2.37, 329.15
¯367.73, 2.35, 329.54
367.82, 2.33, 329.97
367.91, 2.31, 330.45
368.02, 2.28, 331.00
368.15, 2.24, 331.64
368.30, 2.19, 332.38
368.47, 2.13, 333.28
368.68, 2.06, 334.33
368.95, 1.95, 335.68
369.29, 1.81, 337.42
370.12, 1.30, 341.60
370.87, 0.96, 345.37
367.75, 2.37, 329.14
367.83, 2.35, 329.53
367.92, 2.33, 329.96
368.02, 2.30, 330.45
368.14, 2.27, 331.00
368.27, 2.23, 331.64
368.43, 2.19, 332.38
368.62, 2.12, 333.28
368.84, 2.05, 334.35
369.13, 1.94, 335.71
369.50, 1.80, 337.48
370.02, 1.57, 339.95
371.20, 0.92, 345.55
367.84, 2.37, 329.14
367.92, 2.35, 329.53
368.02, 2.32, 329.96
368.13, 2.30, 330.45
368.25, 2.27, 330.99
368.39, 2.23, 331.64
368.56, 2.18, 332.38
368.76, 2.12, 333.29
369.00, 2.04, 334.36
369.31, 1.93, 335.74
369.71, 1.78, 337.54
370.27, 1.55, 340.05
371.54, 0.89, 345.69
367.92, 2.36, 329.13
368.02, 2.34, 329.52
368.12, 2.32, 329.95
368.23, 2.29, 330.44
368.36, 2.26, 330.99
368.52, 2.22, 331.64
368.69, 2.18, 332.38
368.91, 2.11, 333.29
369.16, 2.03, 334.38
369.49, 1.92, 335.77
369.92, 1.76, 337.59
370.53, 1.53, 340.14
368.01, 2.36, 329.12
¯368.11, 2.34, 329.51
368.22, 2.32, 329.94
368.34, 2.29, 330.43
368.48, 2.26, 330.98
368.64, 2.22, 331.63
368.83, 2.17, 332.39
369.05, 2.11, 333.28
369.33, 2.02, 334.39
369.68, 1.91, 335.79
370.14, 1.75, 337.64
370.78, 1.51, 340.23
368.10, 2.36, 329.11
368.21, 2.34, 329.50
368.32, 2.31, 329.93
368.45, 2.29, 330.42
368.59, 2.26, 330.97
368.76, 2.21, 331.63
368.96, 2.16, 332.39
369.20, 2.10, 333.28
369.49, 2.01, 334.39
369.86, 1.90, 335.81
370.35, 1.73, 337.68
371.04, 1.49, 340.29
368.19, 2.35, 329.09
368.30, 2.33, 329.48
368.42, 2.31, 329.92
368.55, 2.28, 330.41
368.71, 2.25, 330.96
368.89, 2.21, 331.62
369.10, 2.16, 332.38
369.34, 2.10, 333.27
369.65, 2.01, 334.40
370.04, 1.89, 335.82
370.56, 1.72, 337.72
371.29, 1.47, 340.36
368.28, 2.35, 329.08
368.39, 2.33, 329.47
368.52, 2.31, 329.90
368.66, 2.28, 330.39
368.82, 2.25, 330.95
369.01, 2.20, 331.61
369.23, 2.15, 332.38
369.49, 2.09, 333.26
369.81, 2.00, 334.40
370.23, 1.88, 335.83
370.78, 1.70, 337.75
371.55, 1.45, 340.42
368.37, 2.35, 329.06
368.49, 2.33, 329.45
368.62, 2.30, 329.89
368.77, 2.28, 330.38
¯368.94, 2.24, 330.94
369.13, 2.20, 331.59
369.36, 2.15, 332.36
369.63, 2.08, 333.25
369.98, 1.99, 334.40
370.41, 1.87, 335.84
371.00, 1.69, 337.78
371.81, 1.43, 340.47
368.47, 2.33, 329.09
368.58, 2.33, 329.43
368.72, 2.30, 329.87
368.87, 2.27, 330.36
369.05, 2.24, 330.92
369.26, 2.20, 331.57
369.50, 2.14, 332.34
369.78, 2.08, 333.24
370.14, 1.98, 334.39
370.60, 1.86, 335.84
371.22, 1.67, 337.81
372.07, 1.41, 340.52
373.29, 1.03, 344.39
368.60, 2.29, 329.20
368.68, 2.32, 329.41
368.82, 2.30, 329.85
368.98, 2.27, 330.34
369.16, 2.24, 330.90
369.38, 2.19, 331.55
369.63, 2.14, 332.32
369.93, 2.07, 333.23
370.31, 1.98, 334.38
370.79, 1.85, 335.85
371.44, 1.66, 337.83
372.33, 1.39, 340.55
373.60, 1.01, 344.43
368.77, 2.22, 329.39
368.80, 2.29, 329.48
368.92, 2.30, 329.83
369.08, 2.27, 330.32
369.28, 2.23, 330.88
369.50, 2.19, 331.53
369.76, 2.13, 332.30
370.07, 2.07, 333.21
370.47, 1.97, 334.37
370.97, 1.84, 335.85
371.66, 1.64, 337.85
372.59, 1.38, 340.58
373.92, 0.99, 344.46
368.90, 2.18, 329.48
368.95, 2.24, 329.63
369.02, 2.29, 329.81
369.19, 2.27, 330.29
¯369.39, 2.23, 330.86
369.62, 2.18, 331.51
369.89, 2.13, 332.27
370.22, 2.06, 333.19
370.63, 1.96, 334.35
371.16, 1.83, 335.84
371.87, 1.63, 337.85
372.85, 1.36, 340.60
374.23, 0.98, 344.48
368.99, 2.18, 329.45
369.15, 2.15, 329.87
369.17, 2.24, 329.94
369.29, 2.26, 330.27
369.50, 2.23, 330.83
369.74, 2.18, 331.48
370.02, 2.13, 332.24
370.36, 2.05, 333.16
370.79, 1.95, 334.33
371.35, 1.82, 335.83
372.09, 1.62, 337.84
373.11, 1.34, 340.62
374.55, 0.96, 344.51
374.40, 1.61, 344.11
374.32, 1.93, 343.90
374.34, 2.21, 343.95
374.37, 2.50, 344.03
374.51, 3.34, 344.41
374.52, 3.64, 344.44
374.53, 3.93, 344.47
369.09, 2.17, 329.42
369.25, 2.15, 329.84
369.37, 2.17, 330.16
369.42, 2.24, 330.30
369.61, 2.22, 330.80
369.86, 2.18, 331.45
370.15, 2.12, 332.21
370.51, 2.05, 333.14
370.96, 1.95, 334.31
371.53, 1.81, 335.82
372.30, 1.61, 337.83
373.37, 1.33, 340.62
374.86, 0.94, 344.51
374.63, 1.63, 343.89
374.54, 1.95, 343.67
374.55, 2.23, 343.70
374.57, 2.51, 343.76
374.59, 2.80, 343.81
374.62, 3.08, 343.87
374.65, 3.36, 343.96
374.70, 3.65, 344.09
374.75, 3.93, 344.22
¯369.18, 2.17, 329.39
369.35, 2.15, 329.81
369.53, 2.12, 330.29
369.60, 2.18, 330.46
369.73, 2.22, 330.77
369.98, 2.17, 331.42
370.28, 2.12, 332.18
370.65, 2.04, 333.11
371.12, 1.94, 334.28
371.72, 1.80, 335.79
372.52, 1.60, 337.81
373.64, 1.31, 340.62
375.18, 0.92, 344.50
374.86, 1.64, 343.71
374.77, 1.96, 343.49
374.78, 2.24, 343.52
374.80, 2.52, 343.57
374.83, 2.80, 343.63
374.85, 3.09, 343.68
374.87, 3.37, 343.75
374.92, 3.65, 343.88
374.98, 3.94, 344.01
369.27, 2.17, 329.36
369.44, 2.14, 329.78
369.64, 2.11, 330.26
369.86, 2.08, 330.79
369.90, 2.18, 330.88
370.10, 2.17, 331.39
370.41, 2.12, 332.14
370.80, 2.04, 333.07
371.28, 1.94, 334.25
371.90, 1.79, 335.77
372.73, 1.59, 337.79
373.90, 1.30, 340.61
375.49, 0.91, 344.48
375.09, 1.65, 343.53
375.00, 1.97, 343.31
375.02, 2.25, 343.34
375.04, 2.53, 343.40
375.06, 2.81, 343.45
375.08, 3.09, 343.50
375.11, 3.38, 343.57
375.16, 3.66, 343.70
375.21, 3.94, 343.83
369.36, 2.17, 329.33
369.54, 2.14, 329.75
369.74, 2.11, 330.22
369.97, 2.07, 330.76
370.14, 2.09, 331.16
370.22, 2.17, 331.35
370.54, 2.11, 332.10
¯370.94, 2.03, 333.04
371.44, 1.93, 334.21
372.09, 1.78, 335.74
372.95, 1.58, 337.76
374.16, 1.28, 340.60
375.80, 0.89, 344.46
375.32, 1.66, 343.35
375.23, 1.98, 343.14
375.25, 2.26, 343.17
375.27, 2.54, 343.22
375.29, 2.82, 343.27
375.32, 3.10, 343.33
375.34, 3.38, 343.40
375.40, 3.66, 343.52
375.45, 3.94, 343.65
369.45, 2.17, 329.30
369.64, 2.14, 329.72
369.84, 2.11, 330.18
370.08, 2.07, 330.72
370.35, 2.03, 331.33
370.46, 2.10, 331.58
370.67, 2.11, 332.06
371.08, 2.03, 333.00
371.60, 1.92, 334.17
372.27, 1.77, 335.70
373.16, 1.57, 337.73
374.41, 1.27, 340.57
376.10, 0.88, 344.42
375.56, 1.67, 343.17
375.46, 1.98, 342.96
375.48, 2.26, 343.00
375.50, 2.54, 343.05
375.52, 2.82, 343.10
375.55, 3.10, 343.15
375.58, 3.38, 343.22
375.63, 3.66, 343.34
375.69, 3.95, 343.47
369.55, 2.17, 329.27
369.73, 2.14, 329.68
369.94, 2.11, 330.14
370.19, 2.07, 330.68
370.46, 2.02, 331.29
370.78, 1.97, 331.98
370.85, 2.08, 332.14
371.22, 2.03, 332.95
371.75, 1.92, 334.12
372.45, 1.77, 335.66
373.37, 1.56, 337.69
374.67, 1.26, 340.54
376.41, 0.87, 344.37
375.79, 1.68, 343.00
¯375.69, 1.99, 342.79
375.71, 2.27, 342.82
375.73, 2.55, 342.88
375.76, 2.83, 342.93
375.78, 3.11, 342.98
375.81, 3.39, 343.06
375.87, 3.67, 343.17
375.92, 3.95, 343.29
369.64, 2.16, 329.23
369.83, 2.14, 329.64
370.05, 2.11, 330.10
370.30, 2.07, 330.64
370.58, 2.02, 331.24
370.90, 1.97, 331.93
371.17, 1.97, 332.51
371.36, 2.02, 332.91
371.91, 1.91, 334.07
372.63, 1.76, 335.62
373.58, 1.55, 337.63
374.92, 1.25, 340.49
376.01, 1.68, 342.82
375.93, 1.99, 342.64
375.94, 2.27, 342.66
375.96, 2.55, 342.71
375.98, 2.83, 342.75
376.02, 3.11, 342.83
376.07, 3.39, 342.93
376.12, 3.67, 343.03
376.16, 3.95, 343.13
369.73, 2.16, 329.19
369.92, 2.14, 329.60
370.15, 2.11, 330.06
370.40, 2.07, 330.59
370.69, 2.02, 331.19
371.03, 1.97, 331.88
371.44, 1.89, 332.74
371.63, 1.95, 333.13
372.06, 1.91, 334.02
372.81, 1.75, 335.56
373.78, 1.55, 337.58
375.17, 1.24, 340.44
376.25, 1.69, 342.67
376.19, 1.99, 342.55
376.21, 2.27, 342.58
376.24, 2.55, 342.64
376.28, 2.82, 342.72
376.32, 3.10, 342.80
376.36, 3.38, 342.89
376.41, 3.66, 342.98
376.43, 3.95, 343.04
369.82, 2.16, 329.15
¯370.02, 2.13, 329.56
370.25, 2.10, 330.02
370.51, 2.07, 330.54
370.81, 2.02, 331.14
371.15, 1.97, 331.83
371.58, 1.89, 332.69
372.10, 1.79, 333.72
372.23, 1.90, 333.98
372.99, 1.75, 335.51
373.99, 1.54, 337.51
375.42, 1.23, 340.38
376.82, 1.60, 343.19
376.83, 1.89, 343.19
376.85, 2.18, 343.24
376.91, 2.46, 343.36
376.98, 2.74, 343.49
377.06, 3.03, 343.66
376.64, 3.38, 342.81
376.65, 3.66, 342.83
376.67, 3.95, 342.86
369.90, 2.16, 329.11
370.11, 2.13, 329.52
370.35, 2.10, 329.97
370.61, 2.06, 330.49
370.92, 2.02, 331.09
371.28, 1.96, 331.78
371.72, 1.88, 332.64
372.25, 1.79, 333.68
372.66, 1.77, 334.48
373.16, 1.74, 335.45
374.19, 1.53, 337.44
375.66, 1.22, 340.31
369.99, 2.16, 329.07
370.21, 2.13, 329.47
370.44, 2.10, 329.92
370.72, 2.06, 330.44
371.03, 2.02, 331.03
371.40, 1.96, 331.74
371.86, 1.88, 332.59
372.40, 1.78, 333.62
373.10, 1.65, 334.94
373.43, 1.70, 335.56
374.39, 1.53, 337.36
375.90, 1.21, 340.23
370.05, 2.17, 328.98
370.30, 2.13, 329.43
370.54, 2.10, 329.87
370.82, 2.06, 330.39
371.14, 2.02, 330.98
371.53, 1.95, 331.68
371.99, 1.88, 332.53
¯372.55, 1.78, 333.56
373.26, 1.64, 334.87
374.11, 1.49, 336.42
374.58, 1.53, 337.28
376.14, 1.20, 340.14
370.05, 2.23, 328.78
370.39, 2.13, 329.38
370.64, 2.10, 329.82
370.92, 2.06, 330.33
371.26, 2.01, 330.93
371.65, 1.95, 331.63
372.13, 1.87, 332.47
372.70, 1.77, 333.50
373.43, 1.64, 334.79
374.36, 1.46, 336.45
375.08, 1.41, 337.74
376.37, 1.20, 340.04
370.05, 2.28, 328.58
370.38, 2.19, 329.16
370.73, 2.10, 329.77
371.02, 2.06, 330.27
371.37, 2.01, 330.88
371.78, 1.95, 331.58
372.26, 1.87, 332.41
372.85, 1.77, 333.43
373.59, 1.64, 334.71
374.54, 1.46, 336.36
375.81, 1.22, 338.56
376.60, 1.19, 339.93
370.04, 2.33, 328.39
370.37, 2.24, 328.94
370.75, 2.14, 329.59
371.12, 2.06, 330.21
371.48, 2.01, 330.82
371.90, 1.94, 331.52
372.39, 1.87, 332.34
372.99, 1.77, 333.36
373.74, 1.63, 334.63
374.72, 1.46, 336.27
376.03, 1.21, 338.47
377.76, 0.88, 341.39
370.04, 2.38, 328.21
370.35, 2.30, 328.73
370.73, 2.20, 329.34
371.14, 2.10, 330.01
371.60, 2.00, 330.76
372.02, 1.94, 331.46
372.52, 1.86, 332.28
373.13, 1.76, 333.28
373.90, 1.63, 334.54
374.89, 1.45, 336.17
¯376.24, 1.20, 338.38
378.04, 0.87, 341.33
370.05, 2.41, 328.07
370.34, 2.35, 328.52
370.70, 2.26, 329.10
371.12, 2.16, 329.76
371.71, 2.00, 330.70
372.14, 1.94, 331.39
372.65, 1.86, 332.20
373.27, 1.76, 333.20
374.05, 1.63, 334.45
375.07, 1.45, 336.07
376.46, 1.19, 338.28
378.25, 0.87, 341.14
370.09, 2.43, 327.97
370.33, 2.40, 328.33
370.68, 2.32, 328.87
371.09, 2.22, 329.52
371.37, 2.21, 329.95
372.26, 1.93, 331.33
372.77, 1.86, 332.13
373.41, 1.76, 333.12
374.20, 1.63, 334.35
375.24, 1.45, 335.95
376.66, 1.19, 338.17
378.51, 0.86, 341.03
370.13, 2.45, 327.86
370.31, 2.45, 328.14
370.65, 2.37, 328.65
371.05, 2.28, 329.26
371.34, 2.27, 329.69
371.83, 2.17, 330.43
372.90, 1.86, 332.05
373.55, 1.76, 333.04
374.35, 1.63, 334.25
375.40, 1.45, 335.84
376.87, 1.18, 338.06
378.76, 0.85, 340.91
370.17, 2.47, 327.76
370.34, 2.47, 328.02
370.63, 2.43, 328.44
371.02, 2.34, 329.02
371.31, 2.32, 329.45
371.60, 2.31, 329.88
372.81, 1.94, 331.66
373.68, 1.75, 332.95
374.49, 1.63, 334.14
375.56, 1.45, 335.72
377.06, 1.18, 337.93
379.00, 0.85, 340.78
370.20, 2.49, 327.66
¯370.38, 2.49, 327.92
370.60, 2.48, 328.24
370.98, 2.40, 328.78
371.28, 2.37, 329.21
371.56, 2.37, 329.62
371.87, 2.37, 330.06
373.82, 1.75, 332.86
374.64, 1.63, 334.03
375.72, 1.45, 335.59
377.24, 1.18, 337.77
379.23, 0.85, 340.62
370.23, 2.51, 327.57
370.41, 2.51, 327.81
370.60, 2.51, 328.08
370.94, 2.45, 328.56
371.25, 2.42, 328.99
371.52, 2.42, 329.37
371.83, 2.42, 329.79
372.75, 2.20, 331.09
374.78, 1.63, 333.92
375.88, 1.45, 335.46
377.41, 1.19, 337.60
379.45, 0.85, 340.45
370.26, 2.52, 327.47
370.44, 2.53, 327.71
370.63, 2.53, 327.97
370.90, 2.51, 328.34
371.22, 2.47, 328.77
371.49, 2.47, 329.13
371.78, 2.48, 329.53
372.11, 2.48, 329.97
374.91, 1.63, 333.81
376.03, 1.45, 335.33
377.57, 1.19, 337.43
379.64, 0.85, 340.25
370.29, 2.54, 327.37
370.47, 2.55, 327.60
370.66, 2.55, 327.85
370.87, 2.56, 328.13
371.19, 2.52, 328.56
371.45, 2.52, 328.91
371.74, 2.53, 329.28
372.05, 2.53, 329.70
372.66, 2.45, 330.51
376.18, 1.45, 335.19
377.73, 1.20, 337.25
379.82, 0.86, 340.03
370.34, 2.55, 327.30
370.51, 2.56, 327.51
370.69, 2.57, 327.75
370.89, 2.58, 328.01
¯371.17, 2.56, 328.36
371.42, 2.57, 328.69
371.69, 2.58, 329.04
372.00, 2.58, 329.43
372.33, 2.59, 329.87
376.32, 1.46, 335.05
377.88, 1.21, 337.06
379.99, 0.87, 339.81
370.40, 2.55, 327.24
370.57, 2.56, 327.45
370.74, 2.58, 327.67
370.94, 2.59, 327.91
371.14, 2.61, 328.17
371.38, 2.61, 328.48
371.65, 2.62, 328.81
371.94, 2.63, 329.18
372.27, 2.64, 329.59
372.63, 2.65, 330.05
378.03, 1.21, 336.89
380.14, 0.88, 339.56
370.46, 2.56, 327.18
370.62, 2.57, 327.38
370.80, 2.58, 327.61
371.00, 2.59, 327.84
371.20, 2.61, 328.09
371.41, 2.63, 328.35
371.64, 2.66, 328.63
371.89, 2.68, 328.94
372.21, 2.69, 329.33
372.56, 2.71, 329.76
378.19, 1.21, 336.72
380.29, 0.90, 339.30
370.51, 2.56, 327.12
370.68, 2.57, 327.32
370.86, 2.58, 327.54
371.06, 2.60, 327.77
371.26, 2.61, 328.02
371.48, 2.64, 328.27
371.70, 2.66, 328.54
371.95, 2.69, 328.84
372.22, 2.71, 329.16
372.51, 2.75, 329.51
372.86, 2.77, 329.93
380.45, 0.90, 339.08
370.57, 2.56, 327.06
370.74, 2.57, 327.26
370.92, 2.58, 327.47
371.12, 2.60, 327.70
371.32, 2.62, 327.94
371.54, 2.64, 328.19
371.77, 2.66, 328.46
¯372.02, 2.69, 328.75
372.29, 2.72, 329.07
372.58, 2.75, 329.41
372.91, 2.78, 329.79
380.61, 0.91, 338.85
370.62, 2.56, 326.99
370.79, 2.57, 327.19
370.98, 2.59, 327.40
371.18, 2.60, 327.63
371.38, 2.62, 327.86
371.60, 2.64, 328.11
371.83, 2.67, 328.37
372.08, 2.69, 328.66
372.36, 2.72, 328.97
372.65, 2.75, 329.31
372.98, 2.79, 329.68
373.31, 2.84, 330.05
370.67, 2.57, 326.93
370.85, 2.58, 327.13
371.04, 2.59, 327.34
371.23, 2.61, 327.55
371.44, 2.63, 327.78
371.66, 2.65, 328.03
371.89, 2.67, 328.29
372.15, 2.70, 328.57
372.42, 2.73, 328.88
372.72, 2.76, 329.21
373.05, 2.79, 329.58
373.37, 2.84, 329.93
370.47, 2.68, 326.59
370.90, 2.58, 327.06
371.09, 2.59, 327.27
371.28, 2.61, 327.48
371.49, 2.63, 327.70
371.72, 2.65, 327.94
371.95, 2.67, 328.20
372.21, 2.70, 328.48
372.49, 2.73, 328.78
372.79, 2.76, 329.11
373.11, 2.80, 329.46
373.44, 2.85, 329.81
370.52, 2.69, 326.53
370.95, 2.58, 326.99
371.14, 2.60, 327.19
371.34, 2.61, 327.40
371.55, 2.63, 327.62
371.77, 2.65, 327.86
372.01, 2.68, 328.12
372.27, 2.70, 328.39
372.55, 2.73, 328.68
372.86, 2.77, 329.01
¯373.17, 2.80, 329.34
373.50, 2.85, 329.68
373.85, 2.91, 330.06
370.56, 2.69, 326.46
370.73, 2.71, 326.63
371.19, 2.60, 327.12
371.39, 2.62, 327.32
371.60, 2.64, 327.54
371.83, 2.66, 327.77
372.07, 2.68, 328.03
372.33, 2.71, 328.30
372.62, 2.74, 328.59
372.92, 2.77, 328.90
373.23, 2.81, 329.23
373.56, 2.86, 329.56
373.91, 2.91, 329.93
370.60, 2.70, 326.40
370.77, 2.71, 326.57
371.24, 2.60, 327.05
371.44, 2.62, 327.25
371.65, 2.64, 327.46
371.88, 2.66, 327.69
372.13, 2.69, 327.94
372.39, 2.71, 328.21
372.68, 2.74, 328.49
372.99, 2.77, 328.80
373.29, 2.82, 329.11
373.62, 2.86, 329.44
373.97, 2.92, 329.80
375.72, 2.70, 331.57
376.16, 2.78, 332.00
370.65, 2.70, 326.34
370.82, 2.71, 326.50
371.00, 2.73, 326.68
371.49, 2.62, 327.17
371.70, 2.64, 327.38
371.93, 2.67, 327.60
372.18, 2.69, 327.85
372.45, 2.71, 328.11
372.74, 2.74, 328.39
373.05, 2.78, 328.70
373.35, 2.82, 328.99
373.68, 2.87, 329.32
374.03, 2.92, 329.67
374.42, 2.98, 330.05
375.80, 2.87, 331.41
376.23, 2.96, 331.83
370.69, 2.70, 326.28
370.86, 2.71, 326.44
371.04, 2.73, 326.61
371.54, 2.63, 327.09
¯371.76, 2.65, 327.30
371.99, 2.67, 327.52
372.24, 2.69, 327.76
372.51, 2.72, 328.02
372.80, 2.75, 328.30
373.10, 2.78, 328.59
373.40, 2.83, 328.88
373.73, 2.88, 329.19
374.09, 2.93, 329.54
374.48, 2.99, 329.91
375.48, 2.95, 330.87
375.87, 3.04, 331.25
376.31, 3.14, 331.66
370.74, 2.70, 326.21
370.91, 2.72, 326.37
371.09, 2.73, 326.54
371.28, 2.75, 326.72
371.81, 2.65, 327.22
372.04, 2.67, 327.43
372.29, 2.70, 327.67
372.56, 2.72, 327.92
372.85, 2.75, 328.20
373.16, 2.79, 328.48
373.46, 2.83, 328.76
373.79, 2.88, 329.07
374.15, 2.93, 329.41
374.54, 2.99, 329.77
375.18, 3.02, 330.37
375.55, 3.11, 330.72
375.95, 3.21, 331.09
376.38, 3.32, 331.49
376.85, 3.44, 331.93
370.78, 2.70, 326.15
370.95, 2.72, 326.30
371.13, 2.73, 326.47
371.33, 2.75, 326.65
371.85, 2.66, 327.13
372.09, 2.68, 327.35
372.34, 2.70, 327.58
372.61, 2.73, 327.83
372.91, 2.75, 328.10
373.21, 2.79, 328.37
373.51, 2.84, 328.65
373.84, 2.89, 328.95
374.20, 2.94, 329.28
374.60, 3.00, 329.64
375.03, 3.06, 330.03
375.43, 3.14, 330.40
375.88, 3.23, 330.80
376.36, 3.33, 331.24
376.90, 3.44, 331.73
¯370.82, 2.71, 326.08
370.99, 2.72, 326.24
371.17, 2.74, 326.40
371.37, 2.75, 326.57
371.58, 2.77, 326.76
372.14, 2.68, 327.26
372.39, 2.70, 327.49
372.67, 2.73, 327.73
372.96, 2.76, 328.00
373.26, 2.80, 328.26
373.56, 2.84, 328.53
373.90, 2.89, 328.83
374.26, 2.94, 329.15
374.65, 3.00, 329.50
375.07, 3.07, 329.88
375.49, 3.15, 330.24
375.93, 3.24, 330.63
376.41, 3.34, 331.07
376.95, 3.45, 331.54
377.46, 3.57, 332.00
370.86, 2.71, 326.02
371.03, 2.72, 326.17
371.22, 2.74, 326.33
371.41, 2.76, 326.50
371.63, 2.77, 326.68
372.18, 2.68, 327.18
372.44, 2.71, 327.40
372.72, 2.73, 327.64
373.02, 2.76, 327.90
373.31, 2.80, 328.15
373.61, 2.85, 328.42
373.95, 2.89, 328.71
374.31, 2.95, 329.02
374.70, 3.01, 329.36
375.12, 3.07, 329.72
375.54, 3.15, 330.08
375.98, 3.24, 330.47
376.47, 3.34, 330.89
376.99, 3.45, 331.35
377.51, 3.58, 331.79
381.46, 3.45, 335.24
381.90, 3.67, 335.62
382.54, 3.90, 336.17
370.90, 2.71, 325.95
371.07, 2.73, 326.10
371.26, 2.74, 326.26
371.46, 2.76, 326.43
371.67, 2.78, 326.61
371.90, 2.80, 326.80
372.49, 2.71, 327.31
372.77, 2.74, 327.54
¯373.06, 2.76, 327.80
373.35, 2.80, 328.04
373.66, 2.85, 328.30
374.00, 2.90, 328.58
374.36, 2.95, 328.89
374.76, 3.01, 329.23
375.17, 3.08, 329.57
375.58, 3.16, 329.93
376.03, 3.25, 330.30
376.52, 3.35, 330.71
377.04, 3.46, 331.15
377.55, 3.58, 331.58
380.21, 3.56, 333.85
380.94, 3.74, 334.47
