žVERSION 0.7
FIELDS x y z
SIZE 8 8 8
TYPE F F F
COUNT 1 1 1
WIDTH 2271
HEIGHT 1
VIEWPOINT 423.66, 9.00, 363.21 1 405.45, 2.12, 370.00
POINTS 2271
DATA ascii
400.01, 0.26, 367.53
399.77, 0.26, 367.48
399.51, 0.25, 367.43
399.23, 0.25, 367.37
398.93, 0.25, 367.30
398.60, 0.25, 367.23
398.24, 0.24, 367.16
397.84, 0.24, 367.07
397.40, 0.24, 366.98
396.91, 0.23, 366.88
395.73, 0.08, 366.62
395.07, 0.08, 366.49
394.33, 0.07, 366.33
393.49, 0.06, 366.15
392.55, 0.06, 365.95
391.46, 0.06, 365.73
390.17, 0.05, 365.45
388.67, 0.05, 365.14
386.86, 0.05, 364.76
384.62, 0.05, 364.28
382.41, 0.11, 363.82
401.30, 0.27, 367.86
401.14, 0.27, 367.83
¯400.98, 0.27, 367.80
400.81, 0.27, 367.77
400.63, 0.27, 367.73
400.43, 0.26, 367.69
400.22, 0.26, 367.65
400.00, 0.26, 367.60
399.76, 0.26, 367.56
399.50, 0.26, 367.51
399.22, 0.25, 367.45
398.92, 0.25, 367.39
398.59, 0.25, 367.33
398.23, 0.24, 367.25
397.83, 0.24, 367.18
397.39, 0.24, 367.09
396.30, 0.09, 366.87
395.72, 0.08, 366.75
395.07, 0.08, 366.62
394.33, 0.07, 366.48
393.49, 0.07, 366.31
392.55, 0.06, 366.13
391.47, 0.06, 365.91
390.17, 0.05, 365.65
388.68, 0.05, 365.36
386.87, 0.05, 365.00
384.65, 0.05, 364.56
382.74, 0.14, 364.19
401.29, 0.27, 367.92
401.14, 0.27, 367.89
400.98, 0.27, 367.86
400.80, 0.27, 367.83
400.62, 0.27, 367.79
400.43, 0.26, 367.76
400.22, 0.26, 367.72
399.99, 0.26, 367.68
399.75, 0.26, 367.63
399.49, 0.26, 367.59
399.22, 0.25, 367.53
398.91, 0.25, 367.48
398.58, 0.25, 367.42
398.22, 0.24, 367.35
397.83, 0.24, 367.28
396.81, 0.09, 367.08
396.29, 0.09, 366.99
395.71, 0.08, 366.88
395.06, 0.08, 366.76
394.32, 0.07, 366.62
393.49, 0.07, 366.47
392.56, 0.06, 366.30
391.48, 0.06, 366.10
390.17, 0.05, 365.85
388.68, 0.05, 365.58
¯386.88, 0.05, 365.24
384.67, 0.05, 364.83
382.95, 0.16, 364.52
401.28, 0.27, 367.98
401.13, 0.27, 367.95
400.97, 0.27, 367.92
400.80, 0.27, 367.89
400.61, 0.27, 367.86
400.42, 0.26, 367.83
400.21, 0.26, 367.79
399.99, 0.26, 367.75
399.75, 0.26, 367.71
399.49, 0.26, 367.67
399.21, 0.25, 367.62
398.91, 0.25, 367.56
398.58, 0.25, 367.51
398.22, 0.24, 367.45
397.82, 0.24, 367.38
396.81, 0.09, 367.20
396.29, 0.09, 367.11
395.71, 0.08, 367.01
395.05, 0.08, 366.89
394.31, 0.07, 366.77
393.50, 0.07, 366.62
392.57, 0.07, 366.46
391.48, 0.06, 366.28
390.18, 0.05, 366.05
388.69, 0.05, 365.79
386.92, 0.06, 365.49
384.69, 0.05, 365.10
383.13, 0.17, 364.84
401.28, 0.27, 368.03
401.13, 0.27, 368.01
400.96, 0.27, 367.98
400.79, 0.27, 367.95
400.61, 0.27, 367.93
400.41, 0.26, 367.89
400.20, 0.26, 367.86
399.98, 0.26, 367.82
399.74, 0.26, 367.79
399.48, 0.26, 367.74
399.20, 0.25, 367.70
398.90, 0.25, 367.65
398.57, 0.25, 367.60
398.21, 0.25, 367.54
397.27, 0.10, 367.39
396.80, 0.09, 367.31
396.28, 0.09, 367.23
395.70, 0.08, 367.13
395.05, 0.08, 367.03
394.31, 0.07, 366.91
¯393.50, 0.07, 366.78
392.58, 0.07, 366.63
391.48, 0.06, 366.46
390.18, 0.05, 366.25
388.70, 0.05, 366.01
387.00, 0.07, 365.74
384.81, 0.07, 365.39
383.30, 0.18, 365.15
381.39, 0.31, 364.85
401.27, 0.27, 368.09
401.12, 0.27, 368.07
400.96, 0.27, 368.04
400.79, 0.27, 368.02
400.60, 0.27, 367.99
400.41, 0.26, 367.96
400.20, 0.26, 367.93
399.98, 0.26, 367.90
399.74, 0.26, 367.86
399.48, 0.26, 367.82
399.20, 0.25, 367.78
398.90, 0.25, 367.74
398.57, 0.25, 367.69
397.69, 0.10, 367.56
397.26, 0.10, 367.49
396.79, 0.09, 367.42
396.28, 0.09, 367.35
395.70, 0.08, 367.26
395.05, 0.08, 367.16
394.31, 0.07, 367.06
393.51, 0.07, 366.94
392.59, 0.07, 366.80
391.49, 0.06, 366.64
390.19, 0.05, 366.45
388.71, 0.05, 366.23
387.08, 0.07, 365.99
384.99, 0.08, 365.68
383.45, 0.19, 365.45
381.76, 0.33, 365.21
401.27, 0.27, 368.15
401.12, 0.27, 368.13
400.95, 0.27, 368.10
400.78, 0.27, 368.08
400.60, 0.27, 368.06
400.40, 0.26, 368.03
400.19, 0.26, 368.00
399.97, 0.26, 367.97
399.73, 0.26, 367.94
399.47, 0.26, 367.90
399.19, 0.25, 367.87
398.82, 0.23, 367.81
398.07, 0.11, 367.71
¯397.68, 0.10, 367.66
397.26, 0.10, 367.60
396.79, 0.09, 367.54
396.27, 0.09, 367.47
395.69, 0.08, 367.39
395.04, 0.08, 367.30
394.32, 0.07, 367.20
393.52, 0.07, 367.09
392.60, 0.07, 366.97
391.49, 0.06, 366.82
390.19, 0.05, 366.64
388.72, 0.05, 366.44
387.16, 0.08, 366.23
385.17, 0.10, 365.96
383.59, 0.20, 365.75
381.95, 0.34, 365.53
401.27, 0.27, 368.20
401.11, 0.27, 368.18
400.95, 0.27, 368.16
400.78, 0.27, 368.14
400.59, 0.27, 368.12
400.40, 0.26, 368.10
400.19, 0.26, 368.07
399.97, 0.26, 368.04
399.73, 0.26, 368.01
399.47, 0.26, 367.98
398.74, 0.11, 367.89
398.42, 0.11, 367.85
398.06, 0.11, 367.81
397.68, 0.10, 367.76
397.25, 0.10, 367.71
396.79, 0.09, 367.65
396.27, 0.09, 367.59
395.69, 0.08, 367.51
395.04, 0.08, 367.43
394.32, 0.07, 367.34
393.52, 0.07, 367.25
392.61, 0.07, 367.13
391.49, 0.06, 367.00
390.20, 0.05, 366.84
388.73, 0.05, 366.66
387.24, 0.09, 366.48
385.34, 0.11, 366.24
383.72, 0.21, 366.05
382.12, 0.35, 365.85
401.26, 0.27, 368.26
401.11, 0.27, 368.24
400.95, 0.27, 368.23
400.77, 0.27, 368.21
400.59, 0.27, 368.19
400.40, 0.27, 368.16
¯400.19, 0.26, 368.14
399.96, 0.26, 368.12
399.73, 0.26, 368.09
399.03, 0.12, 368.01
398.74, 0.11, 367.98
398.41, 0.11, 367.94
398.06, 0.11, 367.90
397.67, 0.10, 367.86
397.25, 0.10, 367.81
396.78, 0.09, 367.76
396.27, 0.09, 367.70
395.69, 0.08, 367.64
395.04, 0.08, 367.57
394.32, 0.07, 367.49
393.52, 0.07, 367.40
392.61, 0.07, 367.30
391.50, 0.06, 367.18
390.21, 0.05, 367.03
388.74, 0.05, 366.87
387.32, 0.10, 366.72
385.51, 0.13, 366.52
383.85, 0.22, 366.33
382.29, 0.37, 366.17
401.26, 0.27, 368.32
401.11, 0.27, 368.30
400.94, 0.27, 368.29
400.77, 0.27, 368.27
400.59, 0.27, 368.25
400.39, 0.27, 368.23
400.19, 0.26, 368.21
399.96, 0.26, 368.19
399.31, 0.12, 368.12
399.03, 0.12, 368.10
398.73, 0.11, 368.07
398.41, 0.11, 368.03
398.06, 0.11, 368.00
397.67, 0.10, 367.96
397.25, 0.10, 367.92
396.78, 0.09, 367.87
396.27, 0.09, 367.82
395.69, 0.08, 367.77
395.04, 0.08, 367.70
394.32, 0.07, 367.63
393.53, 0.07, 367.55
392.62, 0.07, 367.46
391.51, 0.06, 367.35
390.23, 0.06, 367.23
388.76, 0.05, 367.08
387.40, 0.10, 366.95
385.68, 0.15, 366.78
383.99, 0.23, 366.62
¯382.46, 0.38, 366.47
401.26, 0.27, 368.37
401.10, 0.27, 368.36
400.94, 0.27, 368.35
400.77, 0.27, 368.33
400.59, 0.27, 368.32
400.39, 0.27, 368.30
400.06, 0.22, 368.27
399.56, 0.12, 368.23
399.31, 0.12, 368.20
399.03, 0.12, 368.18
398.73, 0.11, 368.15
398.41, 0.11, 368.13
398.06, 0.11, 368.10
397.67, 0.10, 368.06
397.25, 0.10, 368.03
396.78, 0.09, 367.99
396.27, 0.09, 367.94
395.69, 0.08, 367.89
395.04, 0.08, 367.84
394.32, 0.07, 367.77
393.53, 0.07, 367.71
392.62, 0.07, 367.63
391.52, 0.06, 367.53
390.29, 0.06, 367.43
388.81, 0.06, 367.30
387.48, 0.11, 367.19
385.84, 0.16, 367.05
384.13, 0.24, 366.90
382.63, 0.39, 366.78
401.26, 0.27, 368.43
401.10, 0.27, 368.42
400.94, 0.27, 368.41
400.77, 0.27, 368.40
400.56, 0.26, 368.38
400.02, 0.12, 368.34
399.80, 0.12, 368.32
399.56, 0.12, 368.30
399.30, 0.12, 368.28
399.03, 0.12, 368.26
398.73, 0.11, 368.24
398.41, 0.11, 368.22
398.05, 0.11, 368.19
397.67, 0.10, 368.16
397.25, 0.10, 368.13
396.78, 0.09, 368.10
396.27, 0.09, 368.06
395.69, 0.08, 368.02
395.05, 0.08, 367.97
394.32, 0.07, 367.92
393.53, 0.07, 367.86
¯392.63, 0.07, 367.79
391.53, 0.06, 367.71
390.36, 0.07, 367.62
389.72, 0.18, 367.58
389.71, 0.38, 367.58
389.70, 0.58, 367.59
384.26, 0.25, 367.18
382.80, 0.39, 367.07
401.25, 0.27, 368.49
401.10, 0.27, 368.48
400.94, 0.27, 368.47
400.42, 0.13, 368.43
400.23, 0.13, 368.42
400.02, 0.12, 368.41
399.80, 0.12, 368.40
399.56, 0.12, 368.38
399.30, 0.12, 368.37
399.03, 0.12, 368.35
398.73, 0.11, 368.33
398.41, 0.11, 368.31
398.05, 0.11, 368.29
397.67, 0.10, 368.26
397.25, 0.10, 368.24
396.78, 0.09, 368.21
396.27, 0.09, 368.18
395.69, 0.08, 368.14
395.05, 0.08, 368.10
394.33, 0.07, 368.06
393.54, 0.07, 368.01
392.64, 0.07, 367.95
391.54, 0.06, 367.89
390.42, 0.08, 367.82
389.72, 0.18, 367.78
389.71, 0.38, 367.78
389.70, 0.57, 367.78
389.63, 0.76, 367.78
389.63, 0.96, 367.79
389.63, 1.16, 367.79
389.63, 1.36, 367.79
401.25, 0.27, 368.54
401.06, 0.25, 368.53
400.61, 0.13, 368.51
400.42, 0.13, 368.50
400.23, 0.13, 368.49
400.02, 0.12, 368.48
399.80, 0.12, 368.47
399.56, 0.12, 368.46
399.30, 0.12, 368.45
399.03, 0.12, 368.43
398.73, 0.11, 368.42
398.41, 0.11, 368.40
¯398.06, 0.11, 368.38
397.67, 0.10, 368.37
397.25, 0.10, 368.34
396.79, 0.09, 368.32
396.27, 0.09, 368.30
395.70, 0.08, 368.27
395.05, 0.08, 368.24
394.34, 0.07, 368.20
393.55, 0.07, 368.16
392.65, 0.07, 368.12
391.55, 0.06, 368.06
390.48, 0.09, 368.01
389.21, 0.11, 367.95
389.20, 0.31, 367.95
389.19, 0.51, 367.96
389.13, 0.71, 367.96
389.13, 0.92, 367.96
389.13, 1.12, 367.96
389.13, 1.33, 367.97
400.95, 0.13, 368.59
400.78, 0.13, 368.58
400.61, 0.13, 368.58
400.42, 0.13, 368.57
400.23, 0.13, 368.56
400.02, 0.12, 368.55
399.80, 0.12, 368.55
399.56, 0.12, 368.54
399.30, 0.12, 368.53
399.03, 0.12, 368.52
398.73, 0.11, 368.51
398.41, 0.11, 368.49
398.06, 0.11, 368.48
397.67, 0.10, 368.47
397.25, 0.10, 368.45
396.79, 0.09, 368.43
396.28, 0.09, 368.41
395.70, 0.08, 368.39
395.06, 0.08, 368.37
394.34, 0.07, 368.34
393.56, 0.07, 368.31
392.66, 0.07, 368.28
391.58, 0.07, 368.24
390.55, 0.09, 368.20
389.18, 0.10, 368.15
387.85, 0.14, 368.10
386.09, 0.18, 368.04
386.08, 0.42, 368.04
386.05, 0.66, 368.05
386.05, 0.90, 368.05
386.05, 1.14, 368.05
400.95, 0.13, 368.65
¯400.78, 0.13, 368.64
400.61, 0.13, 368.64
400.42, 0.13, 368.64
400.23, 0.13, 368.63
400.02, 0.12, 368.63
399.80, 0.12, 368.62
399.56, 0.12, 368.61
399.31, 0.12, 368.61
399.03, 0.12, 368.60
398.73, 0.11, 368.59
398.41, 0.11, 368.58
398.06, 0.11, 368.58
397.68, 0.10, 368.57
397.26, 0.10, 368.56
396.79, 0.09, 368.54
396.28, 0.09, 368.53
395.71, 0.08, 368.52
395.07, 0.08, 368.50
394.35, 0.07, 368.48
393.57, 0.07, 368.46
392.67, 0.07, 368.44
391.63, 0.07, 368.42
390.61, 0.10, 368.39
389.27, 0.11, 368.36
387.94, 0.15, 368.33
386.11, 0.17, 368.28
386.05, 0.41, 368.28
386.05, 0.65, 368.29
386.05, 0.90, 368.29
386.05, 1.14, 368.29
400.95, 0.13, 368.71
400.78, 0.13, 368.71
400.61, 0.13, 368.70
400.43, 0.13, 368.70
400.23, 0.13, 368.70
400.02, 0.12, 368.70
399.80, 0.12, 368.69
399.56, 0.12, 368.69
399.31, 0.12, 368.69
399.03, 0.12, 368.68
398.74, 0.11, 368.68
398.41, 0.11, 368.68
398.06, 0.11, 368.67
397.68, 0.10, 368.67
397.26, 0.10, 368.66
396.80, 0.09, 368.66
396.29, 0.09, 368.65
395.72, 0.08, 368.64
395.07, 0.08, 368.63
394.36, 0.07, 368.62
393.58, 0.07, 368.61
¯392.68, 0.07, 368.60
391.68, 0.08, 368.59
390.67, 0.11, 368.58
389.36, 0.12, 368.56
388.02, 0.16, 368.55
386.15, 0.17, 368.52
386.05, 0.41, 368.52
386.05, 0.65, 368.53
386.05, 0.89, 368.53
386.05, 1.13, 368.54
400.95, 0.13, 368.77
400.78, 0.13, 368.77
400.61, 0.13, 368.77
400.43, 0.13, 368.77
400.23, 0.13, 368.77
400.03, 0.12, 368.77
399.80, 0.12, 368.77
399.57, 0.12, 368.77
399.31, 0.12, 368.77
399.04, 0.12, 368.77
398.74, 0.11, 368.77
398.42, 0.11, 368.77
398.07, 0.11, 368.77
397.69, 0.10, 368.77
397.27, 0.10, 368.77
396.81, 0.09, 368.77
396.29, 0.09, 368.77
395.72, 0.08, 368.77
395.08, 0.08, 368.77
394.37, 0.07, 368.77
393.59, 0.07, 368.77
392.69, 0.07, 368.76
391.73, 0.08, 368.76
390.72, 0.11, 368.76
389.46, 0.13, 368.76
388.06, 0.16, 368.76
386.19, 0.18, 368.76
386.05, 0.40, 368.77
386.05, 0.65, 368.77
386.05, 0.89, 368.77
386.05, 1.13, 368.78
400.95, 0.13, 368.83
400.79, 0.13, 368.83
400.61, 0.13, 368.83
400.43, 0.13, 368.84
400.24, 0.13, 368.84
400.03, 0.12, 368.84
399.81, 0.12, 368.84
399.57, 0.12, 368.85
399.31, 0.12, 368.85
399.04, 0.12, 368.85
¯398.74, 0.11, 368.86
398.42, 0.11, 368.86
398.07, 0.11, 368.86
397.69, 0.10, 368.87
397.27, 0.10, 368.87
396.81, 0.09, 368.88
396.30, 0.09, 368.88
395.73, 0.08, 368.89
395.09, 0.08, 368.90
394.38, 0.07, 368.91
393.60, 0.07, 368.92
392.71, 0.07, 368.93
391.77, 0.09, 368.94
390.78, 0.12, 368.95
389.55, 0.14, 368.96
388.10, 0.16, 368.98
386.24, 0.18, 369.00
386.05, 0.40, 369.01
386.05, 0.64, 369.01
386.05, 0.88, 369.01
386.05, 1.13, 369.02
400.95, 0.13, 368.89
400.79, 0.13, 368.89
400.62, 0.13, 368.90
400.43, 0.13, 368.90
400.24, 0.13, 368.91
400.03, 0.12, 368.91
399.81, 0.12, 368.92
399.57, 0.12, 368.92
399.32, 0.12, 368.93
399.05, 0.12, 368.94
398.75, 0.11, 368.94
398.43, 0.11, 368.95
398.08, 0.11, 368.96
397.70, 0.10, 368.97
397.28, 0.10, 368.98
396.82, 0.09, 368.99
396.31, 0.09, 369.00
395.74, 0.08, 369.01
395.10, 0.08, 369.03
394.39, 0.07, 369.05
393.61, 0.07, 369.06
392.72, 0.07, 369.09
391.82, 0.09, 369.11
390.83, 0.12, 369.13
389.64, 0.15, 369.16
388.16, 0.17, 369.20
386.30, 0.18, 369.24
386.08, 0.40, 369.25
386.05, 0.64, 369.25
386.05, 0.88, 369.26
¯386.05, 1.12, 369.26
400.96, 0.13, 368.95
400.79, 0.13, 368.96
400.62, 0.13, 368.96
400.44, 0.13, 368.97
400.24, 0.13, 368.98
400.04, 0.12, 368.98
399.82, 0.12, 368.99
399.58, 0.12, 369.00
399.33, 0.12, 369.01
399.05, 0.12, 369.02
398.76, 0.11, 369.03
398.44, 0.11, 369.04
398.09, 0.11, 369.05
397.71, 0.10, 369.07
397.29, 0.10, 369.08
396.83, 0.09, 369.10
396.32, 0.09, 369.12
395.75, 0.08, 369.14
395.12, 0.08, 369.16
394.41, 0.07, 369.19
393.64, 0.08, 369.21
392.76, 0.08, 369.25
391.87, 0.10, 369.28
390.89, 0.13, 369.31
389.70, 0.15, 369.36
388.23, 0.17, 369.41
386.39, 0.19, 369.48
384.52, 0.24, 369.55
400.96, 0.13, 369.01
400.80, 0.13, 369.02
400.63, 0.13, 369.03
400.44, 0.13, 369.04
400.25, 0.13, 369.05
400.04, 0.12, 369.06
399.82, 0.12, 369.07
399.59, 0.12, 369.08
399.33, 0.12, 369.09
399.06, 0.12, 369.10
398.76, 0.11, 369.12
398.44, 0.11, 369.13
398.10, 0.11, 369.15
397.72, 0.10, 369.17
397.30, 0.10, 369.19
396.84, 0.10, 369.21
396.34, 0.09, 369.23
395.78, 0.09, 369.26
395.14, 0.08, 369.29
394.44, 0.08, 369.33
393.68, 0.08, 369.36
392.80, 0.08, 369.40
¯391.92, 0.10, 369.45
390.94, 0.13, 369.49
389.75, 0.16, 369.55
388.31, 0.18, 369.62
386.48, 0.19, 369.71
384.57, 0.24, 369.80
400.97, 0.13, 369.07
400.80, 0.13, 369.08
400.63, 0.13, 369.09
400.45, 0.13, 369.10
400.25, 0.13, 369.11
400.05, 0.12, 369.13
399.83, 0.12, 369.14
399.59, 0.12, 369.15
399.34, 0.12, 369.17
399.07, 0.12, 369.19
398.77, 0.11, 369.20
398.45, 0.11, 369.22
398.11, 0.11, 369.24
397.73, 0.10, 369.27
397.32, 0.10, 369.29
396.86, 0.10, 369.32
396.36, 0.09, 369.35
395.80, 0.09, 369.38
395.17, 0.08, 369.42
394.48, 0.08, 369.46
393.71, 0.08, 369.51
392.85, 0.09, 369.56
391.97, 0.11, 369.62
391.00, 0.14, 369.67
389.81, 0.16, 369.75
388.39, 0.18, 369.83
386.57, 0.20, 369.94
384.63, 0.25, 370.06
400.97, 0.13, 369.13
400.81, 0.13, 369.14
400.64, 0.13, 369.16
400.46, 0.13, 369.17
400.26, 0.13, 369.18
400.06, 0.13, 369.20
399.84, 0.12, 369.21
399.60, 0.12, 369.23
399.35, 0.12, 369.25
399.08, 0.12, 369.27
398.78, 0.11, 369.29
398.47, 0.11, 369.31
398.12, 0.11, 369.34
397.74, 0.11, 369.37
397.33, 0.10, 369.40
396.87, 0.10, 369.43
396.38, 0.10, 369.46
¯395.82, 0.09, 369.51
395.20, 0.09, 369.55
394.51, 0.09, 369.60
393.75, 0.09, 369.66
392.90, 0.09, 369.72
392.02, 0.11, 369.78
391.05, 0.14, 369.85
389.87, 0.16, 369.94
388.47, 0.19, 370.04
386.66, 0.21, 370.17
384.68, 0.25, 370.32
400.98, 0.13, 369.19
400.82, 0.13, 369.20
400.65, 0.13, 369.22
400.46, 0.13, 369.23
400.27, 0.13, 369.25
400.07, 0.13, 369.27
399.85, 0.12, 369.29
399.61, 0.12, 369.31
399.36, 0.12, 369.33
399.09, 0.12, 369.35
398.80, 0.12, 369.38
398.48, 0.11, 369.40
398.13, 0.11, 369.43
397.76, 0.11, 369.46
397.35, 0.10, 369.50
396.89, 0.10, 369.54
396.41, 0.10, 369.58
395.85, 0.09, 369.63
395.23, 0.09, 369.68
394.55, 0.09, 369.74
393.79, 0.09, 369.80
392.95, 0.10, 369.87
392.08, 0.12, 369.95
391.10, 0.14, 370.03
389.93, 0.17, 370.13
388.55, 0.20, 370.25
386.76, 0.21, 370.40
384.74, 0.25, 370.57
400.99, 0.13, 369.25
400.82, 0.13, 369.27
400.65, 0.13, 369.28
400.47, 0.13, 369.30
400.28, 0.13, 369.32
400.08, 0.13, 369.34
399.86, 0.13, 369.36
399.62, 0.12, 369.38
399.37, 0.12, 369.41
399.10, 0.12, 369.43
398.81, 0.12, 369.46
398.49, 0.11, 369.49
¯398.15, 0.11, 369.53
397.77, 0.11, 369.56
397.36, 0.10, 369.60
396.91, 0.10, 369.65
396.43, 0.10, 369.69
395.88, 0.10, 369.75
395.26, 0.09, 369.81
394.59, 0.09, 369.87
393.84, 0.10, 369.95
393.00, 0.10, 370.03
392.13, 0.12, 370.11
391.15, 0.15, 370.21
389.99, 0.17, 370.32
388.63, 0.20, 370.45
386.86, 0.22, 370.63
384.81, 0.25, 370.83
400.99, 0.14, 369.31
400.83, 0.13, 369.33
400.66, 0.13, 369.35
400.48, 0.13, 369.37
400.29, 0.13, 369.39
400.09, 0.13, 369.41
399.87, 0.13, 369.43
399.63, 0.12, 369.46
399.38, 0.12, 369.49
399.11, 0.12, 369.52
398.82, 0.12, 369.55
398.51, 0.11, 369.58
398.16, 0.11, 369.62
397.79, 0.11, 369.66
397.38, 0.11, 369.71
396.94, 0.10, 369.76
396.46, 0.10, 369.81
395.90, 0.10, 369.87
395.29, 0.10, 369.94
394.63, 0.10, 370.01
393.88, 0.10, 370.09
393.06, 0.11, 370.18
392.18, 0.13, 370.28
391.20, 0.15, 370.38
390.05, 0.18, 370.51
388.70, 0.21, 370.66
386.97, 0.23, 370.85
384.89, 0.25, 371.08
401.00, 0.14, 369.37
400.84, 0.13, 369.39
400.67, 0.13, 369.41
400.49, 0.13, 369.43
400.30, 0.13, 369.46
400.10, 0.13, 369.48
399.88, 0.13, 369.51
¯399.65, 0.12, 369.54
399.40, 0.12, 369.57
399.13, 0.12, 369.60
398.84, 0.12, 369.63
398.52, 0.12, 369.67
398.18, 0.11, 369.71
397.81, 0.11, 369.76
397.40, 0.11, 369.81
396.96, 0.11, 369.86
396.48, 0.11, 369.92
395.93, 0.10, 369.99
395.32, 0.10, 370.06
394.66, 0.10, 370.14
393.92, 0.10, 370.23
393.11, 0.11, 370.33
392.24, 0.13, 370.44
391.26, 0.16, 370.56
390.11, 0.18, 370.70
388.77, 0.21, 370.86
387.07, 0.23, 371.07
384.96, 0.26, 371.33
401.01, 0.14, 369.43
400.85, 0.14, 369.45
400.68, 0.13, 369.47
400.50, 0.13, 369.50
400.31, 0.13, 369.52
400.11, 0.13, 369.55
399.89, 0.13, 369.58
399.66, 0.13, 369.61
399.41, 0.12, 369.65
399.14, 0.12, 369.68
398.85, 0.12, 369.72
398.54, 0.12, 369.76
398.20, 0.11, 369.81
397.83, 0.11, 369.86
397.42, 0.11, 369.91
396.98, 0.11, 369.97
396.51, 0.11, 370.03
395.96, 0.10, 370.11
395.36, 0.10, 370.19
394.70, 0.11, 370.28
393.96, 0.11, 370.38
393.16, 0.12, 370.48
392.29, 0.14, 370.60
391.31, 0.16, 370.73
390.17, 0.19, 370.89
388.84, 0.22, 371.07
387.14, 0.24, 371.29
384.99, 0.26, 371.58
401.02, 0.14, 369.49
400.86, 0.14, 369.51
¯400.69, 0.13, 369.54
400.52, 0.13, 369.56
400.32, 0.13, 369.59
400.12, 0.13, 369.62
399.91, 0.13, 369.65
399.67, 0.13, 369.69
399.42, 0.12, 369.72
399.16, 0.12, 369.76
398.87, 0.12, 369.81
398.56, 0.12, 369.85
398.22, 0.11, 369.90
397.85, 0.11, 369.96
397.44, 0.11, 370.02
397.01, 0.11, 370.08
396.53, 0.11, 370.15
395.99, 0.11, 370.23
395.40, 0.11, 370.31
394.74, 0.11, 370.41
394.01, 0.11, 370.52
393.22, 0.12, 370.63
392.34, 0.14, 370.76
391.37, 0.16, 370.91
390.23, 0.19, 371.07
388.99, 0.23, 371.26
388.92, 0.43, 371.27
387.72, 0.52, 371.44
387.65, 0.74, 371.45
387.65, 0.97, 371.45
387.65, 1.19, 371.46
401.03, 0.14, 369.55
400.87, 0.14, 369.57
400.71, 0.14, 369.60
400.53, 0.13, 369.63
400.34, 0.13, 369.66
400.13, 0.13, 369.69
399.92, 0.13, 369.73
399.69, 0.13, 369.76
399.44, 0.13, 369.80
399.17, 0.12, 369.84
398.89, 0.12, 369.89
398.57, 0.12, 369.94
398.23, 0.12, 369.99
397.86, 0.11, 370.05
397.46, 0.11, 370.12
397.03, 0.11, 370.19
396.56, 0.11, 370.26
396.02, 0.11, 370.35
395.43, 0.11, 370.44
394.79, 0.11, 370.54
394.06, 0.12, 370.66
393.27, 0.13, 370.78
¯392.40, 0.15, 370.92
391.42, 0.17, 371.08
390.26, 0.19, 371.26
389.22, 0.25, 371.43
389.20, 0.46, 371.43
389.16, 0.66, 371.44
389.13, 0.87, 371.44
389.13, 1.07, 371.45
389.13, 1.28, 371.45
401.05, 0.14, 369.61
400.89, 0.14, 369.63
400.72, 0.14, 369.66
400.54, 0.13, 369.69
400.35, 0.13, 369.73
400.15, 0.13, 369.76
399.93, 0.13, 369.80
399.70, 0.13, 369.84
399.46, 0.13, 369.88
399.19, 0.12, 369.93
398.90, 0.12, 369.98
398.59, 0.12, 370.03
398.25, 0.12, 370.09
397.89, 0.11, 370.15
397.48, 0.11, 370.22
397.06, 0.11, 370.29
396.59, 0.11, 370.37
396.05, 0.11, 370.46
395.47, 0.11, 370.56
394.83, 0.12, 370.68
394.11, 0.12, 370.80
393.33, 0.13, 370.93
392.45, 0.15, 371.08
391.46, 0.17, 371.25
390.27, 0.19, 371.46
389.73, 0.31, 371.55
389.71, 0.51, 371.55
389.64, 0.71, 371.57
389.64, 0.91, 371.57
389.64, 1.11, 371.57
389.64, 1.31, 371.57
401.06, 0.14, 369.67
400.90, 0.14, 369.70
400.73, 0.14, 369.73
400.55, 0.14, 369.76
400.36, 0.13, 369.79
400.16, 0.13, 369.83
399.95, 0.13, 369.87
399.72, 0.13, 369.91
399.47, 0.13, 369.96
399.21, 0.13, 370.01
398.92, 0.12, 370.06
¯398.61, 0.12, 370.12
398.27, 0.12, 370.18
397.91, 0.12, 370.25
397.51, 0.11, 370.32
397.09, 0.12, 370.40
396.62, 0.12, 370.48
396.09, 0.11, 370.58
395.51, 0.12, 370.69
394.87, 0.12, 370.81
394.16, 0.13, 370.94
393.39, 0.14, 371.08
392.49, 0.15, 371.25
391.50, 0.17, 371.43
390.29, 0.18, 371.65
389.01, 0.22, 371.89
387.43, 0.25, 372.18
385.10, 0.25, 372.61
401.07, 0.14, 369.73
400.91, 0.14, 369.76
400.75, 0.14, 369.79
400.57, 0.14, 369.82
400.38, 0.13, 369.86
400.18, 0.13, 369.90
399.96, 0.13, 369.94
399.74, 0.13, 369.99
399.49, 0.13, 370.04
399.23, 0.13, 370.09
398.94, 0.12, 370.14
398.63, 0.12, 370.21
398.30, 0.12, 370.27
397.93, 0.12, 370.34
397.54, 0.12, 370.42
397.11, 0.12, 370.50
396.65, 0.12, 370.60
396.12, 0.12, 370.70
395.55, 0.12, 370.81
394.91, 0.12, 370.94
394.21, 0.13, 371.08
393.44, 0.14, 371.23
392.52, 0.15, 371.41
391.54, 0.17, 371.60
390.31, 0.18, 371.84
389.06, 0.22, 372.09
387.50, 0.26, 372.40
385.13, 0.25, 372.86
401.08, 0.14, 369.78
400.93, 0.14, 369.82
400.76, 0.14, 369.85
400.58, 0.14, 369.89
400.39, 0.14, 369.93
400.19, 0.13, 369.97
¯399.98, 0.13, 370.01
399.75, 0.13, 370.06
399.51, 0.13, 370.11
399.24, 0.13, 370.17
398.96, 0.12, 370.23
398.65, 0.12, 370.29
398.32, 0.12, 370.36
397.95, 0.12, 370.44
397.56, 0.12, 370.52
397.14, 0.12, 370.61
396.68, 0.12, 370.71
396.16, 0.12, 370.82
395.59, 0.12, 370.93
394.96, 0.13, 371.07
394.26, 0.13, 371.21
393.49, 0.15, 371.38
392.56, 0.15, 371.57
391.58, 0.17, 371.78
390.33, 0.18, 372.04
389.11, 0.22, 372.29
387.58, 0.26, 372.61
385.15, 0.24, 373.12
401.10, 0.14, 369.84
400.94, 0.14, 369.88
400.77, 0.14, 369.91
400.60, 0.14, 369.95
400.41, 0.14, 369.99
400.21, 0.13, 370.04
400.00, 0.13, 370.09
399.77, 0.13, 370.14
399.53, 0.13, 370.19
399.26, 0.13, 370.25
398.98, 0.13, 370.31
398.67, 0.12, 370.38
398.34, 0.12, 370.46
397.98, 0.12, 370.54
397.59, 0.12, 370.62
397.17, 0.12, 370.71
396.71, 0.12, 370.82
396.20, 0.12, 370.93
395.63, 0.13, 371.06
394.99, 0.13, 371.20
394.30, 0.14, 371.35
393.54, 0.15, 371.52
392.60, 0.15, 371.73
391.62, 0.17, 371.95
390.36, 0.18, 372.23
389.16, 0.22, 372.50
387.65, 0.26, 372.83
385.15, 0.24, 373.39
401.11, 0.14, 369.90
¯400.96, 0.14, 369.94
400.79, 0.14, 369.98
400.61, 0.14, 370.02
400.43, 0.14, 370.06
400.23, 0.14, 370.11
400.02, 0.13, 370.16
399.79, 0.13, 370.21
399.55, 0.13, 370.27
399.29, 0.13, 370.33
399.00, 0.13, 370.40
398.70, 0.12, 370.47
398.36, 0.12, 370.55
398.00, 0.12, 370.63
397.62, 0.12, 370.72
397.20, 0.12, 370.82
396.75, 0.13, 370.93
396.24, 0.13, 371.05
395.67, 0.13, 371.18
395.03, 0.13, 371.33
394.35, 0.14, 371.49
393.59, 0.15, 371.67
392.65, 0.15, 371.89
391.66, 0.17, 372.12
390.38, 0.18, 372.42
389.22, 0.22, 372.70
387.72, 0.27, 373.05
382.83, 0.00, 374.20
401.13, 0.14, 369.96
400.97, 0.14, 370.00
400.81, 0.14, 370.04
400.63, 0.14, 370.08
400.44, 0.14, 370.13
400.25, 0.14, 370.18
400.04, 0.14, 370.23
399.81, 0.13, 370.29
399.57, 0.13, 370.35
399.31, 0.13, 370.41
399.02, 0.13, 370.48
398.72, 0.13, 370.56
398.39, 0.12, 370.64
398.03, 0.12, 370.73
397.65, 0.12, 370.82
397.24, 0.12, 370.92
396.78, 0.13, 371.04
396.27, 0.13, 371.16
395.70, 0.13, 371.30
395.06, 0.13, 371.46
394.40, 0.14, 371.63
393.64, 0.16, 371.82
392.69, 0.16, 372.05
391.69, 0.17, 372.30
¯390.40, 0.17, 372.62
389.27, 0.23, 372.90
387.87, 0.28, 373.25
382.89, 0.00, 374.48
401.14, 0.14, 370.02
400.99, 0.14, 370.06
400.82, 0.14, 370.10
400.65, 0.14, 370.15
400.46, 0.14, 370.19
400.27, 0.14, 370.25
400.06, 0.14, 370.30
399.83, 0.13, 370.36
399.59, 0.13, 370.42
399.33, 0.13, 370.49
399.05, 0.13, 370.56
398.74, 0.13, 370.64
398.41, 0.12, 370.73
398.06, 0.12, 370.82
397.68, 0.12, 370.92
397.27, 0.13, 371.03
396.81, 0.13, 371.15
396.30, 0.13, 371.28
395.74, 0.13, 371.43
395.10, 0.13, 371.59
394.45, 0.15, 371.76
393.70, 0.16, 371.96
392.74, 0.16, 372.21
391.72, 0.17, 372.48
390.43, 0.17, 372.81
389.30, 0.22, 373.11
388.02, 0.29, 373.44
382.94, 0.00, 374.77
401.16, 0.14, 370.07
401.00, 0.14, 370.12
400.84, 0.14, 370.16
400.67, 0.14, 370.21
400.48, 0.14, 370.26
400.28, 0.14, 370.31
400.08, 0.14, 370.37
399.85, 0.14, 370.43
399.61, 0.13, 370.50
399.35, 0.13, 370.57
399.07, 0.13, 370.65
398.77, 0.13, 370.73
398.44, 0.13, 370.82
398.09, 0.12, 370.92
397.71, 0.13, 371.02
397.30, 0.13, 371.13
396.84, 0.13, 371.26
396.34, 0.13, 371.40
395.77, 0.13, 371.55
¯395.14, 0.13, 371.72
394.50, 0.15, 371.90
393.75, 0.16, 372.10
392.79, 0.16, 372.37
391.74, 0.17, 372.65
390.47, 0.17, 373.00
389.27, 0.21, 373.33
388.16, 0.30, 373.64
383.00, 0.00, 375.05
401.18, 0.14, 370.13
401.02, 0.14, 370.18
400.86, 0.14, 370.22
400.68, 0.14, 370.27
400.50, 0.14, 370.33
400.30, 0.14, 370.38
400.10, 0.14, 370.44
399.87, 0.14, 370.51
399.63, 0.13, 370.58
399.37, 0.13, 370.65
399.10, 0.13, 370.73
398.80, 0.13, 370.82
398.47, 0.13, 370.91
398.12, 0.13, 371.01
397.74, 0.13, 371.12
397.33, 0.13, 371.24
396.87, 0.13, 371.37
396.37, 0.13, 371.51
395.81, 0.13, 371.67
395.18, 0.14, 371.85
394.55, 0.15, 372.03
393.81, 0.17, 372.25
392.84, 0.16, 372.53
391.77, 0.17, 372.83
390.47, 0.16, 373.21
389.24, 0.21, 373.56
388.31, 0.31, 373.83
383.06, 0.00, 375.34
401.19, 0.15, 370.19
401.04, 0.14, 370.24
400.88, 0.14, 370.28
400.70, 0.14, 370.34
400.52, 0.14, 370.39
400.33, 0.14, 370.45
400.12, 0.14, 370.51
399.89, 0.14, 370.58
399.66, 0.14, 370.65
399.40, 0.13, 370.73
399.12, 0.13, 370.81
398.82, 0.13, 370.90
398.50, 0.13, 371.00
398.15, 0.13, 371.10
¯397.77, 0.13, 371.22
397.36, 0.13, 371.34
396.91, 0.13, 371.48
396.40, 0.13, 371.63
395.84, 0.13, 371.80
395.23, 0.14, 371.98
394.60, 0.16, 372.17
393.86, 0.17, 372.39
392.89, 0.16, 372.68
391.80, 0.17, 373.01
390.45, 0.16, 373.42
389.29, 0.21, 373.77
388.45, 0.32, 374.02
383.12, 0.00, 375.62
401.21, 0.15, 370.25
401.06, 0.15, 370.29
400.90, 0.14, 370.35
400.72, 0.14, 370.40
400.54, 0.14, 370.46
400.35, 0.14, 370.52
400.14, 0.14, 370.58
399.92, 0.14, 370.65
399.68, 0.14, 370.73
399.42, 0.13, 370.81
399.15, 0.13, 370.89
398.85, 0.13, 370.99
398.52, 0.13, 371.09
398.18, 0.13, 371.20
397.80, 0.13, 371.32
397.39, 0.13, 371.44
396.94, 0.13, 371.59
396.44, 0.13, 371.74
395.88, 0.14, 371.92
395.28, 0.14, 372.11
394.65, 0.16, 372.31
393.91, 0.17, 372.54
392.94, 0.17, 372.84
391.82, 0.16, 373.19
390.43, 0.15, 373.63
389.35, 0.21, 373.97
388.59, 0.33, 374.20
383.18, 0.00, 375.91
401.23, 0.15, 370.30
401.08, 0.15, 370.35
400.92, 0.14, 370.41
400.74, 0.14, 370.46
400.56, 0.14, 370.52
400.37, 0.14, 370.59
400.16, 0.14, 370.65
399.94, 0.14, 370.73
399.70, 0.14, 370.80
¯399.45, 0.14, 370.89
399.17, 0.13, 370.98
398.88, 0.13, 371.07
398.55, 0.13, 371.18
398.21, 0.13, 371.29
397.84, 0.13, 371.41
397.43, 0.13, 371.55
396.98, 0.13, 371.70
396.48, 0.14, 371.86
395.92, 0.14, 372.04
395.33, 0.15, 372.24
394.70, 0.16, 372.44
393.96, 0.17, 372.68
392.99, 0.17, 373.00
391.83, 0.16, 373.38
390.41, 0.14, 373.84
389.42, 0.21, 374.17
388.70, 0.34, 374.40
383.24, 0.00, 376.19
401.25, 0.15, 370.36
401.10, 0.15, 370.41
400.94, 0.15, 370.47
400.77, 0.14, 370.53
400.58, 0.14, 370.59
400.39, 0.14, 370.65
400.19, 0.14, 370.72
399.97, 0.14, 370.80
399.73, 0.14, 370.88
399.48, 0.14, 370.96
399.20, 0.14, 371.06
398.91, 0.13, 371.16
398.58, 0.13, 371.27
398.24, 0.13, 371.39
397.87, 0.13, 371.51
397.46, 0.13, 371.65
397.01, 0.13, 371.81
396.51, 0.14, 371.97
395.96, 0.14, 372.16
395.37, 0.15, 372.36
394.75, 0.17, 372.57
394.01, 0.18, 372.83
393.04, 0.17, 373.16
391.84, 0.15, 373.57
390.40, 0.13, 374.06
389.49, 0.21, 374.37
388.77, 0.34, 374.61
383.30, 0.00, 376.48
401.27, 0.15, 370.42
401.12, 0.15, 370.47
400.96, 0.15, 370.53
400.79, 0.15, 370.59
¯400.61, 0.14, 370.65
400.42, 0.14, 370.72
400.21, 0.14, 370.79
399.99, 0.14, 370.87
399.76, 0.14, 370.95
399.50, 0.14, 371.04
399.23, 0.14, 371.14
398.94, 0.13, 371.24
398.61, 0.13, 371.36
398.27, 0.13, 371.48
397.90, 0.13, 371.61
397.49, 0.13, 371.76
397.05, 0.14, 371.91
396.55, 0.14, 372.09
396.00, 0.14, 372.28
395.42, 0.15, 372.49
394.81, 0.17, 372.71
394.06, 0.18, 372.97
393.09, 0.17, 373.32
391.85, 0.14, 373.76
390.38, 0.12, 374.28
389.56, 0.21, 374.57
388.85, 0.34, 374.82
384.93, 0.16, 376.21
401.29, 0.15, 370.47
401.14, 0.15, 370.53
400.98, 0.15, 370.59
400.81, 0.15, 370.65
400.63, 0.15, 370.72
400.44, 0.14, 370.79
400.24, 0.14, 370.86
400.02, 0.14, 370.94
399.78, 0.14, 371.03
399.53, 0.14, 371.12
399.26, 0.14, 371.22
398.97, 0.14, 371.33
398.65, 0.13, 371.45
398.30, 0.13, 371.57
397.93, 0.13, 371.71
397.53, 0.14, 371.86
397.08, 0.14, 372.02
396.59, 0.14, 372.20
396.04, 0.14, 372.41
395.47, 0.15, 372.61
394.86, 0.17, 372.84
394.10, 0.18, 373.12
393.13, 0.17, 373.48
391.86, 0.14, 373.94
390.36, 0.11, 374.50
389.63, 0.22, 374.77
388.93, 0.35, 375.02
¯385.16, 0.18, 376.41
385.16, 0.45, 376.41
385.16, 0.72, 376.41
385.16, 0.99, 376.40
401.31, 0.15, 370.53
401.16, 0.15, 370.59
401.00, 0.15, 370.65
400.83, 0.15, 370.71
400.65, 0.15, 370.78
400.46, 0.14, 370.85
400.26, 0.14, 370.93
400.04, 0.14, 371.01
399.81, 0.14, 371.10
399.56, 0.14, 371.20
399.29, 0.14, 371.30
399.00, 0.14, 371.41
398.68, 0.13, 371.54
398.34, 0.13, 371.67
397.97, 0.13, 371.81
397.57, 0.14, 371.96
397.12, 0.14, 372.13
396.63, 0.14, 372.32
396.08, 0.14, 372.53
395.53, 0.16, 372.74
394.91, 0.17, 372.97
394.15, 0.18, 373.27
393.18, 0.17, 373.64
391.88, 0.13, 374.13
390.35, 0.10, 374.72
389.69, 0.22, 374.97
389.06, 0.36, 375.21
386.37, 0.30, 376.24
386.37, 0.55, 376.23
386.37, 0.81, 376.23
386.36, 1.06, 376.23
401.33, 0.15, 370.59
401.18, 0.15, 370.65
401.02, 0.15, 370.71
400.86, 0.15, 370.77
400.68, 0.15, 370.84
400.49, 0.15, 370.92
400.29, 0.14, 371.00
400.07, 0.14, 371.09
399.84, 0.14, 371.18
399.59, 0.14, 371.28
399.32, 0.14, 371.38
399.03, 0.14, 371.50
398.71, 0.14, 371.62
398.37, 0.13, 371.76
398.00, 0.14, 371.90
397.60, 0.14, 372.06
¯397.16, 0.14, 372.24
396.67, 0.14, 372.43
396.13, 0.14, 372.65
395.58, 0.16, 372.87
394.95, 0.17, 373.11
394.19, 0.18, 373.41
393.21, 0.17, 373.80
391.89, 0.13, 374.33
390.41, 0.10, 374.91
389.82, 0.23, 375.15
389.20, 0.37, 375.39
386.37, 0.29, 376.51
386.37, 0.55, 376.51
386.37, 0.81, 376.50
386.37, 1.06, 376.50
401.35, 0.15, 370.64
401.20, 0.15, 370.70
401.05, 0.15, 370.77
400.88, 0.15, 370.84
400.70, 0.15, 370.91
400.52, 0.15, 370.99
400.31, 0.15, 371.07
400.10, 0.14, 371.16
399.87, 0.14, 371.25
399.62, 0.14, 371.35
399.35, 0.14, 371.46
399.06, 0.14, 371.58
398.75, 0.14, 371.71
398.40, 0.14, 371.85
398.04, 0.14, 372.00
397.64, 0.14, 372.17
397.20, 0.14, 372.35
396.71, 0.14, 372.55
396.17, 0.14, 372.77
395.63, 0.16, 372.99
394.97, 0.17, 373.26
394.24, 0.18, 373.56
393.23, 0.16, 373.97
391.88, 0.12, 374.53
390.51, 0.11, 375.09
389.95, 0.24, 375.32
389.34, 0.38, 375.57
386.37, 0.29, 376.79
386.37, 0.55, 376.78
386.37, 0.80, 376.78
386.37, 1.06, 376.77
401.38, 0.15, 370.70
401.23, 0.15, 370.76
401.07, 0.15, 370.83
400.91, 0.15, 370.90
400.73, 0.15, 370.97
¯400.54, 0.15, 371.05
400.34, 0.15, 371.14
400.13, 0.15, 371.23
399.90, 0.14, 371.33
399.65, 0.14, 371.43
399.38, 0.14, 371.54
399.10, 0.14, 371.67
398.78, 0.14, 371.80
398.44, 0.14, 371.94
398.08, 0.14, 372.10
397.68, 0.14, 372.27
397.24, 0.14, 372.45
396.76, 0.14, 372.66
396.22, 0.15, 372.89
395.67, 0.16, 373.12
394.99, 0.16, 373.41
394.29, 0.18, 373.71
393.26, 0.16, 374.14
391.87, 0.11, 374.73
390.64, 0.12, 375.26
390.08, 0.25, 375.49
389.48, 0.39, 375.74
386.37, 0.28, 377.07
386.37, 0.54, 377.06
386.37, 0.80, 377.06
386.37, 1.06, 377.05
401.40, 0.15, 370.75
401.25, 0.15, 370.82
401.10, 0.15, 370.89
400.93, 0.15, 370.96
400.76, 0.15, 371.04
400.57, 0.15, 371.12
400.37, 0.15, 371.20
400.16, 0.15, 371.30
399.93, 0.15, 371.40
399.68, 0.14, 371.51
399.42, 0.14, 371.62
399.13, 0.14, 371.75
398.82, 0.14, 371.89
398.48, 0.14, 372.04
398.12, 0.14, 372.19
397.72, 0.14, 372.37
397.28, 0.14, 372.56
396.80, 0.14, 372.77
396.27, 0.15, 373.00
395.69, 0.16, 373.26
395.02, 0.16, 373.55
394.34, 0.18, 373.85
393.29, 0.16, 374.31
391.86, 0.10, 374.94
390.77, 0.13, 375.42
¯390.21, 0.26, 375.66
389.62, 0.40, 375.92
386.37, 0.28, 377.35
386.37, 0.54, 377.34
386.37, 0.80, 377.34
386.37, 1.06, 377.33
401.42, 0.15, 370.81
401.28, 0.15, 370.87
401.12, 0.15, 370.94
400.96, 0.15, 371.02
400.78, 0.15, 371.10
400.59, 0.15, 371.18
400.40, 0.15, 371.27
400.19, 0.15, 371.37
399.96, 0.15, 371.47
399.71, 0.14, 371.58
399.45, 0.14, 371.70
399.16, 0.14, 371.83
398.85, 0.14, 371.97
398.52, 0.14, 372.13
398.15, 0.14, 372.29
397.76, 0.14, 372.47
397.33, 0.14, 372.67
396.84, 0.14, 372.89
396.31, 0.15, 373.13
395.71, 0.15, 373.40
395.06, 0.16, 373.70
394.39, 0.18, 374.00
393.31, 0.15, 374.49
391.93, 0.10, 375.11
390.91, 0.14, 375.58
390.34, 0.27, 375.83
386.37, 0.01, 377.64
386.37, 0.27, 377.63
386.37, 0.53, 377.63
386.37, 0.79, 377.62
386.37, 1.05, 377.62
401.45, 0.15, 370.86
401.30, 0.15, 370.93
401.15, 0.15, 371.00
400.98, 0.15, 371.08
400.81, 0.15, 371.16
400.62, 0.15, 371.25
400.43, 0.15, 371.34
400.22, 0.15, 371.44
399.99, 0.15, 371.55
399.75, 0.15, 371.66
399.49, 0.14, 371.78
399.20, 0.14, 371.92
398.89, 0.14, 372.06
398.55, 0.14, 372.22
¯398.19, 0.14, 372.39
397.80, 0.14, 372.57
397.37, 0.14, 372.77
396.89, 0.15, 373.00
396.33, 0.14, 373.26
395.74, 0.15, 373.54
395.09, 0.16, 373.84
394.44, 0.18, 374.14
393.35, 0.15, 374.66
392.04, 0.11, 375.27
391.05, 0.15, 375.73
390.47, 0.28, 376.00
386.39, 0.00, 377.92
386.37, 0.26, 377.92
386.37, 0.53, 377.92
386.37, 0.79, 377.91
386.37, 1.05, 377.90
401.47, 0.15, 370.92
401.33, 0.15, 370.99
401.17, 0.15, 371.06
401.01, 0.15, 371.14
400.84, 0.15, 371.23
400.65, 0.15, 371.32
400.46, 0.15, 371.41
400.25, 0.15, 371.51
400.02, 0.15, 371.62
399.78, 0.15, 371.73
399.52, 0.15, 371.86
399.24, 0.14, 372.00
398.93, 0.14, 372.15
398.59, 0.14, 372.31
398.23, 0.14, 372.48
397.84, 0.14, 372.67
397.41, 0.14, 372.88
396.93, 0.15, 373.11
396.36, 0.14, 373.39
395.76, 0.14, 373.68
395.13, 0.15, 373.98
394.49, 0.18, 374.29
393.38, 0.14, 374.83
392.14, 0.12, 375.43
391.18, 0.16, 375.89
390.59, 0.29, 376.17
390.49, 0.48, 376.22
390.48, 0.69, 376.22
390.47, 0.90, 376.22
390.46, 1.11, 376.22
390.45, 1.32, 376.22
401.50, 0.16, 370.97
401.35, 0.16, 371.04
401.20, 0.15, 371.12
¯401.04, 0.15, 371.20
400.86, 0.15, 371.29
400.68, 0.15, 371.38
400.49, 0.15, 371.48
400.28, 0.15, 371.58
400.06, 0.15, 371.69
399.82, 0.15, 371.81
399.56, 0.15, 371.94
399.27, 0.15, 372.08
398.97, 0.14, 372.23
398.64, 0.14, 372.40
398.28, 0.14, 372.58
397.89, 0.14, 372.77
397.46, 0.15, 372.99
396.98, 0.15, 373.23
396.39, 0.14, 373.52
395.79, 0.14, 373.82
395.17, 0.15, 374.12
394.54, 0.18, 374.44
393.41, 0.14, 375.00
392.25, 0.13, 375.58
391.32, 0.18, 376.05
390.73, 0.30, 376.33
390.58, 0.49, 376.41
390.58, 0.70, 376.40
390.58, 0.91, 376.40
390.58, 1.11, 376.39
390.58, 1.32, 376.39
401.52, 0.16, 371.03
401.38, 0.16, 371.10
401.23, 0.15, 371.18
401.06, 0.15, 371.26
400.89, 0.15, 371.35
400.71, 0.15, 371.45
400.52, 0.15, 371.54
400.31, 0.15, 371.65
400.09, 0.15, 371.76
399.85, 0.15, 371.89
399.59, 0.15, 372.02
399.31, 0.15, 372.16
399.01, 0.15, 372.32
398.68, 0.14, 372.49
398.32, 0.14, 372.67
397.93, 0.14, 372.87
397.50, 0.15, 373.09
397.02, 0.15, 373.34
396.42, 0.13, 373.65
395.82, 0.13, 373.96
395.21, 0.15, 374.27
394.58, 0.18, 374.59
393.34, 0.12, 375.23
¯392.36, 0.13, 375.74
391.45, 0.19, 376.20
390.87, 0.31, 376.49
390.58, 0.48, 376.64
390.58, 0.69, 376.64
390.58, 0.90, 376.63
390.58, 1.11, 376.63
390.58, 1.32, 376.62
401.55, 0.16, 371.08
401.41, 0.16, 371.16
401.25, 0.15, 371.24
401.09, 0.15, 371.32
400.92, 0.15, 371.41
400.74, 0.15, 371.51
400.55, 0.15, 371.61
400.35, 0.15, 371.72
400.13, 0.15, 371.83
399.89, 0.15, 371.96
399.63, 0.15, 372.10
399.35, 0.15, 372.24
399.05, 0.15, 372.40
398.72, 0.14, 372.58
398.36, 0.14, 372.77
397.98, 0.15, 372.97
397.55, 0.15, 373.20
397.07, 0.15, 373.45
396.45, 0.13, 373.78
395.85, 0.13, 374.10
395.26, 0.15, 374.41
394.63, 0.18, 374.74
393.28, 0.10, 375.46
392.46, 0.14, 375.89
391.79, 0.23, 376.24
391.79, 0.42, 376.24
391.79, 0.62, 376.23
391.79, 0.82, 376.23
391.79, 1.01, 376.22
391.79, 1.20, 376.22
391.79, 1.40, 376.21
401.58, 0.16, 371.13
401.43, 0.16, 371.21
401.28, 0.15, 371.29
401.12, 0.15, 371.38
400.95, 0.15, 371.48
400.77, 0.15, 371.57
400.58, 0.15, 371.68
400.38, 0.15, 371.79
400.16, 0.15, 371.91
399.92, 0.15, 372.03
399.67, 0.15, 372.17
399.39, 0.15, 372.33
¯399.09, 0.15, 372.49
398.76, 0.15, 372.67
398.40, 0.14, 372.86
398.02, 0.15, 373.07
397.59, 0.15, 373.31
397.11, 0.15, 373.57
396.48, 0.12, 373.92
395.88, 0.12, 374.24
395.30, 0.15, 374.56
394.67, 0.18, 374.90
393.24, 0.08, 375.68
392.57, 0.15, 376.04
391.79, 0.22, 376.47
391.79, 0.42, 376.46
391.79, 0.61, 376.46
391.79, 0.81, 376.45
391.79, 1.01, 376.44
391.79, 1.20, 376.44
391.79, 1.40, 376.43
401.60, 0.16, 371.19
401.46, 0.16, 371.27
401.31, 0.16, 371.35
401.15, 0.15, 371.44
400.98, 0.15, 371.54
400.80, 0.15, 371.64
400.62, 0.15, 371.74
400.42, 0.15, 371.85
400.20, 0.15, 371.98
399.96, 0.15, 372.11
399.71, 0.15, 372.25
399.43, 0.15, 372.41
399.13, 0.15, 372.57
398.81, 0.15, 372.76
398.45, 0.15, 372.96
398.06, 0.15, 373.17
397.64, 0.15, 373.41
397.16, 0.15, 373.68
396.51, 0.12, 374.04
395.91, 0.12, 374.38
395.34, 0.15, 374.70
394.71, 0.17, 375.05
393.30, 0.08, 375.85
392.64, 0.15, 376.21
391.85, 0.22, 376.66
391.79, 0.41, 376.69
391.79, 0.61, 376.68
391.79, 0.81, 376.67
391.79, 1.00, 376.67
391.79, 1.20, 376.66
391.79, 1.40, 376.66
401.63, 0.16, 371.24
¯401.49, 0.16, 371.32
401.34, 0.16, 371.41
401.18, 0.15, 371.50
401.01, 0.15, 371.60
400.83, 0.15, 371.70
400.65, 0.15, 371.81
400.45, 0.15, 371.92
400.23, 0.15, 372.05
400.00, 0.15, 372.18
399.75, 0.15, 372.33
399.47, 0.15, 372.49
399.18, 0.15, 372.66
398.85, 0.15, 372.85
398.50, 0.15, 373.05
398.11, 0.15, 373.27
397.68, 0.15, 373.52
397.20, 0.15, 373.80
396.55, 0.12, 374.17
395.95, 0.12, 374.52
395.39, 0.14, 374.85
394.74, 0.17, 375.22
393.37, 0.08, 376.01
392.71, 0.15, 376.39
391.98, 0.23, 376.81
391.79, 0.40, 376.91
391.79, 0.60, 376.91
391.79, 0.80, 376.90
391.79, 1.00, 376.89
391.79, 1.20, 376.89
391.79, 1.39, 376.88
401.66, 0.16, 371.30
401.52, 0.16, 371.38
401.37, 0.16, 371.47
401.21, 0.15, 371.56
401.04, 0.15, 371.66
400.87, 0.15, 371.76
400.68, 0.15, 371.87
400.49, 0.15, 371.99
400.27, 0.15, 372.12
400.04, 0.15, 372.26
399.79, 0.15, 372.41
399.52, 0.15, 372.57
399.22, 0.15, 372.74
398.90, 0.15, 372.93
398.56, 0.15, 373.14
398.15, 0.15, 373.38
397.73, 0.15, 373.63
397.24, 0.14, 373.91
396.59, 0.11, 374.30
395.99, 0.11, 374.66
395.43, 0.14, 374.99
¯394.71, 0.15, 375.42
393.44, 0.08, 376.18
392.78, 0.15, 376.57
392.12, 0.24, 376.95
391.79, 0.39, 377.14
391.79, 0.59, 377.14
391.79, 0.79, 377.13
391.79, 0.99, 377.12
391.79, 1.19, 377.12
391.79, 1.39, 377.11
401.69, 0.16, 371.35
401.55, 0.16, 371.43
401.40, 0.16, 371.52
401.24, 0.15, 371.62
401.07, 0.15, 371.72
400.90, 0.15, 371.83
400.72, 0.15, 371.94
400.52, 0.16, 372.06
400.31, 0.16, 372.19
400.08, 0.16, 372.33
399.83, 0.15, 372.48
399.56, 0.15, 372.65
399.26, 0.15, 372.83
398.94, 0.15, 373.02
398.61, 0.16, 373.22
398.20, 0.15, 373.48
397.78, 0.15, 373.73
397.29, 0.14, 374.03
396.64, 0.11, 374.43
396.04, 0.11, 374.80
395.47, 0.14, 375.14
394.68, 0.13, 375.62
393.50, 0.08, 376.34
392.85, 0.15, 376.74
392.21, 0.24, 377.13
391.79, 0.38, 377.38
391.79, 0.59, 377.37
391.79, 0.79, 377.36
391.79, 0.99, 377.36
391.79, 1.19, 377.35
391.79, 1.39, 377.34
401.72, 0.16, 371.40
401.58, 0.16, 371.49
401.43, 0.16, 371.58
401.27, 0.15, 371.68
401.11, 0.15, 371.78
400.94, 0.15, 371.89
400.75, 0.16, 372.01
400.56, 0.16, 372.13
400.35, 0.16, 372.26
400.12, 0.16, 372.40
¯399.87, 0.16, 372.56
399.60, 0.15, 372.73
399.31, 0.15, 372.91
399.00, 0.15, 373.11
398.67, 0.16, 373.31
398.25, 0.15, 373.58
397.83, 0.15, 373.84
397.33, 0.14, 374.15
396.68, 0.11, 374.56
396.09, 0.11, 374.93
395.51, 0.13, 375.30
394.65, 0.12, 375.83
393.57, 0.08, 376.51
392.92, 0.15, 376.92
392.30, 0.25, 377.30
391.79, 0.37, 377.61
391.79, 0.58, 377.61
391.79, 0.78, 377.60
391.79, 0.99, 377.59
391.79, 1.19, 377.59
391.79, 1.39, 377.58
401.75, 0.16, 371.45
401.61, 0.16, 371.54
401.46, 0.16, 371.64
401.31, 0.16, 371.74
401.14, 0.15, 371.84
400.97, 0.15, 371.95
400.79, 0.16, 372.07
400.60, 0.16, 372.19
400.39, 0.16, 372.33
400.16, 0.16, 372.48
399.91, 0.16, 372.63
399.65, 0.16, 372.81
399.36, 0.15, 372.99
399.06, 0.16, 373.19
398.73, 0.16, 373.40
398.29, 0.15, 373.68
397.88, 0.15, 373.95
397.37, 0.14, 374.27
396.73, 0.11, 374.69
396.13, 0.11, 375.07
395.54, 0.13, 375.45
394.62, 0.10, 376.05
393.64, 0.08, 376.68
393.05, 0.16, 377.06
392.39, 0.25, 377.48
391.79, 0.37, 377.86
391.79, 0.57, 377.85
391.79, 0.78, 377.84
391.79, 0.98, 377.83
391.79, 1.19, 377.83
¯391.79, 1.39, 377.82
401.78, 0.16, 371.51
401.64, 0.16, 371.60
401.49, 0.16, 371.69
401.34, 0.16, 371.80
401.18, 0.15, 371.90
401.01, 0.16, 372.02
400.83, 0.16, 372.13
400.63, 0.16, 372.26
400.43, 0.16, 372.40
400.20, 0.16, 372.55
399.96, 0.16, 372.71
399.69, 0.16, 372.88
399.41, 0.16, 373.07
399.11, 0.16, 373.27
398.78, 0.17, 373.49
398.34, 0.15, 373.78
397.93, 0.15, 374.05
397.42, 0.14, 374.39
396.77, 0.10, 374.82
396.17, 0.10, 375.22
395.58, 0.12, 375.60
394.59, 0.08, 376.26
393.71, 0.08, 376.84
393.19, 0.18, 377.18
392.48, 0.25, 377.65
391.86, 0.36, 378.06
391.79, 0.56, 378.09
391.79, 0.77, 378.09
391.79, 0.98, 378.08
391.79, 1.18, 378.07
391.79, 1.39, 378.06
401.81, 0.16, 371.56
401.67, 0.16, 371.65
401.53, 0.16, 371.75
401.37, 0.16, 371.85
401.21, 0.15, 371.96
401.04, 0.16, 372.08
400.86, 0.16, 372.20
400.67, 0.16, 372.33
400.47, 0.16, 372.47
400.24, 0.16, 372.62
400.00, 0.16, 372.78
399.74, 0.16, 372.96
399.46, 0.16, 373.15
399.17, 0.17, 373.35
398.84, 0.17, 373.57
398.39, 0.15, 373.88
397.98, 0.15, 374.16
397.47, 0.13, 374.51
396.82, 0.10, 374.94
¯396.21, 0.10, 375.36
395.62, 0.12, 375.76
394.56, 0.06, 376.48
393.80, 0.09, 377.00
393.34, 0.19, 377.31
392.57, 0.26, 377.83
391.95, 0.37, 378.24
391.79, 0.56, 378.34
391.79, 0.76, 378.33
391.79, 0.97, 378.33
391.79, 1.18, 378.32
391.79, 1.39, 378.31
401.84, 0.16, 371.61
401.70, 0.16, 371.71
401.56, 0.16, 371.81
401.41, 0.16, 371.91
401.25, 0.16, 372.02
401.08, 0.16, 372.14
400.90, 0.16, 372.26
400.71, 0.16, 372.40
400.51, 0.16, 372.54
400.29, 0.16, 372.69
400.05, 0.16, 372.86
399.78, 0.16, 373.04
399.52, 0.17, 373.23
399.23, 0.17, 373.43
398.90, 0.17, 373.66
398.45, 0.15, 373.98
398.03, 0.15, 374.26
397.51, 0.13, 374.63
396.88, 0.10, 375.07
396.25, 0.09, 375.51
395.66, 0.11, 375.91
394.53, 0.04, 376.71
393.94, 0.10, 377.12
393.48, 0.20, 377.43
392.73, 0.27, 377.95
391.79, 0.34, 378.60
391.79, 0.55, 378.60
391.79, 0.76, 378.59
391.79, 0.97, 378.58
391.79, 1.18, 378.57
391.79, 1.39, 378.56
401.87, 0.16, 371.66
401.73, 0.16, 371.76
401.59, 0.16, 371.86
401.44, 0.16, 371.97
401.28, 0.16, 372.08
401.12, 0.16, 372.20
400.94, 0.16, 372.33
400.75, 0.16, 372.46
¯400.55, 0.16, 372.61
400.33, 0.16, 372.76
400.09, 0.16, 372.93
399.84, 0.16, 373.11
399.58, 0.17, 373.30
399.29, 0.18, 373.50
398.96, 0.18, 373.74
398.51, 0.15, 374.07
398.09, 0.15, 374.37
397.56, 0.13, 374.74
396.94, 0.10, 375.19
396.29, 0.09, 375.65
395.71, 0.11, 376.07
394.51, 0.02, 376.93
394.08, 0.11, 377.24
393.62, 0.21, 377.56
392.90, 0.29, 378.07
391.80, 0.33, 378.86
391.80, 0.54, 378.85
391.80, 0.75, 378.84
391.80, 0.96, 378.83
391.80, 1.17, 378.83
391.80, 1.39, 378.82
401.90, 0.16, 371.71
401.77, 0.16, 371.81
401.63, 0.16, 371.92
401.48, 0.16, 372.03
401.32, 0.16, 372.14
401.16, 0.16, 372.26
400.98, 0.16, 372.39
400.79, 0.16, 372.53
400.59, 0.16, 372.68
400.38, 0.16, 372.83
400.14, 0.16, 373.01
399.89, 0.17, 373.19
399.64, 0.17, 373.38
399.35, 0.18, 373.58
399.02, 0.18, 373.83
398.57, 0.15, 374.16
398.14, 0.15, 374.47
397.61, 0.13, 374.86
397.01, 0.10, 375.31
396.34, 0.08, 375.80
395.82, 0.12, 376.18
395.78, 0.27, 376.20
395.77, 0.42, 376.20
395.76, 0.57, 376.20
395.75, 0.73, 376.20
395.74, 0.88, 376.20
395.73, 1.03, 376.20
395.72, 1.19, 376.20
¯391.80, 0.96, 379.10
391.80, 1.17, 379.09
391.80, 1.38, 379.08
401.93, 0.16, 371.77
401.80, 0.16, 371.86
401.66, 0.16, 371.97
401.51, 0.16, 372.08
401.36, 0.16, 372.20
401.19, 0.16, 372.32
401.02, 0.16, 372.45
400.83, 0.16, 372.59
400.63, 0.16, 372.74
400.42, 0.16, 372.90
400.19, 0.16, 373.08
399.95, 0.17, 373.26
399.69, 0.18, 373.45
399.42, 0.18, 373.66
399.08, 0.18, 373.91
398.64, 0.16, 374.25
398.20, 0.15, 374.58
397.67, 0.13, 374.98
397.07, 0.10, 375.43
396.38, 0.08, 375.95
396.01, 0.15, 376.22
396.00, 0.30, 376.23
396.00, 0.45, 376.22
396.00, 0.60, 376.22
396.00, 0.76, 376.21
396.00, 0.91, 376.20
395.99, 1.06, 376.20
395.98, 1.21, 376.20
395.97, 1.36, 376.20
395.96, 1.51, 376.20
395.95, 1.66, 376.20
401.97, 0.16, 371.82
401.84, 0.16, 371.92
401.70, 0.16, 372.03
401.55, 0.16, 372.14
401.40, 0.16, 372.26
401.23, 0.16, 372.38
401.06, 0.16, 372.52
400.88, 0.16, 372.66
400.68, 0.16, 372.81
400.47, 0.16, 372.98
400.24, 0.17, 373.15
400.01, 0.17, 373.33
399.75, 0.18, 373.53
399.48, 0.19, 373.74
399.15, 0.19, 373.99
398.71, 0.16, 374.33
398.25, 0.15, 374.68
¯397.73, 0.13, 375.09
397.14, 0.10, 375.55
396.43, 0.07, 376.10
396.01, 0.13, 376.41
396.00, 0.28, 376.42
396.00, 0.44, 376.41
396.00, 0.59, 376.41
396.00, 0.75, 376.40
396.00, 0.90, 376.39
396.00, 1.05, 376.39
396.00, 1.21, 376.38
396.00, 1.36, 376.37
396.00, 1.51, 376.37
396.00, 1.66, 376.36
402.00, 0.16, 371.87
401.87, 0.16, 371.97
401.73, 0.16, 372.08
401.59, 0.16, 372.20
401.43, 0.16, 372.32
401.27, 0.16, 372.44
401.10, 0.16, 372.58
400.92, 0.16, 372.72
400.72, 0.16, 372.88
400.51, 0.16, 373.05
400.30, 0.17, 373.22
400.06, 0.18, 373.40
399.81, 0.19, 373.60
399.54, 0.19, 373.81
399.21, 0.19, 374.08
398.77, 0.17, 374.42
398.31, 0.15, 374.79
397.79, 0.13, 375.20
397.20, 0.11, 375.67
396.47, 0.07, 376.25
396.00, 0.11, 376.62
396.00, 0.27, 376.62
396.00, 0.43, 376.61
396.00, 0.58, 376.60
396.00, 0.74, 376.59
396.00, 0.89, 376.59
396.00, 1.05, 376.58
396.00, 1.20, 376.57
396.00, 1.36, 376.57
396.00, 1.51, 376.56
396.00, 1.66, 376.55
402.04, 0.16, 371.92
401.91, 0.16, 372.02
401.77, 0.16, 372.13
401.62, 0.16, 372.25
401.47, 0.16, 372.37
401.31, 0.16, 372.50
¯401.14, 0.16, 372.64
400.96, 0.16, 372.79
400.77, 0.16, 372.95
400.56, 0.17, 373.12
400.35, 0.18, 373.28
400.12, 0.18, 373.47
399.87, 0.19, 373.67
399.60, 0.20, 373.89
399.27, 0.19, 374.16
398.84, 0.17, 374.51
398.37, 0.15, 374.89
397.85, 0.13, 375.31
397.27, 0.11, 375.79
396.54, 0.07, 376.38
396.00, 0.10, 376.82
396.00, 0.25, 376.81
396.00, 0.41, 376.81
396.00, 0.57, 376.80
396.00, 0.73, 376.79
396.00, 0.89, 376.78
396.00, 1.04, 376.78
396.00, 1.20, 376.77
396.00, 1.35, 376.76
396.00, 1.51, 376.75
396.00, 1.66, 376.75
402.07, 0.16, 371.97
401.94, 0.16, 372.07
401.81, 0.16, 372.19
401.66, 0.16, 372.31
401.51, 0.16, 372.43
401.36, 0.16, 372.56
401.19, 0.16, 372.70
401.01, 0.16, 372.85
400.81, 0.16, 373.01
400.61, 0.17, 373.19
400.41, 0.18, 373.35
400.18, 0.19, 373.54
399.93, 0.19, 373.74
399.67, 0.20, 373.97
399.34, 0.20, 374.24
398.91, 0.17, 374.60
398.43, 0.15, 375.00
397.92, 0.13, 375.42
397.34, 0.11, 375.91
396.61, 0.07, 376.52
396.00, 0.08, 377.03
396.00, 0.24, 377.02
396.00, 0.40, 377.01
396.00, 0.56, 377.00
396.00, 0.72, 376.99
396.00, 0.88, 376.99
¯396.00, 1.03, 376.98
396.00, 1.19, 376.97
396.00, 1.35, 376.96
396.00, 1.50, 376.95
396.00, 1.66, 376.95
402.11, 0.16, 372.02
401.98, 0.16, 372.12
401.85, 0.16, 372.24
401.70, 0.16, 372.36
401.55, 0.16, 372.49
401.40, 0.16, 372.62
401.23, 0.16, 372.76
401.05, 0.16, 372.92
400.86, 0.17, 373.08
400.65, 0.17, 373.26
400.46, 0.18, 373.42
400.24, 0.19, 373.61
400.00, 0.20, 373.82
399.73, 0.21, 374.04
399.40, 0.20, 374.32
398.98, 0.18, 374.68
398.49, 0.15, 375.10
397.99, 0.13, 375.53
397.41, 0.11, 376.03
396.68, 0.07, 376.65
396.00, 0.06, 377.23
396.00, 0.22, 377.22
396.00, 0.39, 377.22
396.00, 0.55, 377.21
396.00, 0.71, 377.20
396.00, 0.87, 377.19
396.00, 1.03, 377.18
396.00, 1.19, 377.17
396.00, 1.34, 377.17
396.00, 1.50, 377.16
396.00, 1.66, 377.15
402.14, 0.16, 372.07
402.02, 0.16, 372.18
401.88, 0.16, 372.29
401.74, 0.16, 372.42
401.60, 0.16, 372.55
401.44, 0.16, 372.68
401.27, 0.16, 372.83
401.10, 0.16, 372.98
400.91, 0.17, 373.15
400.70, 0.17, 373.33
400.51, 0.18, 373.49
400.30, 0.19, 373.68
400.06, 0.20, 373.89
399.80, 0.21, 374.11
399.47, 0.20, 374.40
¯399.05, 0.18, 374.77
398.56, 0.15, 375.20
398.06, 0.13, 375.64
397.48, 0.11, 376.15
