žVERSION 0.7
FIELDS x y z
SIZE 8 8 8
TYPE F F F
COUNT 1 1 1
WIDTH 2271
HEIGHT 1
VIEWPOINT 329.17, 7.53, 368.44 1 336.19, 2.07, 387.04
POINTS 2271
DATA ascii
337.77, 0.00, 388.23
337.88, 0.00, 388.39
338.00, 0.00, 388.57
338.12, 0.00, 388.77
338.26, 0.00, 388.98
338.40, 0.00, 389.20
338.56, 0.00, 389.45
338.74, 0.00, 389.71
338.92, 0.00, 390.00
339.13, 0.00, 390.32
339.36, 0.00, 390.67
339.61, 0.00, 391.05
339.89, 0.00, 391.48
340.19, 0.00, 391.95
340.53, 0.01, 392.48
340.90, 0.02, 393.04
341.30, 0.03, 393.66
341.77, 0.05, 394.38
342.26, 0.08, 395.14
342.83, 0.12, 396.02
343.34, 0.19, 396.81
343.34, 0.38, 396.81
343.33, 0.57, 396.81
343.33, 0.76, 396.81
343.32, 0.95, 396.81
343.31, 1.14, 396.81
343.31, 1.33, 396.81
343.30, 1.52, 396.81
337.53, 0.00, 387.75
337.62, 0.00, 387.89
337.72, 0.00, 388.04
337.83, 0.00, 388.19
337.94, 0.00, 388.36
338.06, 0.00, 388.54
338.19, 0.00, 388.73
338.33, 0.00, 388.94
338.47, 0.00, 389.16
338.64, 0.00, 389.41
338.81, 0.00, 389.67
339.00, 0.00, 389.96
339.21, 0.00, 390.27
339.45, 0.00, 390.62
339.70, 0.00, 391.00
339.98, 0.00, 391.43
340.30, 0.00, 391.89
340.65, 0.01, 392.42
341.02, 0.02, 392.98
¯341.44, 0.03, 393.60
341.89, 0.06, 394.28
342.38, 0.09, 395.02
342.97, 0.12, 395.91
343.55, 0.18, 396.77
343.57, 0.37, 396.81
343.56, 0.56, 396.81
343.55, 0.76, 396.81
343.55, 0.95, 396.81
343.54, 1.14, 396.81
343.54, 1.33, 396.81
343.53, 1.52, 396.81
337.58, 0.00, 387.72
337.68, 0.00, 387.86
337.78, 0.00, 388.00
337.88, 0.00, 388.16
338.00, 0.00, 388.33
338.12, 0.00, 388.51
338.25, 0.00, 388.70
338.39, 0.00, 388.90
338.54, 0.00, 389.13
338.71, 0.00, 389.37
338.89, 0.00, 389.63
339.08, 0.00, 389.91
339.30, 0.00, 390.23
339.54, 0.00, 390.57
339.80, 0.00, 390.95
340.08, 0.00, 391.37
340.40, 0.01, 391.84
340.76, 0.01, 392.36
341.14, 0.02, 392.92
341.57, 0.03, 393.54
342.00, 0.07, 394.18
342.49, 0.10, 394.88
343.11, 0.13, 395.79
343.73, 0.19, 396.70
343.80, 0.36, 396.81
343.79, 0.56, 396.81
343.79, 0.75, 396.81
343.78, 0.94, 396.81
343.77, 1.14, 396.81
343.77, 1.33, 396.81
343.76, 1.52, 396.81
337.63, 0.00, 387.69
337.73, 0.00, 387.83
337.83, 0.00, 387.97
337.94, 0.00, 388.13
338.06, 0.00, 388.29
338.18, 0.00, 388.47
338.31, 0.00, 388.66
338.46, 0.00, 388.86
¯338.61, 0.00, 389.09
338.78, 0.00, 389.32
338.96, 0.00, 389.59
339.16, 0.00, 389.87
339.38, 0.00, 390.18
339.62, 0.00, 390.52
339.89, 0.00, 390.90
340.18, 0.00, 391.32
340.51, 0.01, 391.78
340.87, 0.01, 392.30
341.27, 0.02, 392.86
341.70, 0.03, 393.48
342.12, 0.07, 394.07
342.59, 0.12, 394.74
343.22, 0.14, 395.64
344.04, 0.16, 396.81
344.03, 0.36, 396.81
344.03, 0.55, 396.81
344.02, 0.75, 396.81
344.01, 0.94, 396.81
344.01, 1.14, 396.81
344.00, 1.33, 396.81
344.00, 1.52, 396.81
337.68, 0.00, 387.66
337.78, 0.00, 387.80
337.88, 0.00, 387.94
338.00, 0.00, 388.09
338.11, 0.00, 388.26
338.24, 0.00, 388.43
338.38, 0.00, 388.62
338.52, 0.00, 388.83
338.68, 0.00, 389.05
338.85, 0.00, 389.28
339.04, 0.00, 389.54
339.24, 0.00, 389.82
339.47, 0.00, 390.13
339.71, 0.00, 390.47
339.98, 0.00, 390.85
340.28, 0.00, 391.26
340.61, 0.01, 391.72
340.98, 0.01, 392.23
341.39, 0.02, 392.80
341.83, 0.04, 393.40
342.23, 0.08, 393.96
342.69, 0.13, 394.60
343.32, 0.16, 395.48
344.28, 0.15, 396.81
344.27, 0.35, 396.81
344.27, 0.54, 396.81
344.26, 0.74, 396.81
344.25, 0.94, 396.81
¯344.25, 1.13, 396.81
344.24, 1.33, 396.81
344.23, 1.53, 396.81
337.73, 0.00, 387.63
337.83, 0.00, 387.76
337.94, 0.00, 387.91
338.05, 0.00, 388.06
338.17, 0.00, 388.22
338.30, 0.00, 388.40
338.44, 0.00, 388.58
338.59, 0.00, 388.79
338.75, 0.00, 389.00
338.93, 0.00, 389.24
339.12, 0.00, 389.50
339.32, 0.00, 389.78
339.55, 0.00, 390.09
339.80, 0.00, 390.42
340.07, 0.00, 390.79
340.38, 0.00, 391.20
340.71, 0.01, 391.66
341.09, 0.01, 392.17
341.51, 0.02, 392.74
341.93, 0.04, 393.30
342.34, 0.09, 393.85
342.79, 0.14, 394.47
343.42, 0.17, 395.32
344.53, 0.14, 396.81
344.52, 0.34, 396.81
344.51, 0.54, 396.81
344.50, 0.74, 396.81
344.50, 0.93, 396.81
344.49, 1.13, 396.81
344.48, 1.33, 396.81
344.48, 1.53, 396.81
337.78, 0.00, 387.60
337.88, 0.00, 387.73
337.99, 0.00, 387.87
338.11, 0.00, 388.02
338.23, 0.00, 388.19
338.36, 0.00, 388.36
338.50, 0.00, 388.55
338.65, 0.00, 388.75
338.82, 0.00, 388.96
339.00, 0.00, 389.20
339.19, 0.00, 389.45
339.40, 0.00, 389.73
339.63, 0.00, 390.04
339.89, 0.00, 390.37
340.17, 0.00, 390.74
340.47, 0.01, 391.14
340.82, 0.01, 391.59
¯341.20, 0.01, 392.10
341.64, 0.02, 392.67
342.04, 0.05, 393.20
342.45, 0.10, 393.75
342.91, 0.15, 394.36
343.52, 0.18, 395.17
344.77, 0.13, 396.81
344.77, 0.33, 396.81
344.76, 0.53, 396.81
344.75, 0.73, 396.81
344.75, 0.93, 396.81
344.74, 1.13, 396.81
344.73, 1.33, 396.81
344.72, 1.53, 396.81
337.83, 0.00, 387.56
337.93, 0.00, 387.70
338.04, 0.00, 387.84
338.16, 0.00, 387.99
338.29, 0.00, 388.15
338.42, 0.00, 388.32
338.56, 0.00, 388.51
338.72, 0.00, 388.70
338.89, 0.00, 388.92
339.07, 0.00, 389.15
339.27, 0.00, 389.41
339.48, 0.00, 389.68
339.72, 0.00, 389.99
339.98, 0.00, 390.32
340.26, 0.00, 390.68
340.57, 0.01, 391.08
340.92, 0.01, 391.53
341.31, 0.01, 392.04
341.76, 0.02, 392.61
342.14, 0.06, 393.10
342.56, 0.10, 393.64
343.03, 0.15, 394.24
343.62, 0.20, 395.01
345.03, 0.12, 396.81
345.02, 0.32, 396.81
345.01, 0.52, 396.81
345.01, 0.72, 396.81
345.00, 0.93, 396.81
344.99, 1.13, 396.81
344.98, 1.33, 396.81
344.98, 1.53, 396.81
337.88, 0.00, 387.53
337.98, 0.00, 387.66
338.10, 0.00, 387.80
338.22, 0.00, 387.95
338.34, 0.00, 388.11
338.48, 0.00, 388.28
¯338.63, 0.00, 388.47
338.78, 0.00, 388.66
338.95, 0.00, 388.88
339.14, 0.00, 389.11
339.34, 0.00, 389.36
339.56, 0.00, 389.63
339.80, 0.00, 389.94
340.06, 0.00, 390.26
340.35, 0.00, 390.62
340.67, 0.01, 391.02
341.02, 0.01, 391.47
341.42, 0.01, 391.97
341.87, 0.02, 392.53
342.25, 0.06, 393.00
342.67, 0.11, 393.53
343.14, 0.16, 394.13
343.72, 0.21, 394.86
345.29, 0.10, 396.81
345.28, 0.31, 396.81
345.27, 0.51, 396.81
345.26, 0.72, 396.81
345.26, 0.92, 396.81
345.25, 1.13, 396.81
345.24, 1.33, 396.81
345.23, 1.53, 396.81
337.93, 0.00, 387.50
338.03, 0.00, 387.63
338.15, 0.00, 387.77
338.27, 0.00, 387.91
338.40, 0.00, 388.07
338.54, 0.00, 388.24
338.69, 0.00, 388.42
338.85, 0.00, 388.62
339.02, 0.00, 388.83
339.21, 0.00, 389.06
339.41, 0.00, 389.31
339.64, 0.00, 389.58
339.88, 0.00, 389.88
340.15, 0.00, 390.21
340.44, 0.01, 390.56
340.76, 0.01, 390.96
341.12, 0.01, 391.40
341.53, 0.02, 391.90
341.98, 0.02, 392.45
342.38, 0.06, 392.94
342.80, 0.11, 393.45
343.26, 0.17, 394.01
343.92, 0.20, 394.82
345.55, 0.09, 396.81
345.54, 0.30, 396.81
345.53, 0.51, 396.81
¯345.53, 0.71, 396.81
345.52, 0.92, 396.81
345.51, 1.12, 396.81
345.50, 1.33, 396.81
345.49, 1.53, 396.81
337.98, 0.00, 387.46
338.08, 0.00, 387.59
338.20, 0.00, 387.73
338.32, 0.00, 387.88
338.46, 0.00, 388.03
338.60, 0.00, 388.20
338.75, 0.00, 388.38
338.91, 0.00, 388.58
339.09, 0.00, 388.79
339.28, 0.00, 389.02
339.49, 0.00, 389.26
339.71, 0.00, 389.53
339.96, 0.00, 389.83
340.23, 0.00, 390.15
340.53, 0.01, 390.50
340.86, 0.01, 390.89
341.23, 0.01, 391.33
341.64, 0.02, 391.83
342.09, 0.03, 392.37
342.52, 0.06, 392.87
342.94, 0.11, 393.38
343.41, 0.17, 393.94
344.15, 0.19, 394.82
346.06, 0.04, 397.09
345.81, 0.29, 396.81
345.80, 0.50, 396.81
345.80, 0.71, 396.81
345.79, 0.91, 396.81
345.78, 1.12, 396.81
345.77, 1.33, 396.81
345.76, 1.54, 396.81
338.02, 0.00, 387.43
338.13, 0.00, 387.56
338.25, 0.00, 387.69
338.38, 0.00, 387.84
338.51, 0.00, 387.99
338.65, 0.00, 388.16
338.81, 0.00, 388.34
338.98, 0.00, 388.53
339.15, 0.00, 388.74
339.35, 0.00, 388.97
339.56, 0.00, 389.21
339.79, 0.00, 389.48
340.04, 0.00, 389.77
340.31, 0.00, 390.09
340.62, 0.01, 390.44
¯340.95, 0.01, 390.83
341.33, 0.01, 391.27
341.75, 0.02, 391.76
342.20, 0.03, 392.29
342.65, 0.06, 392.81
343.08, 0.11, 393.31
343.56, 0.17, 393.87
344.38, 0.18, 394.82
346.25, 0.04, 396.99
346.09, 0.28, 396.81
346.08, 0.49, 396.81
346.07, 0.70, 396.81
346.06, 0.91, 396.81
346.05, 1.12, 396.81
346.04, 1.33, 396.81
346.03, 1.54, 396.81
338.07, 0.00, 387.39
338.18, 0.00, 387.52
338.30, 0.00, 387.66
338.43, 0.00, 387.80
338.57, 0.00, 387.95
338.71, 0.00, 388.12
338.87, 0.00, 388.30
339.04, 0.00, 388.49
339.22, 0.00, 388.70
339.42, 0.00, 388.92
339.63, 0.00, 389.16
339.87, 0.00, 389.43
340.12, 0.00, 389.72
340.40, 0.01, 390.03
340.70, 0.01, 390.38
341.05, 0.01, 390.77
341.43, 0.01, 391.20
341.85, 0.02, 391.68
342.31, 0.03, 392.20
342.78, 0.06, 392.74
343.23, 0.11, 393.24
343.72, 0.16, 393.80
344.62, 0.16, 394.82
346.49, 0.03, 396.94
346.37, 0.27, 396.81
346.36, 0.48, 396.81
346.35, 0.69, 396.81
346.34, 0.91, 396.81
346.33, 1.12, 396.81
346.32, 1.33, 396.81
346.31, 1.54, 396.81
338.12, 0.00, 387.36
338.23, 0.00, 387.48
338.35, 0.00, 387.62
338.48, 0.00, 387.76
¯338.62, 0.00, 387.91
338.77, 0.00, 388.08
338.93, 0.00, 388.25
339.10, 0.00, 388.44
339.29, 0.00, 388.65
339.49, 0.00, 388.87
339.71, 0.00, 389.11
339.94, 0.00, 389.37
340.20, 0.00, 389.66
340.48, 0.01, 389.97
340.79, 0.01, 390.32
341.14, 0.01, 390.70
341.53, 0.02, 391.13
341.95, 0.02, 391.60
342.42, 0.04, 392.12
342.92, 0.06, 392.67
343.37, 0.11, 393.17
343.92, 0.15, 393.78
344.85, 0.15, 394.82
346.73, 0.03, 396.89
346.65, 0.25, 396.81
346.64, 0.47, 396.81
346.63, 0.69, 396.81
346.63, 0.90, 396.81
346.62, 1.11, 396.81
346.61, 1.33, 396.81
346.60, 1.54, 396.81
338.16, 0.00, 387.32
338.28, 0.00, 387.44
338.40, 0.00, 387.58
338.54, 0.00, 387.72
338.68, 0.00, 387.87
338.83, 0.00, 388.03
338.99, 0.00, 388.21
339.16, 0.00, 388.40
339.35, 0.00, 388.60
339.56, 0.00, 388.82
339.78, 0.00, 389.06
340.02, 0.00, 389.32
340.28, 0.00, 389.60
340.56, 0.01, 389.91
340.88, 0.01, 390.25
341.23, 0.01, 390.63
341.63, 0.02, 391.06
342.06, 0.03, 391.52
342.53, 0.04, 392.03
343.05, 0.06, 392.60
343.51, 0.11, 393.10
344.13, 0.14, 393.77
345.10, 0.14, 394.81
346.98, 0.02, 396.84
¯346.95, 0.24, 396.81
346.94, 0.46, 396.81
346.93, 0.68, 396.81
346.92, 0.90, 396.81
346.91, 1.11, 396.81
346.90, 1.33, 396.81
346.89, 1.54, 396.81
338.21, 0.00, 387.28
338.33, 0.00, 387.41
338.45, 0.00, 387.54
338.59, 0.00, 387.68
338.73, 0.00, 387.83
338.88, 0.00, 387.99
339.05, 0.00, 388.16
339.22, 0.00, 388.35
339.42, 0.00, 388.55
339.62, 0.00, 388.77
339.85, 0.00, 389.01
340.09, 0.00, 389.26
340.36, 0.00, 389.54
340.65, 0.01, 389.85
340.97, 0.01, 390.19
341.33, 0.01, 390.56
341.73, 0.02, 390.99
342.15, 0.03, 391.44
342.63, 0.04, 391.94
343.18, 0.06, 392.51
343.66, 0.10, 393.02
344.35, 0.13, 393.75
345.34, 0.12, 394.80
347.23, 0.01, 396.78
347.25, 0.23, 396.81
347.24, 0.45, 396.81
347.23, 0.67, 396.81
347.22, 0.89, 396.81
347.21, 1.11, 396.81
347.20, 1.33, 396.81
347.19, 1.55, 396.81
338.26, 0.00, 387.25
338.38, 0.00, 387.37
338.50, 0.00, 387.50
338.64, 0.00, 387.64
338.78, 0.00, 387.79
338.94, 0.00, 387.95
339.11, 0.00, 388.12
339.29, 0.00, 388.30
339.48, 0.00, 388.50
339.69, 0.00, 388.72
339.92, 0.00, 388.95
340.16, 0.00, 389.21
340.43, 0.01, 389.48
¯340.73, 0.01, 389.78
341.05, 0.01, 390.12
341.42, 0.01, 390.49
341.82, 0.02, 390.91
342.25, 0.03, 391.35
342.74, 0.04, 391.85
343.29, 0.06, 392.42
343.82, 0.10, 392.97
344.57, 0.11, 393.74
345.59, 0.11, 394.79
347.48, 0.00, 396.73
347.55, 0.22, 396.81
347.54, 0.44, 396.81
347.53, 0.66, 396.81
347.52, 0.89, 396.81
347.51, 1.11, 396.81
347.50, 1.33, 396.81
347.49, 1.55, 396.81
338.30, 0.00, 387.21
338.42, 0.00, 387.33
338.55, 0.00, 387.46
338.69, 0.00, 387.60
338.84, 0.00, 387.74
339.00, 0.00, 387.90
339.16, 0.00, 388.07
339.35, 0.00, 388.25
339.54, 0.00, 388.45
339.76, 0.00, 388.67
339.99, 0.00, 388.90
340.24, 0.00, 389.15
340.51, 0.01, 389.42
340.81, 0.01, 389.72
341.14, 0.01, 390.05
341.51, 0.02, 390.42
341.92, 0.02, 390.83
342.35, 0.03, 391.27
342.84, 0.05, 391.76
343.40, 0.06, 392.32
344.02, 0.09, 392.95
344.80, 0.10, 393.73
345.81, 0.10, 394.74
347.72, 0.00, 396.65
347.87, 0.20, 396.81
347.86, 0.43, 396.81
347.85, 0.65, 396.81
347.83, 0.88, 396.81
347.82, 1.10, 396.81
347.81, 1.33, 396.81
347.80, 1.55, 396.81
338.35, 0.00, 387.17
338.47, 0.00, 387.29
¯338.60, 0.00, 387.42
338.74, 0.00, 387.55
338.89, 0.00, 387.70
339.05, 0.00, 387.86
339.22, 0.00, 388.02
339.41, 0.00, 388.21
339.61, 0.00, 388.40
339.83, 0.00, 388.61
340.06, 0.00, 388.84
340.31, 0.00, 389.09
340.59, 0.01, 389.36
340.89, 0.01, 389.66
341.23, 0.01, 389.99
341.60, 0.02, 390.36
342.02, 0.02, 390.76
342.46, 0.03, 391.20
342.96, 0.05, 391.69
343.53, 0.06, 392.25
344.16, 0.09, 392.86
344.94, 0.10, 393.63
346.04, 0.09, 394.71
347.93, 0.00, 396.54
348.19, 0.19, 396.81
348.18, 0.42, 396.81
348.17, 0.65, 396.81
348.16, 0.87, 396.81
348.14, 1.10, 396.81
348.13, 1.33, 396.81
348.12, 1.56, 396.81
338.39, 0.00, 387.13
338.52, 0.00, 387.25
338.65, 0.00, 387.38
338.79, 0.00, 387.51
338.94, 0.00, 387.65
339.11, 0.00, 387.81
339.28, 0.00, 387.98
339.47, 0.00, 388.16
339.67, 0.00, 388.35
339.89, 0.00, 388.56
340.13, 0.00, 388.79
340.39, 0.00, 389.03
340.67, 0.01, 389.30
340.98, 0.01, 389.60
341.32, 0.01, 389.92
341.70, 0.02, 390.29
342.13, 0.02, 390.70
342.58, 0.03, 391.13
343.10, 0.04, 391.62
343.68, 0.06, 392.18
344.23, 0.10, 392.71
345.02, 0.12, 393.47
¯346.31, 0.08, 394.69
348.13, 0.00, 396.43
348.52, 0.17, 396.81
348.51, 0.41, 396.81
348.50, 0.64, 396.81
348.48, 0.87, 396.81
348.47, 1.10, 396.81
348.46, 1.33, 396.81
348.45, 1.56, 396.81
338.44, 0.00, 387.09
338.56, 0.00, 387.21
338.70, 0.00, 387.33
338.84, 0.00, 387.47
339.00, 0.00, 387.61
339.16, 0.00, 387.76
339.34, 0.00, 387.93
339.53, 0.00, 388.11
339.73, 0.00, 388.30
339.96, 0.00, 388.51
340.20, 0.00, 388.73
340.46, 0.00, 388.97
340.75, 0.01, 389.24
341.06, 0.01, 389.53
341.41, 0.01, 389.86
341.80, 0.01, 390.22
342.25, 0.01, 390.64
342.71, 0.03, 391.07
343.23, 0.04, 391.56
343.80, 0.06, 392.09
344.31, 0.11, 392.57
345.10, 0.13, 393.31
346.58, 0.06, 394.68
348.34, 0.00, 396.32
348.86, 0.16, 396.81
348.85, 0.39, 396.81
348.83, 0.63, 396.81
348.82, 0.86, 396.81
348.81, 1.10, 396.81
348.80, 1.33, 396.81
348.79, 1.56, 396.81
338.48, 0.00, 387.05
338.61, 0.00, 387.17
338.75, 0.00, 387.29
338.89, 0.00, 387.42
339.05, 0.00, 387.56
339.21, 0.00, 387.72
339.39, 0.00, 387.88
339.59, 0.00, 388.05
339.80, 0.00, 388.24
340.02, 0.00, 388.45
340.27, 0.00, 388.68
¯340.53, 0.00, 388.92
340.82, 0.00, 389.18
341.14, 0.01, 389.47
341.50, 0.01, 389.79
341.90, 0.01, 390.15
342.35, 0.01, 390.57
342.83, 0.02, 391.00
343.36, 0.04, 391.49
343.92, 0.06, 391.99
344.43, 0.11, 392.46
345.18, 0.14, 393.15
346.85, 0.05, 394.66
348.55, 0.00, 396.21
349.21, 0.14, 396.81
349.19, 0.38, 396.81
349.18, 0.62, 396.81
349.17, 0.86, 396.81
349.16, 1.09, 396.81
349.14, 1.33, 396.81
349.13, 1.56, 396.81
338.53, 0.00, 387.01
338.66, 0.00, 387.12
338.79, 0.00, 387.25
338.94, 0.00, 387.38
339.10, 0.00, 387.52
339.27, 0.00, 387.67
339.45, 0.00, 387.83
339.65, 0.00, 388.00
339.86, 0.00, 388.19
340.09, 0.00, 388.39
340.34, 0.00, 388.62
340.61, 0.00, 388.86
340.90, 0.00, 389.12
341.23, 0.01, 389.41
341.59, 0.01, 389.72
341.99, 0.01, 390.09
342.46, 0.01, 390.50
342.95, 0.02, 390.94
343.50, 0.03, 391.42
344.02, 0.07, 391.89
344.55, 0.12, 392.36
345.26, 0.15, 392.99
347.12, 0.03, 394.64
348.76, 0.00, 396.09
349.56, 0.13, 396.81
349.55, 0.37, 396.81
349.54, 0.61, 396.81
349.52, 0.85, 396.81
349.51, 1.09, 396.81
349.50, 1.33, 396.81
349.48, 1.57, 396.81
¯338.57, 0.00, 386.97
338.70, 0.00, 387.08
338.84, 0.00, 387.20
338.99, 0.00, 387.33
339.15, 0.00, 387.47
339.32, 0.00, 387.62
339.51, 0.00, 387.78
339.70, 0.00, 387.95
339.92, 0.00, 388.14
340.15, 0.00, 388.34
340.41, 0.00, 388.56
340.68, 0.00, 388.80
340.98, 0.00, 389.06
341.31, 0.01, 389.34
341.68, 0.01, 389.66
342.09, 0.01, 390.02
342.57, 0.01, 390.43
343.08, 0.02, 390.87
343.63, 0.03, 391.35
344.13, 0.07, 391.79
344.66, 0.12, 392.25
345.33, 0.17, 392.83
347.40, 0.01, 394.62
348.97, 0.00, 395.97
349.93, 0.11, 396.81
349.92, 0.36, 396.81
349.90, 0.60, 396.81
349.89, 0.84, 396.81
349.88, 1.09, 396.81
349.86, 1.33, 396.81
349.85, 1.57, 396.81
338.61, 0.00, 386.93
338.75, 0.00, 387.04
338.89, 0.00, 387.16
339.04, 0.00, 387.29
339.20, 0.00, 387.42
339.37, 0.00, 387.57
339.56, 0.00, 387.73
339.76, 0.00, 387.90
339.98, 0.00, 388.08
340.22, 0.00, 388.28
340.48, 0.00, 388.50
340.76, 0.00, 388.74
341.06, 0.00, 388.99
341.39, 0.01, 389.27
341.76, 0.01, 389.59
342.19, 0.01, 389.95
342.67, 0.01, 390.35
343.20, 0.01, 390.80
343.76, 0.03, 391.27
344.24, 0.07, 391.68
¯344.78, 0.12, 392.14
345.41, 0.18, 392.67
347.68, 0.00, 394.58
349.18, 0.00, 395.85
350.31, 0.09, 396.81
350.30, 0.34, 396.81
350.28, 0.59, 396.81
350.27, 0.84, 396.81
350.25, 1.08, 396.81
350.24, 1.33, 396.81
350.22, 1.57, 396.81
338.66, 0.00, 386.88
338.79, 0.00, 386.99
338.93, 0.00, 387.11
339.09, 0.00, 387.24
339.25, 0.00, 387.37
339.43, 0.00, 387.52
339.62, 0.00, 387.67
339.82, 0.00, 387.84
340.04, 0.00, 388.02
340.28, 0.00, 388.22
340.54, 0.00, 388.44
340.83, 0.00, 388.67
341.14, 0.00, 388.93
341.48, 0.01, 389.21
341.85, 0.01, 389.52
342.29, 0.01, 389.88
342.78, 0.01, 390.28
343.32, 0.01, 390.73
343.86, 0.03, 391.17
344.35, 0.08, 391.58
344.89, 0.13, 392.03
345.50, 0.19, 392.53
347.86, 0.00, 394.47
349.39, 0.00, 395.73
351.33, 0.00, 397.32
350.68, 0.33, 396.81
350.67, 0.58, 396.81
350.65, 0.83, 396.81
350.64, 1.08, 396.81
350.62, 1.33, 396.81
350.61, 1.58, 396.81
338.70, 0.00, 386.84
338.83, 0.00, 386.95
338.98, 0.00, 387.07
339.14, 0.00, 387.19
339.30, 0.00, 387.32
339.48, 0.00, 387.47
339.67, 0.00, 387.62
339.88, 0.00, 387.79
340.10, 0.00, 387.97
¯340.34, 0.00, 388.16
340.61, 0.00, 388.38
340.90, 0.00, 388.61
341.21, 0.00, 388.86
341.56, 0.00, 389.14
341.94, 0.01, 389.45
342.39, 0.01, 389.80
342.88, 0.00, 390.20
343.45, 0.00, 390.66
343.96, 0.03, 391.07
344.46, 0.08, 391.47
345.01, 0.13, 391.92
345.61, 0.19, 392.40
348.04, 0.00, 394.35
349.60, 0.00, 395.60
350.97, 0.07, 396.70
350.97, 0.32, 396.72
350.97, 0.58, 396.73
350.97, 0.83, 396.74
350.97, 1.08, 396.75
350.97, 1.33, 396.77
350.97, 1.58, 396.78
338.74, 0.00, 386.80
338.88, 0.00, 386.90
339.03, 0.00, 387.02
339.18, 0.00, 387.14
339.35, 0.00, 387.27
339.53, 0.00, 387.42
339.72, 0.00, 387.57
339.93, 0.00, 387.73
340.16, 0.00, 387.91
340.41, 0.00, 388.10
340.68, 0.00, 388.31
340.97, 0.00, 388.54
341.29, 0.00, 388.79
341.64, 0.00, 389.07
342.03, 0.00, 389.38
342.48, 0.00, 389.73
342.99, 0.00, 390.13
343.56, 0.00, 390.58
344.07, 0.03, 390.97
344.55, 0.08, 391.36
345.09, 0.14, 391.78
345.69, 0.20, 392.25
348.23, 0.00, 394.23
349.81, 0.00, 395.48
350.97, 0.10, 396.39
350.97, 0.35, 396.40
350.97, 0.60, 396.41
350.97, 0.85, 396.42
350.97, 1.10, 396.44
¯350.97, 1.35, 396.45
350.97, 1.60, 396.46
338.78, 0.00, 386.75
338.92, 0.00, 386.86
339.07, 0.00, 386.97
339.23, 0.00, 387.09
339.40, 0.00, 387.22
339.58, 0.00, 387.36
339.78, 0.00, 387.51
339.99, 0.00, 387.68
340.22, 0.00, 387.85
340.47, 0.00, 388.04
340.74, 0.00, 388.25
341.04, 0.00, 388.48
341.37, 0.00, 388.73
341.72, 0.00, 389.00
342.12, 0.00, 389.31
342.58, 0.00, 389.65
343.09, 0.00, 390.05
343.64, 0.01, 390.47
344.14, 0.04, 390.85
344.63, 0.09, 391.23
345.17, 0.15, 391.64
346.05, 0.17, 392.32
348.41, 0.00, 394.11
350.03, 0.00, 395.35
350.97, 0.13, 396.07
350.97, 0.37, 396.08
350.97, 0.62, 396.10
350.97, 0.87, 396.11
350.97, 1.12, 396.12
350.97, 1.36, 396.13
350.97, 1.61, 396.15
338.82, 0.00, 386.71
338.96, 0.00, 386.81
339.11, 0.00, 386.93
339.28, 0.00, 387.05
339.45, 0.00, 387.17
339.63, 0.00, 387.31
339.83, 0.00, 387.46
340.05, 0.00, 387.62
340.28, 0.00, 387.79
340.53, 0.00, 387.98
340.81, 0.00, 388.19
341.11, 0.00, 388.41
341.44, 0.00, 388.66
341.80, 0.00, 388.93
342.21, 0.00, 389.23
342.68, 0.00, 389.58
343.13, 0.01, 389.92
343.63, 0.03, 390.29
¯344.21, 0.05, 390.72
344.70, 0.10, 391.09
345.24, 0.16, 391.50
346.49, 0.12, 392.43
348.59, 0.00, 393.99
350.24, 0.00, 395.21
350.97, 0.15, 395.77
350.97, 0.40, 395.78
350.97, 0.64, 395.79
350.97, 0.89, 395.80
350.97, 1.13, 395.81
350.97, 1.38, 395.83
350.97, 1.62, 395.84
338.86, 0.00, 386.66
339.01, 0.00, 386.77
339.16, 0.00, 386.88
339.32, 0.00, 387.00
339.50, 0.00, 387.12
339.68, 0.00, 387.26
339.88, 0.00, 387.40
340.10, 0.00, 387.56
340.34, 0.00, 387.73
340.59, 0.00, 387.92
340.87, 0.00, 388.12
341.18, 0.00, 388.34
341.51, 0.00, 388.59
341.88, 0.00, 388.86
342.29, 0.00, 389.15
342.69, 0.02, 389.44
343.13, 0.04, 389.76
343.61, 0.06, 390.12
344.26, 0.06, 390.59
344.77, 0.11, 390.96
345.32, 0.17, 391.36
346.96, 0.07, 392.54
348.77, 0.00, 393.86
350.45, 0.00, 395.08
351.31, 0.14, 395.71
351.31, 0.39, 395.72
351.31, 0.64, 395.73
351.31, 0.89, 395.75
351.31, 1.13, 395.76
351.31, 1.38, 395.77
351.31, 1.63, 395.78
338.90, 0.00, 386.62
339.05, 0.00, 386.72
339.20, 0.00, 386.83
339.37, 0.00, 386.95
339.54, 0.00, 387.07
339.73, 0.00, 387.20
339.94, 0.00, 387.35
¯340.15, 0.00, 387.50
340.39, 0.00, 387.67
340.65, 0.00, 387.86
340.93, 0.00, 388.06
341.24, 0.00, 388.27
341.59, 0.00, 388.52
341.94, 0.01, 388.76
342.29, 0.02, 389.02
342.68, 0.04, 389.30
343.12, 0.06, 389.60
343.60, 0.08, 389.95
344.23, 0.09, 390.39
344.84, 0.12, 390.83
345.39, 0.18, 391.22
347.43, 0.02, 392.65
348.96, 0.00, 393.73
350.66, 0.00, 394.94
352.84, 0.00, 396.48
353.29, 0.23, 396.81
353.27, 0.50, 396.81
353.25, 0.78, 396.81
353.23, 1.06, 396.81
353.21, 1.33, 396.81
353.19, 1.60, 396.81
338.94, 0.00, 386.57
339.09, 0.00, 386.67
339.24, 0.00, 386.78
339.41, 0.00, 386.89
339.59, 0.00, 387.02
339.78, 0.00, 387.15
339.99, 0.00, 387.29
340.21, 0.00, 387.44
340.45, 0.00, 387.61
340.71, 0.00, 387.79
341.00, 0.00, 387.99
341.31, 0.00, 388.21
341.66, 0.00, 388.44
341.95, 0.02, 388.65
342.29, 0.05, 388.88
342.68, 0.06, 389.15
343.11, 0.09, 389.45
343.59, 0.11, 389.78
344.21, 0.12, 390.21
344.91, 0.13, 390.69
345.46, 0.19, 391.08
347.74, 0.00, 392.64
349.14, 0.00, 393.60
350.88, 0.00, 394.80
353.09, 0.00, 396.33
353.78, 0.21, 396.81
353.76, 0.49, 396.81
¯353.74, 0.77, 396.81
353.72, 1.05, 396.81
353.70, 1.33, 396.81
353.68, 1.61, 396.81
338.98, 0.00, 386.52
339.13, 0.00, 386.62
339.29, 0.00, 386.73
339.46, 0.00, 386.84
339.64, 0.00, 386.96
339.83, 0.00, 387.09
340.04, 0.00, 387.23
340.26, 0.00, 387.39
340.51, 0.00, 387.55
340.77, 0.00, 387.73
341.06, 0.00, 387.92
341.38, 0.00, 388.13
341.73, 0.00, 388.37
342.00, 0.03, 388.55
342.29, 0.07, 388.75
342.67, 0.09, 389.01
343.10, 0.11, 389.30
343.57, 0.13, 389.61
344.18, 0.14, 390.02
344.93, 0.15, 390.53
345.53, 0.20, 390.94
347.90, 0.00, 392.52
349.32, 0.00, 393.47
351.09, 0.00, 394.66
353.35, 0.00, 396.18
354.28, 0.19, 396.81
354.26, 0.47, 396.81
354.24, 0.76, 396.81
354.22, 1.05, 396.81
354.20, 1.33, 396.81
354.18, 1.62, 396.81
339.02, 0.00, 386.48
339.17, 0.00, 386.58
339.33, 0.00, 386.68
339.50, 0.00, 386.79
339.68, 0.00, 386.91
339.88, 0.00, 387.04
340.09, 0.00, 387.18
340.32, 0.00, 387.33
340.56, 0.00, 387.49
340.83, 0.00, 387.66
341.12, 0.00, 387.85
341.44, 0.00, 388.06
341.80, 0.00, 388.29
342.04, 0.04, 388.46
342.31, 0.08, 388.63
342.67, 0.11, 388.87
¯343.09, 0.13, 389.14
343.55, 0.16, 389.45
344.15, 0.17, 389.84
344.89, 0.18, 390.32
345.60, 0.21, 390.79
348.06, 0.00, 392.39
349.51, 0.00, 393.34
351.31, 0.00, 394.51
353.61, 0.00, 396.02
354.80, 0.17, 396.81
354.78, 0.46, 396.81
354.76, 0.75, 396.81
354.74, 1.04, 396.81
354.72, 1.33, 396.81
354.69, 1.62, 396.81
339.06, 0.00, 386.43
339.21, 0.00, 386.53
339.37, 0.00, 386.63
339.54, 0.00, 386.74
339.73, 0.00, 386.86
339.92, 0.00, 386.98
340.14, 0.00, 387.12
340.37, 0.00, 387.26
340.62, 0.00, 387.42
340.89, 0.00, 387.60
341.18, 0.00, 387.78
341.51, 0.00, 387.99
341.84, 0.01, 388.20
342.09, 0.05, 388.36
342.35, 0.09, 388.53
342.66, 0.13, 388.73
343.08, 0.15, 389.00
343.54, 0.18, 389.29
344.12, 0.19, 389.66
344.85, 0.20, 390.13
345.67, 0.22, 390.65
348.22, 0.00, 392.26
349.69, 0.00, 393.20
351.52, 0.00, 394.37
353.87, 0.00, 395.86
355.35, 0.14, 396.81
355.33, 0.44, 396.81
355.30, 0.74, 396.81
355.28, 1.04, 396.81
355.26, 1.33, 396.81
355.23, 1.63, 396.81
339.10, 0.00, 386.38
339.25, 0.00, 386.48
339.41, 0.00, 386.58
339.59, 0.00, 386.69
339.77, 0.00, 386.80
¯339.97, 0.00, 386.93
340.19, 0.00, 387.06
340.42, 0.00, 387.20
340.67, 0.00, 387.36
340.95, 0.00, 387.53
341.25, 0.00, 387.71
341.57, 0.00, 387.92
341.89, 0.01, 388.11
342.13, 0.05, 388.27
342.40, 0.10, 388.43
342.68, 0.14, 388.61
343.06, 0.17, 388.85
343.52, 0.20, 389.13
344.09, 0.22, 389.49
344.81, 0.23, 389.93
345.94, 0.19, 390.63
348.38, 0.00, 392.13
349.87, 0.00, 393.06
351.74, 0.00, 394.22
354.13, 0.00, 395.70
355.91, 0.12, 396.81
355.89, 0.43, 396.81
355.86, 0.73, 396.81
355.84, 1.03, 396.81
355.82, 1.33, 396.81
355.79, 1.63, 396.81
339.13, 0.00, 386.33
339.29, 0.00, 386.43
339.45, 0.00, 386.53
339.63, 0.00, 386.63
339.82, 0.00, 386.75
340.02, 0.00, 386.87
340.24, 0.00, 387.00
340.47, 0.00, 387.14
340.73, 0.00, 387.29
341.00, 0.00, 387.46
341.31, 0.00, 387.64
341.64, 0.00, 387.84
341.93, 0.02, 388.02
342.18, 0.06, 388.17
342.45, 0.10, 388.34
342.73, 0.15, 388.51
343.05, 0.19, 388.71
343.50, 0.22, 388.98
344.06, 0.24, 389.32
344.77, 0.25, 389.74
346.38, 0.14, 390.71
348.54, 0.00, 392.00
350.06, 0.00, 392.92
351.96, 0.00, 394.06
354.39, 0.00, 395.53
¯339.17, 0.00, 386.29
339.33, 0.00, 386.38
339.49, 0.00, 386.47
339.67, 0.00, 386.58
339.86, 0.00, 386.69
340.06, 0.00, 386.81
340.28, 0.00, 386.94
340.52, 0.00, 387.08
340.78, 0.00, 387.23
341.06, 0.00, 387.39
341.37, 0.00, 387.57
341.70, 0.00, 387.77
341.97, 0.03, 387.93
342.22, 0.07, 388.08
342.49, 0.11, 388.24
342.78, 0.16, 388.41
343.08, 0.21, 388.59
343.48, 0.24, 388.83
344.03, 0.27, 389.15
344.83, 0.26, 389.62
346.84, 0.09, 390.79
348.70, 0.00, 391.87
350.24, 0.00, 392.78
352.17, 0.00, 393.91
354.65, 0.00, 395.36
339.21, 0.00, 386.24
339.36, 0.00, 386.33
339.53, 0.00, 386.42
339.71, 0.00, 386.52
339.90, 0.00, 386.63
340.11, 0.00, 386.75
340.33, 0.00, 386.88
340.57, 0.00, 387.01
340.83, 0.00, 387.16
341.12, 0.00, 387.32
341.43, 0.00, 387.50
341.77, 0.00, 387.69
342.01, 0.03, 387.84
342.27, 0.07, 387.98
342.53, 0.12, 388.14
342.82, 0.16, 388.31
343.13, 0.21, 388.48
343.47, 0.27, 388.68
344.00, 0.29, 388.98
344.94, 0.26, 389.52
347.33, 0.04, 390.87
348.85, 0.00, 391.74
350.43, 0.00, 392.63
352.39, 0.00, 393.75
354.92, 0.00, 395.19
339.24, 0.00, 386.19
¯339.40, 0.00, 386.27
339.57, 0.00, 386.37
339.75, 0.00, 386.47
339.95, 0.00, 386.58
340.15, 0.00, 386.69
340.38, 0.00, 386.82
340.62, 0.00, 386.95
340.88, 0.00, 387.10
341.17, 0.00, 387.25
341.48, 0.00, 387.43
341.82, 0.00, 387.61
342.05, 0.04, 387.75
342.31, 0.08, 387.89
342.58, 0.12, 388.04
342.87, 0.17, 388.20
343.18, 0.22, 388.38
343.51, 0.27, 388.56
344.04, 0.30, 388.86
345.06, 0.26, 389.42
347.71, 0.00, 390.88
349.01, 0.00, 391.60
350.61, 0.00, 392.48
352.61, 0.00, 393.59
355.18, 0.00, 395.02
339.28, 0.00, 386.14
339.44, 0.00, 386.22
339.61, 0.00, 386.31
339.79, 0.00, 386.41
339.99, 0.00, 386.52
340.20, 0.00, 386.63
340.42, 0.00, 386.75
340.67, 0.00, 386.88
340.94, 0.00, 387.03
341.23, 0.00, 387.18
341.54, 0.00, 387.35
341.86, 0.01, 387.52
342.10, 0.05, 387.65
342.35, 0.09, 387.79
342.62, 0.13, 387.94
342.91, 0.18, 388.10
343.22, 0.23, 388.27
343.57, 0.28, 388.46
344.14, 0.30, 388.77
345.17, 0.26, 389.32
347.85, 0.00, 390.75
349.17, 0.00, 391.46
350.79, 0.00, 392.33
352.83, 0.00, 393.43
355.45, 0.00, 394.84
339.31, 0.00, 386.08
339.47, 0.00, 386.17
¯339.65, 0.00, 386.26
339.83, 0.00, 386.36
340.03, 0.00, 386.46
340.24, 0.00, 386.57
340.47, 0.00, 386.69
340.72, 0.00, 386.82
340.99, 0.00, 386.96
341.28, 0.00, 387.11
341.60, 0.00, 387.28
341.90, 0.02, 387.43
342.13, 0.05, 387.56
342.39, 0.09, 387.70
342.66, 0.14, 387.84
342.95, 0.18, 388.00
343.28, 0.23, 388.17
343.67, 0.28, 388.37
344.24, 0.30, 388.67
345.29, 0.26, 389.22
347.98, 0.00, 390.61
349.33, 0.00, 391.32
350.98, 0.00, 392.18
353.05, 0.00, 393.26
355.72, 0.00, 394.66
339.35, 0.00, 386.03
339.51, 0.00, 386.12
339.68, 0.00, 386.20
339.87, 0.00, 386.30
340.07, 0.00, 386.40
340.28, 0.00, 386.51
340.52, 0.00, 386.63
340.77, 0.00, 386.75
341.04, 0.00, 386.89
341.33, 0.00, 387.04
341.66, 0.00, 387.20
341.93, 0.02, 387.35
342.17, 0.06, 387.47
342.43, 0.10, 387.60
342.70, 0.14, 387.74
343.00, 0.19, 387.90
343.37, 0.23, 388.08
343.77, 0.27, 388.29
344.40, 0.29, 388.61
345.40, 0.26, 389.11
348.10, 0.00, 390.47
348.74, 0.10, 390.80
348.73, 0.29, 390.81
348.73, 0.48, 390.82
348.73, 0.67, 390.82
348.73, 0.86, 390.83
348.73, 1.05, 390.84
348.72, 1.24, 390.85
¯348.72, 1.43, 390.86
348.72, 1.62, 390.87
348.72, 1.81, 390.88
339.38, 0.00, 385.98
339.54, 0.00, 386.06
339.72, 0.00, 386.15
339.91, 0.00, 386.24
340.11, 0.00, 386.34
340.33, 0.00, 386.45
340.56, 0.00, 386.56
340.81, 0.00, 386.69
341.09, 0.00, 386.82
341.39, 0.00, 386.97
341.71, 0.00, 387.13
341.97, 0.03, 387.26
342.21, 0.07, 387.38
342.47, 0.11, 387.51
342.75, 0.15, 387.65
343.09, 0.19, 387.82
343.46, 0.23, 388.00
343.92, 0.26, 388.23
344.55, 0.28, 388.54
345.51, 0.26, 389.01
348.22, 0.01, 390.33
348.83, 0.11, 390.63
348.83, 0.30, 390.64
348.83, 0.49, 390.65
348.82, 0.68, 390.66
348.82, 0.87, 390.67
348.82, 1.06, 390.68
348.82, 1.25, 390.69
348.82, 1.44, 390.69
348.81, 1.63, 390.70
348.81, 1.82, 390.71
339.41, 0.00, 385.93
339.58, 0.00, 386.01
339.76, 0.00, 386.09
339.95, 0.00, 386.18
340.15, 0.00, 386.28
340.37, 0.00, 386.38
340.60, 0.00, 386.50
340.86, 0.00, 386.62
341.14, 0.00, 386.75
341.44, 0.00, 386.89
341.77, 0.00, 387.05
342.01, 0.03, 387.17
342.25, 0.07, 387.28
342.51, 0.11, 387.41
342.84, 0.15, 387.57
343.18, 0.18, 387.73
343.56, 0.22, 387.92
¯344.06, 0.25, 388.16
344.71, 0.26, 388.47
345.62, 0.25, 388.90
348.34, 0.01, 390.18
348.87, 0.12, 390.44
348.87, 0.31, 390.45
348.87, 0.50, 390.46
348.86, 0.69, 390.47
348.86, 0.88, 390.48
348.86, 1.07, 390.49
348.86, 1.26, 390.50
348.86, 1.45, 390.50
348.86, 1.64, 390.51
348.85, 1.83, 390.52
339.45, 0.00, 385.88
339.61, 0.00, 385.95
339.79, 0.00, 386.04
339.98, 0.00, 386.12
340.19, 0.00, 386.22
340.41, 0.00, 386.32
340.65, 0.00, 386.43
340.91, 0.00, 386.55
341.18, 0.00, 386.68
341.49, 0.00, 386.82
341.81, 0.00, 386.97
342.04, 0.04, 387.08
342.29, 0.08, 387.19
342.59, 0.11, 387.34
342.92, 0.14, 387.49
343.27, 0.18, 387.65
343.65, 0.22, 387.83
344.21, 0.24, 388.09
344.88, 0.25, 388.40
345.80, 0.24, 388.82
348.45, 0.01, 390.04
348.91, 0.14, 390.25
348.91, 0.33, 390.26
348.91, 0.52, 390.27
348.91, 0.71, 390.28
348.90, 0.89, 390.29
348.90, 1.08, 390.30
348.90, 1.27, 390.31
348.90, 1.46, 390.31
348.90, 1.65, 390.32
348.89, 1.84, 390.33
339.48, 0.00, 385.82
339.65, 0.00, 385.90
339.83, 0.00, 385.98
340.02, 0.00, 386.07
340.23, 0.00, 386.16
340.45, 0.00, 386.26
¯340.69, 0.00, 386.37
340.95, 0.00, 386.48
341.23, 0.00, 386.61
341.54, 0.00, 386.75
341.85, 0.01, 386.88
342.08, 0.04, 386.99
342.37, 0.07, 387.12
342.67, 0.10, 387.26
343.00, 0.14, 387.41
343.36, 0.18, 387.57
343.75, 0.22, 387.74
344.35, 0.23, 388.01
345.04, 0.24, 388.32
346.18, 0.20, 388.83
346.27, 0.34, 388.88
346.33, 0.49, 388.91
346.40, 0.63, 388.95
348.95, 0.53, 390.08
348.95, 0.72, 390.09
348.95, 0.91, 390.10
348.94, 1.09, 390.11
348.94, 1.28, 390.12
348.94, 1.47, 390.13
348.94, 1.66, 390.14
348.94, 1.85, 390.14
339.51, 0.00, 385.77
339.68, 0.00, 385.84
339.86, 0.00, 385.92
340.06, 0.00, 386.01
340.27, 0.00, 386.10
340.49, 0.00, 386.19
340.73, 0.00, 386.30
340.99, 0.00, 386.41
341.28, 0.00, 386.54
341.59, 0.00, 386.67
341.88, 0.01, 386.80
342.15, 0.04, 386.91
342.44, 0.07, 387.04
342.75, 0.10, 387.18
343.09, 0.13, 387.32
343.45, 0.17, 387.48
343.88, 0.20, 387.67
344.50, 0.21, 387.94
345.21, 0.23, 388.25
346.38, 0.19, 388.75
346.33, 0.35, 388.74
346.39, 0.49, 388.77
346.46, 0.64, 388.81
348.99, 0.54, 389.90
348.99, 0.73, 389.90
348.99, 0.92, 389.91
¯348.98, 1.11, 389.92
348.98, 1.29, 389.93
348.98, 1.48, 389.94
348.98, 1.67, 389.95
348.98, 1.86, 389.96
339.54, 0.00, 385.72
339.71, 0.00, 385.79
339.90, 0.00, 385.86
340.09, 0.00, 385.95
340.30, 0.00, 386.03
340.53, 0.00, 386.13
340.77, 0.00, 386.23
341.04, 0.00, 386.34
341.33, 0.00, 386.46
341.64, 0.00, 386.59
341.95, 0.01, 386.72
342.22, 0.04, 386.84
342.51, 0.07, 386.96
342.83, 0.10, 387.10
343.17, 0.13, 387.24
343.54, 0.17, 387.40
344.02, 0.19, 387.60
344.65, 0.20, 387.86
345.27, 0.23, 388.12
346.43, 0.19, 388.61
346.38, 0.36, 388.59
346.45, 0.50, 388.63
346.52, 0.65, 388.67
349.03, 0.55, 389.71
349.03, 0.74, 389.72
349.03, 0.93, 389.73
349.02, 1.12, 389.74
349.02, 1.30, 389.74
349.02, 1.49, 389.75
349.02, 1.68, 389.76
349.02, 1.86, 389.77
339.57, 0.00, 385.66
339.74, 0.00, 385.73
339.93, 0.00, 385.81
340.13, 0.00, 385.89
340.34, 0.00, 385.97
340.57, 0.00, 386.06
340.81, 0.00, 386.16
341.08, 0.00, 386.27
341.37, 0.00, 386.39
341.69, 0.00, 386.52
341.99, 0.01, 386.64
342.29, 0.03, 386.76
342.59, 0.06, 386.88
342.91, 0.09, 387.01
343.25, 0.13, 387.15
¯343.63, 0.16, 387.31
344.15, 0.18, 387.52
344.81, 0.19, 387.78
345.29, 0.24, 387.98
346.48, 0.20, 388.46
346.44, 0.36, 388.45
346.51, 0.51, 388.49
346.58, 0.65, 388.52
349.07, 0.56, 389.52
349.07, 0.75, 389.53
349.07, 0.94, 389.54
349.07, 1.13, 389.55
349.06, 1.31, 389.56
349.06, 1.50, 389.57
349.06, 1.69, 389.58
349.06, 1.87, 389.59
339.60, 0.00, 385.61
339.78, 0.00, 385.67
339.96, 0.00, 385.75
340.16, 0.00, 385.82
340.38, 0.00, 385.91
340.61, 0.00, 386.00
340.86, 0.00, 386.09
341.12, 0.00, 386.20
341.42, 0.00, 386.31
341.74, 0.00, 386.44
342.04, 0.01, 386.56
342.35, 0.03, 386.68
342.66, 0.06, 386.80
342.99, 0.09, 386.93
343.34, 0.12, 387.07
343.72, 0.16, 387.22
344.29, 0.17, 387.44
344.83, 0.20, 387.65
345.31, 0.26, 387.84
346.53, 0.21, 388.32
346.50, 0.37, 388.31
346.57, 0.51, 388.35
346.64, 0.66, 388.38
349.11, 0.58, 389.34
349.11, 0.76, 389.35
349.11, 0.95, 389.36
349.11, 1.14, 389.37
349.10, 1.32, 389.38
349.10, 1.51, 389.38
349.10, 1.70, 389.39
349.10, 1.88, 389.40
339.63, 0.00, 385.55
339.81, 0.00, 385.62
339.99, 0.00, 385.69
340.20, 0.00, 385.76
¯340.41, 0.00, 385.84
340.64, 0.00, 385.93
340.89, 0.00, 386.03
341.17, 0.00, 386.13
341.46, 0.00, 386.24
341.78, 0.00, 386.36
342.08, 0.02, 386.47
342.39, 0.03, 386.59
342.74, 0.05, 386.72
343.07, 0.08, 386.85
343.42, 0.12, 386.98
343.83, 0.15, 387.14
344.41, 0.16, 387.35
344.85, 0.21, 387.52
345.33, 0.27, 387.70
346.59, 0.22, 388.17
346.56, 0.38, 388.17
346.63, 0.52, 388.20
346.70, 0.67, 388.24
349.15, 0.59, 389.16
349.15, 0.77, 389.16
349.15, 0.96, 389.17
349.15, 1.15, 389.18
349.14, 1.33, 389.19
349.14, 1.52, 389.20
349.14, 1.71, 389.21
349.14, 1.89, 389.22
339.66, 0.00, 385.50
339.84, 0.00, 385.56
340.03, 0.00, 385.63
340.23, 0.00, 385.70
340.45, 0.00, 385.78
340.68, 0.00, 385.86
340.93, 0.00, 385.96
341.21, 0.00, 386.06
341.50, 0.00, 386.16
341.82, 0.00, 386.28
342.12, 0.02, 386.39
342.44, 0.04, 386.50
342.78, 0.06, 386.63
343.14, 0.08, 386.76
343.51, 0.11, 386.89
343.96, 0.14, 387.06
344.43, 0.17, 387.23
344.86, 0.22, 387.39
345.34, 0.28, 387.56
346.64, 0.23, 388.03
346.62, 0.38, 388.03
346.69, 0.53, 388.06
346.80, 0.67, 388.11
349.19, 0.60, 388.97
¯349.19, 0.79, 388.98
349.19, 0.97, 388.99
349.19, 1.16, 389.00
349.18, 1.34, 389.01
349.18, 1.53, 389.02
349.18, 1.71, 389.03
349.18, 1.90, 389.03
339.69, 0.00, 385.44
339.87, 0.00, 385.50
340.06, 0.00, 385.57
340.26, 0.00, 385.64
340.48, 0.00, 385.72
340.72, 0.00, 385.80
340.97, 0.00, 385.89
341.25, 0.00, 385.98
341.55, 0.00, 386.09
341.86, 0.00, 386.20
342.16, 0.02, 386.30
342.48, 0.04, 386.41
342.83, 0.06, 386.53
343.21, 0.08, 386.67
343.59, 0.11, 386.80
344.04, 0.14, 386.96
344.44, 0.18, 387.10
344.88, 0.23, 387.26
345.36, 0.29, 387.43
346.69, 0.23, 387.89
346.67, 0.39, 387.89
346.74, 0.53, 387.92
346.92, 0.67, 387.99
349.23, 0.61, 388.79
349.23, 0.80, 388.80
349.23, 0.98, 388.81
349.23, 1.17, 388.82
349.22, 1.35, 388.83
349.22, 1.54, 388.83
349.22, 1.72, 388.84
349.22, 1.91, 388.85
339.71, 0.00, 385.38
339.89, 0.00, 385.44
340.09, 0.00, 385.51
340.29, 0.00, 385.58
340.51, 0.00, 385.65
340.75, 0.00, 385.73
341.01, 0.00, 385.82
341.29, 0.00, 385.91
341.59, 0.00, 386.01
341.90, 0.01, 386.11
342.20, 0.02, 386.21
342.52, 0.04, 386.32
342.87, 0.06, 386.44
¯343.25, 0.08, 386.57
343.67, 0.11, 386.71
344.06, 0.15, 386.84
344.46, 0.19, 386.98
344.90, 0.24, 387.13
345.37, 0.30, 387.29
346.74, 0.24, 387.74
346.73, 0.40, 387.75
346.80, 0.54, 387.78
347.05, 0.67, 387.87
349.27, 0.62, 388.61
349.27, 0.81, 388.62
349.27, 0.99, 388.63
349.27, 1.18, 388.63
349.26, 1.36, 388.64
349.26, 1.55, 388.65
349.26, 1.73, 388.66
349.26, 1.92, 388.67
339.74, 0.00, 385.33
339.92, 0.00, 385.38
340.12, 0.00, 385.45
340.32, 0.00, 385.51
340.55, 0.00, 385.58
340.79, 0.00, 385.66
341.05, 0.00, 385.74
341.33, 0.00, 385.83
341.63, 0.00, 385.93
341.94, 0.01, 386.03
342.24, 0.02, 386.13
342.56, 0.04, 386.23
342.91, 0.06, 386.35
343.30, 0.08, 386.47
343.73, 0.11, 386.61
344.07, 0.16, 386.72
344.48, 0.20, 386.85
344.91, 0.25, 387.00
345.39, 0.31, 387.15
346.79, 0.25, 387.60
346.79, 0.40, 387.61
346.86, 0.55, 387.64
347.17, 0.67, 387.74
349.31, 0.63, 388.43
349.31, 0.82, 388.44
349.31, 1.00, 388.44
349.30, 1.19, 388.45
349.30, 1.37, 388.46
349.30, 1.56, 388.47
349.30, 1.74, 388.48
349.30, 1.93, 388.49
339.77, 0.00, 385.27
339.95, 0.00, 385.32
¯340.15, 0.00, 385.38
340.35, 0.00, 385.45
340.58, 0.00, 385.52
340.82, 0.00, 385.59
341.08, 0.00, 385.67
341.36, 0.00, 385.76
341.67, 0.00, 385.85
341.97, 0.01, 385.95
342.27, 0.03, 386.04
342.60, 0.05, 386.14
342.96, 0.07, 386.25
343.34, 0.09, 386.37
343.77, 0.11, 386.50
344.12, 0.16, 386.61
344.49, 0.21, 386.73
344.92, 0.27, 386.87
345.40, 0.32, 387.01
346.84, 0.25, 387.45
346.85, 0.41, 387.46
346.92, 0.55, 387.49
347.29, 0.67, 387.61
349.35, 0.64, 388.24
349.35, 0.83, 388.25
349.35, 1.01, 388.26
349.34, 1.20, 388.27
349.34, 1.38, 388.28
349.34, 1.57, 388.29
349.34, 1.75, 388.30
349.34, 1.94, 388.31
339.79, 0.00, 385.21
339.98, 0.00, 385.26
340.17, 0.00, 385.32
340.38, 0.00, 385.38
340.61, 0.00, 385.45
340.85, 0.00, 385.52
341.12, 0.00, 385.60
341.40, 0.00, 385.68
341.71, 0.00, 385.77
342.01, 0.01, 385.86
342.31, 0.03, 385.95
342.64, 0.05, 386.05
343.00, 0.07, 386.16
343.39, 0.09, 386.27
343.82, 0.11, 386.40
344.16, 0.16, 386.50
344.53, 0.22, 386.61
344.94, 0.28, 386.74
345.41, 0.33, 386.88
346.89, 0.26, 387.31
346.91, 0.41, 387.32
346.98, 0.56, 387.35
¯347.41, 0.67, 387.48
349.39, 0.65, 388.06
349.39, 0.84, 388.07
349.39, 1.02, 388.08
349.38, 1.21, 388.09
349.38, 1.39, 388.10
349.38, 1.58, 388.11
349.38, 1.76, 388.12
349.38, 1.95, 388.13
339.82, 0.00, 385.15
340.00, 0.00, 385.20
340.20, 0.00, 385.26
340.41, 0.00, 385.32
340.64, 0.00, 385.38
340.89, 0.00, 385.45
341.15, 0.00, 385.53
341.44, 0.00, 385.61
341.75, 0.00, 385.69
342.04, 0.01, 385.78
342.35, 0.03, 385.86
342.68, 0.05, 385.96
343.04, 0.07, 386.06
343.45, 0.09, 386.18
343.86, 0.12, 386.29
344.20, 0.17, 386.39
344.58, 0.22, 386.50
344.98, 0.28, 386.62
345.42, 0.34, 386.74
346.95, 0.27, 387.17
346.97, 0.42, 387.18
347.04, 0.56, 387.21
349.43, 0.48, 387.87
349.43, 0.66, 387.88
349.43, 0.85, 387.89
349.43, 1.03, 387.90
349.42, 1.22, 387.91
349.42, 1.40, 387.92
349.42, 1.59, 387.93
349.42, 1.77, 387.94
349.42, 1.95, 387.95
339.84, 0.00, 385.09
340.03, 0.00, 385.14
340.23, 0.00, 385.20
340.44, 0.00, 385.25
340.67, 0.00, 385.32
340.92, 0.00, 385.38
341.18, 0.00, 385.45
341.47, 0.00, 385.53
341.79, 0.00, 385.61
342.08, 0.02, 385.69
342.38, 0.03, 385.78
¯342.72, 0.05, 385.87
343.08, 0.07, 385.96
343.50, 0.09, 386.08
343.90, 0.12, 386.18
344.25, 0.17, 386.28
344.62, 0.23, 386.38
345.03, 0.29, 386.50
345.47, 0.35, 386.62
347.00, 0.27, 387.02
347.03, 0.42, 387.04
347.10, 0.57, 387.06
349.47, 0.49, 387.69
349.47, 0.67, 387.70
349.47, 0.86, 387.71
349.46, 1.04, 387.72
349.46, 1.23, 387.73
349.46, 1.41, 387.74
349.46, 1.60, 387.75
349.46, 1.78, 387.76
349.45, 1.96, 387.77
339.87, 0.00, 385.04
340.05, 0.00, 385.08
340.25, 0.00, 385.13
340.47, 0.00, 385.19
340.70, 0.00, 385.25
340.95, 0.00, 385.31
341.22, 0.00, 385.38
341.51, 0.00, 385.45
341.82, 0.00, 385.53
342.11, 0.02, 385.61
342.42, 0.03, 385.69
342.75, 0.05, 385.77
343.13, 0.07, 385.87
343.55, 0.09, 385.98
343.94, 0.12, 386.08
344.29, 0.18, 386.17
344.66, 0.23, 386.27
345.07, 0.29, 386.37
345.51, 0.35, 386.49
347.05, 0.28, 386.88
347.08, 0.43, 386.89
347.16, 0.58, 386.92
349.51, 0.50, 387.51
349.51, 0.68, 387.52
349.51, 0.87, 387.53
349.50, 1.05, 387.54
349.50, 1.24, 387.55
349.50, 1.42, 387.56
349.50, 1.60, 387.57
349.50, 1.79, 387.58
349.49, 1.97, 387.59
¯339.89, 0.00, 384.98
340.08, 0.00, 385.02
340.28, 0.00, 385.07
340.50, 0.00, 385.12
340.73, 0.00, 385.18
340.98, 0.00, 385.24
341.25, 0.00, 385.30
341.54, 0.00, 385.38
341.85, 0.00, 385.45
342.14, 0.02, 385.52
342.45, 0.04, 385.60
342.79, 0.05, 385.68
343.18, 0.07, 385.77
343.60, 0.09, 385.88
343.97, 0.13, 385.97
344.33, 0.18, 386.06
344.71, 0.23, 386.15
345.12, 0.29, 386.25
345.55, 0.36, 386.36
347.11, 0.28, 386.73
347.14, 0.43, 386.75
347.22, 0.58, 386.77
349.55, 0.51, 387.33
349.55, 0.69, 387.34
349.55, 0.88, 387.35
349.54, 1.06, 387.36
349.54, 1.25, 387.37
349.54, 1.43, 387.38
349.54, 1.61, 387.39
349.54, 1.80, 387.40
349.53, 1.98, 387.41
339.91, 0.00, 384.92
340.10, 0.00, 384.96
340.31, 0.00, 385.01
340.52, 0.00, 385.06
340.76, 0.00, 385.11
341.01, 0.00, 385.17
341.28, 0.00, 385.23
341.58, 0.00, 385.30
341.88, 0.00, 385.37
342.17, 0.02, 385.43
342.48, 0.04, 385.51
342.84, 0.05, 385.59
343.23, 0.07, 385.68
343.65, 0.09, 385.78
344.01, 0.13, 385.86
344.37, 0.18, 385.94
344.75, 0.24, 386.03
345.16, 0.30, 386.13
345.58, 0.37, 386.23
347.16, 0.29, 386.59
¯347.20, 0.44, 386.60
347.28, 0.59, 386.63
349.59, 0.52, 387.15
349.59, 0.70, 387.16
349.58, 0.89, 387.17
349.58, 1.07, 387.18
349.58, 1.26, 387.19
349.58, 1.44, 387.20
349.58, 1.62, 387.21
349.57, 1.81, 387.22
349.57, 1.99, 387.23
339.93, 0.00, 384.86
340.13, 0.00, 384.90
340.33, 0.00, 384.94
340.55, 0.00, 384.99
340.78, 0.00, 385.04
341.04, 0.00, 385.09
341.31, 0.00, 385.15
341.61, 0.00, 385.22
341.91, 0.01, 385.28
342.20, 0.02, 385.35
342.52, 0.04, 385.42
342.88, 0.05, 385.49
343.27, 0.07, 385.58
343.70, 0.09, 385.67
344.05, 0.13, 385.75
344.41, 0.19, 385.83
344.79, 0.24, 385.92
345.19, 0.30, 386.01
345.62, 0.37, 386.10
347.22, 0.29, 386.44
347.26, 0.44, 386.46
347.34, 0.59, 386.48
349.63, 0.52, 386.97
349.63, 0.71, 386.98
349.62, 0.90, 386.99
349.62, 1.08, 387.00
349.62, 1.26, 387.01
349.62, 1.45, 387.02
349.62, 1.63, 387.03
349.61, 1.82, 387.04
349.61, 2.00, 387.05
339.96, 0.00, 384.80
340.15, 0.00, 384.83
340.35, 0.00, 384.88
340.57, 0.00, 384.92
340.81, 0.00, 384.97
341.07, 0.00, 385.02
341.34, 0.00, 385.08
341.64, 0.00, 385.14
341.94, 0.01, 385.20
¯342.23, 0.02, 385.26
342.56, 0.04, 385.33
342.92, 0.05, 385.40
343.32, 0.07, 385.48
343.75, 0.09, 385.57
344.09, 0.14, 385.64
344.45, 0.19, 385.72
344.83, 0.25, 385.80
345.23, 0.31, 385.88
345.66, 0.38, 385.97
347.28, 0.30, 386.30
347.32, 0.45, 386.31
347.40, 0.60, 386.34
349.67, 0.53, 386.79
349.67, 0.72, 386.80
349.66, 0.90, 386.81
349.66, 1.09, 386.82
349.66, 1.27, 386.83
349.66, 1.46, 386.84
349.66, 1.64, 386.85
349.65, 1.83, 386.86
349.65, 2.01, 386.87
339.98, 0.00, 384.74
340.17, 0.00, 384.77
340.38, 0.00, 384.81
340.60, 0.00, 384.85
340.84, 0.00, 384.90
341.09, 0.00, 384.95
341.37, 0.00, 385.00
341.67, 0.00, 385.06
341.97, 0.01, 385.11
342.27, 0.03, 385.17
342.60, 0.04, 385.24
342.97, 0.05, 385.31
343.36, 0.07, 385.38
343.79, 0.09, 385.46
344.12, 0.14, 385.53
344.48, 0.19, 385.60
344.86, 0.25, 385.68
345.26, 0.31, 385.76
345.69, 0.38, 385.84
347.33, 0.30, 386.15
347.38, 0.45, 386.17
347.46, 0.60, 386.19
349.71, 0.54, 386.61
349.70, 0.73, 386.62
349.70, 0.91, 386.63
349.70, 1.10, 386.64
349.70, 1.28, 386.65
349.70, 1.47, 386.66
349.69, 1.65, 386.67
¯349.69, 1.84, 386.68
349.69, 2.02, 386.69
340.00, 0.00, 384.67
340.19, 0.00, 384.71
340.40, 0.00, 384.75
340.62, 0.00, 384.79
340.86, 0.00, 384.83
341.12, 0.00, 384.87
341.40, 0.00, 384.92
341.70, 0.00, 384.98
341.99, 0.01, 385.03
342.30, 0.02, 385.08
342.64, 0.04, 385.15
343.01, 0.05, 385.21
343.41, 0.07, 385.28
343.82, 0.09, 385.36
344.16, 0.14, 385.42
344.52, 0.20, 385.49
344.89, 0.26, 385.56
345.29, 0.32, 385.63
346.19, 0.32, 385.79
347.39, 0.30, 386.00
347.44, 0.46, 386.02
347.52, 0.60, 386.04
349.75, 0.55, 386.43
349.74, 0.74, 386.44
349.74, 0.92, 386.45
349.74, 1.11, 386.46
349.74, 1.29, 386.47
349.74, 1.48, 386.48
349.73, 1.66, 386.49
349.73, 1.84, 386.50
349.73, 2.03, 386.51
340.01, 0.00, 384.61
340.21, 0.00, 384.65
340.42, 0.00, 384.68
340.64, 0.00, 384.72
340.88, 0.00, 384.76
341.14, 0.00, 384.80
341.43, 0.00, 384.85
341.73, 0.00, 384.90
342.02, 0.01, 384.94
342.34, 0.02, 385.00
342.68, 0.04, 385.05
343.05, 0.05, 385.12
343.45, 0.07, 385.18
343.85, 0.10, 385.25
344.19, 0.15, 385.31
344.55, 0.20, 385.37
344.92, 0.26, 385.44
345.32, 0.32, 385.51
¯346.72, 0.25, 385.73
347.45, 0.31, 385.86
347.50, 0.46, 385.87
347.58, 0.61, 385.89
349.78, 0.56, 386.25
349.78, 0.75, 386.26
349.78, 0.93, 386.27
349.78, 1.12, 386.28
349.78, 1.30, 386.29
349.77, 1.49, 386.30
349.77, 1.67, 386.31
349.77, 1.85, 386.32
349.77, 2.04, 386.33
340.03, 0.00, 384.55
340.23, 0.00, 384.58
340.44, 0.00, 384.61
340.67, 0.00, 384.65
340.91, 0.00, 384.68
341.17, 0.00, 384.72
341.45, 0.00, 384.77
341.76, 0.00, 384.81
342.05, 0.01, 384.86
342.37, 0.02, 384.91
342.71, 0.04, 384.96
343.09, 0.05, 385.02
343.49, 0.07, 385.08
343.89, 0.10, 385.14
344.23, 0.15, 385.20
344.58, 0.20, 385.25
344.95, 0.26, 385.31
345.35, 0.33, 385.38
346.72, 0.27, 385.58
347.51, 0.31, 385.71
347.56, 0.46, 385.72
347.64, 0.61, 385.74
349.82, 0.57, 386.07
349.82, 0.75, 386.08
349.82, 0.94, 386.09
349.82, 1.13, 386.10
349.82, 1.31, 386.11
349.81, 1.49, 386.12
349.81, 1.68, 386.13
349.81, 1.86, 386.14
349.81, 2.05, 386.15
340.05, 0.00, 384.49
340.25, 0.00, 384.52
340.46, 0.00, 384.55
340.69, 0.00, 384.58
340.93, 0.00, 384.61
341.19, 0.00, 384.65
341.48, 0.00, 384.69
¯341.79, 0.00, 384.73
342.09, 0.01, 384.77
342.40, 0.02, 384.82
342.75, 0.04, 384.87
343.12, 0.05, 384.92
343.54, 0.07, 384.98
343.92, 0.10, 385.04
344.25, 0.15, 385.08
344.60, 0.21, 385.14
344.98, 0.27, 385.19
345.39, 0.33, 385.25
346.71, 0.28, 385.44
347.56, 0.32, 385.56
347.62, 0.47, 385.57
347.70, 0.62, 385.59
349.86, 0.58, 385.89
349.86, 0.76, 385.90
349.86, 0.95, 385.91
349.86, 1.13, 385.92
349.86, 1.32, 385.93
349.85, 1.50, 385.94
349.85, 1.69, 385.95
349.85, 1.87, 385.96
349.85, 2.06, 385.97
340.07, 0.00, 384.43
340.27, 0.00, 384.45
340.48, 0.00, 384.48
340.71, 0.00, 384.51
340.95, 0.00, 384.54
341.22, 0.00, 384.57
341.50, 0.00, 384.61
341.81, 0.00, 384.65
342.11, 0.01, 384.69
342.43, 0.02, 384.73
342.78, 0.04, 384.78
343.16, 0.05, 384.82
343.58, 0.07, 384.88
343.95, 0.10, 384.93
344.28, 0.16, 384.97
344.63, 0.21, 385.02
345.01, 0.27, 385.07
345.41, 0.34, 385.13
346.70, 0.29, 385.29
347.62, 0.32, 385.41
347.68, 0.47, 385.42
347.76, 0.62, 385.44
349.90, 0.59, 385.71
349.90, 0.77, 385.72
349.90, 0.96, 385.73
349.90, 1.14, 385.74
349.90, 1.33, 385.75
¯349.89, 1.51, 385.76
349.89, 1.70, 385.77
349.89, 1.88, 385.78
349.89, 2.07, 385.79
340.08, 0.00, 384.36
340.28, 0.00, 384.39
340.50, 0.00, 384.41
340.73, 0.00, 384.44
340.97, 0.00, 384.47
341.24, 0.00, 384.50
341.53, 0.00, 384.53
341.84, 0.00, 384.57
342.14, 0.01, 384.60
342.46, 0.02, 384.64
342.81, 0.04, 384.68
343.20, 0.05, 384.73
343.62, 0.07, 384.77
343.97, 0.11, 384.82
344.30, 0.16, 384.86
344.66, 0.22, 384.90
345.04, 0.28, 384.95
345.44, 0.34, 385.00
346.69, 0.30, 385.14
347.68, 0.32, 385.26
347.74, 0.47, 385.27
347.82, 0.63, 385.29
349.94, 0.59, 385.53
349.94, 0.78, 385.54
349.94, 0.97, 385.55
349.94, 1.15, 385.56
349.93, 1.34, 385.57
349.93, 1.52, 385.58
349.93, 1.71, 385.59
349.93, 1.89, 385.60
349.93, 2.08, 385.60
340.10, 0.00, 384.30
340.30, 0.00, 384.32
340.52, 0.00, 384.34
340.75, 0.00, 384.37
340.99, 0.00, 384.39
341.26, 0.00, 384.42
341.55, 0.00, 384.45
341.86, 0.00, 384.48
342.16, 0.01, 384.51
342.49, 0.03, 384.55
342.84, 0.04, 384.58
343.23, 0.05, 384.63
343.65, 0.07, 384.67
344.00, 0.11, 384.71
344.33, 0.16, 384.74
344.68, 0.22, 384.78
¯345.06, 0.28, 384.83
345.47, 0.35, 384.87
346.67, 0.31, 384.99
349.99, 0.04, 385.32
349.99, 0.23, 385.33
349.98, 0.41, 385.34
349.98, 0.60, 385.35
349.98, 0.79, 385.36
349.98, 0.97, 385.37
349.98, 1.16, 385.38
349.97, 1.35, 385.39
349.97, 1.53, 385.39
349.97, 1.72, 385.40
349.97, 1.90, 385.41
349.97, 2.09, 385.42
340.12, 0.00, 384.24
340.32, 0.00, 384.26
340.53, 0.00, 384.28
340.76, 0.00, 384.30
341.01, 0.00, 384.32
341.28, 0.00, 384.34
341.57, 0.00, 384.37
341.88, 0.00, 384.40
342.18, 0.01, 384.43
342.51, 0.03, 384.46
342.87, 0.04, 384.49
343.26, 0.05, 384.52
343.70, 0.07, 384.57
344.03, 0.11, 384.60
344.36, 0.17, 384.63
344.72, 0.22, 384.67
