žVERSION 0.7
FIELDS x y z
SIZE 8 8 8
TYPE F F F
COUNT 1 1 1
WIDTH 2271
HEIGHT 1
VIEWPOINT 325.77, 7.56, 373.19 1 345.46, 2.02, 370.64
POINTS 2271
DATA ascii
349.63, 0.01, 371.40
349.84, 0.05, 371.43
350.11, 0.07, 371.47
350.46, 0.08, 371.52
350.84, 0.09, 371.57
351.25, 0.10, 371.63
351.81, 0.09, 371.71
352.43, 0.08, 371.80
352.84, 0.13, 371.86
353.28, 0.18, 371.92
354.33, 0.13, 372.06
355.77, 0.05, 372.26
357.11, 0.02, 372.45
358.62, 0.00, 372.66
360.26, 0.00, 372.89
362.27, 0.00, 373.17
364.78, 0.00, 373.52
348.13, 0.00, 371.12
348.34, 0.00, 371.15
348.57, 0.00, 371.18
348.81, 0.00, 371.21
349.08, 0.00, 371.24
349.36, 0.01, 371.28
349.65, 0.01, 371.32
349.86, 0.05, 371.34
350.19, 0.05, 371.39
¯350.54, 0.06, 371.43
350.93, 0.07, 371.48
351.36, 0.08, 371.54
352.01, 0.05, 371.62
352.44, 0.08, 371.67
352.84, 0.13, 371.73
353.28, 0.18, 371.78
354.35, 0.14, 371.92
355.75, 0.06, 372.09
357.22, 0.01, 372.28
358.69, 0.00, 372.46
360.34, 0.00, 372.67
362.36, 0.00, 372.93
364.89, 0.00, 373.25
348.14, 0.00, 371.05
348.36, 0.00, 371.08
348.59, 0.00, 371.10
348.84, 0.00, 371.13
349.10, 0.00, 371.16
349.38, 0.00, 371.20
349.66, 0.01, 371.23
349.93, 0.03, 371.26
350.27, 0.04, 371.30
350.63, 0.05, 371.34
351.03, 0.05, 371.39
351.46, 0.06, 371.44
352.07, 0.05, 371.50
352.44, 0.09, 371.55
352.85, 0.14, 371.60
353.29, 0.19, 371.65
354.33, 0.15, 371.77
355.73, 0.07, 371.93
357.32, 0.01, 372.11
358.75, 0.00, 372.27
360.42, 0.00, 372.46
362.46, 0.00, 372.69
365.01, 0.00, 372.99
348.16, 0.00, 370.98
348.37, 0.00, 371.01
348.61, 0.00, 371.03
348.86, 0.00, 371.06
349.12, 0.00, 371.08
349.41, 0.00, 371.11
349.69, 0.01, 371.14
350.01, 0.01, 371.17
350.35, 0.02, 371.21
350.72, 0.03, 371.25
351.12, 0.04, 371.29
351.57, 0.04, 371.33
352.07, 0.05, 371.39
352.45, 0.10, 371.43
¯352.86, 0.14, 371.47
353.29, 0.20, 371.51
354.30, 0.16, 371.62
355.71, 0.08, 371.76
357.42, 0.00, 371.93
358.82, 0.00, 372.07
360.50, 0.00, 372.25
362.55, 0.00, 372.46
365.12, 0.00, 372.72
348.17, 0.00, 370.91
348.39, 0.00, 370.93
348.62, 0.00, 370.95
348.87, 0.00, 370.98
349.14, 0.00, 371.00
349.43, 0.00, 371.03
349.74, 0.00, 371.05
350.08, 0.00, 371.09
350.43, 0.00, 371.12
350.81, 0.01, 371.15
351.22, 0.02, 371.19
351.72, 0.01, 371.23
352.08, 0.06, 371.27
352.45, 0.10, 371.30
352.86, 0.15, 371.34
353.30, 0.20, 371.38
354.27, 0.17, 371.47
355.69, 0.10, 371.59
357.48, 0.00, 371.75
358.88, 0.00, 371.88
360.57, 0.00, 372.03
362.64, 0.00, 372.21
365.23, 0.00, 372.45
348.18, 0.00, 370.84
348.40, 0.00, 370.86
348.63, 0.00, 370.88
348.88, 0.00, 370.90
349.15, 0.00, 370.92
349.44, 0.00, 370.94
349.76, 0.00, 370.97
350.10, 0.00, 370.99
350.47, 0.00, 371.02
350.87, 0.00, 371.05
351.32, 0.00, 371.09
351.73, 0.02, 371.12
352.08, 0.06, 371.15
352.46, 0.11, 371.18
352.86, 0.15, 371.21
353.30, 0.21, 371.25
354.24, 0.18, 371.32
355.66, 0.11, 371.43
357.53, 0.00, 371.57
¯358.94, 0.00, 371.68
360.64, 0.00, 371.81
362.73, 0.00, 371.97
365.34, 0.00, 372.18
348.19, 0.00, 370.77
348.41, 0.00, 370.79
348.64, 0.00, 370.80
348.90, 0.00, 370.82
349.17, 0.00, 370.84
349.46, 0.00, 370.86
349.77, 0.00, 370.88
350.11, 0.00, 370.90
350.48, 0.00, 370.92
350.89, 0.00, 370.95
351.34, 0.00, 370.98
351.74, 0.02, 371.01
352.09, 0.06, 371.03
352.46, 0.11, 371.05
352.87, 0.16, 371.08
353.30, 0.21, 371.11
354.21, 0.19, 371.17
355.64, 0.12, 371.26
357.58, 0.00, 371.39
359.00, 0.00, 371.48
360.71, 0.00, 371.59
362.81, 0.00, 371.73
365.45, 0.00, 371.90
365.55, 0.28, 371.91
365.56, 0.56, 371.92
365.59, 0.84, 371.93
365.59, 1.13, 371.94
365.59, 1.41, 371.95
348.20, 0.00, 370.70
348.42, 0.00, 370.71
348.66, 0.00, 370.73
348.91, 0.00, 370.74
349.18, 0.00, 370.75
349.47, 0.00, 370.77
349.79, 0.00, 370.79
350.13, 0.00, 370.80
350.50, 0.00, 370.82
350.91, 0.00, 370.85
351.36, 0.00, 370.87
351.75, 0.02, 370.89
352.10, 0.07, 370.91
352.48, 0.11, 370.93
352.88, 0.16, 370.96
353.32, 0.21, 370.98
354.29, 0.19, 371.03
355.70, 0.11, 371.10
357.63, 0.00, 371.20
¯359.06, 0.00, 371.28
360.78, 0.00, 371.37
362.90, 0.00, 371.48
365.55, 0.00, 371.62
366.79, 0.18, 371.69
366.80, 0.48, 371.70
366.90, 0.77, 371.72
366.74, 1.08, 371.72
366.58, 1.39, 371.72
366.42, 1.69, 371.72
366.26, 1.98, 371.72
366.10, 2.27, 371.72
348.21, 0.00, 370.63
348.43, 0.00, 370.64
348.67, 0.00, 370.65
348.92, 0.00, 370.66
349.19, 0.00, 370.67
349.48, 0.00, 370.68
349.80, 0.00, 370.70
350.14, 0.00, 370.71
350.52, 0.00, 370.72
350.93, 0.00, 370.74
351.38, 0.00, 370.76
351.77, 0.02, 370.78
352.12, 0.07, 370.79
352.49, 0.11, 370.81
352.90, 0.16, 370.83
353.38, 0.21, 370.85
354.48, 0.16, 370.89
355.63, 0.13, 370.94
357.64, 0.01, 371.02
359.11, 0.00, 371.08
360.85, 0.00, 371.15
362.98, 0.00, 371.23
365.65, 0.00, 371.34
348.22, 0.00, 370.56
348.44, 0.00, 370.57
348.67, 0.00, 370.57
348.93, 0.00, 370.58
349.20, 0.00, 370.59
349.49, 0.00, 370.60
349.81, 0.00, 370.61
350.16, 0.00, 370.62
350.53, 0.00, 370.63
350.94, 0.00, 370.64
351.39, 0.00, 370.65
351.78, 0.03, 370.66
352.13, 0.07, 370.67
352.51, 0.12, 370.69
352.91, 0.16, 370.70
353.49, 0.19, 370.72
¯354.69, 0.13, 370.75
355.54, 0.15, 370.77
357.60, 0.02, 370.83
359.06, 0.01, 370.87
360.91, 0.00, 370.92
363.06, 0.00, 370.98
365.75, 0.00, 371.06
348.23, 0.00, 370.49
348.45, 0.00, 370.49
348.68, 0.00, 370.50
348.94, 0.00, 370.50
349.21, 0.00, 370.50
349.50, 0.00, 370.51
349.82, 0.00, 370.51
350.17, 0.00, 370.52
350.54, 0.00, 370.53
350.96, 0.00, 370.53
351.41, 0.00, 370.54
351.79, 0.03, 370.55
352.14, 0.07, 370.55
352.52, 0.12, 370.56
352.93, 0.17, 370.57
353.65, 0.17, 370.58
354.89, 0.10, 370.60
355.46, 0.17, 370.61
357.56, 0.03, 370.64
359.07, 0.02, 370.67
360.98, 0.00, 370.70
363.13, 0.00, 370.73
365.85, 0.00, 370.78
348.23, 0.00, 370.42
348.45, 0.00, 370.42
348.69, 0.00, 370.42
348.94, 0.00, 370.42
349.22, 0.00, 370.42
349.51, 0.00, 370.42
349.83, 0.00, 370.42
350.18, 0.00, 370.42
350.56, 0.00, 370.43
350.97, 0.00, 370.43
351.42, 0.00, 370.43
351.80, 0.03, 370.43
352.15, 0.07, 370.44
352.53, 0.12, 370.44
352.99, 0.16, 370.44
353.82, 0.14, 370.44
354.92, 0.10, 370.45
355.43, 0.18, 370.45
357.52, 0.04, 370.46
359.17, 0.01, 370.46
361.04, 0.00, 370.47
¯361.61, 0.17, 370.48
361.61, 0.41, 370.48
361.61, 0.64, 370.49
361.61, 0.88, 370.50
361.61, 1.11, 370.51
361.61, 1.35, 370.51
361.61, 1.58, 370.52
361.61, 1.82, 370.53
361.61, 2.05, 370.53
361.61, 2.29, 370.54
348.24, 0.00, 370.35
348.46, 0.00, 370.34
348.70, 0.00, 370.34
348.95, 0.00, 370.34
349.23, 0.00, 370.34
349.52, 0.00, 370.33
349.84, 0.00, 370.33
350.19, 0.00, 370.33
350.57, 0.00, 370.33
350.98, 0.00, 370.32
351.44, 0.00, 370.32
351.81, 0.03, 370.32
352.16, 0.07, 370.32
352.54, 0.12, 370.31
353.09, 0.14, 370.31
354.00, 0.11, 370.30
354.89, 0.11, 370.29
355.41, 0.19, 370.29
357.47, 0.05, 370.27
359.26, 0.01, 370.26
361.10, 0.00, 370.24
363.28, 0.00, 370.22
366.04, 0.00, 370.20
348.24, 0.00, 370.27
348.46, 0.00, 370.27
348.70, 0.00, 370.26
348.96, 0.00, 370.26
349.23, 0.00, 370.25
349.53, 0.00, 370.25
349.85, 0.00, 370.24
350.20, 0.00, 370.23
350.58, 0.00, 370.23
350.99, 0.00, 370.22
351.45, 0.00, 370.21
351.82, 0.03, 370.20
352.17, 0.07, 370.20
352.56, 0.12, 370.19
353.20, 0.13, 370.18
354.17, 0.09, 370.16
354.87, 0.12, 370.14
355.38, 0.20, 370.13
¯357.42, 0.07, 370.09
359.35, 0.00, 370.05
361.15, 0.00, 370.01
363.35, 0.00, 369.97
366.13, 0.00, 369.91
348.25, 0.00, 370.20
348.47, 0.00, 370.19
348.71, 0.00, 370.19
348.96, 0.00, 370.18
349.24, 0.00, 370.17
349.54, 0.00, 370.16
349.86, 0.00, 370.15
350.21, 0.00, 370.14
350.59, 0.00, 370.13
351.00, 0.00, 370.11
351.46, 0.00, 370.10
351.83, 0.03, 370.09
352.18, 0.08, 370.08
352.61, 0.11, 370.06
353.30, 0.11, 370.04
354.35, 0.06, 370.00
354.84, 0.13, 369.99
355.35, 0.20, 369.98
357.30, 0.09, 369.91
359.41, 0.00, 369.84
361.21, 0.00, 369.78
363.42, 0.00, 369.71
366.22, 0.00, 369.62
348.25, 0.00, 370.13
348.47, 0.00, 370.12
348.71, 0.00, 370.11
348.97, 0.00, 370.10
349.24, 0.00, 370.09
349.54, 0.00, 370.07
349.86, 0.00, 370.06
350.21, 0.00, 370.04
350.59, 0.00, 370.02
351.01, 0.00, 370.01
351.47, 0.00, 369.99
351.83, 0.03, 369.97
352.19, 0.08, 369.96
352.70, 0.10, 369.93
353.40, 0.09, 369.90
354.34, 0.06, 369.86
354.81, 0.14, 369.84
355.32, 0.21, 369.82
357.18, 0.11, 369.73
359.45, 0.00, 369.63
361.26, 0.00, 369.55
363.49, 0.00, 369.45
366.30, 0.00, 369.32
¯367.27, 0.52, 369.29
348.25, 0.00, 370.06
348.47, 0.00, 370.04
348.71, 0.00, 370.03
348.97, 0.00, 370.02
349.25, 0.00, 370.00
349.55, 0.00, 369.98
349.87, 0.00, 369.97
350.22, 0.00, 369.95
350.60, 0.00, 369.92
351.02, 0.00, 369.90
351.48, 0.00, 369.87
351.84, 0.03, 369.85
352.20, 0.08, 369.84
352.79, 0.08, 369.80
353.51, 0.08, 369.76
354.32, 0.07, 369.71
354.78, 0.14, 369.69
355.29, 0.22, 369.66
357.06, 0.13, 369.56
359.49, 0.00, 369.42
361.31, 0.00, 369.31
363.55, 0.00, 369.19
366.39, 0.00, 369.02
367.28, 0.53, 368.99
348.25, 0.00, 369.99
348.48, 0.00, 369.97
348.72, 0.00, 369.95
348.97, 0.00, 369.94
349.25, 0.00, 369.92
349.55, 0.00, 369.90
349.87, 0.00, 369.87
350.22, 0.00, 369.85
350.61, 0.00, 369.82
351.02, 0.00, 369.79
351.49, 0.00, 369.76
351.85, 0.03, 369.74
352.24, 0.07, 369.71
352.89, 0.06, 369.67
353.66, 0.05, 369.61
354.29, 0.08, 369.57
354.75, 0.15, 369.54
355.25, 0.23, 369.51
356.93, 0.15, 369.39
359.53, 0.00, 369.20
361.35, 0.00, 369.08
363.61, 0.00, 368.92
366.47, 0.00, 368.72
348.25, 0.00, 369.91
348.48, 0.00, 369.90
348.72, 0.00, 369.88
¯348.97, 0.00, 369.85
349.25, 0.00, 369.83
349.55, 0.00, 369.81
349.87, 0.00, 369.78
350.23, 0.00, 369.75
350.61, 0.00, 369.72
351.03, 0.00, 369.69
351.49, 0.00, 369.65
351.85, 0.04, 369.62
352.32, 0.05, 369.58
352.98, 0.05, 369.53
353.81, 0.02, 369.46
354.26, 0.09, 369.43
354.72, 0.16, 369.39
355.22, 0.24, 369.35
356.80, 0.17, 369.22
359.47, 0.01, 369.00
361.38, 0.00, 368.84
363.67, 0.00, 368.66
366.55, 0.00, 368.42
348.25, 0.00, 369.84
348.48, 0.00, 369.82
348.72, 0.00, 369.80
348.98, 0.00, 369.77
349.25, 0.00, 369.75
349.55, 0.00, 369.72
349.88, 0.00, 369.69
350.23, 0.00, 369.66
350.61, 0.00, 369.62
351.03, 0.00, 369.58
351.50, 0.00, 369.54
351.85, 0.04, 369.50
352.40, 0.04, 369.45
353.07, 0.03, 369.39
353.80, 0.03, 369.32
354.23, 0.09, 369.28
354.69, 0.17, 369.24
355.19, 0.25, 369.20
357.11, 0.14, 369.01
359.37, 0.03, 368.80
361.40, 0.01, 368.61
363.73, 0.00, 368.39
366.63, 0.00, 368.12
348.25, 0.00, 369.77
348.48, 0.00, 369.74
348.72, 0.00, 369.72
348.97, 0.00, 369.69
349.25, 0.00, 369.66
349.55, 0.00, 369.63
349.88, 0.00, 369.60
350.23, 0.00, 369.56
¯350.61, 0.00, 369.52
351.04, 0.00, 369.47
351.50, 0.00, 369.42
351.89, 0.03, 369.38
352.49, 0.02, 369.32
353.16, 0.01, 369.25
353.77, 0.03, 369.18
354.20, 0.10, 369.14
354.67, 0.17, 369.09
355.18, 0.25, 369.04
357.29, 0.11, 368.81
359.30, 0.04, 368.60
361.42, 0.01, 368.37
363.78, 0.00, 368.12
366.70, 0.00, 367.81
348.25, 0.00, 369.70
348.47, 0.00, 369.67
348.72, 0.00, 369.64
348.97, 0.00, 369.61
349.25, 0.00, 369.58
349.55, 0.00, 369.54
349.88, 0.00, 369.50
350.23, 0.00, 369.46
350.61, 0.00, 369.42
351.04, 0.00, 369.37
351.50, 0.00, 369.31
351.96, 0.01, 369.26
352.57, 0.01, 369.18
353.23, 0.00, 369.10
353.76, 0.04, 369.04
354.20, 0.10, 368.99
354.68, 0.17, 368.94
355.19, 0.25, 368.88
357.33, 0.11, 368.62
359.22, 0.06, 368.40
361.44, 0.01, 368.13
363.83, 0.00, 367.85
366.77, 0.00, 367.50
348.25, 0.00, 369.62
348.47, 0.00, 369.59
348.71, 0.00, 369.56
348.97, 0.00, 369.53
349.25, 0.00, 369.49
349.55, 0.00, 369.45
349.87, 0.00, 369.41
350.23, 0.00, 369.36
350.61, 0.00, 369.31
351.04, 0.00, 369.26
351.50, 0.00, 369.20
352.02, 0.00, 369.13
352.59, 0.00, 369.05
¯353.24, 0.00, 368.97
353.77, 0.04, 368.90
354.21, 0.10, 368.85
354.68, 0.17, 368.79
355.36, 0.23, 368.70
357.38, 0.11, 368.43
359.14, 0.07, 368.20
361.46, 0.01, 367.89
363.88, 0.00, 367.57
366.84, 0.00, 367.19
348.24, 0.00, 369.55
348.47, 0.00, 369.52
348.71, 0.00, 369.48
348.97, 0.00, 369.45
349.25, 0.00, 369.41
349.55, 0.00, 369.36
349.87, 0.00, 369.32
350.23, 0.00, 369.27
350.61, 0.00, 369.21
351.04, 0.00, 369.15
351.50, 0.00, 369.08
352.02, 0.00, 369.01
352.59, 0.00, 368.93
353.24, 0.00, 368.83
353.77, 0.04, 368.76
354.21, 0.10, 368.70
354.69, 0.18, 368.63
355.72, 0.17, 368.48
357.42, 0.10, 368.24
359.07, 0.08, 368.00
361.47, 0.01, 367.65
363.93, 0.00, 367.30
366.78, 0.01, 366.89
348.24, 0.00, 369.48
348.46, 0.00, 369.44
348.70, 0.00, 369.41
348.96, 0.00, 369.37
349.24, 0.00, 369.32
349.54, 0.00, 369.27
349.87, 0.00, 369.22
350.22, 0.00, 369.17
350.61, 0.00, 369.11
351.03, 0.00, 369.04
351.50, 0.00, 368.97
352.02, 0.00, 368.89
352.59, 0.00, 368.80
353.24, 0.00, 368.70
353.77, 0.04, 368.62
354.21, 0.10, 368.55
354.69, 0.18, 368.48
356.32, 0.08, 368.22
¯357.53, 0.09, 368.03
358.99, 0.09, 367.80
361.48, 0.02, 367.41
363.85, 0.01, 367.04
366.75, 0.02, 366.59
348.23, 0.00, 369.41
348.46, 0.00, 369.37
348.70, 0.00, 369.33
348.96, 0.00, 369.28
349.24, 0.00, 369.24
349.54, 0.00, 369.19
349.86, 0.00, 369.13
350.22, 0.00, 369.07
350.61, 0.00, 369.01
351.03, 0.00, 368.93
351.50, 0.00, 368.86
352.02, 0.00, 368.77
352.59, 0.00, 368.67
353.24, 0.00, 368.56
353.77, 0.04, 368.47
354.21, 0.10, 368.40
354.74, 0.17, 368.31
356.47, 0.06, 368.02
357.63, 0.08, 367.82
358.91, 0.11, 367.61
361.48, 0.02, 367.17
363.69, 0.03, 366.80
366.75, 0.03, 366.29
348.23, 0.00, 369.33
348.45, 0.00, 369.29
348.69, 0.00, 369.25
348.95, 0.00, 369.20
349.23, 0.00, 369.15
349.53, 0.00, 369.10
349.86, 0.00, 369.04
350.21, 0.00, 368.97
350.60, 0.00, 368.90
351.02, 0.00, 368.83
351.49, 0.00, 368.74
352.01, 0.00, 368.65
352.59, 0.00, 368.54
353.24, 0.00, 368.43
353.77, 0.04, 368.33
354.22, 0.10, 368.25
354.91, 0.14, 368.13
356.51, 0.06, 367.84
357.73, 0.06, 367.61
358.82, 0.12, 367.42
361.26, 0.05, 366.97
361.60, 0.25, 366.92
361.60, 0.49, 366.93
¯361.60, 0.73, 366.93
361.60, 0.97, 366.94
361.60, 1.21, 366.95
361.60, 1.45, 366.96
361.62, 1.69, 366.96
361.66, 1.92, 366.96
361.71, 2.16, 366.96
361.75, 2.40, 366.96
348.22, 0.00, 369.26
348.44, 0.00, 369.22
348.69, 0.00, 369.17
348.94, 0.00, 369.12
349.22, 0.00, 369.07
349.52, 0.00, 369.01
349.85, 0.00, 368.94
350.21, 0.00, 368.88
350.59, 0.00, 368.80
351.02, 0.00, 368.72
351.49, 0.00, 368.63
352.01, 0.00, 368.53
352.59, 0.00, 368.41
353.23, 0.00, 368.29
353.77, 0.04, 368.19
354.22, 0.10, 368.10
355.09, 0.11, 367.93
356.54, 0.05, 367.65
357.72, 0.07, 367.42
358.74, 0.13, 367.23
361.13, 0.07, 366.76
363.37, 0.07, 366.33
366.72, 0.04, 365.68
361.60, 1.21, 366.71
361.60, 1.45, 366.72
361.60, 1.69, 366.72
361.60, 1.93, 366.73
361.60, 2.17, 366.74
361.60, 2.41, 366.75
348.21, 0.00, 369.19
348.44, 0.00, 369.14
348.68, 0.00, 369.09
348.94, 0.00, 369.04
349.22, 0.00, 368.98
349.52, 0.00, 368.92
349.84, 0.00, 368.85
350.20, 0.00, 368.78
350.59, 0.00, 368.70
351.01, 0.00, 368.61
351.48, 0.00, 368.51
352.00, 0.00, 368.41
352.58, 0.00, 368.29
353.23, 0.00, 368.15
¯353.77, 0.04, 368.04
354.21, 0.10, 367.95
355.27, 0.08, 367.73
356.57, 0.05, 367.46
357.65, 0.08, 367.24
358.68, 0.14, 367.03
361.00, 0.08, 366.55
362.29, 0.19, 366.29
366.71, 0.04, 365.37
348.20, 0.00, 369.12
348.43, 0.00, 369.07
348.67, 0.00, 369.01
348.93, 0.00, 368.96
349.21, 0.00, 368.90
349.51, 0.00, 368.83
349.83, 0.00, 368.76
350.19, 0.00, 368.68
350.58, 0.00, 368.59
351.00, 0.00, 368.50
351.47, 0.00, 368.40
351.99, 0.00, 368.28
352.57, 0.00, 368.16
353.22, 0.00, 368.01
353.76, 0.04, 367.90
354.30, 0.09, 367.78
355.46, 0.05, 367.53
356.60, 0.04, 367.28
357.59, 0.09, 367.06
358.63, 0.15, 366.83
360.87, 0.10, 366.34
361.94, 0.22, 366.11
366.71, 0.05, 365.06
348.19, 0.00, 369.04
348.42, 0.00, 368.99
348.66, 0.00, 368.93
348.92, 0.00, 368.87
349.20, 0.00, 368.81
349.50, 0.00, 368.74
349.82, 0.00, 368.66
350.18, 0.00, 368.58
350.57, 0.00, 368.49
350.99, 0.00, 368.39
351.46, 0.00, 368.28
351.98, 0.00, 368.16
352.56, 0.00, 368.03
353.21, 0.00, 367.88
353.76, 0.04, 367.75
354.45, 0.06, 367.59
355.69, 0.01, 367.30
356.60, 0.04, 367.09
357.53, 0.10, 366.88
¯358.57, 0.16, 366.64
360.74, 0.12, 366.13
361.60, 0.26, 365.94
348.18, 0.00, 368.97
348.41, 0.00, 368.92
348.65, 0.00, 368.86
348.91, 0.00, 368.79
349.18, 0.00, 368.72
349.49, 0.00, 368.65
349.81, 0.00, 368.57
350.17, 0.00, 368.48
350.56, 0.00, 368.39
350.98, 0.00, 368.28
351.45, 0.00, 368.17
351.97, 0.00, 368.04
352.55, 0.00, 367.90
353.21, 0.00, 367.74
353.76, 0.04, 367.61
354.61, 0.03, 367.40
355.70, 0.01, 367.13
356.59, 0.04, 366.91
357.48, 0.10, 366.70
358.51, 0.17, 366.45
360.61, 0.13, 365.93
361.30, 0.29, 365.76
366.57, 0.07, 364.47
348.17, 0.00, 368.90
348.40, 0.00, 368.84
348.64, 0.00, 368.78
348.89, 0.00, 368.71
349.17, 0.00, 368.64
349.47, 0.00, 368.56
349.80, 0.00, 368.48
350.15, 0.00, 368.39
350.54, 0.00, 368.29
350.97, 0.00, 368.18
351.44, 0.00, 368.05
351.96, 0.00, 367.92
352.54, 0.00, 367.77
353.19, 0.00, 367.60
353.75, 0.04, 367.46
354.77, 0.00, 367.19
355.69, 0.01, 366.96
356.58, 0.05, 366.73
357.42, 0.11, 366.51
358.48, 0.17, 366.24
360.48, 0.15, 365.73
361.17, 0.31, 365.55
366.43, 0.08, 364.19
348.16, 0.00, 368.83
348.38, 0.00, 368.76
¯348.62, 0.00, 368.70
348.88, 0.00, 368.63
349.16, 0.00, 368.55
349.46, 0.00, 368.47
349.79, 0.00, 368.38
350.14, 0.00, 368.29
350.53, 0.00, 368.18
350.95, 0.00, 368.07
351.42, 0.00, 367.94
351.95, 0.00, 367.80
352.53, 0.00, 367.64
353.18, 0.00, 367.46
353.84, 0.01, 367.28
354.76, 0.00, 367.03
355.67, 0.01, 366.79
356.56, 0.05, 366.55
357.37, 0.12, 366.33
356.46, 0.43, 366.59
356.47, 0.61, 366.59
356.49, 0.78, 366.59
356.50, 0.96, 366.60
356.52, 1.14, 366.60
356.53, 1.32, 366.60
356.55, 1.50, 366.60
356.58, 1.68, 366.60
356.62, 1.85, 366.59
348.14, 0.00, 368.75
348.37, 0.00, 368.69
348.61, 0.00, 368.62
348.87, 0.00, 368.55
349.14, 0.00, 368.47
349.45, 0.00, 368.38
349.77, 0.00, 368.29
350.13, 0.00, 368.19
350.51, 0.00, 368.08
350.94, 0.00, 367.96
351.41, 0.00, 367.83
351.93, 0.00, 367.68
352.51, 0.00, 367.51
353.17, 0.00, 367.33
353.91, 0.00, 367.12
354.75, 0.00, 366.87
355.65, 0.01, 366.62
356.55, 0.05, 366.37
356.30, 0.27, 366.44
356.25, 0.45, 366.46
356.26, 0.63, 366.47
356.26, 0.81, 366.47
356.27, 0.98, 366.48
356.27, 1.16, 366.48
356.28, 1.34, 366.49
¯356.28, 1.51, 366.49
356.29, 1.69, 366.50
356.30, 1.87, 366.50
356.38, 2.04, 366.48
348.13, 0.00, 368.68
348.35, 0.00, 368.61
348.59, 0.00, 368.54
348.85, 0.00, 368.47
349.13, 0.00, 368.38
349.43, 0.00, 368.29
349.75, 0.00, 368.20
350.11, 0.00, 368.09
350.50, 0.00, 367.98
350.92, 0.00, 367.85
351.39, 0.00, 367.71
351.91, 0.00, 367.56
352.50, 0.00, 367.38
353.15, 0.00, 367.19
353.89, 0.00, 366.97
354.74, 0.00, 366.72
355.63, 0.01, 366.45
356.51, 0.05, 366.19
356.21, 0.28, 366.29
356.17, 0.46, 366.31
356.17, 0.64, 366.31
356.17, 0.82, 366.32
356.17, 0.99, 366.32
356.18, 1.17, 366.33
356.18, 1.35, 366.33
356.18, 1.52, 366.34
356.18, 1.70, 366.34
356.19, 1.87, 366.35
356.26, 2.05, 366.33
348.12, 0.00, 368.61
348.34, 0.00, 368.54
348.58, 0.00, 368.46
348.84, 0.00, 368.38
349.11, 0.00, 368.30
349.41, 0.00, 368.21
349.74, 0.00, 368.10
350.09, 0.00, 367.99
350.48, 0.00, 367.87
350.90, 0.00, 367.74
351.37, 0.00, 367.60
351.90, 0.00, 367.43
352.48, 0.00, 367.25
353.13, 0.00, 367.05
353.87, 0.00, 366.82
354.72, 0.00, 366.56
355.61, 0.01, 366.28
356.46, 0.06, 366.02
¯356.21, 0.28, 366.10
356.16, 0.46, 366.12
356.16, 0.64, 366.13
356.16, 0.82, 366.14
356.16, 1.00, 366.14
356.16, 1.17, 366.15
356.15, 1.35, 366.16
356.15, 1.53, 366.16
356.15, 1.70, 366.17
356.16, 1.88, 366.17
356.24, 2.06, 366.15
348.10, 0.00, 368.54
348.32, 0.00, 368.46
348.56, 0.00, 368.39
348.82, 0.00, 368.30
349.10, 0.00, 368.21
349.39, 0.00, 368.12
349.72, 0.00, 368.01
350.07, 0.00, 367.90
350.46, 0.00, 367.77
350.89, 0.00, 367.63
351.35, 0.00, 367.48
351.88, 0.00, 367.31
352.46, 0.00, 367.12
353.11, 0.00, 366.91
353.85, 0.00, 366.67
354.70, 0.00, 366.40
355.59, 0.01, 366.11
356.41, 0.06, 365.84
357.17, 0.14, 365.60
356.28, 0.45, 365.90
356.27, 0.63, 365.91
356.26, 0.81, 365.92
356.26, 0.99, 365.93
356.25, 1.17, 365.93
356.24, 1.35, 365.94
356.24, 1.53, 365.95
356.23, 1.71, 365.96
356.23, 1.88, 365.96
356.40, 2.06, 365.92
348.08, 0.00, 368.46
348.31, 0.00, 368.39
348.54, 0.00, 368.31
348.80, 0.00, 368.22
349.08, 0.00, 368.13
349.38, 0.00, 368.03
349.70, 0.00, 367.92
350.05, 0.00, 367.80
350.44, 0.00, 367.67
350.86, 0.00, 367.52
351.33, 0.00, 367.37
¯351.85, 0.00, 367.19
352.44, 0.00, 366.99
353.09, 0.00, 366.77
353.83, 0.00, 366.52
354.67, 0.00, 366.24
355.57, 0.02, 365.94
356.36, 0.07, 365.67
357.11, 0.15, 365.42
359.24, 0.07, 364.70
359.95, 0.21, 364.46
362.71, 0.16, 363.53
365.80, 0.15, 362.48
348.06, 0.00, 368.39
348.29, 0.00, 368.31
348.53, 0.00, 368.23
348.78, 0.00, 368.14
349.06, 0.00, 368.04
349.36, 0.00, 367.94
349.68, 0.00, 367.83
350.03, 0.00, 367.70
350.42, 0.00, 367.57
350.84, 0.00, 367.42
351.31, 0.00, 367.25
351.83, 0.00, 367.07
352.41, 0.00, 366.86
353.07, 0.00, 366.63
353.81, 0.00, 366.37
354.64, 0.00, 366.08
355.54, 0.02, 365.76
356.30, 0.07, 365.50
357.06, 0.15, 365.24
359.16, 0.08, 364.50
359.88, 0.22, 364.24
362.67, 0.16, 363.26
365.73, 0.16, 362.19
348.05, 0.00, 368.32
348.27, 0.00, 368.24
348.51, 0.00, 368.15
348.76, 0.00, 368.06
349.04, 0.00, 367.96
349.33, 0.00, 367.85
349.66, 0.00, 367.73
350.01, 0.00, 367.60
350.40, 0.00, 367.46
350.82, 0.00, 367.31
351.29, 0.00, 367.14
351.81, 0.00, 366.95
352.39, 0.00, 366.73
353.04, 0.00, 366.50
353.78, 0.00, 366.22
354.61, 0.00, 365.92
¯355.51, 0.02, 365.59
356.25, 0.08, 365.33
357.05, 0.15, 365.04
359.07, 0.09, 364.30
359.82, 0.22, 364.03
362.66, 0.16, 362.99
365.66, 0.17, 361.89
348.03, 0.00, 368.25
348.25, 0.00, 368.17
348.49, 0.00, 368.08
348.74, 0.00, 367.98
349.02, 0.00, 367.87
349.31, 0.00, 367.76
349.64, 0.00, 367.64
349.99, 0.00, 367.51
350.37, 0.00, 367.36
350.80, 0.00, 367.20
351.26, 0.00, 367.02
351.78, 0.00, 366.83
352.36, 0.00, 366.60
353.02, 0.00, 366.36
353.76, 0.00, 366.08
354.58, 0.01, 365.76
355.49, 0.02, 365.42
356.21, 0.08, 365.15
357.06, 0.15, 364.83
358.98, 0.10, 364.10
359.75, 0.23, 363.81
362.64, 0.17, 362.71
348.01, 0.00, 368.18
348.23, 0.00, 368.09
348.46, 0.00, 368.00
348.72, 0.00, 367.90
348.99, 0.00, 367.79
349.29, 0.00, 367.67
349.61, 0.00, 367.55
349.96, 0.00, 367.41
350.35, 0.00, 367.26
350.77, 0.00, 367.09
351.24, 0.00, 366.91
351.76, 0.00, 366.70
352.34, 0.00, 366.48
352.99, 0.00, 366.22
353.73, 0.00, 365.93
354.54, 0.01, 365.61
355.45, 0.02, 365.25
356.20, 0.08, 364.96
357.18, 0.13, 364.57
358.89, 0.10, 363.90
359.69, 0.23, 363.59
363.05, 0.12, 362.27
¯347.99, 0.00, 368.11
348.21, 0.00, 368.02
348.44, 0.00, 367.92
348.70, 0.00, 367.82
348.97, 0.00, 367.71
349.26, 0.00, 367.59
349.59, 0.00, 367.45
349.94, 0.00, 367.31
350.32, 0.00, 367.16
350.74, 0.00, 366.98
351.21, 0.00, 366.79
351.73, 0.00, 366.58
352.31, 0.00, 366.35
352.96, 0.00, 366.08
353.70, 0.00, 365.78
354.51, 0.01, 365.45
355.43, 0.02, 365.07
356.19, 0.08, 364.76
357.30, 0.10, 364.31
358.80, 0.11, 363.70
361.49, 0.03, 362.61
363.81, 0.05, 361.66
347.96, 0.00, 368.04
348.18, 0.00, 367.94
348.42, 0.00, 367.84
348.67, 0.00, 367.74
348.94, 0.00, 367.62
349.24, 0.00, 367.50
349.56, 0.00, 367.36
349.91, 0.00, 367.21
350.29, 0.00, 367.05
350.71, 0.00, 366.88
351.18, 0.00, 366.68
351.70, 0.00, 366.46
352.28, 0.00, 366.22
352.93, 0.00, 365.94
353.67, 0.00, 365.63
354.47, 0.01, 365.29
355.41, 0.02, 364.90
356.18, 0.07, 364.57
357.43, 0.08, 364.05
358.71, 0.12, 363.50
361.46, 0.03, 362.34
363.74, 0.05, 361.38
347.94, 0.00, 367.97
348.16, 0.00, 367.87
348.39, 0.00, 367.77
348.65, 0.00, 367.66
348.92, 0.00, 367.54
349.21, 0.00, 367.41
349.53, 0.00, 367.27
¯349.88, 0.00, 367.12
350.26, 0.00, 366.95
350.68, 0.00, 366.77
351.15, 0.00, 366.57
351.67, 0.00, 366.34
352.24, 0.00, 366.09
352.89, 0.00, 365.80
353.63, 0.00, 365.48
354.43, 0.01, 365.13
355.38, 0.01, 364.72
356.17, 0.07, 364.38
357.81, 0.02, 363.66
358.62, 0.13, 363.31
361.44, 0.03, 362.08
363.72, 0.05, 361.08
347.92, 0.00, 367.89
348.13, 0.00, 367.80
348.37, 0.00, 367.69
348.62, 0.00, 367.58
348.89, 0.00, 367.46
349.19, 0.00, 367.32
349.50, 0.00, 367.18
349.85, 0.00, 367.02
350.23, 0.00, 366.85
350.65, 0.00, 366.66
351.12, 0.00, 366.45
351.63, 0.00, 366.22
352.21, 0.00, 365.96
352.86, 0.00, 365.67
353.60, 0.00, 365.33
354.40, 0.01, 364.97
355.36, 0.01, 364.54
356.15, 0.07, 364.18
357.73, 0.03, 363.47
358.60, 0.13, 363.08
361.42, 0.02, 361.81
363.71, 0.05, 360.77
347.89, 0.00, 367.82
348.11, 0.00, 367.72
348.34, 0.00, 367.61
348.59, 0.00, 367.50
348.86, 0.00, 367.37
349.16, 0.00, 367.24
349.47, 0.00, 367.09
349.82, 0.00, 366.93
350.20, 0.00, 366.75
350.62, 0.00, 366.55
351.08, 0.00, 366.34
351.60, 0.00, 366.10
352.17, 0.00, 365.83
352.82, 0.00, 365.53
¯353.56, 0.00, 365.18
354.36, 0.01, 364.81
355.33, 0.01, 364.36
356.13, 0.06, 363.99
357.64, 0.04, 363.29
358.59, 0.12, 362.84
361.39, 0.02, 361.54
363.69, 0.05, 360.47
347.87, 0.00, 367.75
348.08, 0.00, 367.65
348.31, 0.00, 367.54
348.56, 0.00, 367.42
348.83, 0.00, 367.29
349.13, 0.00, 367.15
349.44, 0.00, 367.00
349.79, 0.00, 366.83
350.17, 0.00, 366.65
350.59, 0.00, 366.45
351.05, 0.00, 366.22
351.56, 0.00, 365.98
352.14, 0.00, 365.70
352.78, 0.00, 365.39
353.52, 0.00, 365.04
354.33, 0.01, 364.65
355.30, 0.01, 364.18
356.20, 0.05, 363.75
357.62, 0.03, 363.07
358.58, 0.12, 362.61
361.41, 0.02, 361.24
363.68, 0.05, 360.16
347.84, 0.00, 367.68
348.05, 0.00, 367.58
348.29, 0.00, 367.46
348.54, 0.00, 367.34
348.80, 0.00, 367.21
349.10, 0.00, 367.06
349.41, 0.00, 366.90
349.76, 0.00, 366.73
350.14, 0.00, 366.55
350.55, 0.00, 366.34
351.01, 0.00, 366.11
351.52, 0.00, 365.86
352.10, 0.00, 365.57
352.74, 0.00, 365.25
353.48, 0.00, 364.89
354.29, 0.01, 364.49
355.26, 0.01, 364.00
356.29, 0.03, 363.50
357.60, 0.03, 362.84
358.69, 0.10, 362.30
361.39, 0.01, 360.96
¯363.66, 0.05, 359.84
347.81, 0.00, 367.61
348.03, 0.00, 367.50
348.26, 0.00, 367.39
348.51, 0.00, 367.26
348.77, 0.00, 367.12
349.06, 0.00, 366.97
349.38, 0.00, 366.81
349.72, 0.00, 366.64
350.10, 0.00, 366.45
350.51, 0.00, 366.23
350.97, 0.00, 366.00
351.49, 0.00, 365.74
352.06, 0.00, 365.44
352.70, 0.00, 365.11
353.44, 0.00, 364.74
354.24, 0.01, 364.33
355.23, 0.01, 363.82
356.35, 0.01, 363.25
357.58, 0.03, 362.62
358.96, 0.06, 361.92
361.37, 0.01, 360.68
363.88, 0.02, 359.40
347.78, 0.00, 367.55
348.00, 0.00, 367.43
348.23, 0.00, 367.31
348.47, 0.00, 367.18
348.74, 0.00, 367.04
349.03, 0.00, 366.89
349.34, 0.00, 366.72
349.69, 0.00, 366.54
350.06, 0.00, 366.34
350.48, 0.00, 366.13
350.93, 0.00, 365.89
351.44, 0.00, 365.62
352.02, 0.00, 365.32
352.66, 0.00, 364.98
353.39, 0.00, 364.59
354.20, 0.01, 364.17
355.19, 0.00, 363.64
356.31, 0.01, 363.06
357.56, 0.02, 362.40
359.23, 0.02, 361.52
361.35, 0.01, 360.40
363.86, 0.02, 359.08
347.75, 0.00, 367.48
347.97, 0.00, 367.36
348.20, 0.00, 367.24
348.44, 0.00, 367.10
348.71, 0.00, 366.96
349.00, 0.00, 366.80
¯349.31, 0.00, 366.63
349.65, 0.00, 366.45
350.03, 0.00, 366.24
350.44, 0.00, 366.02
350.89, 0.00, 365.77
351.40, 0.00, 365.50
351.97, 0.00, 365.19
352.61, 0.00, 364.84
353.35, 0.00, 364.44
354.15, 0.01, 364.01
355.15, 0.00, 363.46
356.26, 0.01, 362.86
357.54, 0.02, 362.17
359.33, 0.00, 361.20
361.32, 0.01, 360.12
363.81, 0.02, 358.77
347.72, 0.00, 367.41
347.94, 0.00, 367.29
348.16, 0.00, 367.16
348.41, 0.00, 367.02
348.67, 0.00, 366.88
348.96, 0.00, 366.72
349.27, 0.00, 366.54
349.61, 0.00, 366.35
349.99, 0.00, 366.14
350.40, 0.00, 365.91
350.85, 0.00, 365.66
351.36, 0.00, 365.38
351.93, 0.00, 365.06
352.57, 0.00, 364.70
353.30, 0.00, 364.30
354.11, 0.01, 363.84
355.11, 0.00, 363.28
356.21, 0.01, 362.67
357.52, 0.01, 361.94
359.27, 0.00, 360.96
361.29, 0.00, 359.83
363.77, 0.02, 358.45
347.69, 0.00, 367.34
347.90, 0.00, 367.22
348.13, 0.00, 367.09
348.38, 0.00, 366.95
348.64, 0.00, 366.80
348.92, 0.00, 366.63
349.23, 0.00, 366.45
349.57, 0.00, 366.26
349.95, 0.00, 366.04
350.36, 0.00, 365.81
350.81, 0.00, 365.55
351.31, 0.00, 365.26
351.88, 0.00, 364.93
¯352.52, 0.00, 364.57
353.25, 0.00, 364.15
354.06, 0.00, 363.68
355.05, 0.00, 363.11
356.16, 0.01, 362.48
357.49, 0.01, 361.71
359.22, 0.00, 360.72
361.26, 0.00, 359.54
363.72, 0.02, 358.13
347.66, 0.00, 367.27
347.87, 0.00, 367.15
348.10, 0.00, 367.01
348.34, 0.00, 366.87
348.60, 0.00, 366.71
348.89, 0.00, 366.55
349.20, 0.00, 366.36
349.53, 0.00, 366.16
349.90, 0.00, 365.95
350.31, 0.00, 365.70
350.76, 0.00, 365.44
351.27, 0.00, 365.14
351.83, 0.00, 364.81
352.47, 0.00, 364.43
353.19, 0.00, 364.00
354.02, 0.00, 363.52
355.00, 0.00, 362.94
356.10, 0.01, 362.28
357.46, 0.01, 361.48
359.16, 0.00, 360.48
361.21, 0.00, 359.26
363.66, 0.02, 357.82
347.63, 0.00, 367.20
347.84, 0.00, 367.08
348.06, 0.00, 366.94
348.30, 0.00, 366.79
348.57, 0.00, 366.63
348.85, 0.00, 366.46
349.16, 0.00, 366.27
349.49, 0.00, 366.07
349.86, 0.00, 365.85
350.27, 0.00, 365.60
350.72, 0.00, 365.33
351.22, 0.00, 365.02
351.78, 0.00, 364.68
352.42, 0.00, 364.29
353.14, 0.00, 363.85
353.97, 0.00, 363.35
354.94, 0.00, 362.76
356.05, 0.01, 362.09
357.44, 0.00, 361.24
359.09, 0.00, 360.24
¯361.14, 0.00, 359.00
363.60, 0.02, 357.50
347.59, 0.00, 367.14
347.80, 0.00, 367.01
348.03, 0.00, 366.87
348.27, 0.00, 366.72
348.53, 0.00, 366.55
348.81, 0.00, 366.38
349.12, 0.00, 366.19
349.45, 0.00, 365.98
349.82, 0.00, 365.75
350.22, 0.00, 365.50
350.67, 0.00, 365.22
351.17, 0.00, 364.90
351.73, 0.00, 364.55
352.36, 0.00, 364.16
353.08, 0.00, 363.71
353.91, 0.00, 363.19
354.88, 0.00, 362.59
355.99, 0.00, 361.90
357.37, 0.00, 361.03
359.03, 0.00, 360.00
361.06, 0.00, 358.73
347.56, 0.00, 367.07
347.77, 0.00, 366.94
347.99, 0.00, 366.79
348.23, 0.00, 366.64
348.49, 0.00, 366.47
348.77, 0.00, 366.29
349.07, 0.00, 366.10
349.41, 0.00, 365.88
349.77, 0.00, 365.65
350.17, 0.00, 365.39
350.62, 0.00, 365.11
351.12, 0.00, 364.79
351.68, 0.00, 364.43
352.31, 0.00, 364.02
353.03, 0.00, 363.56
353.85, 0.00, 363.03
354.82, 0.00, 362.41
355.93, 0.00, 361.70
357.31, 0.00, 360.82
358.96, 0.00, 359.76
360.97, 0.01, 358.46
347.53, 0.00, 367.00
347.73, 0.00, 366.87
347.95, 0.00, 366.72
348.19, 0.00, 366.56
348.45, 0.00, 366.39
348.73, 0.00, 366.21
349.03, 0.00, 366.01
¯349.36, 0.00, 365.79
349.72, 0.00, 365.55
350.12, 0.00, 365.29
350.57, 0.00, 365.00
351.06, 0.00, 364.67
351.62, 0.00, 364.30
352.25, 0.00, 363.89
352.97, 0.00, 363.42
353.79, 0.00, 362.87
354.75, 0.00, 362.24
355.87, 0.00, 361.50
357.24, 0.00, 360.60
358.89, 0.00, 359.52
360.88, 0.01, 358.20
347.49, 0.00, 366.93
347.69, 0.00, 366.80
347.91, 0.00, 366.65
348.15, 0.00, 366.49
348.41, 0.00, 366.31
348.68, 0.00, 366.13
348.98, 0.00, 365.92
349.31, 0.00, 365.70
349.68, 0.00, 365.45
350.07, 0.00, 365.19
350.52, 0.00, 364.89
351.01, 0.00, 364.55
351.56, 0.00, 364.18
352.19, 0.00, 363.75
352.90, 0.00, 363.27
353.73, 0.00, 362.72
354.68, 0.00, 362.07
355.81, 0.00, 361.30
357.16, 0.00, 360.39
358.81, 0.00, 359.27
360.79, 0.01, 357.93
347.45, 0.00, 366.87
347.66, 0.00, 366.73
347.87, 0.00, 366.58
348.11, 0.00, 366.41
348.36, 0.00, 366.24
348.64, 0.00, 366.04
348.94, 0.00, 365.84
349.27, 0.00, 365.61
349.63, 0.00, 365.36
350.02, 0.00, 365.08
350.46, 0.00, 364.78
350.95, 0.00, 364.44
351.51, 0.00, 364.05
352.13, 0.00, 363.62
352.84, 0.00, 363.13
353.66, 0.00, 362.56
¯354.61, 0.00, 361.90
355.74, 0.00, 361.11
357.09, 0.00, 360.18
358.73, 0.00, 359.03
360.70, 0.01, 357.67
347.41, 0.00, 366.80
347.62, 0.00, 366.66
347.83, 0.00, 366.50
348.07, 0.00, 366.34
348.32, 0.00, 366.16
348.59, 0.00, 365.96
348.89, 0.00, 365.75
349.22, 0.00, 365.52
349.58, 0.00, 365.26
349.97, 0.00, 364.98
350.41, 0.00, 364.67
350.90, 0.00, 364.32
351.45, 0.00, 363.93
352.07, 0.00, 363.49
352.77, 0.00, 362.98
353.59, 0.00, 362.40
354.54, 0.00, 361.72
355.66, 0.00, 360.92
357.01, 0.00, 359.96
358.65, 0.00, 358.79
360.61, 0.01, 357.40
347.38, 0.00, 366.74
347.58, 0.00, 366.59
347.79, 0.00, 366.43
348.02, 0.00, 366.26
348.28, 0.00, 366.08
348.55, 0.00, 365.88
348.84, 0.00, 365.66
349.17, 0.00, 365.43
349.52, 0.00, 365.17
349.92, 0.00, 364.88
350.35, 0.00, 364.56
350.84, 0.00, 364.21
351.38, 0.00, 363.81
352.00, 0.00, 363.35
352.71, 0.00, 362.84
353.52, 0.00, 362.24
354.47, 0.00, 361.55
355.58, 0.00, 360.73
356.93, 0.00, 359.75
358.57, 0.00, 358.55
360.52, 0.01, 357.12
347.34, 0.00, 366.67
347.54, 0.00, 366.52
347.75, 0.00, 366.36
347.98, 0.00, 366.19
¯348.23, 0.00, 366.00
348.50, 0.00, 365.80
348.80, 0.00, 365.58
349.12, 0.00, 365.34
349.47, 0.00, 365.07
349.86, 0.00, 364.78
350.29, 0.00, 364.45
350.78, 0.00, 364.09
351.32, 0.00, 363.68
351.93, 0.00, 363.22
352.64, 0.00, 362.70
353.45, 0.00, 362.09
354.39, 0.00, 361.38
355.50, 0.00, 360.54
356.84, 0.00, 359.54
358.48, 0.00, 358.31
360.44, 0.01, 356.84
347.30, 0.00, 366.61
347.49, 0.00, 366.46
347.71, 0.00, 366.29
347.94, 0.00, 366.12
348.18, 0.00, 365.92
348.45, 0.00, 365.72
348.74, 0.00, 365.49
349.06, 0.00, 365.25
349.42, 0.00, 364.98
349.80, 0.00, 364.68
350.23, 0.00, 364.35
350.72, 0.00, 363.98
351.25, 0.00, 363.56
351.87, 0.00, 363.09
352.56, 0.00, 362.55
353.37, 0.00, 361.93
354.31, 0.00, 361.21
355.42, 0.00, 360.35
356.75, 0.00, 359.33
358.39, 0.00, 358.07
360.35, 0.01, 356.56
347.25, 0.00, 366.54
347.45, 0.00, 366.39
347.66, 0.00, 366.22
347.89, 0.00, 366.04
348.14, 0.00, 365.85
348.40, 0.00, 365.64
348.69, 0.00, 365.41
349.01, 0.00, 365.16
349.36, 0.00, 364.88
349.75, 0.00, 364.58
350.17, 0.00, 364.24
350.65, 0.00, 363.86
351.19, 0.00, 363.44
¯351.80, 0.00, 362.96
352.49, 0.00, 362.41
353.29, 0.00, 361.78
354.23, 0.00, 361.04
355.33, 0.00, 360.17
356.66, 0.00, 359.12
358.29, 0.00, 357.83
360.26, 0.01, 356.28
347.21, 0.00, 366.48
347.41, 0.00, 366.32
347.62, 0.00, 366.15
347.84, 0.00, 365.97
348.09, 0.00, 365.77
348.35, 0.00, 365.56
348.64, 0.00, 365.32
348.96, 0.00, 365.07
349.30, 0.00, 364.79
349.69, 0.00, 364.48
350.11, 0.00, 364.13
350.59, 0.00, 363.75
351.12, 0.00, 363.32
351.72, 0.00, 362.83
352.42, 0.00, 362.27
353.21, 0.00, 361.62
354.14, 0.00, 360.87
355.25, 0.00, 359.98
356.57, 0.00, 358.91
358.19, 0.00, 357.59
360.17, 0.01, 356.00
347.17, 0.00, 366.42
347.36, 0.00, 366.26
347.57, 0.00, 366.08
347.80, 0.00, 365.90
348.04, 0.00, 365.70
348.30, 0.00, 365.48
348.59, 0.00, 365.24
348.90, 0.00, 364.98
349.25, 0.00, 364.69
349.63, 0.00, 364.38
350.05, 0.00, 364.03
350.52, 0.00, 363.64
351.05, 0.00, 363.20
351.65, 0.00, 362.70
352.34, 0.00, 362.13
353.13, 0.00, 361.47
354.06, 0.00, 360.70
355.16, 0.00, 359.79
356.47, 0.00, 358.70
358.09, 0.00, 357.35
360.07, 0.01, 355.71
361.43, 0.14, 354.59
¯347.13, 0.00, 366.35
347.32, 0.00, 366.19
347.52, 0.00, 366.02
347.75, 0.00, 365.83
347.99, 0.00, 365.62
348.25, 0.00, 365.40
348.53, 0.00, 365.16
348.84, 0.00, 364.89
349.19, 0.00, 364.60
349.56, 0.00, 364.28
349.98, 0.00, 363.92
350.45, 0.00, 363.53
350.98, 0.00, 363.08
351.58, 0.00, 362.57
352.26, 0.00, 361.99
353.05, 0.00, 361.32
353.97, 0.00, 360.53
355.06, 0.00, 359.60
356.38, 0.00, 358.49
357.99, 0.00, 357.12
359.97, 0.01, 355.43
361.22, 0.15, 354.37
347.08, 0.00, 366.29
347.27, 0.00, 366.13
347.48, 0.00, 365.95
347.70, 0.00, 365.76
347.94, 0.00, 365.55
348.19, 0.00, 365.32
348.48, 0.00, 365.07
348.79, 0.00, 364.81
349.13, 0.00, 364.51
349.50, 0.00, 364.18
349.92, 0.00, 363.82
350.38, 0.00, 363.41
350.91, 0.00, 362.96
351.50, 0.00, 362.44
352.18, 0.00, 361.85
352.96, 0.00, 361.16
353.88, 0.00, 360.36
354.97, 0.00, 359.42
356.27, 0.00, 358.28
357.88, 0.00, 356.88
359.86, 0.00, 355.15
361.11, 0.15, 354.06
347.04, 0.00, 366.23
347.22, 0.00, 366.06
347.43, 0.00, 365.88
347.65, 0.00, 365.68
347.88, 0.00, 365.47
348.14, 0.00, 365.24
348.42, 0.00, 364.99
¯348.73, 0.00, 364.72
349.06, 0.00, 364.42
349.44, 0.00, 364.09
349.85, 0.00, 363.72
350.31, 0.00, 363.30
350.83, 0.00, 362.84
351.42, 0.00, 362.31
352.09, 0.00, 361.71
352.87, 0.00, 361.01
353.79, 0.00, 360.20
354.87, 0.00, 359.23
356.17, 0.00, 358.07
357.77, 0.00, 356.64
359.31, 0.06, 355.27
346.99, 0.00, 366.17
347.18, 0.00, 366.00
347.38, 0.00, 365.81
347.59, 0.00, 365.61
347.83, 0.00, 365.40
348.08, 0.00, 365.17
348.36, 0.00, 364.91
348.67, 0.00, 364.63
349.00, 0.00, 364.33
349.37, 0.00, 363.99
349.78, 0.00, 363.61
350.24, 0.00, 363.19
350.75, 0.00, 362.72
351.34, 0.00, 362.18
352.01, 0.00, 361.57
352.78, 0.00, 360.86
353.69, 0.00, 360.03
354.77, 0.00, 359.05
356.06, 0.00, 357.86
357.65, 0.00, 356.40
358.70, 0.12, 355.45
346.94, 0.00, 366.11
347.13, 0.00, 365.93
347.33, 0.00, 365.75
347.54, 0.00, 365.55
347.78, 0.00, 365.33
348.03, 0.00, 365.09
348.30, 0.00, 364.83
348.60, 0.00, 364.55
348.94, 0.00, 364.24
349.30, 0.00, 363.89
349.71, 0.00, 363.51
350.16, 0.00, 363.08
350.68, 0.00, 362.60
351.26, 0.00, 362.06
351.92, 0.00, 361.43
352.69, 0.00, 360.71
¯353.59, 0.00, 359.87
354.66, 0.00, 358.86
355.95, 0.00, 357.65
357.54, 0.00, 356.17
358.47, 0.14, 355.30
346.89, 0.00, 366.05
347.08, 0.00, 365.87
347.28, 0.00, 365.68
347.49, 0.00, 365.48
347.72, 0.00, 365.25
347.97, 0.00, 365.01
348.24, 0.00, 364.75
348.54, 0.00, 364.46
348.87, 0.00, 364.15
349.23, 0.00, 363.80
349.64, 0.00, 363.41
350.09, 0.00, 362.98
350.60, 0.00, 362.49
351.17, 0.00, 361.93
351.83, 0.00, 361.30
352.60, 0.00, 360.56
353.49, 0.00, 359.70
354.56, 0.00, 358.68
355.84, 0.00, 357.45
357.22, 0.03, 356.12
358.35, 0.14, 355.04
346.85, 0.00, 365.99
347.03, 0.00, 365.81
347.22, 0.00, 365.62
347.43, 0.00, 365.41
347.66, 0.00, 365.18
347.91, 0.00, 364.94
348.18, 0.00, 364.67
348.48, 0.00, 364.38
348.80, 0.00, 364.06
349.16, 0.00, 363.70
349.56, 0.00, 363.31
350.01, 0.00, 362.87
350.52, 0.00, 362.37
351.09, 0.00, 361.81
351.74, 0.00, 361.16
352.50, 0.00, 360.41
353.39, 0.00, 359.54
354.45, 0.00, 358.50
355.72, 0.00, 357.24
356.59, 0.10, 356.39
358.22, 0.14, 354.78
346.80, 0.00, 365.93
346.98, 0.00, 365.75
347.17, 0.00, 365.55
347.38, 0.00, 365.34
¯347.61, 0.00, 365.11
347.85, 0.00, 364.86
348.12, 0.00, 364.59
348.41, 0.00, 364.30
348.74, 0.00, 363.97
349.09, 0.00, 363.61
349.49, 0.00, 363.21
349.93, 0.00, 362.76
350.43, 0.00, 362.26
351.00, 0.00, 361.68
351.65, 0.00, 361.03
352.40, 0.00, 360.27
353.29, 0.00, 359.37
354.33, 0.00, 358.32
355.60, 0.00, 357.04
356.24, 0.14, 356.39
358.09, 0.14, 354.53
346.75, 0.00, 365.87
346.92, 0.00, 365.69
347.12, 0.00, 365.49
347.32, 0.00, 365.27
347.55, 0.00, 365.04
347.79, 0.00, 364.79
348.06, 0.00, 364.52
348.35, 0.00, 364.22
348.67, 0.00, 363.88
349.02, 0.00, 363.52
349.41, 0.00, 363.11
349.85, 0.00, 362.66
350.35, 0.00, 362.14
350.91, 0.00, 361.56
351.56, 0.00, 360.89
352.30, 0.00, 360.12
353.18, 0.00, 359.21
354.22, 0.00, 358.14
355.09, 0.07, 357.24
356.12, 0.14, 356.18
357.96, 0.14, 354.27
346.70, 0.00, 365.81
346.87, 0.00, 365.63
347.06, 0.00, 365.42
347.27, 0.00, 365.21
347.49, 0.00, 364.97
347.73, 0.00, 364.72
347.99, 0.00, 364.44
348.28, 0.00, 364.13
348.60, 0.00, 363.80
348.95, 0.00, 363.43
349.33, 0.00, 363.01
349.77, 0.00, 362.55
350.26, 0.00, 362.03
¯350.82, 0.00, 361.44
351.46, 0.00, 360.76
352.20, 0.00, 359.97
353.07, 0.00, 359.05
354.10, 0.00, 357.96
354.55, 0.14, 357.49
355.99, 0.14, 355.96
357.82, 0.14, 354.01
346.64, 0.00, 365.76
346.82, 0.00, 365.57
347.01, 0.00, 365.36
347.21, 0.00, 365.14
347.43, 0.00, 364.90
347.67, 0.00, 364.64
347.93, 0.00, 364.36
348.21, 0.00, 364.05
348.52, 0.00, 363.71
348.87, 0.00, 363.34
349.26, 0.00, 362.92
349.69, 0.00, 362.45
350.17, 0.00, 361.92
350.73, 0.00, 361.32
351.36, 0.00, 360.63
352.10, 0.00, 359.83
352.96, 0.00, 358.89
353.60, 0.07, 358.20
354.43, 0.14, 357.30
355.86, 0.14, 355.74
357.68, 0.14, 353.76
346.59, 0.00, 365.70
346.76, 0.00, 365.51
346.95, 0.00, 365.30
347.15, 0.00, 365.08
347.37, 0.00, 364.84
347.60, 0.00, 364.57
347.86, 0.00, 364.29
348.14, 0.00, 363.97
348.45, 0.00, 363.63
348.79, 0.00, 363.25
349.18, 0.00, 362.82
349.60, 0.00, 362.34
350.08, 0.00, 361.81
350.63, 0.00, 361.20
351.26, 0.00, 360.50
351.99, 0.00, 359.69
352.78, 0.01, 358.80
353.15, 0.14, 358.40
354.30, 0.14, 357.11
355.73, 0.14, 355.52
357.54, 0.14, 353.51
346.54, 0.00, 365.64
¯346.71, 0.00, 365.45
346.89, 0.00, 365.24
347.09, 0.00, 365.01
347.30, 0.00, 364.77
347.54, 0.00, 364.50
347.79, 0.00, 364.21
348.07, 0.00, 363.89
348.38, 0.00, 363.54
348.72, 0.00, 363.16
349.09, 0.00, 362.72
349.52, 0.00, 362.24
349.99, 0.00, 361.70
350.54, 0.00, 361.08
351.16, 0.00, 360.37
351.88, 0.00, 359.54
352.16, 0.12, 359.23
353.03, 0.14, 358.24
354.18, 0.14, 356.93
355.60, 0.14, 355.31
357.39, 0.14, 353.25
346.48, 0.00, 365.59
346.65, 0.00, 365.39
346.83, 0.00, 365.18
347.03, 0.00, 364.95
347.24, 0.00, 364.70
347.47, 0.00, 364.43
347.72, 0.00, 364.14
348.00, 0.00, 363.81
348.30, 0.00, 363.46
348.64, 0.00, 363.07
349.01, 0.00, 362.63
349.43, 0.00, 362.14
349.90, 0.00, 361.59
350.44, 0.00, 360.96
351.05, 0.00, 360.24
351.33, 0.10, 359.92
351.97, 0.14, 359.17
352.91, 0.14, 358.07
354.05, 0.14, 356.74
355.46, 0.14, 355.09
357.24, 0.14, 353.00
346.43, 0.00, 365.53
346.60, 0.00, 365.33
346.77, 0.00, 365.12
346.97, 0.00, 364.89
347.18, 0.00, 364.63
347.40, 0.00, 364.36
347.65, 0.00, 364.06
347.93, 0.00, 363.74
348.23, 0.00, 363.38
348.56, 0.00, 362.98
¯348.93, 0.00, 362.54
349.34, 0.00, 362.04
349.81, 0.00, 361.48
350.34, 0.00, 360.84
350.54, 0.11, 360.61
351.08, 0.14, 359.96
351.86, 0.14, 359.02
352.79, 0.14, 357.91
353.92, 0.14, 356.55
355.31, 0.14, 354.88
357.09, 0.14, 352.75
346.37, 0.00, 365.48
346.54, 0.00, 365.28
346.71, 0.00, 365.06
346.91, 0.00, 364.82
347.11, 0.00, 364.57
347.34, 0.00, 364.29
347.58, 0.00, 363.99
347.85, 0.00, 363.66
348.15, 0.00, 363.30
348.48, 0.00, 362.89
348.84, 0.00, 362.44
349.25, 0.00, 361.94
349.58, 0.04, 361.54
349.80, 0.12, 361.26
350.32, 0.14, 360.64
350.97, 0.14, 359.83
351.74, 0.14, 358.88
352.67, 0.14, 357.75
353.78, 0.14, 356.37
355.17, 0.14, 354.67
356.93, 0.14, 352.50
346.32, 0.00, 365.42
346.48, 0.00, 365.22
346.65, 0.00, 365.00
346.84, 0.00, 364.76
347.05, 0.00, 364.50
347.27, 0.00, 364.22
347.51, 0.00, 363.92
347.78, 0.00, 363.58
348.07, 0.00, 363.22
348.39, 0.00, 362.81
348.67, 0.03, 362.45
348.84, 0.10, 362.25
349.17, 0.14, 361.84
349.65, 0.14, 361.22
350.21, 0.14, 360.52
350.86, 0.14, 359.70
351.63, 0.14, 358.73
352.54, 0.14, 357.58
353.65, 0.14, 356.19
¯355.02, 0.14, 354.46
356.77, 0.14, 352.25
346.26, 0.00, 365.37
346.42, 0.00, 365.16
346.59, 0.00, 364.94
346.78, 0.00, 364.70
346.98, 0.00, 364.44
347.20, 0.00, 364.16
347.44, 0.00, 363.85
347.65, 0.02, 363.58
347.76, 0.09, 363.44
347.99, 0.12, 363.14
348.28, 0.14, 362.77
348.65, 0.14, 362.29
349.07, 0.14, 361.74
349.55, 0.14, 361.12
350.11, 0.14, 360.40
350.75, 0.14, 359.57
351.51, 0.14, 358.59
352.41, 0.14, 357.42
353.51, 0.14, 356.01
354.87, 0.14, 354.25
356.60, 0.14, 352.00
346.05, 0.09, 365.53
346.20, 0.09, 365.33
346.35, 0.10, 365.13
346.52, 0.10, 364.91
346.69, 0.11, 364.68
346.87, 0.12, 364.44
347.06, 0.13, 364.18
347.30, 0.14, 363.87
347.57, 0.14, 363.52
347.86, 0.14, 363.13
348.19, 0.14, 362.69
348.56, 0.14, 362.20
348.98, 0.14, 361.64
349.45, 0.14, 361.01
350.00, 0.14, 360.29
350.64, 0.14, 359.44
351.39, 0.14, 358.45
352.28, 0.14, 357.27
353.36, 0.14, 355.83
354.71, 0.14, 354.04
356.43, 0.14, 351.76
345.91, 0.14, 365.59
346.06, 0.14, 365.39
346.21, 0.14, 365.18
346.38, 0.14, 364.95
346.57, 0.14, 364.70
346.77, 0.14, 364.43
346.99, 0.14, 364.13
¯347.22, 0.14, 363.80
347.49, 0.14, 363.44
347.78, 0.14, 363.05
348.11, 0.14, 362.60
348.47, 0.14, 362.11
348.88, 0.14, 361.55
349.35, 0.14, 360.91
349.89, 0.14, 360.17
350.52, 0.14, 359.32
351.26, 0.14, 358.31
352.14, 0.14, 357.11
353.22, 0.14, 355.65
354.55, 0.14, 353.83
356.26, 0.14, 351.51
345.85, 0.14, 365.55
346.00, 0.14, 365.34
346.15, 0.14, 365.13
346.32, 0.14, 364.89
346.50, 0.14, 364.64
346.70, 0.14, 364.37
346.91, 0.14, 364.07
347.15, 0.14, 363.74
347.41, 0.14, 363.37
347.70, 0.14, 362.97
348.02, 0.14, 362.52
348.38, 0.14, 362.02
348.79, 0.14, 361.45
349.25, 0.14, 360.80
349.78, 0.14, 360.06
350.40, 0.14, 359.19
351.13, 0.14, 358.17
352.01, 0.14, 356.95
353.07, 0.14, 355.47
354.39, 0.14, 353.63
356.08, 0.14, 351.27
345.80, 0.14, 365.50
345.94, 0.14, 365.29
346.09, 0.14, 365.08
346.26, 0.14, 364.84
346.44, 0.14, 364.58
346.63, 0.14, 364.31
346.84, 0.14, 364.00
347.07, 0.14, 363.67
347.33, 0.14, 363.30
347.62, 0.14, 362.89
347.93, 0.14, 362.44
348.29, 0.14, 361.93
348.69, 0.14, 361.36
349.15, 0.14, 360.70
349.67, 0.14, 359.95
350.29, 0.14, 359.07
¯351.01, 0.14, 358.04
351.87, 0.14, 356.80
352.92, 0.14, 355.29
354.23, 0.14, 353.42
355.90, 0.14, 351.03
345.74, 0.14, 365.46
345.88, 0.14, 365.25
346.03, 0.14, 365.03
346.19, 0.14, 364.79
346.37, 0.14, 364.53
346.56, 0.14, 364.25
346.77, 0.14, 363.94
347.00, 0.14, 363.60
347.25, 0.14, 363.23
347.53, 0.14, 362.82
347.84, 0.14, 362.36
348.19, 0.14, 361.85
348.59, 0.14, 361.26
349.04, 0.14, 360.60
349.56, 0.14, 359.84
350.16, 0.14, 358.95
350.88, 0.14, 357.90
351.73, 0.14, 356.65
352.77, 0.14, 355.12
354.06, 0.14, 353.22
345.68, 0.14, 365.41
345.82, 0.14, 365.20
345.97, 0.14, 364.98
346.13, 0.14, 364.74
346.30, 0.14, 364.47
346.49, 0.14, 364.19
346.70, 0.14, 363.88
346.92, 0.14, 363.54
347.17, 0.14, 363.16
347.45, 0.14, 362.75
347.75, 0.14, 362.28
348.10, 0.14, 361.76
348.49, 0.14, 361.17
348.93, 0.14, 360.50
349.44, 0.14, 359.73
350.04, 0.14, 358.83
350.74, 0.14, 357.77
351.58, 0.14, 356.50
352.61, 0.14, 354.95
353.89, 0.14, 353.02
345.62, 0.14, 365.37
345.76, 0.14, 365.15
345.91, 0.14, 364.93
346.06, 0.14, 364.68
346.23, 0.14, 364.42
346.42, 0.14, 364.13
¯346.62, 0.14, 363.82
346.84, 0.14, 363.47
347.09, 0.14, 363.09
347.36, 0.14, 362.67
347.66, 0.14, 362.20
348.00, 0.14, 361.68
348.39, 0.14, 361.08
348.82, 0.14, 360.40
349.33, 0.14, 359.62
349.92, 0.14, 358.71
350.61, 0.14, 357.63
351.44, 0.14, 356.35
352.45, 0.14, 354.78
353.71, 0.14, 352.82
345.56, 0.14, 365.32
345.70, 0.14, 365.11
345.84, 0.14, 364.88
346.00, 0.14, 364.63
346.17, 0.14, 364.36
346.35, 0.14, 364.07
346.55, 0.14, 363.76
346.76, 0.14, 363.41
347.00, 0.14, 363.03
347.27, 0.14, 362.60
347.57, 0.14, 362.13
347.90, 0.14, 361.59
348.28, 0.14, 360.99
348.71, 0.14, 360.30
349.21, 0.14, 359.51
349.79, 0.14, 358.59
350.47, 0.14, 357.50
351.29, 0.14, 356.20
352.29, 0.14, 354.61
353.53, 0.14, 352.62
345.50, 0.14, 365.28
345.64, 0.14, 365.06
345.78, 0.14, 364.83
345.93, 0.14, 364.58
346.10, 0.14, 364.31
346.27, 0.14, 364.02
346.47, 0.14, 363.70
346.68, 0.14, 363.35
346.92, 0.14, 362.96
347.18, 0.14, 362.53
347.48, 0.14, 362.05
347.81, 0.14, 361.51
348.18, 0.14, 360.90
348.60, 0.14, 360.21
349.09, 0.14, 359.41
349.66, 0.14, 358.47
350.33, 0.14, 357.37
¯351.14, 0.14, 356.05
352.12, 0.14, 354.44
353.35, 0.14, 352.43
345.44, 0.14, 365.24
345.57, 0.14, 365.02
345.71, 0.14, 364.79
345.86, 0.14, 364.54
346.02, 0.14, 364.26
346.20, 0.14, 363.96
346.39, 0.14, 363.64
346.60, 0.14, 363.29
346.84, 0.14, 362.89
347.09, 0.14, 362.46
347.38, 0.14, 361.98
347.70, 0.14, 361.43
348.07, 0.14, 360.82
348.49, 0.14, 360.11
348.97, 0.14, 359.30
349.53, 0.14, 358.36
350.19, 0.14, 357.24
350.99, 0.14, 355.91
351.96, 0.14, 354.27
353.17, 0.14, 352.23
354.23, 0.51, 350.46
345.38, 0.14, 365.20
345.51, 0.14, 364.97
345.65, 0.14, 364.74
345.79, 0.14, 364.49
345.95, 0.14, 364.21
346.13, 0.14, 363.91
346.31, 0.14, 363.58
346.52, 0.14, 363.23
346.75, 0.14, 362.83
347.00, 0.14, 362.39
347.29, 0.14, 361.90
347.60, 0.14, 361.35
347.96, 0.14, 360.73
348.37, 0.14, 360.02
348.85, 0.14, 359.20
349.40, 0.14, 358.24
350.05, 0.14, 357.12
350.83, 0.14, 355.76
351.79, 0.14, 354.11
353.68, 0.00, 350.82
354.30, 0.17, 349.75
354.61, 0.42, 349.24
354.39, 0.75, 349.64
345.32, 0.14, 365.16
345.45, 0.14, 364.93
345.58, 0.14, 364.70
345.72, 0.14, 364.44
¯345.88, 0.14, 364.16
346.05, 0.14, 363.86
346.24, 0.14, 363.53
346.44, 0.14, 363.17
346.66, 0.14, 362.77
346.91, 0.14, 362.32
347.19, 0.14, 361.83
347.50, 0.14, 361.27
347.85, 0.14, 360.64
348.26, 0.14, 359.93
348.72, 0.14, 359.10
349.26, 0.14, 358.13
349.91, 0.14, 356.99
350.67, 0.14, 355.62
351.61, 0.14, 353.95
353.48, 0.00, 350.61
354.07, 1.35, 349.64
354.14, 1.64, 349.53
354.06, 1.94, 349.69
345.26, 0.14, 365.12
345.38, 0.14, 364.89
345.51, 0.14, 364.65
345.65, 0.14, 364.39
345.81, 0.14, 364.11
345.97, 0.14, 363.81
346.16, 0.14, 363.47
346.36, 0.14, 363.11
346.58, 0.14, 362.70
346.82, 0.14, 362.26
347.09, 0.14, 361.76
347.40, 0.14, 361.20
347.74, 0.14, 360.56
348.14, 0.14, 359.84
348.60, 0.14, 359.00
349.13, 0.14, 358.02
349.76, 0.14, 356.87
350.51, 0.14, 355.48
351.44, 0.14, 353.79
353.27, 0.00, 350.41
353.61, 1.09, 349.86
353.99, 1.35, 349.18
354.06, 1.64, 349.06
353.98, 1.94, 349.22
345.19, 0.14, 365.08
345.32, 0.14, 364.85
345.45, 0.14, 364.61
345.58, 0.14, 364.35
345.74, 0.14, 364.06
345.90, 0.14, 363.75
346.08, 0.14, 363.42
346.27, 0.14, 363.05
¯346.49, 0.14, 362.64
