ŸVERSION 0.7
FIELDS x y z
SIZE 8 8 8
TYPE F F F
COUNT 1 1 1
WIDTH 2271
HEIGHT 1
VIEWPOINT 397.23, 14.29, 245.31 1 384.88, 8.65, 260.83
POINTS 2271
DATA ascii
390.77, 6.83, 261.52
390.92, 6.83, 261.70
391.09, 6.83, 261.89
391.26, 6.83, 262.09
391.45, 6.83, 262.31
391.65, 6.84, 262.55
¯391.88, 6.84, 262.81
392.12, 6.84, 263.10
392.39, 6.85, 263.41
392.66, 6.86, 263.73
392.91, 6.89, 264.02
393.18, 6.92, 264.34
393.47, 6.96, 264.68
393.45, 7.09, 264.66
393.45, 7.21, 264.66
393.44, 7.34, 264.66
395.39, 7.05, 266.92
397.51, 6.81, 269.39
393.99, 7.61, 265.31
393.93, 7.75, 265.24
393.93, 7.88, 265.25
393.92, 8.01, 265.25
393.92, 8.14, 265.25
397.51, 8.00, 269.43
397.51, 8.20, 269.44
397.51, 8.40, 269.45
397.51, 8.59, 269.46
382.14, 6.81, 253.53
381.95, 6.82, 253.41
381.75, 6.82, 253.29
381.53, 6.82, 253.15
381.29, 6.82, 253.00
381.04, 6.82, 252.84
380.77, 6.82, 252.67
380.48, 6.82, 252.48
380.16, 6.83, 252.28
379.81, 6.83, 252.06
379.45, 6.84, 251.83
379.08, 6.86, 251.60
378.69, 6.89, 251.35
378.59, 6.99, 251.29
378.59, 7.12, 251.30
378.59, 7.24, 251.30
378.59, 7.36, 251.30
378.59, 7.49, 251.31
378.59, 7.61, 251.31
378.59, 7.73, 251.31
378.59, 7.86, 251.31
378.59, 7.98, 251.32
378.59, 8.10, 251.32
378.35, 8.20, 251.16
378.34, 8.33, 251.16
378.34, 8.45, 251.16
378.33, 8.58, 251.16
378.33, 8.70, 251.16
378.32, 8.82, 251.16
378.32, 8.95, 251.16
¯378.31, 9.07, 251.16
382.10, 6.82, 253.60
381.92, 6.82, 253.48
381.71, 6.82, 253.35
381.49, 6.82, 253.22
381.26, 6.82, 253.07
381.00, 6.82, 252.92
380.73, 6.82, 252.75
380.44, 6.83, 252.57
380.12, 6.83, 252.37
379.77, 6.83, 252.16
379.39, 6.84, 251.92
379.02, 6.86, 251.69
378.62, 6.88, 251.45
378.59, 7.00, 251.44
378.59, 7.13, 251.44
378.59, 7.25, 251.44
378.59, 7.37, 251.44
378.59, 7.50, 251.45
378.59, 7.62, 251.45
378.59, 7.74, 251.45
378.59, 7.86, 251.45
378.59, 7.98, 251.46
378.59, 8.10, 251.46
378.10, 8.19, 251.16
378.10, 8.31, 251.16
378.09, 8.44, 251.16
378.09, 8.57, 251.16
378.08, 8.69, 251.16
378.08, 8.82, 251.16
378.07, 8.95, 251.16
378.07, 9.07, 251.16
382.07, 6.82, 253.66
381.88, 6.82, 253.54
381.68, 6.82, 253.42
381.46, 6.82, 253.29
381.22, 6.82, 253.15
380.97, 6.82, 252.99
380.69, 6.82, 252.83
380.40, 6.83, 252.65
380.08, 6.83, 252.46
379.73, 6.84, 252.25
379.34, 6.84, 252.02
378.95, 6.86, 251.79
378.55, 6.88, 251.55
378.59, 7.01, 251.57
378.59, 7.14, 251.58
378.59, 7.26, 251.58
378.59, 7.38, 251.58
378.59, 7.50, 251.58
378.59, 7.63, 251.59
¯378.59, 7.75, 251.59
378.59, 7.87, 251.59
378.59, 7.99, 251.60
378.59, 8.11, 251.60
377.85, 8.17, 251.16
377.85, 8.30, 251.16
377.84, 8.43, 251.16
377.84, 8.56, 251.16
377.83, 8.69, 251.16
377.83, 8.82, 251.16
377.82, 8.95, 251.16
377.82, 9.08, 251.16
382.04, 6.82, 253.72
381.85, 6.82, 253.61
381.65, 6.82, 253.49
381.43, 6.82, 253.36
381.19, 6.82, 253.22
380.93, 6.82, 253.07
380.66, 6.82, 252.91
380.36, 6.83, 252.74
380.04, 6.83, 252.55
379.69, 6.84, 252.35
379.30, 6.84, 252.12
378.89, 6.85, 251.88
378.59, 6.90, 251.71
378.59, 7.02, 251.71
378.59, 7.15, 251.71
378.59, 7.27, 251.72
378.59, 7.39, 251.72
378.59, 7.51, 251.72
378.59, 7.63, 251.72
378.59, 7.75, 251.73
378.59, 7.87, 251.73
378.59, 7.99, 251.73
378.59, 8.11, 251.73
377.97, 8.18, 251.38
377.58, 8.28, 251.15
377.58, 8.42, 251.15
377.57, 8.55, 251.15
377.57, 8.68, 251.15
377.56, 8.81, 251.15
377.56, 8.95, 251.15
377.55, 9.08, 251.15
382.01, 6.82, 253.78
381.82, 6.82, 253.68
381.62, 6.82, 253.56
381.39, 6.82, 253.43
381.15, 6.82, 253.30
380.90, 6.82, 253.15
380.62, 6.83, 253.00
380.33, 6.83, 252.83
¯380.43, 6.96, 252.89
380.43, 7.06, 252.89
380.42, 7.15, 252.89
380.42, 7.25, 252.89
380.42, 7.34, 252.89
380.42, 7.44, 252.90
380.42, 7.53, 252.90
380.42, 7.63, 252.90
380.42, 7.72, 252.90
380.42, 7.82, 252.90
380.42, 7.91, 252.90
380.42, 8.00, 252.90
380.42, 8.10, 252.91
380.35, 8.18, 252.87
379.33, 8.18, 252.29
377.94, 8.18, 251.50
377.21, 8.26, 251.09
377.20, 8.40, 251.09
377.20, 8.53, 251.09
377.19, 8.67, 251.09
377.19, 8.81, 251.09
377.19, 8.95, 251.09
377.18, 9.08, 251.10
381.99, 6.82, 253.85
381.79, 6.82, 253.74
381.59, 6.82, 253.63
381.36, 6.82, 253.50
381.12, 6.82, 253.37
380.86, 6.82, 253.23
380.59, 6.83, 253.08
380.29, 6.83, 252.91
380.38, 6.96, 252.97
380.38, 7.05, 252.97
380.38, 7.15, 252.97
380.38, 7.25, 252.97
380.38, 7.34, 252.97
380.38, 7.44, 252.98
380.38, 7.53, 252.98
380.37, 7.63, 252.98
380.37, 7.72, 252.98
380.37, 7.81, 252.98
380.37, 7.91, 252.98
380.37, 8.00, 252.98
380.37, 8.09, 252.99
380.32, 8.18, 252.96
379.30, 8.18, 252.40
377.91, 8.18, 251.63
376.99, 8.25, 251.13
376.98, 8.39, 251.13
376.98, 8.53, 251.13
376.98, 8.67, 251.13
¯376.97, 8.80, 251.13
376.97, 8.94, 251.13
376.96, 9.08, 251.13
381.96, 6.82, 253.91
381.76, 6.82, 253.81
381.56, 6.82, 253.70
381.33, 6.82, 253.58
381.09, 6.82, 253.45
380.83, 6.83, 253.31
380.56, 6.83, 253.16
380.26, 6.83, 253.00
380.34, 6.96, 253.05
380.34, 7.05, 253.05
380.33, 7.15, 253.05
380.33, 7.25, 253.05
380.33, 7.34, 253.05
380.33, 7.44, 253.06
380.33, 7.53, 253.06
380.33, 7.63, 253.06
380.33, 7.72, 253.06
380.33, 7.81, 253.06
380.33, 7.91, 253.06
380.33, 8.00, 253.06
380.33, 8.09, 253.07
380.29, 8.18, 253.05
379.27, 8.18, 252.50
377.88, 8.18, 251.76
376.76, 8.24, 251.16
376.76, 8.38, 251.16
376.75, 8.52, 251.17
376.75, 8.66, 251.17
376.75, 8.80, 251.17
376.74, 8.94, 251.17
376.74, 9.08, 251.17
381.93, 6.82, 253.98
381.74, 6.82, 253.87
381.53, 6.82, 253.77
381.30, 6.82, 253.65
381.06, 6.82, 253.52
380.80, 6.83, 253.39
380.52, 6.83, 253.25
380.22, 6.83, 253.09
380.29, 6.95, 253.13
380.29, 7.05, 253.13
380.29, 7.15, 253.13
380.29, 7.24, 253.13
380.29, 7.34, 253.13
380.29, 7.43, 253.13
380.29, 7.53, 253.14
380.29, 7.62, 253.14
380.28, 7.72, 253.14
¯380.28, 7.81, 253.14
380.28, 7.90, 253.14
380.28, 8.00, 253.14
380.28, 8.09, 253.15
380.27, 8.18, 253.14
379.24, 8.18, 252.61
377.85, 8.18, 251.89
376.53, 8.22, 251.20
376.53, 8.37, 251.20
376.52, 8.51, 251.20
376.52, 8.65, 251.20
376.51, 8.80, 251.20
376.51, 8.94, 251.21
376.50, 9.08, 251.21
381.91, 6.82, 254.04
381.71, 6.82, 253.94
381.50, 6.82, 253.84
381.27, 6.82, 253.72
381.03, 6.83, 253.60
380.77, 6.83, 253.47
380.49, 6.83, 253.33
380.19, 6.84, 253.18
380.25, 6.95, 253.21
380.25, 7.05, 253.21
380.24, 7.14, 253.21
380.24, 7.24, 253.21
380.24, 7.34, 253.21
380.24, 7.43, 253.21
380.24, 7.53, 253.22
380.24, 7.62, 253.22
380.24, 7.71, 253.22
380.24, 7.81, 253.22
380.24, 7.90, 253.22
380.24, 7.99, 253.22
380.24, 8.09, 253.23
380.23, 8.18, 253.23
379.22, 8.18, 252.71
377.82, 8.18, 252.01
376.29, 8.21, 251.24
376.29, 8.36, 251.24
376.28, 8.50, 251.24
376.28, 8.65, 251.24
376.27, 8.79, 251.24
376.27, 8.94, 251.24
376.26, 9.08, 251.25
381.88, 6.82, 254.10
381.68, 6.82, 254.01
381.47, 6.82, 253.91
381.25, 6.83, 253.79
381.00, 6.83, 253.68
380.74, 6.83, 253.55
¯380.46, 6.83, 253.41
380.16, 6.84, 253.26
380.20, 6.95, 253.29
380.20, 7.04, 253.29
380.20, 7.14, 253.29
380.20, 7.24, 253.29
380.20, 7.33, 253.29
380.20, 7.43, 253.29
380.20, 7.52, 253.30
380.20, 7.62, 253.30
380.19, 7.71, 253.30
380.19, 7.81, 253.30
380.19, 7.90, 253.30
380.19, 7.99, 253.30
380.19, 8.09, 253.31
380.19, 8.18, 253.31
379.19, 8.18, 252.82
377.80, 8.18, 252.14
376.04, 8.20, 251.28
375.64, 8.32, 251.09
375.64, 8.48, 251.09
375.63, 8.63, 251.09
375.63, 8.79, 251.09
375.62, 8.94, 251.09
375.61, 9.09, 251.09
381.86, 6.82, 254.17
381.66, 6.82, 254.08
381.45, 6.83, 253.98
381.22, 6.83, 253.87
380.97, 6.83, 253.75
380.71, 6.83, 253.63
380.43, 6.83, 253.50
380.13, 6.84, 253.35
380.16, 6.94, 253.37
380.16, 7.04, 253.37
380.15, 7.14, 253.37
380.15, 7.23, 253.37
380.15, 7.33, 253.37
380.15, 7.43, 253.37
380.15, 7.52, 253.38
380.15, 7.62, 253.38
380.15, 7.71, 253.38
380.15, 7.80, 253.38
380.15, 7.90, 253.38
380.15, 7.99, 253.38
380.15, 8.08, 253.39
380.14, 8.18, 253.39
379.17, 8.18, 252.92
377.78, 8.18, 252.27
375.26, 8.15, 251.07
375.25, 8.31, 251.07
¯375.24, 8.46, 251.07
375.23, 8.62, 251.07
375.23, 8.78, 251.07
375.22, 8.94, 251.07
375.21, 9.10, 251.07
381.83, 6.82, 254.23
381.63, 6.83, 254.14
381.42, 6.83, 254.05
381.19, 6.83, 253.94
380.95, 6.83, 253.83
380.69, 6.83, 253.71
380.40, 6.83, 253.58
380.10, 6.84, 253.44
380.11, 6.94, 253.45
380.11, 7.04, 253.45
380.11, 7.14, 253.45
380.11, 7.23, 253.45
380.11, 7.33, 253.45
380.11, 7.42, 253.46
380.11, 7.52, 253.46
380.10, 7.61, 253.46
380.10, 7.71, 253.46
380.10, 7.80, 253.46
380.10, 7.89, 253.46
380.10, 7.99, 253.46
380.10, 8.08, 253.47
380.10, 8.17, 253.47
379.15, 8.18, 253.03
377.75, 8.18, 252.39
374.84, 8.12, 251.06
374.83, 8.29, 251.05
374.82, 8.45, 251.05
374.81, 8.61, 251.05
374.80, 8.77, 251.05
374.79, 8.94, 251.05
374.79, 9.10, 251.05
381.81, 6.83, 254.30
381.61, 6.83, 254.21
381.40, 6.83, 254.12
381.17, 6.83, 254.01
380.92, 6.83, 253.90
380.66, 6.83, 253.79
380.37, 6.83, 253.66
380.06, 6.84, 253.52
380.07, 6.94, 253.53
380.07, 7.03, 253.53
380.06, 7.13, 253.53
380.06, 7.23, 253.53
380.06, 7.32, 253.53
380.06, 7.42, 253.54
380.06, 7.51, 253.54
¯380.06, 7.61, 253.54
380.06, 7.70, 253.54
380.06, 7.80, 253.54
380.06, 7.89, 253.54
380.06, 7.98, 253.54
380.06, 8.08, 253.55
380.05, 8.17, 253.55
379.13, 8.18, 253.14
377.74, 8.18, 252.52
381.79, 6.83, 254.36
381.59, 6.83, 254.28
381.37, 6.83, 254.19
381.14, 6.83, 254.09
380.90, 6.83, 253.98
380.63, 6.83, 253.87
380.34, 6.84, 253.75
380.03, 6.84, 253.61
380.02, 6.93, 253.61
380.02, 7.03, 253.61
380.02, 7.13, 253.61
380.02, 7.22, 253.61
380.02, 7.32, 253.61
380.02, 7.42, 253.62
380.02, 7.51, 253.62
380.01, 7.61, 253.62
380.01, 7.70, 253.62
380.01, 7.79, 253.62
380.01, 7.89, 253.62
380.01, 7.98, 253.63
380.01, 8.08, 253.63
380.01, 8.17, 253.63
379.11, 8.18, 253.24
377.46, 8.16, 252.53
381.76, 6.83, 254.43
381.56, 6.83, 254.35
381.35, 6.83, 254.26
381.12, 6.83, 254.16
380.87, 6.83, 254.06
380.60, 6.83, 253.95
380.32, 6.84, 253.83
380.01, 6.84, 253.70
379.98, 6.93, 253.69
379.97, 7.03, 253.69
379.97, 7.12, 253.69
379.97, 7.22, 253.69
379.97, 7.32, 253.70
379.97, 7.41, 253.70
379.97, 7.51, 253.70
379.97, 7.60, 253.70
379.97, 7.70, 253.70
379.97, 7.79, 253.70
¯379.97, 7.89, 253.70
379.97, 7.98, 253.71
379.96, 8.07, 253.71
379.96, 8.17, 253.71
379.09, 8.18, 253.35
376.92, 8.12, 252.45
381.74, 6.83, 254.50
381.54, 6.83, 254.41
381.33, 6.83, 254.33
381.10, 6.83, 254.24
380.85, 6.83, 254.14
380.58, 6.83, 254.03
380.29, 6.84, 253.91
379.98, 6.84, 253.79
379.93, 6.92, 253.77
379.93, 7.02, 253.77
379.93, 7.12, 253.77
379.93, 7.22, 253.77
379.93, 7.31, 253.78
379.93, 7.41, 253.78
379.92, 7.50, 253.78
379.92, 7.60, 253.78
379.92, 7.69, 253.78
379.92, 7.79, 253.78
379.92, 7.88, 253.79
379.92, 7.98, 253.79
379.92, 8.07, 253.79
379.92, 8.16, 253.79
379.07, 8.18, 253.45
376.55, 8.10, 252.44
363.75, 8.05, 247.31
363.75, 8.36, 247.31
363.75, 8.66, 247.32
363.75, 8.97, 247.33
363.75, 9.27, 247.33
381.72, 6.83, 254.56
381.52, 6.83, 254.48
381.31, 6.83, 254.40
381.08, 6.83, 254.31
380.83, 6.83, 254.21
380.56, 6.83, 254.11
380.27, 6.84, 254.00
379.95, 6.84, 253.88
379.88, 6.92, 253.85
379.88, 7.02, 253.85
379.88, 7.11, 253.85
379.88, 7.21, 253.86
379.88, 7.31, 253.86
379.88, 7.40, 253.86
379.88, 7.50, 253.86
379.88, 7.60, 253.86
¯379.88, 7.69, 253.86
379.88, 7.78, 253.87
379.87, 7.88, 253.87
379.87, 7.97, 253.87
379.87, 8.07, 253.87
379.87, 8.16, 253.87
379.05, 8.18, 253.56
376.16, 8.07, 252.43
363.75, 7.44, 247.62
363.75, 7.75, 247.63
363.75, 8.05, 247.63
363.75, 8.35, 247.64
363.75, 8.66, 247.65
363.75, 8.96, 247.65
363.75, 9.26, 247.66
381.71, 6.83, 254.63
381.50, 6.83, 254.55
381.29, 6.83, 254.47
381.06, 6.83, 254.38
380.81, 6.83, 254.29
380.54, 6.84, 254.19
380.24, 6.84, 254.08
379.93, 6.84, 253.96
379.84, 6.91, 253.93
379.84, 7.01, 253.93
379.84, 7.11, 253.94
379.84, 7.21, 253.94
379.83, 7.30, 253.94
379.83, 7.40, 253.94
379.83, 7.50, 253.94
379.83, 7.59, 253.94
379.83, 7.69, 253.95
379.83, 7.78, 253.95
379.83, 7.88, 253.95
379.83, 7.97, 253.95
379.83, 8.06, 253.95
379.83, 8.16, 253.95
365.58, 7.00, 248.62
381.69, 6.83, 254.69
381.49, 6.83, 254.62
381.27, 6.83, 254.54
381.04, 6.83, 254.46
380.79, 6.84, 254.37
380.52, 6.84, 254.27
380.22, 6.84, 254.17
379.90, 6.84, 254.05
379.56, 6.84, 253.93
379.18, 6.85, 253.79
378.74, 6.84, 253.64
378.30, 6.85, 253.48
377.85, 6.87, 253.32
¯377.36, 6.89, 253.14
376.86, 6.92, 252.96
376.46, 6.99, 252.82
376.03, 7.06, 252.67
375.57, 7.13, 252.50
374.11, 7.07, 251.98
371.95, 6.97, 251.20
370.36, 6.98, 250.63
368.31, 7.00, 249.90
365.54, 7.00, 248.90
363.51, 7.12, 248.18
381.67, 6.83, 254.76
381.47, 6.83, 254.69
381.25, 6.83, 254.61
381.02, 6.83, 254.53
380.77, 6.84, 254.45
380.50, 6.84, 254.35
380.20, 6.84, 254.25
379.88, 6.84, 254.14
379.54, 6.84, 254.02
379.15, 6.85, 253.89
378.72, 6.85, 253.74
378.32, 6.86, 253.60
377.88, 6.88, 253.45
377.40, 6.91, 253.29
376.89, 6.94, 253.11
376.50, 7.00, 252.98
376.07, 7.07, 252.83
375.41, 7.11, 252.61
373.73, 7.03, 252.02
372.84, 7.09, 251.72
372.84, 7.27, 251.72
372.84, 7.46, 251.73
372.85, 7.64, 251.73
372.85, 7.82, 251.73
372.85, 8.01, 251.74
372.85, 8.19, 251.74
381.65, 6.83, 254.83
381.45, 6.83, 254.76
381.23, 6.83, 254.69
381.00, 6.84, 254.61
380.75, 6.84, 254.53
380.48, 6.84, 254.44
380.18, 6.84, 254.34
379.86, 6.84, 254.23
379.52, 6.84, 254.12
379.13, 6.85, 253.99
378.74, 6.86, 253.86
378.35, 6.88, 253.73
377.91, 6.90, 253.59
377.43, 6.92, 253.43
¯376.92, 6.95, 253.26
376.53, 7.01, 253.13
376.11, 7.08, 252.99
375.23, 7.09, 252.70
373.33, 6.97, 252.07
372.91, 7.10, 251.93
372.92, 7.28, 251.94
372.92, 7.47, 251.94
372.92, 7.65, 251.95
372.92, 7.83, 251.95
372.92, 8.01, 251.95
372.92, 8.19, 251.96
381.64, 6.83, 254.89
381.43, 6.83, 254.83
381.22, 6.83, 254.76
380.98, 6.84, 254.68
380.73, 6.84, 254.60
380.46, 6.84, 254.52
380.17, 6.84, 254.42
379.85, 6.84, 254.32
379.50, 6.85, 254.21
379.11, 6.85, 254.09
378.74, 6.86, 253.97
378.37, 6.89, 253.85
377.94, 6.91, 253.72
377.47, 6.93, 253.57
376.95, 6.96, 253.40
376.56, 7.02, 253.28
376.05, 7.07, 253.12
375.04, 7.06, 252.80
373.21, 6.96, 252.22
372.99, 7.11, 252.15
372.99, 7.29, 252.15
372.99, 7.47, 252.15
372.99, 7.65, 252.16
372.99, 7.83, 252.16
372.99, 8.01, 252.17
372.99, 8.19, 252.17
381.62, 6.83, 254.96
381.42, 6.83, 254.90
381.20, 6.84, 254.83
380.97, 6.84, 254.76
380.71, 6.84, 254.68
380.44, 6.84, 254.60
380.15, 6.84, 254.51
379.83, 6.84, 254.41
379.48, 6.85, 254.31
379.10, 6.85, 254.19
378.73, 6.87, 254.08
378.37, 6.89, 253.97
377.97, 6.92, 253.85
¯377.51, 6.94, 253.71
376.99, 6.97, 253.55
376.59, 7.03, 253.43
375.89, 7.05, 253.22
374.75, 7.02, 252.87
373.26, 6.97, 252.42
373.06, 7.12, 252.35
373.06, 7.30, 252.36
373.06, 7.48, 252.36
373.06, 7.66, 252.37
373.06, 7.84, 252.37
373.06, 8.02, 252.37
373.06, 8.20, 252.38
381.61, 6.83, 255.03
381.40, 6.84, 254.97
381.19, 6.84, 254.90
380.95, 6.84, 254.83
380.70, 6.84, 254.76
380.43, 6.84, 254.68
380.13, 6.84, 254.60
379.81, 6.85, 254.50
379.46, 6.85, 254.40
379.08, 6.85, 254.29
378.71, 6.87, 254.18
378.36, 6.90, 254.08
377.98, 6.93, 253.97
377.54, 6.96, 253.84
377.03, 6.98, 253.69
376.63, 7.04, 253.58
375.73, 7.03, 253.32
374.42, 6.98, 252.93
373.32, 6.98, 252.61
373.12, 7.14, 252.56
373.13, 7.31, 252.56
373.13, 7.49, 252.57
373.13, 7.67, 252.57
373.13, 7.85, 252.58
373.13, 8.02, 252.58
373.13, 8.20, 252.58
381.60, 6.83, 255.09
381.39, 6.84, 255.04
381.17, 6.84, 254.97
380.94, 6.84, 254.91
380.68, 6.84, 254.84
380.41, 6.84, 254.76
380.12, 6.84, 254.68
379.80, 6.85, 254.59
379.45, 6.85, 254.49
379.06, 6.85, 254.39
378.70, 6.87, 254.29
378.35, 6.90, 254.19
¯377.97, 6.93, 254.09
377.55, 6.96, 253.97
377.07, 7.00, 253.84
376.48, 7.02, 253.67
375.56, 7.00, 253.42
374.10, 6.93, 253.01
373.37, 6.99, 252.81
373.17, 7.14, 252.75
373.16, 7.32, 252.76
373.15, 7.50, 252.76
373.15, 7.67, 252.76
373.14, 7.85, 252.76
373.14, 8.02, 252.76
373.13, 8.20, 252.77
381.58, 6.84, 255.16
381.38, 6.84, 255.10
381.16, 6.84, 255.05
380.92, 6.84, 254.98
380.67, 6.84, 254.92
380.40, 6.84, 254.85
380.10, 6.85, 254.77
379.78, 6.85, 254.68
379.43, 6.85, 254.59
379.05, 6.85, 254.49
378.69, 6.87, 254.39
378.34, 6.90, 254.30
377.96, 6.93, 254.20
377.54, 6.97, 254.09
377.09, 7.00, 253.97
376.34, 7.00, 253.77
375.39, 6.98, 253.52
374.14, 6.94, 253.19
373.42, 7.00, 253.00
372.87, 7.11, 252.85
372.86, 7.29, 252.86
372.85, 7.47, 252.86
372.85, 7.65, 252.86
372.84, 7.83, 252.86
372.84, 8.00, 252.86
372.83, 8.18, 252.87
381.57, 6.84, 255.23
381.37, 6.84, 255.17
381.15, 6.84, 255.12
380.91, 6.84, 255.06
380.66, 6.84, 255.00
380.39, 6.84, 254.93
380.09, 6.85, 254.85
379.77, 6.85, 254.77
379.42, 6.85, 254.68
379.03, 6.85, 254.59
378.68, 6.87, 254.50
¯378.33, 6.90, 254.41
377.95, 6.93, 254.31
377.53, 6.97, 254.21
377.06, 7.00, 254.09
376.19, 6.98, 253.87
375.22, 6.96, 253.63
374.19, 6.95, 253.37
373.47, 7.01, 253.19
372.55, 7.07, 252.96
372.55, 7.26, 252.96
372.54, 7.44, 252.96
372.54, 7.62, 252.97
372.53, 7.80, 252.97
372.52, 7.98, 252.97
372.52, 8.17, 252.97
381.56, 6.84, 255.29
381.36, 6.84, 255.24
381.14, 6.84, 255.19
380.90, 6.84, 255.14
380.65, 6.84, 255.07
380.37, 6.85, 255.01
380.08, 6.85, 254.94
379.76, 6.85, 254.86
379.41, 6.85, 254.78
379.02, 6.85, 254.69
378.67, 6.87, 254.60
378.32, 6.90, 254.52
377.94, 6.94, 254.43
377.53, 6.97, 254.33
377.02, 7.00, 254.21
376.09, 6.96, 253.99
375.05, 6.93, 253.74
374.23, 6.96, 253.54
373.53, 7.02, 253.38
372.46, 7.06, 253.12
372.22, 7.22, 253.07
372.22, 7.41, 253.07
372.21, 7.59, 253.07
372.21, 7.78, 253.08
372.20, 7.96, 253.08
372.19, 8.15, 253.08
381.55, 6.84, 255.36
381.34, 6.84, 255.31
381.13, 6.84, 255.26
380.89, 6.84, 255.21
380.64, 6.84, 255.15
380.36, 6.85, 255.09
380.07, 6.85, 255.02
379.75, 6.85, 254.95
379.39, 6.85, 254.87
379.01, 6.86, 254.79
¯378.66, 6.88, 254.71
378.31, 6.91, 254.63
377.93, 6.94, 254.54
377.52, 6.97, 254.45
376.97, 6.99, 254.33
376.01, 6.95, 254.11
374.91, 6.91, 253.86
374.28, 6.97, 253.72
373.58, 7.03, 253.56
372.58, 7.08, 253.34
370.13, 6.99, 252.78
368.09, 7.00, 252.32
365.36, 7.00, 251.70
363.42, 7.12, 251.27
381.54, 6.84, 255.43
381.34, 6.84, 255.38
381.12, 6.84, 255.34
380.88, 6.84, 255.29
380.63, 6.84, 255.23
380.35, 6.85, 255.17
380.06, 6.85, 255.11
379.74, 6.85, 255.04
379.38, 6.85, 254.97
379.00, 6.86, 254.89
378.65, 6.88, 254.81
378.30, 6.91, 254.74
377.92, 6.94, 254.66
377.48, 6.97, 254.56
376.91, 6.98, 254.44
375.93, 6.94, 254.23
374.99, 6.93, 254.03
374.33, 6.98, 253.89
373.63, 7.04, 253.74
372.70, 7.10, 253.55
370.12, 6.99, 252.99
368.08, 7.00, 252.56
365.36, 7.00, 251.98
363.43, 7.12, 251.57
381.53, 6.84, 255.49
381.33, 6.84, 255.45
381.11, 6.84, 255.41
380.87, 6.84, 255.36
380.62, 6.85, 255.31
380.34, 6.85, 255.26
380.05, 6.85, 255.20
379.73, 6.85, 255.13
379.38, 6.86, 255.06
378.99, 6.86, 254.99
378.65, 6.88, 254.92
378.30, 6.91, 254.85
377.92, 6.94, 254.77
¯377.44, 6.96, 254.68
376.84, 6.97, 254.56
375.85, 6.93, 254.36
375.07, 6.94, 254.20
374.43, 7.00, 254.07
373.70, 7.05, 253.93
372.71, 7.10, 253.73
370.11, 6.99, 253.21
368.08, 7.00, 252.80
365.36, 7.00, 252.25
363.45, 7.12, 251.87
381.52, 6.84, 255.56
381.32, 6.84, 255.52
381.10, 6.84, 255.48
380.86, 6.84, 255.44
380.61, 6.85, 255.39
380.34, 6.85, 255.34
380.04, 6.85, 255.28
379.72, 6.85, 255.22
379.37, 6.86, 255.16
378.98, 6.86, 255.08
378.64, 6.88, 255.02
378.29, 6.91, 254.96
377.91, 6.94, 254.88
377.40, 6.96, 254.79
376.78, 6.96, 254.67
375.77, 6.91, 254.48
375.15, 6.96, 254.37
374.54, 7.01, 254.25
373.82, 7.07, 254.12
372.69, 7.10, 253.91
370.11, 6.99, 253.42
368.08, 7.00, 253.04
365.37, 7.00, 252.53
363.46, 7.12, 252.17
381.52, 6.84, 255.63
381.31, 6.84, 255.59
381.09, 6.84, 255.55
380.86, 6.85, 255.51
380.60, 6.85, 255.47
380.33, 6.85, 255.42
380.03, 6.85, 255.37
379.71, 6.85, 255.31
379.36, 6.86, 255.25
378.98, 6.86, 255.18
378.64, 6.88, 255.12
378.29, 6.91, 255.06
377.87, 6.94, 254.99
377.36, 6.95, 254.90
376.71, 6.95, 254.79
375.70, 6.90, 254.61
¯375.23, 6.97, 254.53
374.65, 7.03, 254.43
373.94, 7.09, 254.31
372.58, 7.08, 254.07
370.10, 6.99, 253.63
368.08, 7.00, 253.28
365.37, 7.00, 252.80
363.75, 7.14, 252.52
363.75, 7.43, 252.53
363.75, 7.72, 252.53
363.75, 8.01, 252.54
363.75, 8.30, 252.54
363.75, 8.58, 252.55
363.75, 8.87, 252.55
363.75, 9.16, 252.56
381.51, 6.84, 255.70
381.31, 6.84, 255.66
381.09, 6.84, 255.63
380.85, 6.85, 255.59
380.60, 6.85, 255.55
380.32, 6.85, 255.50
380.03, 6.85, 255.45
379.71, 6.86, 255.40
379.36, 6.86, 255.35
378.97, 6.86, 255.28
378.63, 6.88, 255.23
378.28, 6.91, 255.17
377.84, 6.93, 255.10
377.33, 6.94, 255.02
376.65, 6.94, 254.91
375.77, 6.92, 254.76
375.31, 6.98, 254.69
374.75, 7.05, 254.60
374.06, 7.11, 254.49
372.48, 7.07, 254.23
370.10, 6.99, 253.84
368.08, 7.00, 253.51
365.38, 7.00, 253.08
363.54, 7.13, 252.78
363.50, 7.41, 252.78
363.47, 7.70, 252.78
363.44, 7.99, 252.78
363.40, 8.28, 252.78
363.37, 8.57, 252.78
363.34, 8.87, 252.78
363.31, 9.16, 252.78
381.51, 6.84, 255.76
381.30, 6.84, 255.73
381.08, 6.84, 255.70
380.84, 6.85, 255.66
380.59, 6.85, 255.63
¯380.32, 6.85, 255.58
380.02, 6.85, 255.54
379.70, 6.86, 255.49
379.35, 6.86, 255.44
378.97, 6.86, 255.38
378.63, 6.89, 255.33
378.27, 6.91, 255.28
377.80, 6.92, 255.21
377.29, 6.94, 255.13
376.59, 6.93, 255.03
375.84, 6.93, 254.91
375.38, 7.00, 254.85
374.86, 7.06, 254.77
374.18, 7.12, 254.67
372.38, 7.06, 254.40
370.14, 6.99, 254.06
368.09, 7.00, 253.75
365.40, 7.00, 253.35
363.53, 7.12, 253.07
381.50, 6.84, 255.83
381.30, 6.84, 255.80
381.08, 6.85, 255.77
380.84, 6.85, 255.74
380.59, 6.85, 255.70
380.31, 6.85, 255.67
380.02, 6.85, 255.63
379.70, 6.86, 255.58
379.35, 6.86, 255.53
378.96, 6.86, 255.48
378.63, 6.89, 255.44
378.24, 6.91, 255.38
377.77, 6.92, 255.32
377.25, 6.93, 255.25
376.53, 6.92, 255.15
375.91, 6.94, 255.06
375.46, 7.01, 255.00
374.96, 7.08, 254.93
374.30, 7.14, 254.84
372.29, 7.05, 254.57
370.19, 7.00, 254.28
368.10, 7.00, 253.99
365.42, 7.00, 253.62
363.56, 7.12, 253.37
381.50, 6.84, 255.90
381.29, 6.84, 255.87
381.07, 6.85, 255.84
380.84, 6.85, 255.81
380.58, 6.85, 255.78
380.31, 6.85, 255.75
380.01, 6.86, 255.71
379.69, 6.86, 255.67
¯379.34, 6.86, 255.63
378.96, 6.86, 255.58
378.63, 6.89, 255.54
378.21, 6.90, 255.49
377.74, 6.91, 255.43
377.22, 6.93, 255.36
376.47, 6.91, 255.27
375.98, 6.96, 255.21
375.54, 7.02, 255.15
375.05, 7.09, 255.10
374.42, 7.16, 255.02
372.20, 7.04, 254.74
370.25, 7.00, 254.49
368.11, 7.00, 254.22
365.44, 7.00, 253.89
363.59, 7.12, 253.66
381.50, 6.84, 255.97
381.29, 6.85, 255.94
381.07, 6.85, 255.92
380.83, 6.85, 255.89
380.58, 6.85, 255.86
380.31, 6.85, 255.83
380.01, 6.86, 255.80
379.69, 6.86, 255.76
379.34, 6.86, 255.72
378.96, 6.86, 255.68
378.61, 6.88, 255.64
378.18, 6.90, 255.59
377.71, 6.91, 255.54
377.19, 6.92, 255.48
376.46, 6.91, 255.40
376.05, 6.97, 255.35
375.61, 7.04, 255.30
375.14, 7.11, 255.25
374.53, 7.17, 255.18
372.11, 7.02, 254.91
370.31, 7.01, 254.71
368.12, 7.00, 254.46
365.46, 7.00, 254.16
363.62, 7.12, 253.95
381.50, 6.85, 256.03
381.29, 6.85, 256.01
381.07, 6.85, 255.99
380.84, 6.85, 255.97
380.58, 6.85, 255.94
380.31, 6.85, 255.91
380.01, 6.86, 255.88
379.69, 6.86, 255.85
379.34, 6.86, 255.82
378.96, 6.87, 255.78
378.59, 6.88, 255.74
¯378.16, 6.89, 255.70
377.68, 6.90, 255.65
377.15, 6.91, 255.60
376.53, 6.92, 255.53
376.12, 6.98, 255.49
375.69, 7.05, 255.45
375.22, 7.12, 255.41
374.64, 7.19, 255.35
372.16, 7.03, 255.10
370.36, 7.01, 254.92
368.14, 7.00, 254.69
365.48, 7.00, 254.43
363.66, 7.12, 254.25
381.50, 6.85, 256.10
381.29, 6.85, 256.08
381.07, 6.85, 256.06
380.84, 6.85, 256.04
380.58, 6.85, 256.02
380.31, 6.86, 256.00
380.01, 6.86, 255.97
379.69, 6.86, 255.94
379.35, 6.86, 255.91
378.96, 6.87, 255.88
378.56, 6.87, 255.84
378.13, 6.88, 255.80
377.65, 6.90, 255.76
377.12, 6.91, 255.72
376.59, 6.93, 255.67
376.19, 6.99, 255.63
375.76, 7.06, 255.60
375.30, 7.13, 255.56
374.76, 7.20, 255.51
372.22, 7.04, 255.29
370.42, 7.02, 255.13
368.16, 7.00, 254.93
374.57, 7.79, 255.51
374.59, 7.94, 255.51
374.59, 8.10, 255.51
374.52, 8.24, 255.51
374.50, 8.40, 255.51
374.53, 8.55, 255.52
374.52, 8.70, 255.52
374.52, 8.85, 255.52
374.51, 9.01, 255.52
381.50, 6.85, 256.17
381.29, 6.85, 256.15
381.07, 6.85, 256.13
380.84, 6.85, 256.12
380.59, 6.86, 256.10
380.31, 6.86, 256.08
380.02, 6.86, 256.05
¯379.70, 6.86, 256.03
379.35, 6.87, 256.00
378.97, 6.87, 255.98
378.56, 6.87, 255.94
378.12, 6.88, 255.91
377.63, 6.89, 255.87
377.09, 6.90, 255.83
376.65, 6.94, 255.80
376.26, 7.01, 255.77
375.84, 7.07, 255.74
375.38, 7.14, 255.71
374.87, 7.22, 255.67
372.28, 7.04, 255.47
370.46, 7.02, 255.33
368.18, 7.00, 255.16
374.65, 7.80, 255.66
374.55, 7.94, 255.66
374.67, 8.10, 255.67
374.57, 8.25, 255.67
374.52, 8.39, 255.66
374.58, 8.55, 255.67
374.57, 8.70, 255.67
374.57, 8.85, 255.68
374.56, 9.00, 255.68
381.50, 6.85, 256.23
381.30, 6.85, 256.22
381.08, 6.85, 256.21
380.84, 6.85, 256.19
380.59, 6.86, 256.18
380.32, 6.86, 256.16
380.02, 6.86, 256.14
379.70, 6.86, 256.12
379.36, 6.87, 256.10
378.98, 6.87, 256.07
378.57, 6.88, 256.05
378.13, 6.88, 256.02
377.64, 6.89, 255.99
377.10, 6.90, 255.95
376.68, 6.95, 255.93
376.31, 7.01, 255.91
375.90, 7.08, 255.88
375.47, 7.15, 255.86
374.98, 7.23, 255.83
372.35, 7.05, 255.66
370.48, 7.02, 255.54
368.20, 7.00, 255.39
374.71, 7.80, 255.82
374.47, 7.93, 255.81
374.72, 8.10, 255.82
374.23, 8.23, 255.80
374.17, 8.38, 255.79
¯374.62, 8.55, 255.83
374.62, 8.70, 255.83
374.61, 8.85, 255.83
374.61, 9.00, 255.83
381.50, 6.85, 256.30
381.30, 6.85, 256.29
381.08, 6.85, 256.28
380.84, 6.86, 256.27
380.59, 6.86, 256.25
380.32, 6.86, 256.24
380.03, 6.86, 256.23
379.71, 6.87, 256.21
379.36, 6.87, 256.19
378.98, 6.87, 256.17
378.58, 6.88, 256.15
378.14, 6.89, 256.13
377.65, 6.89, 256.10
377.11, 6.90, 256.08
376.69, 6.95, 256.06
376.31, 7.01, 256.04
375.91, 7.08, 256.02
375.48, 7.15, 256.00
374.87, 7.21, 255.97
372.41, 7.06, 255.84
374.76, 7.50, 255.97
368.23, 7.00, 255.62
374.76, 7.80, 255.97
374.53, 7.93, 255.96
374.77, 8.10, 255.98
374.21, 8.22, 255.95
374.21, 8.38, 255.95
374.67, 8.55, 255.98
374.66, 8.70, 255.98
374.66, 8.85, 255.98
374.65, 9.00, 255.99
381.51, 6.85, 256.37
381.30, 6.85, 256.36
381.08, 6.86, 256.35
380.85, 6.86, 256.34
380.60, 6.86, 256.33
380.33, 6.86, 256.32
380.03, 6.86, 256.31
379.72, 6.87, 256.30
379.37, 6.87, 256.28
378.99, 6.87, 256.27
378.59, 6.88, 256.25
378.15, 6.89, 256.24
377.67, 6.90, 256.22
377.12, 6.91, 256.20
376.70, 6.95, 256.18
376.32, 7.01, 256.17
¯375.92, 7.08, 256.15
375.48, 7.15, 256.14
374.71, 7.19, 256.11
372.66, 7.08, 256.03
370.64, 7.03, 255.95
368.26, 7.00, 255.85
374.82, 7.80, 256.12
374.58, 7.94, 256.12
374.82, 8.10, 256.13
374.25, 8.22, 256.11
374.25, 8.38, 256.11
374.71, 8.55, 256.13
374.71, 8.69, 256.13
374.70, 8.84, 256.14
374.69, 8.99, 256.14
381.51, 6.85, 256.43
381.31, 6.86, 256.43
381.09, 6.86, 256.42
380.86, 6.86, 256.42
380.60, 6.86, 256.41
380.33, 6.86, 256.40
380.04, 6.87, 256.40
379.73, 6.87, 256.39
379.38, 6.87, 256.38
379.00, 6.88, 256.37
378.60, 6.88, 256.36
378.16, 6.89, 256.34
377.68, 6.90, 256.33
377.13, 6.91, 256.32
376.70, 6.95, 256.31
376.33, 7.01, 256.30
375.93, 7.08, 256.29
375.49, 7.15, 256.28
374.54, 7.16, 256.25
372.92, 7.11, 256.21
370.94, 7.06, 256.15
368.29, 7.00, 256.08
374.63, 7.79, 256.27
374.81, 7.95, 256.27
374.87, 8.10, 256.28
374.86, 8.25, 256.28
374.29, 8.38, 256.27
374.75, 8.54, 256.28
374.75, 8.69, 256.28
374.74, 8.84, 256.29
374.74, 8.99, 256.29
381.52, 6.85, 256.50
381.31, 6.86, 256.50
381.09, 6.86, 256.49
380.86, 6.86, 256.49
380.61, 6.86, 256.49
¯380.34, 6.87, 256.48
380.05, 6.87, 256.48
379.73, 6.87, 256.47
379.39, 6.87, 256.47
379.02, 6.88, 256.46
378.61, 6.88, 256.46
378.18, 6.89, 256.45
377.69, 6.90, 256.45
377.14, 6.91, 256.44
376.71, 6.95, 256.43
376.34, 7.01, 256.43
375.93, 7.08, 256.42
375.48, 7.15, 256.42
374.37, 7.14, 256.40
374.82, 7.35, 256.41
374.83, 7.50, 256.41
374.83, 7.65, 256.42
374.83, 7.80, 256.42
374.00, 7.89, 256.41
374.46, 8.08, 256.42
374.91, 8.25, 256.43
374.90, 8.40, 256.43
374.80, 8.54, 256.43
374.79, 8.69, 256.43
374.79, 8.84, 256.44
374.78, 8.99, 256.44
381.52, 6.86, 256.57
381.32, 6.86, 256.57
381.10, 6.86, 256.57
380.87, 6.86, 256.57
380.62, 6.86, 256.57
380.35, 6.87, 256.56
380.06, 6.87, 256.56
379.75, 6.87, 256.56
379.40, 6.88, 256.56
379.03, 6.88, 256.56
378.63, 6.89, 256.56
378.19, 6.89, 256.56
377.71, 6.90, 256.56
377.16, 6.91, 256.56
376.72, 6.95, 256.56
376.35, 7.01, 256.56
375.94, 7.08, 256.56
375.45, 7.14, 256.56
374.86, 7.20, 256.56
374.87, 7.36, 256.56
374.88, 7.51, 256.56
374.89, 7.66, 256.56
374.88, 7.80, 256.57
374.87, 7.95, 256.57
374.86, 8.10, 256.57
¯374.45, 8.23, 256.57
374.96, 8.40, 256.58
374.69, 8.54, 256.58
374.83, 8.69, 256.58
374.83, 8.84, 256.58
374.82, 8.98, 256.59
381.89, 6.99, 256.63
381.32, 6.86, 256.64
381.11, 6.86, 256.64
380.88, 6.86, 256.64
380.63, 6.87, 256.64
380.36, 6.87, 256.64
380.07, 6.87, 256.65
379.76, 6.87, 256.65
379.41, 6.88, 256.65
379.04, 6.88, 256.66
378.64, 6.89, 256.66
378.21, 6.90, 256.67
377.73, 6.90, 256.67
377.17, 6.91, 256.68
376.73, 6.95, 256.68
376.36, 7.01, 256.69
375.96, 7.08, 256.69
375.41, 7.14, 256.70
374.91, 7.21, 256.70
374.92, 7.36, 256.71
374.93, 7.51, 256.71
374.94, 7.66, 256.71
374.93, 7.81, 256.71
374.92, 7.95, 256.72
374.91, 8.10, 256.72
374.09, 8.20, 256.73
374.95, 8.40, 256.72
374.97, 8.54, 256.73
374.89, 8.69, 256.73
374.88, 8.83, 256.73
374.86, 8.98, 256.73
381.89, 6.99, 256.69
381.33, 6.86, 256.70
381.12, 6.86, 256.71
380.89, 6.86, 256.71
380.64, 6.87, 256.72
380.37, 6.87, 256.73
380.08, 6.87, 256.73
379.77, 6.88, 256.74
379.43, 6.88, 256.75
379.06, 6.88, 256.75
378.66, 6.89, 256.76
378.22, 6.90, 256.77
377.74, 6.90, 256.78
377.19, 6.91, 256.80
¯376.74, 6.95, 256.81
376.37, 7.01, 256.82
375.97, 7.08, 256.83
375.38, 7.13, 256.84
374.95, 7.21, 256.85
374.96, 7.36, 256.85
374.98, 7.51, 256.85
374.98, 7.66, 256.86
374.97, 7.81, 256.86
374.96, 7.95, 256.86
374.95, 8.10, 256.87
374.13, 8.20, 256.89
374.13, 8.36, 256.89
375.00, 8.54, 256.87
374.91, 8.69, 256.88
374.91, 8.83, 256.88
374.90, 8.98, 256.88
381.90, 6.99, 256.76
381.34, 6.86, 256.77
381.13, 6.86, 256.78
380.90, 6.87, 256.79
380.65, 6.87, 256.80
380.38, 6.87, 256.81
380.09, 6.87, 256.82
379.78, 6.88, 256.83
379.44, 6.88, 256.84
379.07, 6.88, 256.85
378.67, 6.89, 256.86
378.24, 6.90, 256.88
377.76, 6.91, 256.90
377.21, 6.91, 256.91
376.75, 6.95, 256.93
376.38, 7.01, 256.94
375.94, 7.07, 256.96
375.35, 7.12, 256.98
374.98, 7.21, 257.00
375.00, 7.36, 257.00
375.01, 7.51, 257.00
375.01, 7.66, 257.00
375.01, 7.81, 257.01
374.99, 7.95, 257.01
374.98, 8.10, 257.01
374.17, 8.20, 257.04
374.17, 8.36, 257.04
375.04, 8.54, 257.02
374.95, 8.68, 257.02
374.95, 8.83, 257.02
374.94, 8.98, 257.03
381.91, 6.99, 256.82
381.35, 6.86, 256.84
381.14, 6.86, 256.85
¯380.91, 6.87, 256.86
380.66, 6.87, 256.87
380.39, 6.87, 256.89
380.11, 6.88, 256.90
379.80, 6.88, 256.91
379.46, 6.88, 256.93
379.09, 6.89, 256.95
378.69, 6.89, 256.96
378.26, 6.90, 256.98
377.78, 6.91, 257.01
377.23, 6.91, 257.03
376.76, 6.95, 257.06
376.39, 7.01, 257.07
375.91, 7.06, 257.10
375.32, 7.11, 257.13
375.02, 7.21, 257.14
375.03, 7.36, 257.14
375.04, 7.51, 257.14
375.04, 7.66, 257.15
375.03, 7.81, 257.15
375.02, 7.95, 257.15
375.01, 8.10, 257.16
374.21, 8.20, 257.19
375.01, 8.39, 257.16
374.97, 8.53, 257.16
374.97, 8.68, 257.17
374.97, 8.83, 257.17
374.80, 8.97, 257.18
381.92, 6.99, 256.88
381.73, 7.00, 256.89
381.15, 6.87, 256.92
380.92, 6.87, 256.93
380.67, 6.87, 256.95
380.41, 6.87, 256.96
380.12, 6.88, 256.98
379.81, 6.88, 257.00
379.47, 6.88, 257.02
379.11, 6.89, 257.04
378.71, 6.89, 257.06
378.28, 6.90, 257.09
377.79, 6.91, 257.12
377.25, 6.91, 257.15
376.77, 6.95, 257.18
376.40, 7.01, 257.20
375.88, 7.06, 257.23
375.29, 7.10, 257.27
374.30, 7.11, 257.33
375.05, 7.36, 257.29
375.06, 7.51, 257.29
375.06, 7.66, 257.29
375.06, 7.81, 257.29
¯374.96, 7.94, 257.30
375.12, 8.10, 257.30
375.10, 8.25, 257.30
374.82, 8.38, 257.32
375.01, 8.53, 257.31
375.01, 8.68, 257.31
375.01, 8.82, 257.31
374.11, 8.98, 257.37
381.92, 7.00, 256.94
381.74, 7.00, 256.95
381.16, 6.87, 256.99
380.93, 6.87, 257.01
380.68, 6.87, 257.03
380.42, 6.87, 257.04
380.14, 6.88, 257.06
379.83, 6.88, 257.09
379.49, 6.88, 257.11
379.12, 6.89, 257.14
378.73, 6.89, 257.16
378.30, 6.90, 257.19
377.81, 6.91, 257.23
377.27, 6.91, 257.27
376.79, 6.95, 257.30
376.40, 7.00, 257.33
375.86, 7.05, 257.37
375.26, 7.09, 257.41
374.39, 7.12, 257.48
373.81, 7.20, 257.52
373.17, 7.29, 257.57
375.18, 7.67, 257.43
375.18, 7.81, 257.43
375.17, 7.96, 257.43
374.95, 8.09, 257.45
374.70, 8.22, 257.47
374.29, 8.35, 257.50
375.05, 8.53, 257.45
375.05, 8.68, 257.46
375.05, 8.82, 257.46
374.80, 8.97, 257.48
381.93, 7.00, 257.00
381.75, 7.00, 257.02
381.17, 6.87, 257.06
380.94, 6.87, 257.08
380.70, 6.87, 257.10
380.43, 6.88, 257.12
380.15, 6.88, 257.15
379.84, 6.88, 257.17
379.51, 6.89, 257.20
379.14, 6.89, 257.23
378.75, 6.90, 257.26
378.32, 6.90, 257.30
¯377.83, 6.91, 257.34
377.29, 6.91, 257.39
376.80, 6.94, 257.43
376.38, 7.00, 257.46
375.83, 7.04, 257.51
375.23, 7.09, 257.56
374.48, 7.13, 257.62
373.91, 7.21, 257.67
373.28, 7.30, 257.73
374.66, 7.61, 257.62
373.00, 7.61, 257.75
374.33, 7.89, 257.65
374.36, 8.05, 257.65
374.33, 8.20, 257.65
374.33, 8.35, 257.66
375.09, 8.53, 257.60
375.09, 8.68, 257.60
375.09, 8.82, 257.60
373.31, 8.98, 257.75
381.95, 7.00, 257.06
381.76, 7.00, 257.08
381.56, 7.00, 257.10
380.96, 6.87, 257.15
380.71, 6.87, 257.18
380.45, 6.88, 257.20
380.17, 6.88, 257.23
379.86, 6.88, 257.26
379.53, 6.89, 257.29
379.17, 6.89, 257.32
378.77, 6.90, 257.36
378.34, 6.90, 257.40
377.86, 6.91, 257.45
377.31, 6.92, 257.50
376.82, 6.94, 257.55
376.35, 6.99, 257.60
375.81, 7.03, 257.65
375.20, 7.08, 257.71
374.57, 7.14, 257.77
374.00, 7.22, 257.82
373.34, 7.30, 257.89
372.83, 7.42, 257.94
374.47, 7.74, 257.79
374.37, 7.89, 257.80
374.40, 8.05, 257.80
374.37, 8.20, 257.80
374.37, 8.35, 257.81
373.35, 8.81, 257.91
373.35, 8.98, 257.91
381.96, 7.00, 257.12
381.77, 7.00, 257.14
381.58, 7.00, 257.16
¯380.97, 6.87, 257.23
380.73, 6.88, 257.25
380.47, 6.88, 257.28
380.19, 6.88, 257.31
379.88, 6.89, 257.34
379.55, 6.89, 257.38
379.19, 6.89, 257.42
378.79, 6.90, 257.46
378.37, 6.91, 257.51
377.88, 6.91, 257.56
377.34, 6.92, 257.62
376.83, 6.94, 257.67
376.33, 6.98, 257.73
375.78, 7.02, 257.79
375.19, 7.07, 257.85
374.60, 7.14, 257.92
373.99, 7.21, 257.98
373.33, 7.30, 258.06
375.38, 7.68, 257.84
375.38, 7.82, 257.84
375.38, 7.96, 257.85
375.38, 8.11, 257.85
375.36, 8.25, 257.85
375.18, 8.38, 257.88
381.97, 7.00, 257.18
381.79, 7.00, 257.20
381.59, 7.00, 257.23
380.99, 6.87, 257.30
380.74, 6.88, 257.33
380.48, 6.88, 257.36
380.20, 6.88, 257.39
379.90, 6.89, 257.43
379.57, 6.89, 257.47
379.21, 6.90, 257.51
378.82, 6.90, 257.56
378.39, 6.91, 257.61
377.90, 6.91, 257.67
377.37, 6.92, 257.73
376.82, 6.93, 257.80
376.33, 6.98, 257.86
375.81, 7.02, 257.92
375.23, 7.07, 257.99
374.59, 7.13, 258.07
373.99, 7.21, 258.15
373.20, 7.28, 258.24
375.42, 7.68, 257.98
375.42, 7.82, 257.98
375.42, 7.96, 257.99
375.42, 8.11, 257.99
375.40, 8.25, 257.99
375.21, 8.38, 258.02
¯381.98, 7.00, 257.24
381.80, 7.00, 257.27
381.60, 7.01, 257.29
381.00, 6.88, 257.37
380.76, 6.88, 257.40
380.50, 6.88, 257.44
380.22, 6.88, 257.47
379.92, 6.89, 257.51
379.59, 6.89, 257.56
379.23, 6.90, 257.60
378.84, 6.90, 257.66
378.41, 6.91, 257.71
377.93, 6.91, 257.78
377.40, 6.92, 257.85
376.84, 6.93, 257.92
376.37, 6.98, 257.99
375.84, 7.02, 258.06
375.24, 7.07, 258.14
374.59, 7.12, 258.22
373.99, 7.20, 258.31
372.99, 7.25, 258.44
375.45, 7.68, 258.12
375.46, 7.82, 258.12
375.46, 7.96, 258.12
375.46, 8.10, 258.13
375.44, 8.25, 258.13
375.25, 8.38, 258.16
381.99, 7.00, 257.30
381.81, 7.00, 257.33
381.62, 7.01, 257.36
381.41, 7.01, 257.39
380.78, 6.88, 257.48
380.52, 6.88, 257.51
380.24, 6.89, 257.55
379.94, 6.89, 257.60
379.61, 6.89, 257.65
379.26, 6.90, 257.70
378.87, 6.90, 257.75
378.44, 6.91, 257.82
377.96, 6.91, 257.89
377.44, 6.92, 257.96
376.88, 6.93, 258.04
376.40, 6.98, 258.11
375.88, 7.02, 258.19
375.24, 7.06, 258.28
374.59, 7.12, 258.38
373.98, 7.20, 258.47
372.64, 7.20, 258.66
375.49, 7.68, 258.26
375.49, 7.82, 258.26
375.49, 7.96, 258.26
¯375.49, 8.10, 258.26
375.48, 8.24, 258.27
375.29, 8.38, 258.30
382.01, 7.00, 257.36
381.83, 7.00, 257.39
381.63, 7.01, 257.42
381.43, 7.01, 257.45
380.80, 6.88, 257.55
380.54, 6.88, 257.59
380.26, 6.89, 257.63
379.96, 6.89, 257.68
379.64, 6.90, 257.73
379.28, 6.90, 257.79
378.90, 6.90, 257.85
378.47, 6.91, 257.92
378.00, 6.92, 257.99
377.48, 6.92, 258.07
376.91, 6.94, 258.16
376.43, 6.98, 258.24
375.91, 7.02, 258.32
375.24, 7.06, 258.43
374.59, 7.11, 258.53
373.98, 7.19, 258.63
372.27, 7.15, 258.90
375.53, 7.68, 258.39
375.53, 7.82, 258.40
375.53, 7.96, 258.40
375.53, 8.10, 258.40
375.51, 8.24, 258.40
375.33, 8.38, 258.44
382.02, 7.00, 257.42
381.84, 7.01, 257.45
381.65, 7.01, 257.48
381.44, 7.01, 257.52
380.82, 6.88, 257.62
380.56, 6.89, 257.67
380.29, 6.89, 257.71
379.99, 6.89, 257.77
379.66, 6.90, 257.82
379.31, 6.90, 257.88
378.93, 6.91, 257.95
378.50, 6.91, 258.02
378.04, 6.92, 258.10
377.52, 6.93, 258.19
376.94, 6.94, 258.28
376.47, 6.98, 258.37
375.95, 7.02, 258.45
375.24, 7.05, 258.58
374.59, 7.11, 258.69
373.94, 7.18, 258.80
372.27, 7.14, 259.08
¯375.56, 7.68, 258.53
375.56, 7.82, 258.53
375.56, 7.96, 258.54
375.57, 8.10, 258.54
375.55, 8.24, 258.54
375.37, 8.38, 258.57
382.04, 7.00, 257.48
381.86, 7.01, 257.51
381.67, 7.01, 257.55
381.46, 7.01, 257.59
381.24, 7.02, 257.63
380.58, 6.89, 257.74
380.31, 6.89, 257.79
380.01, 6.89, 257.85
379.69, 6.90, 257.91
379.34, 6.90, 257.97
378.96, 6.91, 258.04
378.54, 6.92, 258.12
378.08, 6.92, 258.20
377.56, 6.93, 258.30
376.98, 6.94, 258.40
376.50, 6.98, 258.49
375.99, 7.02, 258.59
375.25, 7.05, 258.72
374.59, 7.10, 258.84
373.79, 7.15, 258.99
372.33, 7.15, 259.26
375.60, 7.67, 258.67
375.60, 7.82, 258.67
375.60, 7.96, 258.67
375.60, 8.10, 258.67
375.59, 8.24, 258.68
375.41, 8.37, 258.71
382.05, 7.00, 257.54
381.87, 7.01, 257.57
381.68, 7.01, 257.61
381.48, 7.01, 257.65
381.26, 7.02, 257.69
380.61, 6.89, 257.82
380.33, 6.89, 257.87
380.04, 6.90, 257.93
379.72, 6.90, 257.99
379.37, 6.90, 258.06
378.99, 6.91, 258.14
378.58, 6.92, 258.22
378.12, 6.92, 258.31
377.60, 6.93, 258.41
377.03, 6.94, 258.52
376.54, 6.98, 258.62
376.03, 7.03, 258.72
375.25, 7.04, 258.87
¯374.59, 7.10, 259.00
373.64, 7.13, 259.19
372.40, 7.15, 259.43
375.64, 7.67, 258.80
375.64, 7.82, 258.81
375.64, 7.96, 258.81
375.64, 8.10, 258.81
375.63, 8.24, 258.81
375.45, 8.37, 258.85
382.07, 7.01, 257.60
381.89, 7.01, 257.63
381.70, 7.01, 257.67
381.50, 7.01, 257.72
381.28, 7.02, 257.76
380.63, 6.89, 257.90
380.36, 6.89, 257.95
380.06, 6.90, 258.01
379.74, 6.90, 258.08
379.40, 6.91, 258.15
379.03, 6.91, 258.23
378.61, 6.92, 258.32
378.16, 6.93, 258.41
377.65, 6.94, 258.52
377.08, 6.94, 258.64
376.58, 6.98, 258.74
376.07, 7.03, 258.85
375.26, 7.04, 259.02
374.60, 7.09, 259.16
373.48, 7.10, 259.39
372.46, 7.15, 259.60
375.67, 7.67, 258.94
375.67, 7.81, 258.94
375.67, 7.96, 258.94
375.67, 8.10, 258.95
375.67, 8.24, 258.95
375.49, 8.37, 258.99
382.09, 7.01, 257.66
381.91, 7.01, 257.70
381.72, 7.01, 257.74
381.52, 7.01, 257.78
381.30, 7.02, 257.83
381.07, 7.02, 257.88
380.38, 6.89, 258.03
380.09, 6.90, 258.10
379.77, 6.90, 258.17
379.43, 6.91, 258.24
379.06, 6.91, 258.32
378.65, 6.92, 258.41
378.20, 6.93, 258.51
377.69, 6.94, 258.63
377.13, 6.95, 258.75
¯376.62, 6.98, 258.86
376.09, 7.02, 258.98
375.27, 7.03, 259.16
374.60, 7.08, 259.31
373.32, 7.07, 259.59
372.53, 7.15, 259.77
375.71, 7.67, 259.08
375.71, 7.81, 259.08
375.71, 7.95, 259.08
375.71, 8.10, 259.08
375.70, 8.24, 259.09
375.53, 8.37, 259.13
382.10, 7.01, 257.71
381.93, 7.01, 257.76
381.74, 7.01, 257.80
381.54, 7.02, 257.85
381.32, 7.02, 257.90
381.09, 7.02, 257.95
380.41, 6.89, 258.11
380.12, 6.90, 258.18
379.80, 6.90, 258.25
379.46, 6.91, 258.33
379.10, 6.92, 258.42
378.69, 6.93, 258.51
378.24, 6.93, 258.62
377.74, 6.94, 258.73
377.18, 6.95, 258.87
376.66, 6.98, 258.99
376.10, 7.02, 259.12
375.28, 7.03, 259.31
374.52, 7.06, 259.49
373.21, 7.05, 259.80
372.57, 7.15, 259.95
375.74, 7.67, 259.21
375.74, 7.81, 259.21
375.74, 7.95, 259.22
375.74, 8.09, 259.22
375.74, 8.23, 259.22
375.56, 8.37, 259.26
382.12, 7.01, 257.77
381.95, 7.01, 257.82
381.76, 7.01, 257.86
381.56, 7.02, 257.91
381.35, 7.02, 257.96
381.12, 7.02, 258.02
380.44, 6.90, 258.19
380.15, 6.90, 258.26
379.83, 6.90, 258.34
379.49, 6.91, 258.42
379.13, 6.92, 258.51
378.73, 6.93, 258.61
¯378.28, 6.93, 258.72
377.79, 6.94, 258.84
377.23, 6.95, 258.98
376.70, 6.98, 259.11
376.11, 7.01, 259.26
375.29, 7.02, 259.46
374.39, 7.04, 259.68
373.28, 7.05, 259.96
372.62, 7.14, 260.12
375.73, 7.66, 259.36
374.44, 7.68, 259.68
373.17, 7.73, 259.99
375.59, 8.08, 259.40
375.59, 8.22, 259.40
374.84, 8.33, 259.59
363.74, 8.12, 262.33
363.74, 8.41, 262.33
363.74, 8.71, 262.33
363.74, 9.00, 262.34
382.14, 7.01, 257.83
381.97, 7.01, 257.88
381.78, 7.01, 257.92
381.58, 7.02, 257.98
381.37, 7.02, 258.03
381.14, 7.02, 258.09
380.46, 6.90, 258.26
380.18, 6.90, 258.34
379.86, 6.91, 258.42
379.53, 6.91, 258.51
379.17, 6.92, 258.60
378.77, 6.93, 258.70
378.33, 6.94, 258.82
377.83, 6.95, 258.95
377.28, 6.95, 259.09
376.74, 6.98, 259.23
376.13, 7.01, 259.39
375.30, 7.01, 259.61
374.37, 7.03, 259.85
373.36, 7.05, 260.11
372.67, 7.14, 260.29
372.07, 7.26, 260.45
374.49, 7.68, 259.83
364.51, 7.01, 262.41
375.62, 8.08, 259.54
375.63, 8.22, 259.54
374.88, 8.33, 259.74
363.74, 8.12, 262.63
363.74, 8.41, 262.63
363.74, 8.70, 262.64
363.74, 8.99, 262.64
382.16, 7.01, 257.89
¯381.99, 7.01, 257.94
381.80, 7.01, 257.99
381.60, 7.02, 258.04
381.39, 7.02, 258.10
381.16, 7.03, 258.16
380.92, 7.03, 258.23
380.21, 6.90, 258.42
379.90, 6.91, 258.50
379.56, 6.91, 258.60
379.21, 6.92, 258.69
378.82, 6.93, 258.80
378.37, 6.94, 258.92
377.88, 6.95, 259.05
377.33, 6.96, 259.20
376.78, 6.98, 259.36
376.14, 7.00, 259.53
375.32, 7.01, 259.76
374.44, 7.03, 260.00
373.44, 7.05, 260.27
372.71, 7.14, 260.47
372.12, 7.26, 260.63
374.53, 7.68, 259.98
364.65, 7.01, 262.67
374.92, 8.02, 259.88
374.92, 8.17, 259.88
374.92, 8.33, 259.88
382.18, 7.01, 257.94
382.01, 7.01, 257.99
381.82, 7.02, 258.05
381.63, 7.02, 258.10
381.42, 7.02, 258.16
381.19, 7.03, 258.23
380.95, 7.03, 258.30
380.24, 6.90, 258.50
379.93, 6.91, 258.59
379.60, 6.92, 258.68
379.25, 6.92, 258.78
378.86, 6.93, 258.89
378.42, 6.94, 259.02
377.93, 6.95, 259.16
377.39, 6.96, 259.32
376.82, 6.98, 259.48
376.16, 7.00, 259.67
375.38, 7.01, 259.89
374.51, 7.03, 260.14
373.52, 7.06, 260.42
372.76, 7.14, 260.64
372.17, 7.25, 260.81
374.58, 7.68, 260.13
375.82, 7.94, 259.78
375.82, 8.08, 259.78
¯375.82, 8.22, 259.78
375.49, 8.35, 259.88
374.87, 8.47, 260.06
382.20, 7.01, 258.00
382.03, 7.01, 258.05
381.85, 7.02, 258.11
381.65, 7.02, 258.17
381.44, 7.02, 258.23
381.22, 7.03, 258.30
380.97, 7.03, 258.37
380.27, 6.91, 258.58
379.96, 6.91, 258.67
379.64, 6.92, 258.77
379.29, 6.93, 258.87
378.90, 6.94, 258.99
378.47, 6.94, 259.12
377.98, 6.95, 259.26
377.44, 6.96, 259.43
376.87, 6.98, 259.60
376.19, 6.99, 259.80
375.45, 7.01, 260.02
374.57, 7.03, 260.29
375.75, 7.35, 259.94
375.76, 7.50, 259.94
375.76, 7.64, 259.94
375.76, 7.79, 259.94
375.85, 7.94, 259.92
375.85, 8.08, 259.92
375.85, 8.22, 259.92
375.58, 8.35, 260.00
374.91, 8.47, 260.21
382.22, 7.01, 258.06
382.05, 7.01, 258.11
381.87, 7.02, 258.17
381.68, 7.02, 258.23
381.47, 7.02, 258.30
381.24, 7.03, 258.37
381.00, 7.03, 258.44
380.74, 7.04, 258.52
380.00, 6.91, 258.75
379.67, 6.92, 258.85
379.33, 6.93, 258.96
378.95, 6.94, 259.08
378.52, 6.95, 259.22
378.04, 6.96, 259.37
377.50, 6.97, 259.54
376.91, 6.98, 259.72
376.25, 6.99, 259.93
375.52, 7.01, 260.16
375.79, 7.20, 260.07
375.80, 7.35, 260.07
¯375.81, 7.50, 260.07
375.81, 7.64, 260.07
375.81, 7.78, 260.08
375.89, 7.93, 260.05
375.89, 8.08, 260.05
375.89, 8.22, 260.06
375.66, 8.35, 260.13
375.00, 8.47, 260.34
382.25, 7.01, 258.11
382.08, 7.01, 258.17
381.90, 7.02, 258.23
381.70, 7.02, 258.29
381.49, 7.02, 258.36
381.27, 7.03, 258.43
381.03, 7.03, 258.51
380.77, 7.04, 258.60
380.03, 6.91, 258.84
379.71, 6.92, 258.94
379.37, 6.93, 259.05
378.99, 6.94, 259.18
378.56, 6.95, 259.31
378.09, 6.96, 259.47
377.56, 6.97, 259.64
376.96, 6.98, 259.84
376.32, 7.00, 260.05
375.59, 7.02, 260.29
375.83, 7.20, 260.21
375.84, 7.35, 260.21
375.85, 7.49, 260.21
375.86, 7.64, 260.21
375.85, 7.78, 260.21
375.93, 7.93, 260.19
375.93, 8.07, 260.19
375.93, 8.22, 260.19
375.75, 8.35, 260.25
375.04, 8.47, 260.48
375.04, 8.62, 260.49
382.27, 7.01, 258.17
382.10, 7.02, 258.23
381.92, 7.02, 258.29
381.73, 7.02, 258.36
381.52, 7.03, 258.43
381.30, 7.03, 258.50
381.06, 7.03, 258.58
380.81, 7.04, 258.67
380.07, 6.91, 258.92
379.75, 6.92, 259.02
379.41, 6.93, 259.14
379.04, 6.94, 259.27
378.61, 6.95, 259.41
378.14, 6.96, 259.57
¯377.62, 6.97, 259.75
377.02, 6.98, 259.95
376.38, 7.00, 260.17
375.66, 7.02, 260.42
375.87, 7.20, 260.35
375.88, 7.35, 260.34
375.89, 7.49, 260.34
375.90, 7.64, 260.34
375.89, 7.78, 260.35
375.96, 7.93, 260.33
375.96, 8.07, 260.33
375.96, 8.21, 260.33
375.83, 8.35, 260.38
374.93, 8.46, 260.68
375.08, 8.62, 260.63
375.08, 8.77, 260.64
382.29, 7.01, 258.23
382.12, 7.02, 258.29
381.95, 7.02, 258.35
381.75, 7.02, 258.42
381.55, 7.03, 258.49
381.33, 7.03, 258.57
381.09, 7.04, 258.65
380.84, 7.04, 258.74
380.56, 7.05, 258.84
379.79, 6.92, 259.11
379.45, 6.93, 259.23
379.08, 6.94, 259.36
378.67, 6.95, 259.51
378.20, 6.96, 259.67
377.67, 6.97, 259.86
377.09, 6.98, 260.07
376.45, 7.00, 260.29
375.73, 7.02, 260.55
375.90, 7.20, 260.49
375.92, 7.34, 260.48
375.93, 7.49, 260.48
375.93, 7.63, 260.48
375.93, 7.78, 260.49
376.00, 7.93, 260.46
376.00, 8.07, 260.47
376.00, 8.21, 260.47
375.92, 8.35, 260.50
374.97, 8.46, 260.83
375.12, 8.77, 260.78
375.12, 8.92, 260.79
382.32, 7.01, 258.28
382.15, 7.02, 258.34
381.97, 7.02, 258.41
381.78, 7.02, 258.48
381.58, 7.03, 258.55
¯381.36, 7.03, 258.63
381.13, 7.04, 258.72
380.87, 7.04, 258.81
380.60, 7.05, 258.91
379.84, 6.92, 259.19
379.50, 6.93, 259.32
379.13, 6.95, 259.45
378.72, 6.96, 259.60
378.25, 6.96, 259.77
377.73, 6.97, 259.96
377.15, 6.99, 260.18
376.52, 7.00, 260.41
375.80, 7.02, 260.67
375.93, 7.19, 260.63
375.95, 7.34, 260.63
375.95, 7.48, 260.62
375.96, 7.63, 260.63
375.96, 7.77, 260.63
376.03, 7.92, 260.60
376.03, 8.07, 260.60
376.03, 8.21, 260.61
376.01, 8.35, 260.62
375.01, 8.46, 260.99
375.16, 8.92, 260.94
382.34, 7.01, 258.34
382.18, 7.02, 258.40
382.00, 7.02, 258.47
381.81, 7.02, 258.54
381.61, 7.03, 258.62
381.39, 7.03, 258.70
381.16, 7.04, 258.79
380.91, 7.04, 258.88
380.63, 7.05, 258.99
379.88, 6.93, 259.27
379.54, 6.94, 259.40
379.18, 6.95, 259.54
378.77, 6.96, 259.70
378.31, 6.97, 259.87
377.80, 6.98, 260.07
377.22, 6.99, 260.29
376.59, 7.01, 260.53
375.88, 7.02, 260.80
375.01, 7.04, 261.13
375.97, 7.33, 260.77
375.98, 7.48, 260.77
375.98, 7.62, 260.77
375.98, 7.77, 260.77
376.07, 7.92, 260.74
376.07, 8.06, 260.74
376.07, 8.21, 260.74
376.07, 8.35, 260.75
¯375.05, 8.45, 261.14
375.15, 8.92, 261.10
382.37, 7.01, 258.39
382.20, 7.02, 258.46
382.03, 7.02, 258.53
381.84, 7.02, 258.60
381.64, 7.03, 258.68
381.42, 7.03, 258.76
381.19, 7.04, 258.86
380.94, 7.04, 258.96
380.67, 7.05, 259.06
380.37, 7.05, 259.18
379.59, 6.94, 259.49
379.22, 6.95, 259.63
378.82, 6.96, 259.79
378.37, 6.97, 259.97
377.86, 6.98, 260.17
377.29, 6.99, 260.40
376.66, 7.01, 260.65
375.95, 7.03, 260.93
375.09, 7.04, 261.27
374.22, 7.08, 261.61
375.90, 7.46, 260.95
375.90, 7.61, 260.95
375.90, 7.75, 260.96
376.11, 7.92, 260.88
376.11, 8.06, 260.88
376.11, 8.20, 260.88
376.11, 8.35, 260.88
375.09, 8.45, 261.29
376.22, 8.91, 260.85
382.39, 7.02, 258.45
382.23, 7.02, 258.51
382.05, 7.02, 258.59
381.87, 7.03, 258.66
381.67, 7.03, 258.74
381.46, 7.03, 258.83
381.23, 7.04, 258.92
380.98, 7.04, 259.03
380.71, 7.05, 259.14
380.41, 7.06, 259.26
379.63, 6.94, 259.57
379.27, 6.95, 259.72
378.88, 6.96, 259.88
378.42, 6.97, 260.07
377.92, 6.98, 260.28
377.35, 6.99, 260.51
376.73, 7.01, 260.77
376.02, 7.03, 261.05
375.17, 7.04, 261.40
374.31, 7.08, 261.76
¯375.94, 7.46, 261.09
375.94, 7.60, 261.10
375.94, 7.75, 261.10
376.14, 7.91, 261.02
376.14, 8.06, 261.02
376.14, 8.20, 261.02
376.14, 8.34, 261.02
374.79, 8.44, 261.58
376.26, 8.91, 260.98
382.42, 7.02, 258.50
382.26, 7.02, 258.57
382.08, 7.02, 258.64
381.90, 7.03, 258.72
381.70, 7.03, 258.81
381.49, 7.04, 258.89
381.26, 7.04, 258.99
381.01, 7.04, 259.10
380.75, 7.05, 259.21
380.45, 7.06, 259.33
379.68, 6.94, 259.66
379.32, 6.95, 259.81
