žVERSION 0.7
FIELDS x y z
SIZE 8 8 8
TYPE F F F
COUNT 1 1 1
WIDTH 2271
HEIGHT 1
VIEWPOINT 331.56, 7.37, 366.51 1 335.99, 2.56, 346.96
POINTS 2271
DATA ascii
336.94, 0.47, 341.38
337.00, 0.48, 340.98
337.07, 0.48, 340.55
337.15, 0.49, 340.06
337.23, 0.49, 339.50
337.33, 0.49, 338.87
337.44, 0.49, 338.16
337.53, 0.52, 337.54
¯337.65, 0.55, 336.78
337.81, 0.55, 335.73
338.04, 0.53, 334.30
338.32, 0.48, 332.44
338.73, 0.41, 329.81
339.25, 0.32, 326.41
336.56, 0.47, 343.41
336.59, 0.47, 343.18
336.62, 0.47, 342.93
336.66, 0.47, 342.66
336.70, 0.47, 342.37
336.75, 0.47, 342.06
336.80, 0.47, 341.73
336.85, 0.47, 341.36
336.90, 0.48, 340.97
336.97, 0.48, 340.53
337.03, 0.49, 340.04
337.11, 0.49, 339.48
337.20, 0.49, 338.85
337.30, 0.49, 338.14
337.39, 0.52, 337.52
337.51, 0.54, 336.72
337.65, 0.54, 335.68
337.86, 0.52, 334.21
338.13, 0.48, 332.36
338.51, 0.40, 329.68
338.99, 0.31, 326.30
336.49, 0.47, 343.40
336.52, 0.47, 343.17
336.55, 0.47, 342.92
336.58, 0.47, 342.65
336.62, 0.47, 342.36
336.66, 0.47, 342.05
336.70, 0.47, 341.72
336.75, 0.47, 341.35
336.80, 0.48, 340.95
336.86, 0.48, 340.52
336.92, 0.49, 340.03
337.00, 0.49, 339.47
337.08, 0.49, 338.84
337.17, 0.49, 338.12
337.25, 0.52, 337.50
337.36, 0.53, 336.67
337.49, 0.54, 335.64
337.69, 0.51, 334.11
337.93, 0.47, 332.26
338.28, 0.39, 329.58
338.72, 0.31, 326.19
336.42, 0.47, 343.39
336.44, 0.47, 343.16
336.47, 0.47, 342.91
¯336.50, 0.47, 342.64
336.54, 0.47, 342.35
336.57, 0.47, 342.04
336.61, 0.47, 341.70
336.66, 0.47, 341.34
336.70, 0.48, 340.94
336.75, 0.48, 340.50
336.81, 0.49, 340.02
336.88, 0.49, 339.45
336.95, 0.49, 338.82
337.04, 0.49, 338.11
337.11, 0.52, 337.48
337.21, 0.53, 336.62
337.33, 0.54, 335.59
337.51, 0.50, 334.02
337.73, 0.46, 332.17
338.04, 0.38, 329.50
338.44, 0.30, 326.09
336.34, 0.47, 343.39
336.37, 0.47, 343.15
336.40, 0.47, 342.90
336.42, 0.47, 342.63
336.45, 0.47, 342.34
336.49, 0.47, 342.03
336.52, 0.47, 341.69
336.56, 0.47, 341.33
336.60, 0.48, 340.93
336.65, 0.48, 340.49
336.70, 0.49, 340.00
336.76, 0.49, 339.44
336.82, 0.49, 338.81
336.90, 0.49, 338.09
336.97, 0.52, 337.47
337.06, 0.52, 336.57
337.17, 0.53, 335.54
337.33, 0.49, 333.95
337.53, 0.46, 332.10
337.81, 0.38, 329.44
338.17, 0.29, 326.00
336.27, 0.47, 343.38
336.30, 0.47, 343.15
336.32, 0.47, 342.90
336.34, 0.47, 342.63
336.37, 0.47, 342.33
336.40, 0.47, 342.02
336.43, 0.47, 341.68
336.46, 0.47, 341.32
336.50, 0.48, 340.92
336.54, 0.48, 340.48
336.59, 0.49, 339.99
336.64, 0.49, 339.43
¯336.70, 0.49, 338.80
336.76, 0.49, 338.08
336.82, 0.52, 337.45
336.91, 0.52, 336.52
337.00, 0.53, 335.48
337.15, 0.49, 333.90
337.32, 0.45, 332.04
337.57, 0.37, 329.37
337.89, 0.29, 325.91
336.20, 0.47, 343.37
336.22, 0.47, 343.14
336.24, 0.47, 342.89
336.26, 0.47, 342.62
336.29, 0.47, 342.33
336.31, 0.47, 342.01
336.34, 0.47, 341.68
336.37, 0.47, 341.31
336.40, 0.48, 340.91
336.44, 0.48, 340.47
336.48, 0.49, 339.98
336.52, 0.49, 339.42
336.57, 0.49, 338.78
336.63, 0.49, 338.07
336.68, 0.52, 337.43
336.76, 0.51, 336.47
336.84, 0.52, 335.41
336.97, 0.48, 333.85
337.12, 0.45, 331.99
337.33, 0.37, 329.31
337.61, 0.28, 325.82
336.13, 0.47, 343.37
336.15, 0.47, 343.14
336.17, 0.47, 342.88
336.18, 0.47, 342.61
336.20, 0.47, 342.32
336.23, 0.47, 342.01
336.25, 0.47, 341.67
336.27, 0.47, 341.30
336.30, 0.48, 340.90
336.33, 0.48, 340.46
336.36, 0.49, 339.97
336.40, 0.49, 339.41
336.44, 0.49, 338.78
336.49, 0.49, 338.06
336.54, 0.51, 337.39
336.60, 0.51, 336.43
336.68, 0.51, 335.34
336.78, 0.48, 333.80
336.91, 0.44, 331.94
337.09, 0.37, 329.26
337.33, 0.27, 325.74
¯336.06, 0.47, 343.36
336.08, 0.47, 343.13
336.09, 0.47, 342.88
336.10, 0.47, 342.61
336.12, 0.47, 342.31
336.14, 0.47, 342.00
336.16, 0.47, 341.66
336.18, 0.47, 341.30
336.20, 0.48, 340.90
336.22, 0.48, 340.46
336.25, 0.49, 339.97
336.28, 0.49, 339.40
336.32, 0.49, 338.77
336.36, 0.49, 338.05
336.40, 0.51, 337.35
336.45, 0.50, 336.38
336.51, 0.50, 335.27
336.60, 0.47, 333.75
336.70, 0.44, 331.89
336.85, 0.36, 329.21
337.05, 0.27, 325.66
335.99, 0.47, 343.36
336.00, 0.47, 343.13
336.01, 0.47, 342.88
336.02, 0.47, 342.60
336.04, 0.47, 342.31
336.05, 0.47, 342.00
336.06, 0.47, 341.66
336.08, 0.47, 341.29
336.10, 0.48, 340.89
336.12, 0.48, 340.45
336.14, 0.49, 339.96
336.16, 0.49, 339.40
336.19, 0.49, 338.76
336.22, 0.49, 338.04
336.25, 0.50, 337.32
336.30, 0.50, 336.34
336.34, 0.49, 335.21
336.41, 0.47, 333.71
336.49, 0.43, 331.85
336.61, 0.36, 329.16
336.76, 0.26, 325.59
335.92, 0.47, 343.36
335.93, 0.47, 343.12
335.94, 0.47, 342.87
335.94, 0.47, 342.60
335.95, 0.47, 342.31
335.96, 0.47, 341.99
335.97, 0.47, 341.66
335.98, 0.47, 341.29
336.00, 0.48, 340.89
¯336.01, 0.48, 340.45
336.03, 0.49, 339.96
336.04, 0.49, 339.39
336.06, 0.49, 338.76
336.09, 0.49, 338.04
336.11, 0.50, 337.28
336.14, 0.49, 336.30
336.18, 0.48, 335.14
336.22, 0.46, 333.67
336.28, 0.43, 331.80
336.36, 0.35, 329.12
336.48, 0.26, 325.53
335.85, 0.47, 343.36
335.85, 0.47, 343.12
335.86, 0.47, 342.87
335.86, 0.47, 342.60
335.87, 0.47, 342.31
335.88, 0.47, 341.99
335.88, 0.47, 341.65
335.89, 0.47, 341.29
335.90, 0.48, 340.89
335.90, 0.48, 340.44
335.91, 0.49, 339.96
335.92, 0.49, 339.39
335.94, 0.49, 338.76
335.95, 0.49, 338.04
335.96, 0.49, 337.25
335.98, 0.49, 336.27
336.02, 0.33, 334.09
336.05, 0.35, 332.85
336.07, 0.42, 331.76
336.12, 0.35, 329.08
336.19, 0.25, 325.48
335.78, 0.47, 343.36
335.78, 0.47, 343.12
335.78, 0.47, 342.87
335.78, 0.47, 342.60
335.79, 0.47, 342.31
335.79, 0.47, 341.99
335.79, 0.47, 341.65
335.79, 0.47, 341.29
335.80, 0.48, 340.88
335.80, 0.48, 340.44
335.80, 0.48, 339.95
335.81, 0.49, 339.39
335.81, 0.49, 338.76
335.81, 0.49, 338.04
335.82, 0.49, 337.22
335.83, 0.34, 335.36
335.84, 0.33, 334.09
335.85, 0.30, 332.45
¯335.86, 0.40, 331.52
335.87, 0.35, 329.05
335.90, 0.25, 325.42
335.71, 0.47, 343.36
335.71, 0.47, 343.12
335.70, 0.47, 342.87
335.70, 0.47, 342.60
335.70, 0.47, 342.31
335.70, 0.47, 341.99
335.70, 0.47, 341.65
335.70, 0.47, 341.29
335.69, 0.48, 340.88
335.69, 0.48, 340.44
335.69, 0.48, 339.95
335.69, 0.49, 339.39
335.68, 0.49, 338.76
335.68, 0.49, 338.04
335.67, 0.35, 336.41
335.66, 0.34, 335.36
335.66, 0.33, 334.09
335.65, 0.30, 332.43
335.64, 0.31, 330.81
335.63, 0.34, 329.03
335.61, 0.24, 325.37
335.64, 0.47, 343.36
335.63, 0.47, 343.12
335.63, 0.47, 342.87
335.62, 0.47, 342.60
335.62, 0.47, 342.31
335.61, 0.47, 341.99
335.61, 0.47, 341.65
335.60, 0.47, 341.29
335.59, 0.48, 340.89
335.58, 0.48, 340.44
335.58, 0.48, 339.96
335.57, 0.49, 339.39
335.56, 0.49, 338.76
335.53, 0.35, 337.29
335.51, 0.35, 336.41
335.49, 0.34, 335.36
335.47, 0.33, 334.09
335.44, 0.30, 332.42
335.40, 0.24, 330.21
335.38, 0.34, 329.00
335.32, 0.24, 325.34
335.57, 0.47, 343.36
335.56, 0.47, 343.13
335.55, 0.47, 342.87
335.54, 0.47, 342.60
335.53, 0.47, 342.31
335.52, 0.47, 341.99
¯335.51, 0.47, 341.66
335.50, 0.47, 341.29
335.49, 0.48, 340.89
335.48, 0.48, 340.45
335.46, 0.48, 339.96
335.45, 0.49, 339.40
335.41, 0.35, 338.06
335.38, 0.35, 337.29
335.36, 0.35, 336.42
335.33, 0.34, 335.37
335.29, 0.33, 334.10
335.24, 0.29, 332.41
335.17, 0.23, 330.20
335.13, 0.34, 328.98
335.03, 0.23, 325.31
335.49, 0.47, 343.36
335.49, 0.47, 343.13
335.47, 0.47, 342.88
335.46, 0.47, 342.61
335.45, 0.47, 342.31
335.44, 0.47, 342.00
335.42, 0.47, 341.66
335.41, 0.47, 341.29
335.39, 0.48, 340.89
335.37, 0.48, 340.45
335.35, 0.48, 339.96
335.30, 0.35, 338.74
335.27, 0.35, 338.07
335.24, 0.35, 337.30
335.20, 0.35, 336.42
335.16, 0.34, 335.38
335.10, 0.33, 334.11
335.03, 0.29, 332.41
334.94, 0.23, 330.19
334.87, 0.29, 328.53
334.73, 0.23, 325.29
335.42, 0.47, 343.37
335.41, 0.47, 343.13
335.40, 0.47, 342.88
335.38, 0.47, 342.61
335.37, 0.47, 342.32
335.35, 0.47, 342.00
335.33, 0.47, 341.66
335.31, 0.47, 341.30
335.29, 0.48, 340.90
335.26, 0.46, 340.36
335.21, 0.35, 339.35
335.17, 0.35, 338.75
335.14, 0.35, 338.07
335.09, 0.35, 337.31
335.05, 0.35, 336.43
¯334.99, 0.34, 335.39
334.92, 0.33, 334.12
334.83, 0.29, 332.40
334.71, 0.23, 330.18
334.58, 0.22, 327.89
334.44, 0.23, 325.27
335.35, 0.47, 343.37
335.34, 0.47, 343.14
335.32, 0.47, 342.89
335.30, 0.47, 342.62
335.28, 0.47, 342.32
335.26, 0.47, 342.01
335.24, 0.47, 341.67
335.22, 0.47, 341.30
335.15, 0.34, 340.37
335.12, 0.35, 339.90
335.09, 0.35, 339.36
335.05, 0.35, 338.76
335.00, 0.35, 338.08
334.95, 0.35, 337.32
334.89, 0.35, 336.44
334.82, 0.34, 335.40
334.74, 0.33, 334.14
334.62, 0.29, 332.41
334.47, 0.23, 330.18
334.28, 0.14, 327.23
334.15, 0.22, 325.25
335.28, 0.47, 343.38
335.26, 0.47, 343.14
335.24, 0.47, 342.89
335.22, 0.47, 342.62
335.20, 0.47, 342.33
335.17, 0.47, 342.01
335.15, 0.47, 341.68
335.08, 0.34, 340.80
335.05, 0.34, 340.37
335.01, 0.35, 339.91
334.97, 0.35, 339.37
334.92, 0.35, 338.77
334.87, 0.35, 338.10
334.81, 0.35, 337.33
334.74, 0.35, 336.46
334.65, 0.34, 335.42
334.55, 0.33, 334.15
334.42, 0.29, 332.41
334.24, 0.23, 330.19
334.01, 0.14, 327.24
333.85, 0.22, 325.25
335.21, 0.47, 343.38
335.19, 0.47, 343.15
335.17, 0.47, 342.90
¯335.14, 0.47, 342.63
335.12, 0.47, 342.34
335.09, 0.47, 342.02
335.01, 0.34, 341.20
334.98, 0.34, 340.81
334.94, 0.34, 340.38
334.90, 0.35, 339.92
334.85, 0.35, 339.38
334.79, 0.35, 338.78
334.73, 0.35, 338.11
334.66, 0.35, 337.34
334.58, 0.35, 336.47
334.49, 0.34, 335.43
334.37, 0.33, 334.17
334.21, 0.29, 332.43
334.01, 0.22, 330.19
333.74, 0.13, 327.21
333.56, 0.22, 325.25
335.14, 0.47, 343.39
335.12, 0.47, 343.16
335.09, 0.47, 342.91
335.06, 0.47, 342.64
335.03, 0.47, 342.35
334.95, 0.33, 341.56
334.92, 0.34, 341.21
334.88, 0.34, 340.82
334.83, 0.34, 340.39
334.78, 0.35, 339.93
334.73, 0.35, 339.40
334.67, 0.35, 338.80
334.60, 0.35, 338.12
334.52, 0.35, 337.36
334.43, 0.35, 336.49
334.32, 0.34, 335.45
334.19, 0.33, 334.20
334.01, 0.29, 332.46
333.78, 0.22, 330.21
333.46, 0.13, 327.19
333.21, 0.17, 324.75
335.07, 0.47, 343.40
335.04, 0.47, 343.17
335.02, 0.47, 342.92
334.98, 0.47, 342.65
334.90, 0.33, 341.90
334.86, 0.33, 341.57
334.82, 0.34, 341.22
334.77, 0.34, 340.83
334.72, 0.34, 340.41
334.67, 0.35, 339.94
334.61, 0.35, 339.41
334.54, 0.35, 338.81
¯334.46, 0.35, 338.14
334.37, 0.35, 337.38
334.27, 0.35, 336.51
334.15, 0.34, 335.48
334.01, 0.33, 334.22
333.80, 0.29, 332.48
333.54, 0.22, 330.22
333.19, 0.12, 327.18
335.00, 0.47, 343.41
334.97, 0.47, 343.18
334.94, 0.47, 342.93
334.85, 0.33, 342.22
334.81, 0.33, 341.91
334.77, 0.33, 341.58
334.72, 0.33, 341.23
334.67, 0.34, 340.84
334.62, 0.34, 340.42
334.56, 0.35, 339.96
334.49, 0.35, 339.43
334.41, 0.35, 338.83
334.33, 0.35, 338.16
334.23, 0.35, 337.40
334.12, 0.35, 336.53
333.99, 0.34, 335.50
333.83, 0.33, 334.25
333.60, 0.28, 332.50
333.31, 0.22, 330.24
332.92, 0.12, 327.17
334.93, 0.47, 343.42
334.90, 0.47, 343.19
334.80, 0.33, 342.52
334.76, 0.33, 342.23
334.72, 0.33, 341.92
334.67, 0.33, 341.60
334.62, 0.33, 341.24
334.57, 0.34, 340.86
334.51, 0.34, 340.44
334.45, 0.35, 339.97
334.37, 0.35, 339.44
334.29, 0.35, 338.85
334.19, 0.35, 338.18
334.09, 0.35, 337.42
333.96, 0.35, 336.55
333.82, 0.34, 335.53
333.64, 0.33, 334.28
333.40, 0.28, 332.52
333.08, 0.22, 330.26
332.64, 0.11, 327.16
334.86, 0.47, 343.43
334.76, 0.33, 342.80
334.72, 0.33, 342.53
¯334.68, 0.33, 342.25
334.63, 0.33, 341.94
334.58, 0.33, 341.61
334.53, 0.33, 341.26
334.47, 0.34, 340.87
334.40, 0.34, 340.45
334.33, 0.35, 339.99
334.25, 0.35, 339.46
334.16, 0.35, 338.87
334.06, 0.35, 338.20
333.94, 0.35, 337.44
333.81, 0.35, 336.58
333.65, 0.34, 335.56
333.46, 0.33, 334.31
333.19, 0.28, 332.54
332.85, 0.22, 330.29
332.37, 0.11, 327.16
334.78, 0.44, 343.37
334.69, 0.33, 342.81
334.64, 0.33, 342.55
334.60, 0.33, 342.26
334.54, 0.33, 341.95
334.49, 0.33, 341.62
334.43, 0.33, 341.27
334.37, 0.34, 340.89
334.30, 0.34, 340.47
334.22, 0.35, 340.01
334.13, 0.35, 339.48
334.04, 0.35, 338.89
333.93, 0.35, 338.22
333.80, 0.35, 337.47
333.66, 0.35, 336.60
333.49, 0.34, 335.59
333.28, 0.33, 334.34
332.99, 0.28, 332.57
332.62, 0.21, 330.32
332.09, 0.10, 327.16
334.65, 0.33, 343.07
334.61, 0.33, 342.83
334.56, 0.33, 342.56
334.51, 0.33, 342.28
334.46, 0.33, 341.97
334.40, 0.33, 341.64
334.34, 0.33, 341.29
334.27, 0.34, 340.91
334.19, 0.34, 340.49
334.11, 0.35, 340.03
334.02, 0.35, 339.50
333.91, 0.35, 338.91
333.79, 0.35, 338.25
333.66, 0.35, 337.49
¯333.50, 0.35, 336.63
333.32, 0.34, 335.62
333.10, 0.33, 334.38
332.79, 0.28, 332.60
332.39, 0.21, 330.36
331.82, 0.10, 327.20
334.58, 0.33, 343.09
334.53, 0.33, 342.84
334.48, 0.33, 342.58
334.43, 0.33, 342.29
334.37, 0.33, 341.99
334.31, 0.33, 341.66
334.24, 0.33, 341.31
334.17, 0.34, 340.93
334.09, 0.34, 340.51
334.00, 0.35, 340.05
333.90, 0.35, 339.53
333.79, 0.35, 338.94
333.66, 0.35, 338.27
333.52, 0.35, 337.52
333.35, 0.35, 336.66
333.16, 0.35, 335.66
332.92, 0.33, 334.42
332.58, 0.28, 332.64
332.16, 0.21, 330.40
331.55, 0.10, 327.24
334.51, 0.33, 343.10
334.46, 0.33, 342.86
334.40, 0.33, 342.59
334.34, 0.33, 342.31
334.28, 0.33, 342.00
334.22, 0.33, 341.68
334.14, 0.33, 341.33
334.07, 0.34, 340.95
333.98, 0.34, 340.53
333.89, 0.35, 340.07
333.78, 0.35, 339.55
333.66, 0.35, 338.96
333.53, 0.35, 338.30
333.37, 0.35, 337.55
333.20, 0.35, 336.70
333.00, 0.35, 335.69
332.75, 0.33, 334.46
332.39, 0.28, 332.70
331.92, 0.21, 330.43
331.28, 0.10, 327.29
334.43, 0.33, 343.12
334.38, 0.33, 342.87
334.32, 0.33, 342.61
334.26, 0.33, 342.33
334.19, 0.33, 342.02
¯334.12, 0.33, 341.70
334.05, 0.33, 341.35
333.97, 0.34, 340.97
333.88, 0.34, 340.55
333.78, 0.35, 340.09
333.67, 0.35, 339.58
333.54, 0.35, 338.99
333.40, 0.35, 338.33
333.23, 0.35, 337.58
333.05, 0.35, 336.73
332.83, 0.35, 335.73
332.57, 0.33, 334.51
332.19, 0.28, 332.77
331.69, 0.21, 330.45
331.02, 0.10, 327.35
334.36, 0.33, 343.13
334.30, 0.33, 342.89
334.24, 0.33, 342.63
334.18, 0.33, 342.35
334.11, 0.33, 342.04
334.03, 0.33, 341.72
333.95, 0.33, 341.37
333.87, 0.34, 340.99
333.77, 0.34, 340.58
333.67, 0.35, 340.12
333.55, 0.35, 339.61
333.41, 0.35, 339.02
333.26, 0.35, 338.36
333.09, 0.35, 337.62
332.90, 0.35, 336.77
332.67, 0.35, 335.78
332.39, 0.33, 334.55
332.00, 0.29, 332.84
331.46, 0.20, 330.48
330.75, 0.10, 327.41
334.28, 0.33, 343.15
334.23, 0.33, 342.91
334.16, 0.33, 342.65
334.09, 0.33, 342.37
334.02, 0.33, 342.07
333.94, 0.33, 341.74
333.86, 0.33, 341.39
333.77, 0.34, 341.01
333.67, 0.34, 340.60
333.56, 0.35, 340.15
333.43, 0.35, 339.64
333.29, 0.35, 339.05
333.13, 0.35, 338.40
332.95, 0.35, 337.65
332.75, 0.35, 336.81
332.51, 0.35, 335.82
¯332.21, 0.34, 334.60
331.81, 0.29, 332.93
331.22, 0.20, 330.52
330.49, 0.10, 327.47
334.21, 0.33, 343.17
334.15, 0.33, 342.93
334.08, 0.33, 342.67
334.01, 0.33, 342.39
333.94, 0.33, 342.09
333.85, 0.33, 341.76
333.76, 0.33, 341.42
333.67, 0.34, 341.04
333.56, 0.34, 340.63
333.45, 0.34, 340.17
333.32, 0.35, 339.67
333.17, 0.35, 339.09
333.00, 0.35, 338.43
332.81, 0.35, 337.69
332.60, 0.35, 336.85
332.35, 0.35, 335.87
332.04, 0.34, 334.65
331.62, 0.30, 333.02
330.99, 0.20, 330.55
330.22, 0.09, 327.54
334.14, 0.33, 343.19
334.07, 0.33, 342.95
334.00, 0.33, 342.69
333.93, 0.33, 342.41
333.85, 0.33, 342.11
333.76, 0.33, 341.79
333.67, 0.33, 341.44
333.57, 0.34, 341.07
333.46, 0.34, 340.66
333.34, 0.34, 340.20
333.20, 0.35, 339.70
333.05, 0.35, 339.12
332.87, 0.35, 338.47
332.67, 0.35, 337.73
332.45, 0.35, 336.89
332.19, 0.35, 335.92
331.89, 0.35, 334.81
331.44, 0.30, 333.12
330.76, 0.19, 330.59
329.96, 0.10, 327.63
334.07, 0.33, 343.21
334.00, 0.33, 342.97
333.93, 0.33, 342.71
333.85, 0.33, 342.44
333.76, 0.33, 342.14
333.67, 0.33, 341.81
333.58, 0.33, 341.47
¯333.47, 0.34, 341.09
333.35, 0.34, 340.68
333.23, 0.34, 340.23
333.09, 0.35, 339.73
332.92, 0.35, 339.16
332.74, 0.35, 338.51
332.54, 0.35, 337.77
332.30, 0.35, 336.93
332.03, 0.35, 335.97
331.75, 0.37, 334.97
331.26, 0.31, 333.23
330.54, 0.19, 330.68
329.71, 0.10, 327.74
333.99, 0.33, 343.23
333.92, 0.33, 342.99
333.85, 0.33, 342.74
333.77, 0.33, 342.46
333.68, 0.33, 342.16
333.58, 0.33, 341.84
333.48, 0.33, 341.50
333.37, 0.34, 341.12
333.25, 0.34, 340.71
333.12, 0.34, 340.27
332.97, 0.35, 339.77
332.80, 0.35, 339.19
332.61, 0.35, 338.55
332.40, 0.35, 337.82
332.15, 0.35, 336.98
331.87, 0.35, 336.03
331.61, 0.38, 335.13
331.27, 0.41, 333.99
330.34, 0.20, 330.84
329.46, 0.10, 327.85
333.92, 0.33, 343.26
333.85, 0.33, 343.02
333.77, 0.33, 342.76
333.68, 0.33, 342.49
333.59, 0.33, 342.19
333.49, 0.33, 341.87
333.39, 0.33, 341.52
333.27, 0.34, 341.15
333.15, 0.34, 340.75
333.01, 0.34, 340.30
332.86, 0.35, 339.80
332.68, 0.35, 339.23
332.48, 0.35, 338.59
332.26, 0.35, 337.86
332.15, 0.44, 337.51
332.15, 0.59, 337.51
332.15, 0.74, 337.51
332.15, 0.89, 337.51
¯332.15, 1.04, 337.51
332.16, 1.20, 337.53
332.15, 1.35, 337.51
332.15, 1.50, 337.51
332.15, 1.65, 337.51
332.15, 1.80, 337.51
332.15, 1.95, 337.51
332.15, 2.10, 337.51
332.15, 2.24, 337.51
332.16, 2.39, 337.55
332.14, 2.54, 337.51
332.14, 2.69, 337.51
332.14, 2.84, 337.51
333.85, 0.33, 343.28
333.77, 0.33, 343.04
333.69, 0.33, 342.79
333.60, 0.33, 342.51
333.51, 0.33, 342.22
333.41, 0.33, 341.90
333.30, 0.33, 341.55
333.18, 0.34, 341.18
333.05, 0.34, 340.78
332.90, 0.34, 340.33
332.75, 0.35, 339.84
332.56, 0.35, 339.27
332.36, 0.35, 338.63
332.12, 0.35, 337.91
331.86, 0.35, 337.10
331.57, 0.36, 336.17
331.31, 0.40, 335.37
330.98, 0.44, 334.35
332.16, 1.10, 338.02
331.98, 1.19, 337.49
331.98, 1.34, 337.47
332.14, 1.82, 337.98
332.13, 1.96, 337.94
332.16, 2.40, 338.04
333.78, 0.33, 343.30
333.70, 0.33, 343.07
333.61, 0.33, 342.81
333.52, 0.33, 342.54
333.42, 0.33, 342.25
333.32, 0.33, 341.93
333.20, 0.33, 341.58
333.08, 0.34, 341.22
332.94, 0.34, 340.81
332.80, 0.34, 340.37
332.63, 0.35, 339.88
332.44, 0.35, 339.31
332.23, 0.35, 338.68
331.99, 0.35, 337.96
¯331.72, 0.35, 337.16
331.42, 0.36, 336.25
331.14, 0.40, 335.43
330.84, 0.46, 334.53
332.16, 1.15, 338.47
331.83, 1.18, 337.49
332.14, 1.57, 338.43
332.10, 1.70, 338.30
332.26, 2.41, 338.80
332.26, 2.54, 338.80
332.26, 2.67, 338.80
333.71, 0.33, 343.33
333.63, 0.33, 343.09
333.54, 0.33, 342.84
333.44, 0.33, 342.57
333.34, 0.33, 342.28
333.23, 0.33, 341.96
333.11, 0.33, 341.62
332.98, 0.33, 341.25
332.84, 0.34, 340.85
332.69, 0.34, 340.41
332.52, 0.35, 339.92
332.32, 0.35, 339.36
332.15, 0.38, 338.86
332.15, 0.52, 338.86
332.15, 0.65, 338.86
332.15, 0.79, 338.86
332.15, 0.93, 338.86
332.15, 1.06, 338.86
332.15, 1.20, 338.86
332.15, 1.33, 338.86
332.15, 1.47, 338.86
332.14, 1.60, 338.86
332.14, 1.74, 338.86
332.14, 1.87, 338.86
332.14, 2.01, 338.86
332.14, 2.14, 338.86
332.14, 2.27, 338.86
332.14, 2.41, 338.87
332.14, 2.54, 338.87
332.14, 2.67, 338.87
332.14, 2.81, 338.86
333.64, 0.33, 343.35
333.55, 0.33, 343.12
333.46, 0.33, 342.87
333.36, 0.33, 342.60
333.26, 0.33, 342.31
333.14, 0.33, 341.99
333.02, 0.33, 341.65
332.89, 0.33, 341.28
332.74, 0.34, 340.88
¯332.58, 0.34, 340.45
332.41, 0.35, 339.96
332.20, 0.35, 339.40
331.98, 0.35, 338.78
331.73, 0.35, 338.08
331.44, 0.36, 337.30
331.12, 0.37, 336.40
330.80, 0.40, 335.54
330.51, 0.47, 334.73
332.00, 1.19, 338.84
331.51, 1.17, 337.49
331.56, 1.64, 337.63
331.50, 1.78, 337.47
331.99, 2.13, 338.82
331.99, 2.40, 338.84
333.57, 0.33, 343.38
333.48, 0.33, 343.15
333.38, 0.33, 342.90
333.28, 0.33, 342.63
333.17, 0.33, 342.34
333.06, 0.33, 342.02
332.93, 0.33, 341.68
332.79, 0.33, 341.32
332.64, 0.34, 340.92
332.48, 0.34, 340.49
332.29, 0.35, 340.00
332.09, 0.35, 339.45
331.86, 0.35, 338.84
331.60, 0.36, 338.15
331.30, 0.36, 337.37
331.40, 0.56, 337.62
330.64, 0.40, 335.60
330.33, 0.47, 334.79
331.85, 1.18, 338.84
331.34, 1.16, 337.49
331.40, 1.63, 337.63
331.39, 1.94, 337.62
331.85, 2.40, 338.84
333.50, 0.33, 343.41
333.41, 0.33, 343.18
333.31, 0.33, 342.93
333.20, 0.33, 342.66
333.09, 0.33, 342.37
332.97, 0.33, 342.06
332.84, 0.33, 341.72
332.69, 0.33, 341.36
332.54, 0.34, 340.96
332.37, 0.34, 340.53
332.18, 0.35, 340.05
331.97, 0.35, 339.50
331.74, 0.35, 338.90
¯331.47, 0.36, 338.22
331.17, 0.36, 337.44
331.24, 0.55, 337.63
330.47, 0.40, 335.66
330.16, 0.46, 334.86
331.71, 1.17, 338.84
331.19, 1.16, 337.52
331.70, 1.99, 338.82
331.70, 2.40, 338.84
333.43, 0.33, 343.44
333.33, 0.33, 343.21
333.23, 0.33, 342.96
333.13, 0.33, 342.69
333.01, 0.33, 342.41
332.88, 0.33, 342.09
332.75, 0.33, 341.75
332.60, 0.33, 341.40
332.44, 0.34, 341.00
332.27, 0.34, 340.57
332.07, 0.35, 340.09
331.86, 0.35, 339.56
331.62, 0.36, 338.96
331.34, 0.36, 338.29
331.03, 0.37, 337.52
330.68, 0.37, 336.64
330.30, 0.40, 335.72
329.96, 0.45, 334.87
331.56, 1.17, 338.84
331.02, 1.15, 337.49
331.55, 1.85, 338.82
331.01, 2.08, 337.47
331.55, 2.40, 338.84
333.36, 0.33, 343.47
333.26, 0.33, 343.24
333.16, 0.33, 342.99
333.05, 0.33, 342.73
332.93, 0.33, 342.44
332.80, 0.33, 342.13
332.66, 0.33, 341.79
332.51, 0.33, 341.43
332.34, 0.34, 341.04
332.16, 0.34, 340.61
331.96, 0.35, 340.14
331.75, 0.35, 339.62
331.50, 0.36, 339.03
331.22, 0.36, 338.35
330.90, 0.37, 337.59
330.84, 0.50, 337.45
330.84, 0.66, 337.45
330.84, 0.82, 337.45
331.41, 1.16, 338.84
¯330.85, 1.14, 337.49
330.84, 1.29, 337.46
330.84, 1.45, 337.46
331.40, 1.71, 338.82
330.84, 1.76, 337.46
330.84, 1.92, 337.46
330.84, 2.07, 337.47
330.84, 2.23, 337.47
331.41, 2.40, 338.84
330.84, 2.54, 337.47
330.84, 2.69, 337.47
330.84, 2.85, 337.48
333.29, 0.33, 343.50
333.19, 0.33, 343.27
333.08, 0.33, 343.03
332.97, 0.33, 342.76
332.85, 0.33, 342.48
332.71, 0.33, 342.17
332.57, 0.33, 341.83
332.41, 0.33, 341.47
332.24, 0.34, 341.09
332.06, 0.34, 340.66
331.86, 0.35, 340.20
331.64, 0.36, 339.69
331.38, 0.36, 339.09
331.09, 0.37, 338.43
330.76, 0.37, 337.67
330.70, 0.50, 337.51
330.69, 0.66, 337.51
330.69, 0.82, 337.51
331.26, 1.15, 338.84
330.81, 1.17, 337.78
330.69, 1.29, 337.51
330.79, 1.47, 337.75
330.69, 1.60, 337.51
330.69, 1.76, 337.51
330.69, 1.92, 337.51
330.69, 2.07, 337.51
330.69, 2.23, 337.51
331.26, 2.40, 338.84
330.68, 2.54, 337.51
330.68, 2.69, 337.51
333.22, 0.33, 343.53
333.12, 0.33, 343.30
333.01, 0.33, 343.06
332.89, 0.33, 342.80
332.76, 0.33, 342.51
332.63, 0.33, 342.21
332.48, 0.33, 341.87
332.32, 0.33, 341.52
332.14, 0.34, 341.13
¯331.96, 0.34, 340.71
331.76, 0.35, 340.26
331.53, 0.36, 339.76
331.26, 0.36, 339.16
330.97, 0.37, 338.50
330.63, 0.37, 337.75
330.25, 0.38, 336.89
329.85, 0.41, 336.01
329.30, 0.41, 334.78
331.11, 1.14, 338.84
330.79, 1.20, 338.12
325.85, 0.17, 327.07
331.10, 1.56, 338.82
330.74, 1.64, 338.00
330.79, 1.80, 338.13
331.11, 2.40, 338.84
333.15, 0.33, 343.56
333.05, 0.33, 343.34
332.94, 0.33, 343.10
332.81, 0.33, 342.83
332.68, 0.33, 342.55
332.54, 0.33, 342.25
332.39, 0.33, 341.92
332.23, 0.33, 341.56
332.05, 0.34, 341.17
331.86, 0.34, 340.77
331.65, 0.35, 340.32
331.43, 0.36, 339.83
331.15, 0.37, 339.24
330.84, 0.37, 338.57
330.50, 0.38, 337.83
330.11, 0.38, 336.98
329.73, 0.42, 336.17
329.08, 0.39, 334.75
330.96, 1.14, 338.84
327.06, 0.26, 330.39
330.95, 1.42, 338.82
330.78, 1.96, 338.44
330.79, 2.10, 338.48
330.95, 2.40, 338.84
333.08, 0.33, 343.60
332.98, 0.33, 343.37
332.86, 0.33, 343.13
332.74, 0.33, 342.87
332.60, 0.33, 342.59
332.46, 0.33, 342.29
332.30, 0.33, 341.96
332.13, 0.33, 341.60
331.95, 0.34, 341.23
331.76, 0.35, 340.83
331.55, 0.36, 340.39
¯331.32, 0.37, 339.90
331.04, 0.37, 339.32
330.82, 0.42, 338.86
330.82, 0.56, 338.86
330.82, 0.70, 338.86
330.82, 0.85, 338.86
330.82, 0.99, 338.86
330.82, 1.13, 338.86
330.82, 1.27, 338.86
330.82, 1.41, 338.86
330.82, 1.55, 338.86
330.82, 1.69, 338.86
330.82, 1.84, 338.86
330.82, 1.98, 338.86
330.81, 2.11, 338.86
330.81, 2.25, 338.86
330.81, 2.39, 338.86
330.81, 2.53, 338.86
330.81, 2.67, 338.86
330.81, 2.81, 338.86
333.02, 0.33, 343.63
332.91, 0.33, 343.41
332.79, 0.33, 343.17
332.66, 0.33, 342.91
332.53, 0.33, 342.63
332.38, 0.33, 342.33
332.22, 0.33, 342.00
332.04, 0.33, 341.65
331.86, 0.34, 341.28
331.67, 0.35, 340.89
331.45, 0.36, 340.45
331.21, 0.37, 339.97
330.93, 0.37, 339.39
330.61, 0.38, 338.74
330.24, 0.38, 337.99
329.87, 0.41, 337.25
329.49, 0.44, 336.48
328.85, 0.42, 335.17
327.76, 0.32, 332.96
326.65, 0.26, 330.69
325.31, 0.22, 327.97
330.64, 2.39, 338.82
330.64, 2.53, 338.82
330.64, 2.67, 338.82
332.95, 0.33, 343.66
332.84, 0.33, 343.44
332.72, 0.33, 343.21
332.59, 0.33, 342.95
332.45, 0.33, 342.67
332.29, 0.33, 342.37
332.13, 0.33, 342.05
¯331.95, 0.33, 341.70
331.77, 0.34, 341.34
331.57, 0.35, 340.95
331.35, 0.36, 340.51
331.11, 0.37, 340.03
330.82, 0.38, 339.47
330.49, 0.38, 338.82
330.12, 0.39, 338.09
329.76, 0.42, 337.39
329.38, 0.46, 336.63
328.84, 0.47, 335.56
327.56, 0.32, 333.05
326.39, 0.26, 330.75
325.11, 0.23, 328.22
332.88, 0.33, 343.70
332.77, 0.33, 343.48
332.64, 0.33, 343.24
332.51, 0.33, 342.99
332.37, 0.33, 342.72
332.21, 0.33, 342.42
332.04, 0.33, 342.09
331.86, 0.33, 341.75
331.68, 0.34, 341.40
331.48, 0.35, 341.01
331.25, 0.36, 340.58
331.00, 0.37, 340.10
330.71, 0.38, 339.56
330.38, 0.39, 338.91
330.00, 0.39, 338.19
329.65, 0.43, 337.52
329.27, 0.47, 336.79
328.82, 0.51, 335.94
327.36, 0.31, 333.14
326.15, 0.25, 330.82
324.92, 0.25, 328.48
332.82, 0.33, 343.74
332.70, 0.33, 343.52
332.57, 0.33, 343.28
332.44, 0.33, 343.03
332.29, 0.33, 342.76
332.13, 0.33, 342.46
331.96, 0.33, 342.15
331.78, 0.33, 341.81
331.59, 0.34, 341.46
331.38, 0.35, 341.07
331.15, 0.37, 340.65
330.90, 0.38, 340.18
330.61, 0.39, 339.64
330.27, 0.39, 339.00
329.89, 0.40, 338.30
329.51, 0.43, 337.61
¯329.15, 0.48, 336.94
328.71, 0.53, 336.11
327.12, 0.30, 333.16
325.90, 0.24, 330.91
324.72, 0.25, 328.70
332.75, 0.33, 343.77
332.63, 0.33, 343.56
332.50, 0.33, 343.32
332.36, 0.33, 343.07
332.21, 0.33, 342.80
332.05, 0.33, 342.51
331.88, 0.33, 342.20
331.69, 0.34, 341.86
331.50, 0.34, 341.51
331.29, 0.36, 341.13
331.05, 0.37, 340.71
330.80, 0.38, 340.25
330.50, 0.39, 339.72
330.15, 0.39, 339.09
329.77, 0.40, 338.41
329.38, 0.43, 337.69
329.02, 0.48, 337.04
328.59, 0.54, 336.28
326.86, 0.28, 333.16
325.67, 0.24, 331.00
324.44, 0.25, 328.79
332.69, 0.33, 343.81
332.56, 0.33, 343.60
332.43, 0.33, 343.36
332.29, 0.33, 343.12
332.14, 0.33, 342.85
331.97, 0.33, 342.56
331.80, 0.33, 342.25
331.61, 0.34, 341.92
331.41, 0.35, 341.57
331.19, 0.36, 341.19
330.96, 0.37, 340.78
330.69, 0.38, 340.32
330.40, 0.39, 339.80
330.05, 0.40, 339.19
329.66, 0.41, 338.51
329.25, 0.43, 337.78
328.88, 0.48, 337.14
328.46, 0.54, 336.41
326.60, 0.27, 333.15
325.43, 0.23, 331.09
324.17, 0.24, 328.89
332.62, 0.33, 343.85
332.50, 0.33, 343.64
332.36, 0.33, 343.41
332.22, 0.33, 343.16
¯332.06, 0.33, 342.89
331.90, 0.33, 342.61
331.72, 0.34, 342.31
331.52, 0.34, 341.98
331.32, 0.35, 341.63
331.10, 0.36, 341.25
330.86, 0.37, 340.84
330.59, 0.38, 340.39
330.30, 0.40, 339.89
329.94, 0.40, 339.29
329.55, 0.42, 338.62
329.11, 0.43, 337.88
328.74, 0.48, 337.23
328.31, 0.54, 336.52
327.49, 0.53, 335.11
327.49, 0.73, 335.11
327.49, 0.93, 335.11
327.49, 1.13, 335.12
327.49, 1.33, 335.12
327.49, 1.53, 335.12
327.49, 1.73, 335.13
327.49, 1.93, 335.13
327.49, 2.13, 335.14
327.49, 2.33, 335.14
327.50, 2.53, 335.14
332.56, 0.33, 343.89
332.43, 0.33, 343.68
332.29, 0.33, 343.45
332.15, 0.33, 343.21
331.99, 0.33, 342.94
331.82, 0.33, 342.67
331.64, 0.34, 342.36
331.44, 0.34, 342.04
331.23, 0.35, 341.68
331.00, 0.36, 341.31
330.76, 0.37, 340.91
330.49, 0.38, 340.46
330.19, 0.40, 339.97
329.84, 0.41, 339.39
329.45, 0.42, 338.74
329.00, 0.44, 337.99
328.60, 0.49, 337.33
328.17, 0.55, 336.62
327.52, 0.57, 335.54
327.52, 0.77, 335.54
327.52, 0.97, 335.55
327.52, 1.16, 335.55
327.52, 1.36, 335.55
327.52, 1.56, 335.56
327.52, 1.75, 335.56
327.52, 1.95, 335.56
¯327.52, 2.14, 335.57
327.52, 2.33, 335.57
327.60, 2.53, 335.70
332.49, 0.33, 343.93
332.36, 0.33, 343.72
332.22, 0.33, 343.49
332.07, 0.33, 343.25
331.91, 0.33, 342.99
331.74, 0.33, 342.72
331.56, 0.34, 342.42
331.36, 0.34, 342.10
331.14, 0.35, 341.74
330.91, 0.36, 341.38
330.66, 0.37, 340.98
330.39, 0.38, 340.53
330.08, 0.40, 340.04
329.74, 0.42, 339.49
329.34, 0.43, 338.85
328.89, 0.44, 338.11
328.46, 0.49, 337.43
327.94, 0.52, 336.59
327.64, 0.64, 336.10
327.64, 0.83, 336.10
327.64, 1.02, 336.11
327.64, 1.21, 336.11
327.64, 1.40, 336.11
327.64, 1.59, 336.12
327.64, 1.78, 336.12
327.64, 1.96, 336.12
327.64, 2.15, 336.13
327.64, 2.34, 336.13
327.71, 2.53, 336.25
332.43, 0.33, 343.97
332.30, 0.33, 343.76
332.16, 0.33, 343.54
332.00, 0.33, 343.30
331.84, 0.33, 343.05
331.67, 0.34, 342.77
331.48, 0.34, 342.48
331.28, 0.34, 342.16
331.05, 0.35, 341.81
330.82, 0.36, 341.44
330.56, 0.37, 341.04
330.28, 0.38, 340.60
329.99, 0.41, 340.15
329.68, 0.44, 339.66
329.24, 0.43, 338.96
328.78, 0.45, 338.24
328.32, 0.49, 337.53
327.75, 0.51, 336.62
327.75, 0.70, 336.62
¯327.75, 0.88, 336.63
327.75, 1.07, 336.63
327.75, 1.25, 336.63
327.75, 1.43, 336.64
327.75, 1.62, 336.64
327.75, 1.80, 336.64
327.75, 1.98, 336.65
327.75, 2.16, 336.65
327.75, 2.34, 336.65
327.82, 2.53, 336.77
332.37, 0.33, 344.01
332.23, 0.33, 343.81
332.09, 0.33, 343.58
331.94, 0.33, 343.35
331.77, 0.33, 343.10
331.60, 0.34, 342.83
331.40, 0.34, 342.54
331.19, 0.35, 342.22
330.97, 0.35, 341.87
330.73, 0.36, 341.51
330.47, 0.37, 341.11
330.18, 0.39, 340.68
329.91, 0.42, 340.26
329.63, 0.46, 339.83
329.18, 0.45, 339.14
328.67, 0.46, 338.36
328.19, 0.49, 337.63
327.85, 0.58, 337.11
327.85, 0.76, 337.12
327.85, 0.93, 337.12
327.85, 1.11, 337.12
327.85, 1.29, 337.12
327.85, 1.47, 337.13
327.85, 1.64, 337.13
327.85, 1.82, 337.13
327.85, 2.00, 337.14
327.85, 2.17, 337.14
327.86, 2.35, 337.14
327.93, 2.53, 337.25
332.31, 0.33, 344.05
332.17, 0.33, 343.85
332.02, 0.33, 343.63
331.87, 0.33, 343.40
331.70, 0.34, 343.15
331.52, 0.34, 342.89
331.33, 0.34, 342.60
331.11, 0.35, 342.28
330.88, 0.35, 341.94
330.64, 0.36, 341.57
330.37, 0.37, 341.18
330.08, 0.39, 340.75
¯329.83, 0.42, 340.37
329.55, 0.47, 339.95
329.13, 0.48, 339.33
328.60, 0.47, 338.55
328.00, 0.47, 337.65
327.95, 0.63, 337.57
327.95, 0.81, 337.58
327.95, 0.98, 337.58
327.95, 1.15, 337.58
327.95, 1.33, 337.58
327.95, 1.50, 337.59
327.95, 1.67, 337.59
327.95, 1.84, 337.59
327.95, 2.01, 337.60
327.95, 2.18, 337.60
327.95, 2.35, 337.60
328.02, 2.52, 337.71
332.25, 0.33, 344.10
332.11, 0.33, 343.90
331.96, 0.33, 343.68
331.80, 0.33, 343.45
331.63, 0.34, 343.21
331.45, 0.34, 342.94
331.25, 0.34, 342.66
331.04, 0.35, 342.35
330.80, 0.35, 342.00
330.55, 0.36, 341.64
330.28, 0.37, 341.25
330.00, 0.39, 340.85
329.74, 0.43, 340.48
329.46, 0.47, 340.07
329.08, 0.50, 339.52
328.56, 0.50, 338.76
328.04, 0.52, 338.00
328.04, 0.69, 338.01
328.04, 0.86, 338.01
328.04, 1.03, 338.01
328.04, 1.19, 338.02
328.04, 1.36, 338.02
328.04, 1.53, 338.02
328.04, 1.69, 338.02
328.04, 1.86, 338.03
328.04, 2.03, 338.03
328.04, 2.19, 338.03
328.04, 2.36, 338.03
328.11, 2.52, 338.14
332.18, 0.33, 344.14
332.04, 0.33, 343.94
331.89, 0.33, 343.73
331.73, 0.33, 343.50
331.56, 0.34, 343.26
¯331.38, 0.34, 343.00
331.18, 0.35, 342.72
330.96, 0.35, 342.41
330.72, 0.35, 342.07
330.46, 0.36, 341.71
330.19, 0.37, 341.32
329.93, 0.40, 340.95
329.66, 0.44, 340.59
329.38, 0.48, 340.19
329.04, 0.52, 339.70
328.52, 0.52, 338.97
328.12, 0.58, 338.41
328.13, 0.74, 338.42
328.13, 0.90, 338.42
328.13, 1.07, 338.42
328.13, 1.23, 338.42
328.13, 1.39, 338.43
328.13, 1.56, 338.43
328.13, 1.72, 338.43
328.13, 1.88, 338.43
328.13, 2.04, 338.44
328.13, 2.20, 338.44
328.13, 2.36, 338.44
328.20, 2.52, 338.54
332.12, 0.33, 344.19
331.98, 0.33, 343.99
331.82, 0.33, 343.77
331.66, 0.33, 343.55
331.49, 0.34, 343.32
331.31, 0.34, 343.06
331.10, 0.35, 342.78
330.88, 0.35, 342.48
330.64, 0.36, 342.14
330.37, 0.36, 341.78
330.09, 0.37, 341.39
329.85, 0.41, 341.06
329.58, 0.45, 340.69
329.30, 0.49, 340.30
328.99, 0.54, 339.87
328.48, 0.54, 339.17
328.21, 0.63, 338.80
328.21, 0.79, 338.80
328.21, 0.95, 338.81
328.21, 1.11, 338.81
328.21, 1.26, 338.81
328.21, 1.42, 338.81
328.21, 1.58, 338.82
328.21, 1.74, 338.82
328.21, 1.90, 338.82
328.21, 2.05, 338.82
328.21, 2.21, 338.82
¯328.21, 2.37, 338.83
328.28, 2.52, 338.92
332.06, 0.33, 344.23
331.92, 0.33, 344.04
331.76, 0.33, 343.82
331.59, 0.33, 343.60
331.42, 0.34, 343.37
331.23, 0.34, 343.11
331.03, 0.35, 342.84
330.80, 0.35, 342.54
330.56, 0.36, 342.21
330.29, 0.36, 341.85
330.02, 0.38, 341.49
329.77, 0.42, 341.16
329.51, 0.45, 340.80
329.22, 0.50, 340.42
328.90, 0.54, 339.99
328.44, 0.56, 339.38
328.28, 0.68, 339.17
328.28, 0.83, 339.17
328.28, 0.99, 339.17
328.29, 1.14, 339.17
328.29, 1.30, 339.18
328.29, 1.45, 339.18
328.29, 1.60, 339.18
328.29, 1.76, 339.18
328.29, 1.91, 339.19
328.29, 2.06, 339.19
328.29, 2.22, 339.19
328.29, 2.37, 339.19
328.36, 2.52, 339.28
332.01, 0.33, 344.28
331.86, 0.33, 344.08
331.70, 0.33, 343.87
331.53, 0.33, 343.65
331.35, 0.34, 343.42
331.16, 0.34, 343.17
330.95, 0.35, 342.90
330.72, 0.35, 342.60
330.47, 0.36, 342.28
330.20, 0.36, 341.92
329.95, 0.39, 341.59
329.70, 0.42, 341.26
329.43, 0.46, 340.91
329.14, 0.50, 340.53
328.82, 0.55, 340.12
328.40, 0.58, 339.57
328.36, 0.72, 339.51
328.36, 0.88, 339.52
328.36, 1.03, 339.52
328.36, 1.18, 339.52
¯328.36, 1.33, 339.52
328.36, 1.48, 339.53
328.36, 1.63, 339.53
328.36, 1.78, 339.53
328.36, 1.93, 339.53
328.36, 2.07, 339.53
328.36, 2.22, 339.54
328.36, 2.37, 339.54
328.43, 2.52, 339.63
331.95, 0.33, 344.33
331.80, 0.33, 344.13
331.63, 0.33, 343.92
331.46, 0.33, 343.70
331.28, 0.33, 343.47
331.08, 0.34, 343.22
330.87, 0.34, 342.95
330.64, 0.35, 342.66
330.39, 0.36, 342.34
330.11, 0.36, 341.99
329.88, 0.39, 341.69
329.63, 0.43, 341.37
329.35, 0.47, 341.02
329.06, 0.51, 340.65
328.74, 0.56, 340.24
328.43, 0.62, 339.84
328.43, 0.77, 339.84
328.43, 0.92, 339.85
328.43, 1.06, 339.85
328.43, 1.21, 339.85
328.43, 1.36, 339.85
328.43, 1.50, 339.85
328.43, 1.65, 339.86
328.43, 1.79, 339.86
328.43, 1.94, 339.86
328.43, 2.08, 339.86
328.43, 2.23, 339.87
328.43, 2.37, 339.87
328.50, 2.52, 339.95
331.89, 0.33, 344.37
331.74, 0.33, 344.18
331.57, 0.33, 343.98
331.39, 0.33, 343.75
331.21, 0.33, 343.53
331.01, 0.34, 343.28
330.79, 0.34, 343.01
330.56, 0.35, 342.72
330.30, 0.35, 342.40
330.04, 0.37, 342.07
329.81, 0.40, 341.79
329.56, 0.44, 341.48
329.29, 0.48, 341.14
¯328.99, 0.52, 340.77
328.66, 0.57, 340.36
328.49, 0.66, 340.16
328.49, 0.81, 340.16
328.49, 0.95, 340.16
328.49, 1.10, 340.16
328.49, 1.24, 340.16
328.50, 1.38, 340.17
328.50, 1.53, 340.17
328.50, 1.67, 340.17
328.50, 1.81, 340.17
328.50, 1.95, 340.17
328.50, 2.09, 340.18
328.50, 2.24, 340.18
328.50, 2.38, 340.18
328.56, 2.52, 340.26
331.83, 0.33, 344.42
331.68, 0.33, 344.23
331.51, 0.33, 344.03
331.33, 0.33, 343.81
331.14, 0.33, 343.58
330.94, 0.34, 343.34
330.72, 0.34, 343.07
330.48, 0.35, 342.78
330.22, 0.35, 342.47
329.97, 0.37, 342.17
329.75, 0.41, 341.90
329.50, 0.45, 341.59
329.22, 0.49, 341.26
328.92, 0.53, 340.89
328.59, 0.58, 340.50
328.56, 0.71, 340.45
328.56, 0.85, 340.46
328.56, 0.99, 340.46
328.56, 1.13, 340.46
328.56, 1.27, 340.46
328.56, 1.41, 340.46
328.56, 1.55, 340.47
328.56, 1.69, 340.47
328.56, 1.83, 340.47
328.56, 1.97, 340.47
328.56, 2.10, 340.47
328.56, 2.24, 340.48
328.56, 2.38, 340.48
328.63, 2.52, 340.56
331.78, 0.33, 344.47
331.62, 0.33, 344.28
331.45, 0.33, 344.08
331.26, 0.33, 343.87
331.07, 0.33, 343.64
330.86, 0.34, 343.39
¯330.64, 0.34, 343.13
330.40, 0.35, 342.85
330.14, 0.35, 342.54
329.91, 0.38, 342.27
329.68, 0.42, 342.00
329.43, 0.46, 341.70
329.16, 0.50, 341.38
328.85, 0.54, 341.02
328.62, 0.61, 340.74
328.62, 0.75, 340.74
328.62, 0.89, 340.74
328.62, 1.02, 340.74
328.62, 1.16, 340.75
328.62, 1.30, 340.75
328.62, 1.43, 340.75
328.62, 1.57, 340.75
328.62, 1.71, 340.75
328.62, 1.84, 340.76
328.62, 1.98, 340.76
328.62, 2.11, 340.76
328.62, 2.25, 340.76
328.62, 2.38, 340.76
328.68, 2.52, 340.84
331.72, 0.33, 344.52
331.56, 0.33, 344.34
331.39, 0.33, 344.14
331.20, 0.33, 343.92
331.00, 0.33, 343.69
330.79, 0.34, 343.45
330.57, 0.34, 343.19
330.32, 0.35, 342.91
330.06, 0.35, 342.61
329.85, 0.39, 342.36
329.62, 0.43, 342.10
329.37, 0.47, 341.81
329.09, 0.50, 341.49
328.79, 0.55, 341.14
328.67, 0.65, 341.01
328.67, 0.79, 341.01
328.67, 0.92, 341.01
328.67, 1.06, 341.02
328.68, 1.19, 341.02
328.68, 1.32, 341.02
328.68, 1.46, 341.02
328.68, 1.59, 341.02
328.68, 1.72, 341.03
328.68, 1.86, 341.03
328.68, 1.99, 341.03
328.68, 2.12, 341.03
328.68, 2.25, 341.03
328.68, 2.38, 341.04
¯328.74, 2.52, 341.11
331.66, 0.33, 344.57
331.50, 0.33, 344.39
331.33, 0.33, 344.19
331.14, 0.33, 343.98
330.93, 0.33, 343.75
330.72, 0.33, 343.51
330.49, 0.34, 343.26
330.25, 0.34, 342.98
330.00, 0.36, 342.70
329.79, 0.39, 342.46
329.56, 0.43, 342.20
329.31, 0.47, 341.92
329.03, 0.51, 341.61
328.73, 0.56, 341.27
328.73, 0.69, 341.27
328.73, 0.82, 341.27
328.73, 0.96, 341.28
328.73, 1.09, 341.28
328.73, 1.22, 341.28
328.73, 1.35, 341.28
328.73, 1.48, 341.28
328.73, 1.61, 341.28
328.73, 1.74, 341.29
328.73, 1.87, 341.29
328.73, 2.00, 341.29
328.73, 2.13, 341.29
328.73, 2.26, 341.29
328.73, 2.39, 341.30
328.80, 2.52, 341.37
331.61, 0.33, 344.62
331.44, 0.33, 344.44
331.27, 0.33, 344.25
331.08, 0.33, 344.04
330.87, 0.33, 343.81
330.65, 0.33, 343.57
330.42, 0.34, 343.32
330.17, 0.34, 343.04
329.94, 0.37, 342.79
329.73, 0.40, 342.56
329.49, 0.44, 342.30
329.24, 0.48, 342.03
328.97, 0.52, 341.73
328.78, 0.60, 341.52
328.78, 0.73, 341.52
328.78, 0.86, 341.52
328.78, 0.99, 341.53
328.78, 1.12, 341.53
328.78, 1.25, 341.53
328.78, 1.37, 341.53
328.78, 1.50, 341.53
¯328.78, 1.63, 341.53
328.78, 1.76, 341.54
328.79, 1.88, 341.54
328.79, 2.01, 341.54
328.79, 2.14, 341.54
328.79, 2.26, 341.54
328.79, 2.39, 341.54
328.85, 2.51, 341.61
331.56, 0.33, 344.68
331.39, 0.33, 344.50
331.21, 0.33, 344.30
331.01, 0.33, 344.10
330.81, 0.33, 343.87
330.58, 0.33, 343.63
330.35, 0.34, 343.38
330.09, 0.34, 343.11
329.89, 0.37, 342.89
329.67, 0.41, 342.65
329.43, 0.45, 342.40
329.18, 0.49, 342.13
328.91, 0.53, 341.84
328.83, 0.64, 341.76
328.83, 0.76, 341.76
328.83, 0.89, 341.76
328.83, 1.02, 341.77
328.83, 1.14, 341.77
328.83, 1.27, 341.77
328.83, 1.40, 341.77
328.83, 1.52, 341.77
328.84, 1.65, 341.77
328.84, 1.77, 341.78
328.84, 1.90, 341.78
328.84, 2.02, 341.78
328.84, 2.14, 341.78
328.84, 2.27, 341.78
328.84, 2.39, 341.78
328.90, 2.51, 341.85
331.50, 0.33, 344.73
331.33, 0.33, 344.55
331.15, 0.33, 344.36
330.95, 0.33, 344.16
330.74, 0.33, 343.93
330.52, 0.33, 343.70
330.28, 0.34, 343.45
330.03, 0.35, 343.19
329.83, 0.38, 342.98
329.61, 0.41, 342.75
329.37, 0.45, 342.50
329.12, 0.49, 342.24
328.88, 0.55, 341.99
328.88, 0.67, 341.99
¯328.88, 0.80, 341.99
328.88, 0.92, 341.99
328.88, 1.05, 342.00
328.88, 1.17, 342.00
328.88, 1.29, 342.00
328.88, 1.42, 342.00
328.88, 1.54, 342.00
328.88, 1.66, 342.00
328.88, 1.78, 342.01
328.88, 1.91, 342.01
328.88, 2.03, 342.01
328.88, 2.15, 342.01
328.89, 2.27, 342.01
328.89, 2.39, 342.01
328.95, 2.51, 342.08
331.45, 0.33, 344.78
331.28, 0.33, 344.61
331.09, 0.33, 344.42
330.90, 0.33, 344.22
330.68, 0.33, 344.00
330.45, 0.33, 343.76
330.21, 0.33, 343.51
329.98, 0.35, 343.28
329.77, 0.39, 343.07
329.55, 0.42, 342.85
329.31, 0.46, 342.60
329.06, 0.50, 342.34
328.93, 0.58, 342.21
328.93, 0.71, 342.21
328.93, 0.83, 342.21
328.93, 0.95, 342.21
328.93, 1.07, 342.22
328.93, 1.20, 342.22
328.93, 1.32, 342.22
328.93, 1.44, 342.22
328.93, 1.56, 342.22
328.93, 1.68, 342.22
328.93, 1.80, 342.23
328.93, 1.92, 342.23
328.93, 2.04, 342.23
328.93, 2.16, 342.23
328.93, 2.28, 342.23
328.93, 2.39, 342.23
328.99, 2.51, 342.30
331.40, 0.33, 344.83
331.22, 0.33, 344.66
331.04, 0.33, 344.48
330.84, 0.33, 344.28
330.62, 0.33, 344.06
330.38, 0.33, 343.83
330.14, 0.33, 343.58
¯329.93, 0.36, 343.37
329.72, 0.39, 343.16
329.50, 0.43, 342.94
329.26, 0.46, 342.70
329.05, 0.52, 342.50
329.05, 0.64, 342.50
329.05, 0.76, 342.50
329.05, 0.88, 342.51
329.05, 1.00, 342.51
329.05, 1.12, 342.51
329.05, 1.24, 342.51
329.05, 1.35, 342.51
329.05, 1.47, 342.51
329.05, 1.59, 342.52
329.05, 1.70, 342.52
329.06, 1.82, 342.52
329.06, 1.94, 342.52
329.06, 2.05, 342.52
329.06, 2.17, 342.52
329.06, 2.28, 342.52
329.06, 2.40, 342.53
329.06, 2.51, 342.53
331.35, 0.33, 344.89
331.17, 0.33, 344.72
330.98, 0.33, 344.54
330.78, 0.33, 344.34
330.56, 0.33, 344.13
330.32, 0.33, 343.89
330.07, 0.33, 343.65
329.87, 0.36, 343.46
329.66, 0.40, 343.26
329.44, 0.43, 343.04
329.20, 0.47, 342.81
329.01, 0.53, 342.63
329.01, 0.65, 342.63
329.01, 0.77, 342.63
329.01, 0.89, 342.63
329.01, 1.01, 342.63
329.01, 1.12, 342.63
329.01, 1.24, 342.63
329.01, 1.36, 342.63
329.01, 1.47, 342.63
329.00, 1.59, 342.63
329.00, 1.71, 342.63
329.00, 1.82, 342.63
329.00, 1.94, 342.63
329.00, 2.05, 342.63
329.00, 2.17, 342.63
329.00, 2.28, 342.63
329.00, 2.40, 342.63
329.00, 2.51, 342.63
¯331.29, 0.33, 344.94
331.12, 0.33, 344.78
330.93, 0.33, 344.60
330.72, 0.33, 344.40
330.60, 0.37, 344.28
330.60, 0.47, 344.29
330.60, 0.56, 344.29
330.60, 0.65, 344.29
330.60, 0.75, 344.29
330.60, 0.84, 344.29
330.60, 0.93, 344.29
330.60, 1.02, 344.29
330.60, 1.11, 344.29
330.60, 1.20, 344.30
330.60, 1.29, 344.30
330.60, 1.38, 344.30
330.60, 1.47, 344.30
330.60, 1.56, 344.30
330.60, 1.65, 344.30
330.60, 1.73, 344.30
330.60, 1.82, 344.30
330.60, 1.91, 344.31
330.60, 2.00, 344.31
330.61, 2.08, 344.31
330.61, 2.17, 344.31
330.61, 2.26, 344.31
330.61, 2.34, 344.31
330.61, 2.43, 344.31
330.61, 2.51, 344.31
330.61, 2.60, 344.32
331.24, 0.33, 345.00
331.07, 0.33, 344.83
330.87, 0.33, 344.66
330.67, 0.33, 344.46
330.64, 0.41, 344.44
330.64, 0.51, 344.44
330.64, 0.60, 344.45
330.64, 0.69, 344.45
330.64, 0.78, 344.45
330.64, 0.87, 344.45
330.64, 0.96, 344.45
330.64, 1.05, 344.45
330.64, 1.14, 344.45
330.64, 1.23, 344.45
330.65, 1.31, 344.46
330.65, 1.40, 344.46
330.65, 1.49, 344.46
330.65, 1.58, 344.46
330.65, 1.66, 344.46
330.65, 1.75, 344.46
330.65, 1.83, 344.46
¯330.65, 1.92, 344.46
330.65, 2.01, 344.46
330.65, 2.09, 344.47
330.65, 2.18, 344.47
330.65, 2.26, 344.47
330.65, 2.35, 344.47
330.65, 2.43, 344.47
330.65, 2.51, 344.47
330.65, 2.60, 344.47
331.20, 0.33, 345.06
331.01, 0.33, 344.89
330.82, 0.33, 344.72
330.68, 0.36, 344.59
330.68, 0.45, 344.60
330.68, 0.54, 344.60
330.68, 0.63, 344.60
330.68, 0.72, 344.60
330.68, 0.81, 344.60
330.69, 0.90, 344.60
330.69, 0.99, 344.60
330.69, 1.08, 344.60
330.69, 1.16, 344.60
330.69, 1.25, 344.61
330.69, 1.34, 344.61
330.69, 1.42, 344.61
330.69, 1.51, 344.61
330.69, 1.59, 344.61
330.69, 1.68, 344.61
330.69, 1.76, 344.61
330.69, 1.85, 344.61
330.69, 1.93, 344.62
330.69, 2.01, 344.62
330.69, 2.10, 344.62
330.69, 2.18, 344.62
330.69, 2.26, 344.62
330.69, 2.35, 344.62
330.69, 2.43, 344.62
330.69, 2.51, 344.62
330.69, 2.60, 344.62
319.07, 3.03, 334.13
331.15, 0.33, 345.11
330.96, 0.33, 344.95
330.77, 0.33, 344.78
330.72, 0.40, 344.74
330.72, 0.49, 344.74
330.72, 0.58, 344.74
330.72, 0.67, 344.74
330.72, 0.76, 344.75
330.72, 0.84, 344.75
330.73, 0.93, 344.75
330.73, 1.02, 344.75
¯330.73, 1.10, 344.75
330.73, 1.19, 344.75
330.73, 1.27, 344.75
330.73, 1.36, 344.75
330.73, 1.44, 344.75
330.73, 1.53, 344.76
330.73, 1.61, 344.76
330.73, 1.69, 344.76
330.73, 1.78, 344.76
330.73, 1.86, 344.76
330.73, 1.94, 344.76
330.73, 2.02, 344.76
330.73, 2.11, 344.76
330.73, 2.19, 344.76
330.73, 2.27, 344.77
330.73, 2.35, 344.77
330.73, 2.43, 344.77
330.73, 2.51, 344.77
330.73, 2.60, 344.77
319.07, 3.03, 334.50
331.10, 0.33, 345.17
330.91, 0.33, 345.01
330.76, 0.35, 344.88
330.76, 0.44, 344.88
330.76, 0.53, 344.88
330.76, 0.62, 344.88
330.76, 0.70, 344.89
330.76, 0.79, 344.89
330.76, 0.87, 344.89
330.76, 0.96, 344.89
330.76, 1.04, 344.89
330.76, 1.13, 344.89
330.76, 1.21, 344.89
330.76, 1.30, 344.89
330.77, 1.38, 344.89
330.77, 1.46, 344.90
330.77, 1.54, 344.90
330.77, 1.63, 344.90
330.77, 1.71, 344.90
330.77, 1.79, 344.90
330.77, 1.87, 344.90
330.77, 1.95, 344.90
330.77, 2.03, 344.90
330.77, 2.11, 344.90
330.77, 2.19, 344.91
330.77, 2.27, 344.91
330.77, 2.35, 344.91
330.77, 2.43, 344.91
330.77, 2.51, 344.91
330.77, 2.59, 344.91
319.07, 3.02, 334.85
¯331.05, 0.33, 345.23
330.86, 0.33, 345.07
330.80, 0.39, 345.02
330.80, 0.48, 345.02
330.80, 0.56, 345.02
330.80, 0.65, 345.02
330.80, 0.73, 345.02
330.80, 0.82, 345.02
330.80, 0.90, 345.02
330.80, 0.99, 345.02
330.80, 1.07, 345.03
330.80, 1.15, 345.03
330.80, 1.24, 345.03
330.80, 1.32, 345.03
330.80, 1.40, 345.03
330.80, 1.48, 345.03
330.80, 1.56, 345.03
330.80, 1.64, 345.03
330.80, 1.72, 345.03
330.80, 1.80, 345.04
330.80, 1.88, 345.04
330.80, 1.96, 345.04
330.80, 2.04, 345.04
330.80, 2.12, 345.04
330.81, 2.20, 345.04
330.81, 2.28, 345.04
330.81, 2.36, 345.04
330.81, 2.43, 345.04
330.81, 2.51, 345.05
330.81, 2.59, 345.05
319.07, 3.01, 335.20
331.01, 0.33, 345.29
330.83, 0.34, 345.15
330.83, 0.42, 345.15
330.83, 0.51, 345.15
330.84, 0.60, 345.15
330.84, 0.68, 345.15
330.84, 0.76, 345.15
330.84, 0.85, 345.15
330.84, 0.93, 345.16
330.84, 1.01, 345.16
330.84, 1.09, 345.16
330.84, 1.18, 345.16
330.84, 1.26, 345.16
330.84, 1.34, 345.16
330.84, 1.42, 345.16
330.84, 1.50, 345.16
330.84, 1.58, 345.16
330.84, 1.66, 345.16
330.84, 1.73, 345.17
330.84, 1.81, 345.17
¯330.84, 1.89, 345.17
330.84, 1.97, 345.17
330.84, 2.05, 345.17
330.84, 2.13, 345.17
330.84, 2.20, 345.17
330.84, 2.28, 345.17
330.84, 2.36, 345.17
330.84, 2.44, 345.17
330.84, 2.51, 345.18
330.84, 2.59, 345.18
319.07, 3.00, 335.55
330.96, 0.33, 345.35
330.87, 0.37, 345.27
330.87, 0.46, 345.28
330.87, 0.54, 345.28
330.87, 0.63, 345.28
330.87, 0.71, 345.28
330.87, 0.79, 345.28
330.87, 0.88, 345.28
330.87, 0.96, 345.28
330.87, 1.04, 345.28
330.87, 1.12, 345.28
330.87, 1.20, 345.29
330.87, 1.28, 345.29
330.87, 1.36, 345.29
330.87, 1.44, 345.29
330.87, 1.51, 345.29
330.87, 1.59, 345.29
330.87, 1.67, 345.29
330.87, 1.75, 345.29
330.87, 1.82, 345.29
330.87, 1.90, 345.29
330.87, 1.98, 345.30
330.87, 2.06, 345.30
330.88, 2.13, 345.30
330.88, 2.21, 345.30
330.88, 2.28, 345.30
330.88, 2.36, 345.30
330.88, 2.44, 345.30
330.88, 2.51, 345.30
330.88, 2.59, 345.30
319.07, 3.00, 335.88
330.91, 0.33, 345.41
330.90, 0.41, 345.40
330.90, 0.49, 345.40
330.90, 0.58, 345.40
330.90, 0.66, 345.40
330.90, 0.74, 345.40
330.90, 0.82, 345.40
330.90, 0.90, 345.40
330.90, 0.98, 345.40
¯330.90, 1.06, 345.41
330.91, 1.14, 345.41
330.91, 1.22, 345.41
330.91, 1.30, 345.41
330.91, 1.38, 345.41
330.91, 1.45, 345.41
330.91, 1.53, 345.41
330.91, 1.61, 345.41
330.91, 1.68, 345.41
330.91, 1.76, 345.41
330.91, 1.84, 345.42
330.91, 1.91, 345.42
330.91, 1.99, 345.42
330.91, 2.06, 345.42
330.91, 2.14, 345.42
330.91, 2.21, 345.42
330.91, 2.29, 345.42
330.91, 2.36, 345.42
330.91, 2.44, 345.42
330.91, 2.51, 345.42
330.91, 2.59, 345.43
319.07, 2.99, 336.21
330.93, 0.36, 345.52
330.93, 0.44, 345.52
330.94, 0.52, 345.52
330.94, 0.61, 345.52
330.94, 0.69, 345.52
330.94, 0.77, 345.52
330.94, 0.85, 345.52
330.94, 0.93, 345.52
330.94, 1.01, 345.52
330.94, 1.08, 345.52
330.94, 1.16, 345.53
330.94, 1.24, 345.53
330.94, 1.32, 345.53
330.94, 1.39, 345.53
330.94, 1.47, 345.53
330.94, 1.55, 345.53
330.94, 1.62, 345.53
330.94, 1.70, 345.53
330.94, 1.77, 345.53
330.94, 1.85, 345.53
330.94, 1.92, 345.54
330.94, 2.00, 345.54
330.94, 2.07, 345.54
330.94, 2.14, 345.54
330.94, 2.22, 345.54
330.94, 2.29, 345.54
330.94, 2.36, 345.54
330.94, 2.44, 345.54
330.94, 2.51, 345.54
¯330.94, 2.59, 345.54
319.07, 2.98, 336.54
330.97, 0.39, 345.63
330.97, 0.47, 345.63
330.97, 0.56, 345.63
330.97, 0.64, 345.63
330.97, 0.72, 345.63
330.97, 0.79, 345.64
330.97, 0.87, 345.64
330.97, 0.95, 345.64
330.97, 1.03, 345.64
330.97, 1.11, 345.64
330.97, 1.18, 345.64
330.97, 1.26, 345.64
330.97, 1.34, 345.64
330.97, 1.41, 345.64
330.97, 1.49, 345.64
330.97, 1.56, 345.65
330.97, 1.63, 345.65
330.97, 1.71, 345.65
330.97, 1.78, 345.65
330.97, 1.86, 345.65
330.97, 1.93, 345.65
330.97, 2.00, 345.65
330.97, 2.08, 345.65
330.97, 2.15, 345.65
330.97, 2.22, 345.65
330.97, 2.29, 345.65
330.97, 2.37, 345.66
330.97, 2.44, 345.66
330.97, 2.51, 345.66
330.97, 2.58, 345.66
319.07, 2.98, 336.86
331.00, 0.42, 345.74
331.00, 0.50, 345.74
331.00, 0.58, 345.74
331.00, 0.66, 345.75
331.00, 0.74, 345.75
331.00, 0.82, 345.75
331.00, 0.90, 345.75
331.00, 0.98, 345.75
331.00, 1.05, 345.75
331.00, 1.13, 345.75
331.00, 1.20, 345.75
331.00, 1.28, 345.75
331.00, 1.35, 345.75
331.00, 1.43, 345.75
331.00, 1.50, 345.76
331.00, 1.57, 345.76
331.00, 1.65, 345.76
331.00, 1.72, 345.76
¯331.00, 1.79, 345.76
331.00, 1.87, 345.76
331.00, 1.94, 345.76
331.00, 2.01, 345.76
331.00, 2.08, 345.76
331.00, 2.15, 345.76
331.00, 2.23, 345.76
331.00, 2.30, 345.77
331.00, 2.37, 345.77
331.00, 2.44, 345.77
331.00, 2.51, 345.77
331.00, 2.58, 345.77
319.07, 2.97, 337.17
331.03, 0.45, 345.85
331.03, 0.53, 345.85
331.03, 0.61, 345.85
331.03, 0.69, 345.85
331.03, 0.77, 345.85
331.03, 0.85, 345.86
