ŸVERSION 0.7
FIELDS x y z
SIZE 8 8 8
TYPE F F F
COUNT 1 1 1
WIDTH 2271
HEIGHT 1
VIEWPOINT 400.78, 12.33, 330.77 1 420.48, 8.78, 325.84
POINTS 2271
DATA ascii
422.18, 7.88, 330.42
422.24, 7.94, 330.51
422.30, 8.00, 330.61
422.36, 8.07, 330.72
422.43, 8.14, 330.82
422.50, 8.22, 330.93
422.57, 8.29, 331.05
422.65, 8.37, 331.17
422.72, 8.45, 331.29
422.80, 8.54, 331.42
422.89, 8.62, 331.55
422.98, 8.72, 331.69
423.07, 8.81, 331.84
423.16, 8.91, 331.99
421.34, 7.09, 329.00
421.39, 7.12, 329.07
421.43, 7.16, 329.14
421.48, 7.20, 329.21
421.53, 7.24, 329.28
421.58, 7.28, 329.36
421.63, 7.32, 329.43
421.68, 7.36, 329.51
421.73, 7.40, 329.59
421.79, 7.45, 329.68
421.84, 7.49, 329.76
421.90, 7.54, 329.85
421.95, 7.60, 329.93
422.01, 7.65, 330.01
422.06, 7.70, 330.10
422.12, 7.76, 330.19
422.18, 7.82, 330.29
422.25, 7.88, 330.39
422.31, 7.94, 330.49
422.38, 8.01, 330.59
422.44, 8.08, 330.69
422.51, 8.15, 330.80
422.58, 8.22, 330.91
422.66, 8.30, 331.02
422.74, 8.37, 331.14
422.82, 8.46, 331.27
422.90, 8.54, 331.40
422.99, 8.63, 331.53
423.08, 8.72, 331.67
423.17, 8.82, 331.82
423.27, 8.92, 331.97
¯421.40, 7.09, 328.98
421.44, 7.12, 329.05
421.49, 7.16, 329.12
421.54, 7.20, 329.19
421.59, 7.24, 329.26
421.64, 7.28, 329.33
421.69, 7.32, 329.41
421.74, 7.36, 329.49
421.79, 7.40, 329.57
421.85, 7.45, 329.65
421.91, 7.50, 329.73
421.96, 7.55, 329.81
422.01, 7.60, 329.90
422.07, 7.65, 329.98
422.13, 7.71, 330.07
422.19, 7.77, 330.16
422.25, 7.82, 330.25
422.31, 7.89, 330.35
422.38, 7.95, 330.45
422.45, 8.01, 330.55
422.52, 8.08, 330.66
422.60, 8.15, 330.77
422.67, 8.22, 330.89
422.75, 8.30, 331.00
422.83, 8.38, 331.12
422.91, 8.46, 331.24
422.99, 8.55, 331.37
423.08, 8.64, 331.51
423.18, 8.73, 331.65
423.27, 8.83, 331.80
423.38, 8.93, 331.95
421.45, 7.09, 328.96
421.50, 7.12, 329.03
421.55, 7.16, 329.10
421.59, 7.20, 329.17
421.64, 7.24, 329.24
421.70, 7.28, 329.31
421.75, 7.32, 329.39
421.80, 7.36, 329.47
421.86, 7.40, 329.55
421.91, 7.45, 329.62
421.96, 7.50, 329.70
422.02, 7.55, 329.78
422.07, 7.60, 329.86
422.13, 7.66, 329.94
422.19, 7.71, 330.03
422.25, 7.77, 330.12
422.31, 7.83, 330.21
422.38, 7.89, 330.31
422.45, 7.95, 330.41
422.52, 8.02, 330.51
¯422.59, 8.09, 330.62
422.67, 8.16, 330.73
422.75, 8.23, 330.85
422.83, 8.31, 330.97
422.92, 8.39, 331.09
423.00, 8.47, 331.22
423.09, 8.55, 331.35
423.18, 8.65, 331.48
423.28, 8.74, 331.63
423.38, 8.84, 331.77
423.48, 8.94, 331.93
421.51, 7.09, 328.94
421.55, 7.12, 329.01
421.60, 7.16, 329.07
421.65, 7.20, 329.14
421.70, 7.24, 329.22
421.76, 7.28, 329.29
421.81, 7.32, 329.37
421.87, 7.36, 329.44
421.92, 7.41, 329.52
421.97, 7.46, 329.59
422.02, 7.50, 329.67
422.08, 7.56, 329.75
422.13, 7.61, 329.83
422.19, 7.66, 329.91
422.25, 7.72, 330.00
422.32, 7.77, 330.08
422.38, 7.83, 330.18
422.45, 7.89, 330.27
422.52, 7.96, 330.37
422.59, 8.02, 330.47
422.66, 8.09, 330.58
422.74, 8.16, 330.69
422.82, 8.24, 330.81
422.91, 8.31, 330.93
422.99, 8.39, 331.05
423.08, 8.48, 331.18
423.18, 8.56, 331.32
423.28, 8.65, 331.46
423.38, 8.75, 331.60
423.48, 8.85, 331.75
423.59, 8.95, 331.90
421.56, 7.09, 328.92
421.61, 7.12, 328.98
421.66, 7.16, 329.05
421.71, 7.20, 329.12
421.76, 7.24, 329.19
421.82, 7.28, 329.27
421.87, 7.32, 329.34
421.92, 7.36, 329.41
421.97, 7.41, 329.48
¯422.03, 7.46, 329.56
422.08, 7.51, 329.63
422.14, 7.56, 329.71
422.20, 7.61, 329.79
422.26, 7.67, 329.87
422.32, 7.72, 329.96
422.38, 7.78, 330.05
422.45, 7.84, 330.14
422.51, 7.90, 330.23
422.59, 7.96, 330.33
422.66, 8.03, 330.43
422.74, 8.10, 330.54
422.81, 8.17, 330.65
422.90, 8.24, 330.76
422.98, 8.32, 330.88
423.07, 8.40, 331.01
423.17, 8.48, 331.14
423.26, 8.57, 331.27
423.36, 8.66, 331.41
423.47, 8.75, 331.56
423.58, 8.85, 331.71
423.70, 8.96, 331.88
421.62, 7.08, 328.89
421.67, 7.12, 328.96
421.72, 7.16, 329.03
421.77, 7.20, 329.10
421.82, 7.24, 329.17
421.88, 7.28, 329.24
421.93, 7.32, 329.31
421.98, 7.37, 329.38
422.03, 7.41, 329.45
422.09, 7.46, 329.52
422.14, 7.51, 329.60
422.20, 7.56, 329.68
422.26, 7.61, 329.76
422.32, 7.67, 329.84
422.38, 7.73, 329.92
422.44, 7.78, 330.01
422.51, 7.84, 330.10
422.58, 7.90, 330.20
422.65, 7.97, 330.29
422.73, 8.03, 330.40
422.81, 8.10, 330.50
422.89, 8.17, 330.61
422.97, 8.25, 330.72
423.06, 8.32, 330.84
423.15, 8.40, 330.96
423.25, 8.49, 331.09
423.35, 8.58, 331.23
423.45, 8.67, 331.37
423.56, 8.76, 331.51
¯423.67, 8.86, 331.67
423.79, 8.97, 331.83
421.67, 7.08, 328.87
421.72, 7.12, 328.94
421.77, 7.16, 329.00
421.83, 7.20, 329.07
421.88, 7.23, 329.14
421.93, 7.28, 329.21
421.98, 7.32, 329.28
422.03, 7.37, 329.35
422.09, 7.42, 329.42
422.14, 7.46, 329.49
422.20, 7.51, 329.56
422.26, 7.57, 329.64
422.32, 7.62, 329.72
422.38, 7.67, 329.80
422.44, 7.73, 329.89
422.51, 7.79, 329.97
422.58, 7.85, 330.06
422.65, 7.91, 330.16
422.72, 7.97, 330.25
422.80, 8.04, 330.36
422.88, 8.11, 330.46
422.96, 8.18, 330.57
423.05, 8.25, 330.68
423.14, 8.33, 330.80
423.23, 8.41, 330.92
423.33, 8.50, 331.05
423.43, 8.58, 331.18
423.53, 8.67, 331.32
423.65, 8.77, 331.47
423.76, 8.87, 331.62
424.00, 8.98, 331.93
421.73, 7.08, 328.85
421.78, 7.12, 328.91
421.83, 7.16, 328.98
421.89, 7.19, 329.05
421.93, 7.24, 329.11
421.99, 7.28, 329.18
422.04, 7.33, 329.24
422.09, 7.37, 329.31
422.14, 7.42, 329.38
422.20, 7.47, 329.45
422.26, 7.52, 329.53
422.32, 7.57, 329.60
422.38, 7.62, 329.68
422.44, 7.68, 329.76
422.51, 7.73, 329.85
422.58, 7.79, 329.94
422.64, 7.85, 330.02
422.72, 7.91, 330.12
¯422.79, 7.98, 330.21
422.87, 8.04, 330.31
422.95, 8.11, 330.42
423.04, 8.18, 330.53
423.12, 8.26, 330.64
423.21, 8.34, 330.76
423.31, 8.42, 330.88
423.41, 8.50, 331.01
423.51, 8.59, 331.14
423.62, 8.68, 331.28
423.73, 8.78, 331.42
423.90, 8.88, 331.63
421.78, 7.08, 328.82
421.84, 7.12, 328.89
421.89, 7.15, 328.95
421.94, 7.20, 329.02
421.99, 7.24, 329.08
422.04, 7.28, 329.14
422.09, 7.33, 329.21
422.15, 7.37, 329.28
422.20, 7.42, 329.35
422.26, 7.47, 329.42
422.32, 7.52, 329.49
422.38, 7.57, 329.57
422.44, 7.63, 329.65
422.51, 7.68, 329.73
422.57, 7.74, 329.81
422.64, 7.79, 329.90
422.71, 7.86, 329.99
422.78, 7.92, 330.08
422.86, 7.98, 330.17
422.94, 8.05, 330.27
423.02, 8.12, 330.38
423.11, 8.19, 330.49
423.20, 8.26, 330.60
423.29, 8.34, 330.71
423.39, 8.42, 330.84
423.49, 8.51, 330.96
423.60, 8.60, 331.09
423.71, 8.69, 331.23
423.82, 8.79, 331.38
424.20, 8.90, 331.82
421.84, 7.08, 328.80
421.89, 7.12, 328.86
421.94, 7.16, 328.92
421.99, 7.20, 328.98
422.04, 7.24, 329.04
422.09, 7.29, 329.11
422.15, 7.33, 329.17
422.20, 7.38, 329.24
422.26, 7.42, 329.31
¯422.32, 7.47, 329.38
422.38, 7.52, 329.46
422.44, 7.57, 329.53
422.50, 7.63, 329.61
422.57, 7.68, 329.69
422.64, 7.74, 329.77
422.71, 7.80, 329.86
422.78, 7.86, 329.95
422.85, 7.92, 330.04
422.93, 7.99, 330.13
423.01, 8.05, 330.23
423.10, 8.12, 330.34
423.18, 8.20, 330.44
423.28, 8.27, 330.55
423.37, 8.35, 330.67
423.47, 8.43, 330.79
423.57, 8.52, 330.92
423.68, 8.60, 331.05
423.79, 8.70, 331.19
424.09, 8.80, 331.53
424.51, 8.91, 332.02
421.89, 7.08, 328.77
421.94, 7.12, 328.83
421.99, 7.16, 328.89
422.04, 7.20, 328.95
422.09, 7.24, 329.01
422.15, 7.29, 329.07
422.20, 7.33, 329.14
422.26, 7.38, 329.21
422.32, 7.43, 329.28
422.38, 7.48, 329.35
422.44, 7.53, 329.42
422.50, 7.58, 329.50
422.56, 7.63, 329.57
422.63, 7.69, 329.65
422.70, 7.74, 329.74
422.77, 7.80, 329.82
422.85, 7.86, 329.91
422.92, 7.93, 330.00
423.00, 7.99, 330.09
423.08, 8.06, 330.19
423.17, 8.13, 330.29
423.26, 8.20, 330.40
423.35, 8.28, 330.51
423.45, 8.35, 330.63
423.55, 8.44, 330.75
423.66, 8.52, 330.87
423.77, 8.61, 331.00
423.99, 8.70, 331.26
424.39, 8.81, 331.71
421.94, 7.08, 328.74
¯421.99, 7.12, 328.80
422.04, 7.16, 328.86
422.09, 7.20, 328.92
422.15, 7.24, 328.98
422.20, 7.29, 329.04
422.26, 7.33, 329.11
422.31, 7.38, 329.17
422.37, 7.43, 329.24
422.43, 7.48, 329.31
422.50, 7.53, 329.38
422.56, 7.58, 329.46
422.63, 7.63, 329.54
422.69, 7.69, 329.61
422.76, 7.75, 329.70
422.84, 7.81, 329.78
422.91, 7.87, 329.87
422.99, 7.93, 329.96
423.07, 8.00, 330.05
423.16, 8.06, 330.15
423.24, 8.13, 330.25
423.33, 8.21, 330.36
423.43, 8.28, 330.47
423.53, 8.36, 330.58
423.63, 8.44, 330.70
423.74, 8.53, 330.83
423.90, 8.62, 331.01
424.28, 8.71, 331.43
424.72, 8.82, 331.91
421.99, 7.08, 328.71
422.04, 7.12, 328.76
422.09, 7.16, 328.82
422.15, 7.20, 328.88
422.20, 7.25, 328.94
422.25, 7.29, 329.01
422.31, 7.34, 329.07
422.37, 7.38, 329.14
422.43, 7.43, 329.20
422.49, 7.48, 329.27
422.56, 7.53, 329.35
422.62, 7.58, 329.42
422.69, 7.64, 329.50
422.76, 7.69, 329.58
422.83, 7.75, 329.66
422.90, 7.81, 329.74
422.98, 7.87, 329.83
423.06, 7.93, 329.92
423.14, 8.00, 330.01
423.23, 8.07, 330.11
423.32, 8.14, 330.21
423.41, 8.21, 330.31
423.51, 8.29, 330.42
¯423.61, 8.37, 330.54
423.71, 8.45, 330.66
423.82, 8.54, 330.78
424.17, 8.62, 331.16
424.59, 8.72, 331.60
422.04, 7.08, 328.67
422.09, 7.12, 328.73
422.14, 7.16, 328.79
422.20, 7.20, 328.85
422.25, 7.25, 328.91
422.31, 7.29, 328.97
422.37, 7.34, 329.03
422.43, 7.38, 329.10
422.49, 7.43, 329.17
422.55, 7.48, 329.24
422.62, 7.53, 329.31
422.68, 7.59, 329.38
422.75, 7.64, 329.46
422.82, 7.70, 329.54
422.89, 7.75, 329.62
422.97, 7.81, 329.70
423.05, 7.87, 329.79
423.13, 7.94, 329.88
423.21, 8.00, 329.97
423.30, 8.07, 330.07
423.39, 8.14, 330.17
423.49, 8.22, 330.27
423.58, 8.29, 330.38
423.69, 8.37, 330.49
423.79, 8.45, 330.61
424.07, 8.54, 330.90
424.47, 8.63, 331.32
424.93, 8.73, 331.80
422.09, 7.08, 328.64
422.14, 7.12, 328.70
422.19, 7.16, 328.75
422.25, 7.21, 328.81
422.31, 7.25, 328.87
422.36, 7.29, 328.93
422.42, 7.34, 329.00
422.48, 7.39, 329.06
422.54, 7.43, 329.13
422.61, 7.48, 329.20
422.67, 7.54, 329.27
422.74, 7.59, 329.34
422.81, 7.64, 329.42
422.89, 7.70, 329.50
422.96, 7.76, 329.58
423.04, 7.82, 329.66
423.12, 7.88, 329.75
423.20, 7.94, 329.84
¯423.28, 8.01, 329.93
423.37, 8.08, 330.02
423.47, 8.15, 330.12
423.56, 8.22, 330.23
423.66, 8.30, 330.34
423.77, 8.38, 330.45
423.98, 8.46, 330.67
424.36, 8.54, 331.05
424.79, 8.63, 331.49
425.30, 8.74, 332.01
422.14, 7.08, 328.61
422.19, 7.12, 328.66
422.25, 7.16, 328.72
422.30, 7.21, 328.78
422.36, 7.25, 328.84
422.42, 7.29, 328.90
422.48, 7.34, 328.96
422.54, 7.39, 329.03
422.60, 7.44, 329.09
422.67, 7.49, 329.16
422.73, 7.54, 329.23
422.80, 7.59, 329.31
422.88, 7.64, 329.38
422.95, 7.70, 329.46
423.02, 7.76, 329.54
423.10, 7.82, 329.62
423.18, 7.88, 329.71
423.27, 7.94, 329.79
423.36, 8.01, 329.89
423.45, 8.08, 329.98
423.54, 8.15, 330.08
423.64, 8.23, 330.18
423.74, 8.30, 330.29
423.89, 8.38, 330.44
424.25, 8.45, 330.80
424.66, 8.54, 331.21
425.14, 8.63, 331.69
422.19, 7.08, 328.57
422.24, 7.12, 328.63
422.30, 7.17, 328.68
422.35, 7.21, 328.74
422.41, 7.25, 328.80
422.47, 7.30, 328.86
422.53, 7.34, 328.93
422.60, 7.39, 328.99
422.66, 7.44, 329.06
422.73, 7.49, 329.12
422.79, 7.54, 329.19
422.87, 7.59, 329.27
422.94, 7.65, 329.34
423.01, 7.70, 329.42
¯423.09, 7.76, 329.50
423.17, 7.82, 329.58
423.25, 7.88, 329.66
423.34, 7.95, 329.75
423.43, 8.02, 329.84
423.52, 8.08, 329.94
423.62, 8.16, 330.04
423.72, 8.23, 330.14
423.82, 8.31, 330.25
424.15, 8.38, 330.56
424.54, 8.45, 330.94
425.00, 8.54, 331.38
425.52, 8.64, 331.89
422.24, 7.08, 328.54
422.29, 7.12, 328.59
422.35, 7.17, 328.65
422.41, 7.21, 328.71
422.47, 7.25, 328.76
422.53, 7.30, 328.83
422.59, 7.34, 328.89
422.65, 7.39, 328.95
422.72, 7.44, 329.02
422.79, 7.49, 329.09
422.86, 7.54, 329.16
422.93, 7.59, 329.23
423.00, 7.65, 329.30
423.08, 7.71, 329.38
423.16, 7.76, 329.46
423.24, 7.82, 329.54
423.32, 7.89, 329.62
423.41, 7.95, 329.71
423.50, 8.02, 329.80
423.59, 8.09, 329.89
423.69, 8.16, 329.99
423.79, 8.24, 330.09
424.05, 8.30, 330.34
424.43, 8.37, 330.69
424.85, 8.45, 331.09
425.32, 8.54, 331.54
422.29, 7.08, 328.51
422.35, 7.12, 328.56
422.40, 7.16, 328.62
422.46, 7.21, 328.67
422.52, 7.25, 328.73
422.59, 7.30, 328.79
422.65, 7.34, 328.85
422.71, 7.39, 328.92
422.78, 7.44, 328.98
422.85, 7.49, 329.05
422.92, 7.54, 329.12
423.00, 7.59, 329.19
¯423.07, 7.65, 329.27
423.15, 7.71, 329.34
423.23, 7.77, 329.42
423.31, 7.83, 329.50
423.40, 7.89, 329.59
423.49, 7.95, 329.67
423.58, 8.02, 329.77
423.68, 8.09, 329.86
423.78, 8.16, 329.96
423.90, 8.24, 330.08
424.23, 8.30, 330.38
424.61, 8.37, 330.72
425.04, 8.45, 331.12
425.53, 8.55, 331.58
422.35, 7.08, 328.48
422.41, 7.12, 328.53
422.47, 7.16, 328.59
422.53, 7.20, 328.65
422.59, 7.25, 328.70
422.65, 7.29, 328.76
422.72, 7.34, 328.83
422.78, 7.39, 328.89
422.85, 7.44, 328.96
422.92, 7.49, 329.02
423.00, 7.54, 329.09
423.07, 7.59, 329.16
423.15, 7.65, 329.24
423.23, 7.71, 329.31
423.31, 7.76, 329.39
423.40, 7.83, 329.47
423.49, 7.89, 329.56
423.58, 7.95, 329.65
423.67, 8.02, 329.74
423.77, 8.09, 329.83
423.89, 8.16, 329.94
424.04, 8.24, 330.08
424.39, 8.30, 330.39
424.78, 8.37, 330.75
425.23, 8.46, 331.15
425.75, 8.55, 331.62
422.41, 7.07, 328.45
422.47, 7.11, 328.50
422.53, 7.16, 328.56
422.59, 7.20, 328.62
422.65, 7.24, 328.68
422.72, 7.29, 328.74
422.78, 7.34, 328.80
422.85, 7.38, 328.86
422.92, 7.43, 328.93
423.00, 7.48, 328.99
423.07, 7.54, 329.06
¯423.15, 7.59, 329.13
423.23, 7.65, 329.21
423.31, 7.70, 329.28
423.39, 7.76, 329.36
423.48, 7.83, 329.45
423.57, 7.89, 329.53
423.67, 7.96, 329.62
423.77, 8.02, 329.71
423.88, 8.09, 329.81
424.03, 8.16, 329.95
424.19, 8.24, 330.09
424.55, 8.30, 330.41
424.96, 8.37, 330.77
425.43, 8.46, 331.18
422.47, 7.07, 328.42
422.53, 7.11, 328.48
422.59, 7.15, 328.53
422.65, 7.20, 328.59
422.72, 7.24, 328.65
422.78, 7.29, 328.71
422.85, 7.33, 328.77
422.92, 7.38, 328.83
423.00, 7.43, 328.90
423.07, 7.48, 328.96
423.15, 7.53, 329.03
423.23, 7.59, 329.10
423.31, 7.65, 329.18
423.39, 7.70, 329.25
423.48, 7.76, 329.33
423.57, 7.82, 329.42
423.66, 7.89, 329.50
423.76, 7.96, 329.59
423.87, 8.02, 329.69
424.01, 8.09, 329.81
424.17, 8.16, 329.95
424.34, 8.24, 330.10
424.72, 8.30, 330.42
425.15, 8.38, 330.79
425.65, 8.46, 331.21
422.53, 7.06, 328.39
422.59, 7.11, 328.45
422.65, 7.15, 328.50
422.72, 7.19, 328.56
422.78, 7.24, 328.62
422.85, 7.28, 328.68
422.92, 7.33, 328.74
422.99, 7.38, 328.80
423.07, 7.43, 328.87
423.14, 7.48, 328.93
423.22, 7.53, 329.00
423.30, 7.59, 329.07
¯423.39, 7.64, 329.15
423.47, 7.70, 329.22
423.56, 7.76, 329.30
423.66, 7.82, 329.38
423.75, 7.89, 329.47
423.86, 7.95, 329.56
424.00, 8.02, 329.68
424.15, 8.09, 329.81
424.31, 8.16, 329.95
424.49, 8.23, 330.11
424.89, 8.30, 330.44
425.34, 8.38, 330.81
422.59, 7.06, 328.36
422.65, 7.10, 328.42
422.72, 7.14, 328.47
422.78, 7.19, 328.53
422.85, 7.23, 328.59
422.92, 7.28, 328.65
422.99, 7.33, 328.71
423.07, 7.37, 328.77
423.14, 7.42, 328.84
423.22, 7.48, 328.90
423.30, 7.53, 328.97
423.38, 7.58, 329.04
423.47, 7.64, 329.12
423.56, 7.70, 329.19
423.65, 7.76, 329.27
423.74, 7.82, 329.35
423.85, 7.89, 329.44
423.99, 7.95, 329.56
424.13, 8.02, 329.68
424.29, 8.08, 329.81
424.45, 8.16, 329.95
424.65, 8.23, 330.12
425.07, 8.30, 330.45
425.54, 8.38, 330.84
422.65, 7.05, 328.33
422.72, 7.10, 328.39
422.78, 7.14, 328.44
422.85, 7.18, 328.50
422.92, 7.23, 328.56
422.99, 7.27, 328.62
423.06, 7.32, 328.68
423.14, 7.37, 328.74
423.22, 7.42, 328.80
423.30, 7.47, 328.87
423.38, 7.53, 328.94
423.46, 7.58, 329.01
423.55, 7.64, 329.09
423.64, 7.70, 329.16
423.74, 7.76, 329.24
¯423.84, 7.82, 329.32
423.97, 7.88, 329.44
424.12, 7.95, 329.55
424.27, 8.01, 329.68
424.43, 8.08, 329.81
424.61, 8.16, 329.95
424.82, 8.23, 330.12
425.25, 8.30, 330.47
425.75, 8.38, 330.86
422.71, 7.05, 328.30
422.78, 7.09, 328.36
422.85, 7.13, 328.41
422.92, 7.18, 328.47
422.99, 7.22, 328.52
423.06, 7.27, 328.58
423.13, 7.32, 328.64
423.21, 7.37, 328.71
423.29, 7.42, 328.77
423.37, 7.47, 328.84
423.46, 7.52, 328.91
423.54, 7.58, 328.98
423.63, 7.64, 329.05
423.73, 7.70, 329.13
423.82, 7.76, 329.21
423.96, 7.82, 329.31
424.10, 7.88, 329.43
424.25, 7.94, 329.55
424.41, 8.01, 329.68
424.58, 8.08, 329.81
424.76, 8.15, 329.95
424.99, 8.23, 330.13
425.44, 8.30, 330.48
422.78, 7.04, 328.27
422.84, 7.08, 328.32
422.91, 7.13, 328.38
422.98, 7.17, 328.43
423.05, 7.22, 328.49
423.13, 7.26, 328.55
423.21, 7.31, 328.61
423.28, 7.36, 328.68
423.37, 7.41, 328.74
423.45, 7.47, 328.81
423.54, 7.52, 328.88
423.63, 7.58, 328.95
423.72, 7.63, 329.02
423.81, 7.69, 329.10
423.94, 7.75, 329.20
424.09, 7.81, 329.31
424.24, 7.87, 329.42
424.39, 7.93, 329.54
424.56, 8.00, 329.67
¯424.74, 8.07, 329.81
424.92, 8.15, 329.95
425.16, 8.23, 330.14
425.64, 8.30, 330.50
422.84, 7.04, 328.24
422.91, 7.08, 328.29
422.98, 7.12, 328.35
423.05, 7.17, 328.40
423.12, 7.21, 328.46
423.20, 7.26, 328.52
423.28, 7.31, 328.58
423.36, 7.36, 328.64
423.44, 7.41, 328.71
423.53, 7.46, 328.77
423.62, 7.52, 328.84
423.71, 7.57, 328.91
423.80, 7.63, 328.99
423.93, 7.69, 329.08
424.07, 7.74, 329.19
424.22, 7.80, 329.30
424.37, 7.86, 329.42
424.54, 7.93, 329.54
424.71, 8.00, 329.67
424.89, 8.07, 329.81
425.09, 8.15, 329.96
425.35, 8.23, 330.15
422.90, 7.03, 328.21
422.97, 7.07, 328.26
423.04, 7.12, 328.31
423.12, 7.16, 328.37
423.19, 7.21, 328.43
423.27, 7.25, 328.48
423.35, 7.30, 328.55
423.44, 7.35, 328.61
423.52, 7.40, 328.67
423.61, 7.46, 328.74
423.70, 7.51, 328.81
423.79, 7.57, 328.88
423.91, 7.62, 328.97
424.05, 7.68, 329.07
424.20, 7.73, 329.18
424.35, 7.79, 329.29
424.51, 7.86, 329.41
424.68, 7.92, 329.53
424.87, 7.99, 329.67
425.06, 8.07, 329.81
425.26, 8.15, 329.96
425.54, 8.23, 330.16
422.97, 7.02, 328.17
423.04, 7.07, 328.23
423.11, 7.11, 328.28
¯423.19, 7.16, 328.33
423.26, 7.20, 328.39
423.34, 7.25, 328.45
423.43, 7.30, 328.51
423.51, 7.35, 328.57
423.60, 7.40, 328.64
423.69, 7.45, 328.70
423.78, 7.51, 328.77
423.90, 7.56, 328.86
424.03, 7.61, 328.95
424.18, 7.67, 329.06
424.33, 7.73, 329.16
424.49, 7.79, 329.28
424.66, 7.85, 329.40
424.84, 7.92, 329.53
425.03, 7.99, 329.66
425.23, 8.06, 329.80
425.44, 8.14, 329.96
425.73, 8.22, 330.16
423.03, 7.02, 328.14
423.10, 7.06, 328.19
423.18, 7.10, 328.25
423.26, 7.15, 328.30
423.34, 7.20, 328.36
423.42, 7.24, 328.42
423.50, 7.29, 328.48
423.59, 7.34, 328.54
423.68, 7.40, 328.60
423.77, 7.45, 328.67
423.88, 7.50, 328.75
424.02, 7.55, 328.84
424.16, 7.60, 328.94
424.31, 7.66, 329.04
424.47, 7.72, 329.15
424.63, 7.78, 329.27
424.81, 7.84, 329.39
424.99, 7.91, 329.52
425.19, 7.98, 329.66
425.40, 8.06, 329.80
425.62, 8.14, 329.96
423.08, 7.02, 328.10
423.17, 7.05, 328.16
423.25, 7.10, 328.21
423.33, 7.14, 328.27
423.41, 7.19, 328.32
423.49, 7.24, 328.38
423.58, 7.29, 328.44
423.67, 7.34, 328.50
423.76, 7.39, 328.57
423.86, 7.44, 328.64
424.00, 7.49, 328.73
¯424.14, 7.54, 328.82
424.29, 7.59, 328.92
424.44, 7.65, 329.03
424.61, 7.71, 329.14
424.78, 7.77, 329.26
424.96, 7.83, 329.38
425.16, 7.90, 329.51
425.36, 7.98, 329.65
425.56, 8.05, 329.79
425.78, 8.14, 329.94
423.12, 7.02, 328.05
423.23, 7.05, 328.12
423.32, 7.09, 328.17
423.40, 7.14, 328.23
423.48, 7.18, 328.29
423.57, 7.23, 328.34
423.65, 7.28, 328.40
423.75, 7.33, 328.47
423.84, 7.38, 328.53
423.98, 7.43, 328.62
424.12, 7.48, 328.71
424.26, 7.53, 328.81
424.42, 7.58, 328.91
424.58, 7.64, 329.02
424.75, 7.70, 329.13
424.93, 7.76, 329.25
425.11, 7.83, 329.37
425.30, 7.90, 329.49
425.50, 7.97, 329.62
425.71, 8.05, 329.76
423.16, 7.02, 328.00
423.28, 7.05, 328.07
423.39, 7.08, 328.14
423.47, 7.13, 328.19
423.55, 7.18, 328.25
423.64, 7.23, 328.31
423.73, 7.28, 328.37
423.83, 7.33, 328.43
423.96, 7.37, 328.51
424.09, 7.42, 328.60
424.24, 7.47, 328.69
424.39, 7.52, 328.79
424.55, 7.57, 328.89
424.72, 7.63, 329.00
424.88, 7.69, 329.11
425.06, 7.75, 329.22
425.24, 7.82, 329.34
425.44, 7.89, 329.46
425.64, 7.97, 329.59
423.20, 7.02, 327.94
423.32, 7.05, 328.02
¯423.44, 7.08, 328.09
423.54, 7.12, 328.16
423.63, 7.17, 328.21
423.72, 7.22, 328.27
423.81, 7.27, 328.33
423.94, 7.31, 328.41
424.07, 7.36, 328.49
424.22, 7.40, 328.58
424.37, 7.45, 328.67
424.52, 7.51, 328.77
424.67, 7.56, 328.86
424.83, 7.62, 328.97
425.00, 7.68, 329.07
425.18, 7.75, 329.19
425.38, 7.82, 329.30
425.58, 7.89, 329.43
423.24, 7.03, 327.89
423.36, 7.05, 327.96
423.48, 7.09, 328.04
423.61, 7.12, 328.11
423.70, 7.16, 328.17
423.80, 7.21, 328.23
423.91, 7.26, 328.30
424.05, 7.30, 328.38
424.19, 7.34, 328.47
424.33, 7.39, 328.55
424.47, 7.44, 328.64
424.62, 7.50, 328.73
424.78, 7.56, 328.83
424.95, 7.61, 328.93
425.13, 7.68, 329.04
425.31, 7.74, 329.15
425.51, 7.81, 329.27
425.72, 7.89, 329.40
423.28, 7.03, 327.84
423.40, 7.06, 327.91
423.52, 7.09, 327.98
423.65, 7.12, 328.06
423.78, 7.16, 328.13
423.89, 7.20, 328.20
424.02, 7.24, 328.27
424.15, 7.29, 328.35
424.29, 7.34, 328.43
424.43, 7.38, 328.52
424.58, 7.44, 328.61
424.73, 7.49, 328.70
424.90, 7.55, 328.80
425.07, 7.61, 328.90
425.25, 7.67, 329.01
425.45, 7.74, 329.12
425.65, 7.81, 329.24
¯423.32, 7.03, 327.79
423.44, 7.06, 327.86
423.56, 7.09, 327.93
423.69, 7.12, 328.00
423.84, 7.15, 328.09
423.98, 7.19, 328.16
424.11, 7.23, 328.24
424.24, 7.28, 328.32
424.38, 7.33, 328.40
424.53, 7.38, 328.48
424.69, 7.43, 328.57
424.85, 7.48, 328.66
425.02, 7.54, 328.76
425.20, 7.60, 328.86
425.38, 7.66, 328.97
425.58, 7.73, 329.08
438.04, 6.25, 335.78
423.35, 7.03, 327.74
423.48, 7.06, 327.80
423.61, 7.09, 327.88
423.76, 7.11, 327.96
423.92, 7.15, 328.04
424.07, 7.18, 328.13
424.20, 7.22, 328.20
424.34, 7.27, 328.28
424.49, 7.32, 328.36
424.64, 7.37, 328.44
424.80, 7.42, 328.53
424.96, 7.47, 328.62
425.14, 7.53, 328.72
425.32, 7.59, 328.82
425.52, 7.66, 328.93
425.72, 7.73, 329.05
437.84, 6.31, 335.37
423.39, 7.03, 327.68
423.53, 7.06, 327.76
423.68, 7.08, 327.84
423.84, 7.11, 327.92
423.99, 7.14, 328.00
424.15, 7.17, 328.08
424.30, 7.21, 328.16
424.44, 7.26, 328.24
424.59, 7.31, 328.32
424.74, 7.36, 328.40
424.91, 7.41, 328.49
425.08, 7.47, 328.59
425.26, 7.52, 328.68
425.45, 7.59, 328.79
425.65, 7.65, 328.89
433.70, 6.65, 332.97
437.64, 6.37, 334.98
¯423.46, 7.02, 327.64
423.60, 7.05, 327.72
423.76, 7.07, 327.80
423.91, 7.10, 327.87
424.06, 7.13, 327.95
424.22, 7.17, 328.04
424.39, 7.20, 328.12
424.54, 7.25, 328.20
424.69, 7.30, 328.28
424.85, 7.35, 328.37
425.02, 7.40, 328.45
425.20, 7.46, 328.55
425.38, 7.51, 328.64
425.58, 7.58, 328.75
427.48, 7.39, 329.68
433.63, 6.68, 332.71
437.43, 6.43, 334.59
440.60, 6.34, 336.16
423.53, 7.01, 327.60
423.67, 7.04, 327.68
423.83, 7.06, 327.75
423.98, 7.09, 327.83
424.13, 7.13, 327.91
424.30, 7.16, 327.99
424.47, 7.20, 328.08
424.64, 7.24, 328.16
424.80, 7.29, 328.24
424.96, 7.34, 328.32
425.14, 7.39, 328.41
425.32, 7.45, 328.51
425.51, 7.51, 328.60
425.72, 7.57, 328.71
431.72, 6.78, 331.56
433.56, 6.72, 332.45
435.69, 6.67, 333.47
440.36, 6.40, 335.72
423.59, 7.01, 327.56
423.74, 7.03, 327.63
423.90, 7.06, 327.71
424.05, 7.09, 327.78
424.21, 7.12, 327.86
424.38, 7.15, 327.94
424.55, 7.19, 328.03
424.74, 7.23, 328.12
424.91, 7.27, 328.20
425.08, 7.33, 328.28
425.26, 7.38, 328.37
425.45, 7.44, 328.46
425.64, 7.50, 328.56
427.16, 7.35, 329.26
431.66, 6.81, 331.34
¯433.40, 6.76, 332.15
435.58, 6.71, 333.17
440.14, 6.46, 335.30
423.66, 7.00, 327.52
423.82, 7.02, 327.59
423.96, 7.05, 327.66
424.12, 7.08, 327.73
424.28, 7.11, 327.81
424.45, 7.15, 327.89
424.64, 7.18, 327.98
424.83, 7.22, 328.07
425.02, 7.26, 328.16
425.19, 7.31, 328.24
425.38, 7.37, 328.33
425.57, 7.43, 328.42
425.78, 7.49, 328.52
427.49, 7.32, 329.28
431.57, 6.85, 331.11
433.28, 6.80, 331.88
435.47, 6.75, 332.87
439.93, 6.51, 334.89
423.73, 6.99, 327.48
423.88, 7.01, 327.54
424.03, 7.04, 327.61
424.19, 7.07, 327.68
424.36, 7.10, 327.76
424.53, 7.14, 327.84
424.72, 7.17, 327.92
424.92, 7.21, 328.01
425.12, 7.25, 328.11
425.31, 7.30, 328.19
425.50, 7.36, 328.28
425.70, 7.42, 328.38
426.86, 7.32, 328.88
430.91, 6.80, 330.62
431.47, 6.88, 330.88
433.21, 6.83, 331.64
435.31, 6.79, 332.56
439.72, 6.56, 334.48
423.80, 6.98, 327.43
423.95, 7.00, 327.50
424.10, 7.03, 327.56
424.26, 7.06, 327.64
424.43, 7.10, 327.71
424.61, 7.13, 327.79
424.80, 7.17, 327.87
425.00, 7.20, 327.96
425.22, 7.25, 328.05
425.43, 7.29, 328.15
425.63, 7.35, 328.24
426.32, 7.32, 328.53
¯427.16, 7.28, 328.88
430.95, 6.81, 330.47
431.38, 6.92, 330.66
433.12, 6.87, 331.39
435.22, 6.82, 332.28
439.50, 6.61, 334.09
423.86, 6.97, 327.38
424.01, 7.00, 327.45
424.17, 7.03, 327.51
424.33, 7.06, 327.58
424.51, 7.09, 327.66
424.69, 7.12, 327.74
424.89, 7.16, 327.82
425.09, 7.20, 327.91
425.31, 7.24, 328.00
425.54, 7.28, 328.10
425.76, 7.33, 328.19
426.58, 7.28, 328.52
427.47, 7.24, 328.89
430.99, 6.83, 330.31
431.32, 6.95, 330.45
432.98, 6.91, 331.13
435.12, 6.86, 332.01
439.37, 6.66, 333.74
423.93, 6.96, 327.34
424.08, 6.99, 327.40
424.24, 7.02, 327.46
424.41, 7.05, 327.53
424.59, 7.08, 327.60
424.77, 7.11, 327.68
424.97, 7.15, 327.76
425.18, 7.19, 327.85
425.41, 7.23, 327.94
425.64, 7.27, 328.04
426.07, 7.29, 328.21
426.85, 7.25, 328.52
429.83, 6.87, 329.68
430.94, 6.85, 330.12
431.25, 6.98, 330.24
432.89, 6.94, 330.90
435.01, 6.89, 331.73
439.26, 6.69, 333.41
423.99, 6.95, 327.29
424.15, 6.98, 327.35
424.31, 7.01, 327.41
424.48, 7.04, 327.48
424.66, 7.07, 327.55
424.85, 7.11, 327.63
425.06, 7.14, 327.71
425.27, 7.18, 327.79
425.50, 7.22, 327.88
¯425.75, 7.27, 327.98
426.31, 7.26, 328.19
427.13, 7.21, 328.51
429.82, 6.89, 329.51
430.91, 6.88, 329.93
431.18, 7.00, 330.04
432.85, 6.96, 330.68
434.86, 6.93, 331.45
439.15, 6.73, 333.08
424.06, 6.94, 327.24
424.21, 6.97, 327.30
424.38, 7.00, 327.36
424.55, 7.03, 327.43
424.74, 7.06, 327.50
424.94, 7.10, 327.57
425.14, 7.13, 327.65
425.36, 7.17, 327.73
425.60, 7.21, 327.82
425.92, 7.24, 327.94
426.55, 7.22, 328.18
427.43, 7.18, 328.50
429.80, 6.91, 329.35
430.88, 6.90, 329.75
431.16, 7.02, 329.86
432.76, 6.99, 330.45
434.79, 6.96, 331.20
439.04, 6.77, 332.75
424.12, 6.93, 327.18
424.28, 6.96, 327.24
424.45, 6.99, 327.30
424.63, 7.02, 327.37
424.82, 7.05, 327.44
425.02, 7.09, 327.51
425.23, 7.12, 327.59
425.46, 7.16, 327.67
425.70, 7.20, 327.76
426.15, 7.21, 327.92
426.81, 7.19, 328.16
428.63, 6.98, 328.79
429.78, 6.93, 329.19
430.85, 6.92, 329.57
431.19, 7.04, 329.70
432.66, 7.02, 330.22
434.72, 6.99, 330.95
438.92, 6.80, 332.43
424.18, 6.93, 327.13
424.35, 6.95, 327.19
424.52, 6.98, 327.25
424.70, 7.01, 327.31
424.90, 7.04, 327.38
425.10, 7.08, 327.45
¯425.32, 7.12, 327.53
425.55, 7.15, 327.61
425.81, 7.19, 327.70
426.39, 7.17, 327.90
427.08, 7.15, 328.13
428.61, 7.00, 328.65
429.75, 6.95, 329.03
430.81, 6.94, 329.40
431.22, 7.05, 329.54
432.56, 7.05, 330.00
434.63, 7.02, 330.70
438.80, 6.84, 332.12
442.14, 6.83, 333.26
424.25, 6.92, 327.08
424.42, 6.94, 327.13
424.59, 6.97, 327.19
424.78, 7.00, 327.26
424.98, 7.04, 327.32
425.19, 7.07, 327.39
425.41, 7.11, 327.47
425.64, 7.14, 327.55
426.03, 7.16, 327.68
426.64, 7.14, 327.88
427.37, 7.11, 328.11
428.59, 7.02, 328.51
429.73, 6.97, 328.88
430.78, 6.97, 329.22
431.25, 7.06, 329.38
432.55, 7.07, 329.81
434.50, 7.05, 330.45
438.72, 6.87, 331.82
442.05, 6.87, 332.91
424.31, 6.91, 327.02
424.49, 6.93, 327.08
424.67, 6.96, 327.14
424.86, 6.99, 327.20
425.06, 7.03, 327.26
425.27, 7.06, 327.33
425.50, 7.10, 327.41
425.74, 7.13, 327.48
426.25, 7.12, 327.65
426.91, 7.10, 327.85
427.68, 7.07, 328.09
428.56, 7.04, 328.37
429.70, 6.99, 328.72
430.77, 6.98, 329.06
431.28, 7.07, 329.22
432.54, 7.09, 329.62
434.47, 7.07, 330.23
438.66, 6.90, 331.53
441.96, 6.90, 332.57
¯424.38, 6.90, 326.97
424.55, 6.92, 327.02
424.74, 6.95, 327.08
424.93, 6.98, 327.14
425.14, 7.02, 327.20
425.36, 7.05, 327.27
425.59, 7.09, 327.34
425.90, 7.11, 327.44
426.49, 7.09, 327.61
427.19, 7.06, 327.82
427.76, 7.06, 327.99
428.53, 7.05, 328.23
429.66, 7.01, 328.56
430.76, 7.00, 328.89
431.31, 7.09, 329.06
432.51, 7.11, 329.43
434.44, 7.09, 330.01
438.60, 6.92, 331.25
441.94, 6.92, 332.26
424.45, 6.89, 326.91
424.62, 6.91, 326.96
424.81, 6.94, 327.02
425.01, 6.97, 327.08
425.22, 7.01, 327.14
425.44, 7.04, 327.21
425.68, 7.08, 327.28
426.11, 7.08, 327.40
426.74, 7.05, 327.58
427.42, 7.02, 327.77
427.85, 7.06, 327.90
428.54, 7.07, 328.10
429.62, 7.03, 328.41
430.75, 7.02, 328.73
431.34, 7.10, 328.91
432.48, 7.13, 329.24
434.41, 7.11, 329.79
438.57, 6.95, 330.98
441.93, 6.95, 331.95
424.51, 6.88, 326.85
424.69, 6.90, 326.90
424.89, 6.93, 326.96
425.09, 6.96, 327.01
425.30, 6.99, 327.08
425.53, 7.03, 327.14
425.77, 7.07, 327.21
426.34, 7.04, 327.36
427.00, 7.00, 327.54
427.47, 7.03, 327.67
427.93, 7.06, 327.80
428.63, 7.06, 327.99
429.58, 7.05, 328.25
¯430.73, 7.03, 328.57
431.36, 7.11, 328.75
432.46, 7.15, 329.05
434.36, 7.14, 329.57
438.55, 6.97, 330.71
441.96, 6.97, 331.65
424.58, 6.87, 326.79
424.76, 6.89, 326.84
424.96, 6.92, 326.89
425.17, 6.95, 326.95
425.39, 6.98, 327.01
425.62, 7.02, 327.07
425.97, 7.03, 327.16
426.57, 7.00, 327.32
427.16, 6.98, 327.47
427.52, 7.03, 327.57
428.01, 7.06, 327.70
428.73, 7.06, 327.89
429.56, 7.07, 328.11
430.72, 7.05, 328.41
431.39, 7.12, 328.59
432.49, 7.16, 328.88
434.35, 7.15, 329.36
438.52, 6.99, 330.45
441.99, 6.99, 331.35
424.65, 6.86, 326.73
424.84, 6.88, 326.78
425.03, 6.91, 326.83
425.25, 6.94, 326.89
425.47, 6.97, 326.94
425.71, 7.01, 327.00
426.18, 6.99, 327.12
426.81, 6.96, 327.28
427.20, 6.99, 327.37
427.56, 7.03, 327.47
428.10, 7.05, 327.60
428.82, 7.06, 327.78
429.63, 7.07, 327.98
430.70, 7.07, 328.25
431.41, 7.13, 328.43
432.48, 7.18, 328.70
434.37, 7.17, 329.17
438.49, 7.01, 330.18
442.01, 7.01, 331.06
424.71, 6.84, 326.67
424.91, 6.87, 326.72
425.11, 6.90, 326.77
425.33, 6.93, 326.82
425.55, 6.96, 326.87
425.82, 6.99, 326.94
426.40, 6.96, 327.07
¯426.91, 6.95, 327.19
427.24, 6.99, 327.27
427.61, 7.03, 327.36
428.18, 7.05, 327.50
428.91, 7.06, 327.67
429.66, 7.08, 327.85
430.69, 7.08, 328.09
431.44, 7.14, 328.27
432.46, 7.19, 328.51
434.40, 7.18, 328.97
438.51, 7.03, 329.93
442.03, 7.03, 330.76
424.78, 6.83, 326.61
424.98, 6.86, 326.65
425.19, 6.89, 326.70
425.41, 6.92, 326.75
425.64, 6.95, 326.80
426.01, 6.95, 326.89
426.62, 6.91, 327.02
426.95, 6.95, 327.10
427.29, 6.99, 327.17
427.66, 7.04, 327.26
428.26, 7.05, 327.39
429.01, 7.05, 327.56
429.70, 7.08, 327.72
430.74, 7.08, 327.95
431.47, 7.15, 328.12
432.44, 7.21, 328.33
434.39, 7.19, 328.77
438.56, 7.05, 329.69
442.04, 7.05, 330.46
424.85, 6.82, 326.54
425.05, 6.85, 326.59
425.26, 6.88, 326.63
425.49, 6.91, 326.68
425.73, 6.94, 326.73
426.22, 6.91, 326.84
426.67, 6.91, 326.93
426.99, 6.95, 327.00
427.33, 6.99, 327.07
427.70, 7.04, 327.15
428.34, 7.04, 327.29
429.07, 7.05, 327.44
429.74, 7.09, 327.59
430.79, 7.09, 327.81
431.50, 7.16, 327.96
432.41, 7.22, 328.15
434.35, 7.21, 328.56
438.60, 7.06, 329.44
442.04, 7.07, 330.17
424.92, 6.81, 326.48
¯425.12, 6.84, 326.52
425.34, 6.86, 326.56
425.57, 6.89, 326.61
425.85, 6.92, 326.67
426.40, 6.88, 326.77
426.70, 6.92, 326.84
427.03, 6.95, 326.90
427.37, 7.00, 326.97
427.75, 7.04, 327.05
428.42, 7.04, 327.18
429.10, 7.06, 327.32
429.78, 7.09, 327.45
430.84, 7.10, 327.66
431.52, 7.17, 327.80
432.44, 7.23, 327.99
434.35, 7.23, 328.36
436.85, 7.22, 328.85
442.08, 7.08, 329.88
424.99, 6.80, 326.41
425.20, 6.82, 326.45
425.42, 6.85, 326.49
425.65, 6.88, 326.54
426.04, 6.88, 326.61
426.44, 6.88, 326.68
426.74, 6.92, 326.74
427.06, 6.96, 326.80
427.41, 7.00, 326.87
427.82, 7.04, 326.95
428.50, 7.04, 327.07
429.13, 7.07, 327.19
429.82, 7.10, 327.32
430.88, 7.10, 327.52
431.55, 7.18, 327.64
432.48, 7.24, 327.82
434.40, 7.24, 328.17
438.67, 7.09, 328.95
442.14, 7.10, 329.59
425.06, 6.78, 326.34
425.27, 6.81, 326.38
425.50, 6.84, 326.42
425.74, 6.87, 326.46
426.19, 6.85, 326.54
426.47, 6.88, 326.59
426.77, 6.92, 326.65
427.10, 6.96, 326.70
427.45, 7.00, 326.77
427.89, 7.03, 326.84
428.56, 7.04, 326.96
429.15, 7.07, 327.06
429.86, 7.11, 327.19
430.92, 7.11, 327.37
¯431.57, 7.19, 327.49
432.52, 7.25, 327.65
434.45, 7.25, 327.98
438.70, 7.10, 328.71
442.19, 7.12, 329.31
425.13, 6.77, 326.27
425.34, 6.80, 326.31
425.57, 6.82, 326.35
425.86, 6.84, 326.40
426.22, 6.85, 326.45
426.50, 6.88, 326.50
426.81, 6.92, 326.55
427.14, 6.96, 326.60
427.49, 7.00, 326.66
427.96, 7.03, 326.74
428.58, 7.04, 326.84
429.17, 7.08, 326.94
429.89, 7.11, 327.05
430.95, 7.12, 327.22
431.60, 7.20, 327.33
432.55, 7.26, 327.48
434.49, 7.25, 327.79
438.72, 7.12, 328.46
442.23, 7.13, 329.02
425.20, 6.76, 326.20
425.42, 6.78, 326.24
425.65, 6.81, 326.27
425.98, 6.82, 326.32
426.25, 6.85, 326.36
426.53, 6.89, 326.41
426.84, 6.92, 326.45
427.17, 6.96, 326.50
427.53, 7.00, 326.56
428.02, 7.03, 326.63
428.60, 7.05, 326.72
429.20, 7.09, 326.81
429.93, 7.12, 326.92
430.97, 7.12, 327.07
431.62, 7.20, 327.17
432.58, 7.27, 327.31
434.52, 7.26, 327.60
438.74, 7.13, 328.21
442.37, 7.14, 328.75
425.23, 6.75, 326.13
425.49, 6.77, 326.16
425.73, 6.80, 326.20
426.01, 6.82, 326.24
426.28, 6.85, 326.27
426.57, 6.89, 326.31
426.87, 6.92, 326.36
427.21, 6.96, 326.40
¯427.57, 7.00, 326.45
428.09, 7.02, 326.53
428.62, 7.06, 326.60
429.22, 7.09, 326.68
429.96, 7.12, 326.78
430.99, 7.13, 326.92
431.64, 7.21, 327.01
432.60, 7.28, 327.15
434.55, 7.27, 327.41
438.78, 7.14, 327.97
442.53, 7.15, 328.47
425.24, 6.76, 326.05
425.50, 6.78, 326.08
425.77, 6.79, 326.11
426.03, 6.82, 326.15
426.31, 6.85, 326.18
426.60, 6.89, 326.22
426.91, 6.92, 326.26
427.24, 6.96, 326.30
427.60, 7.00, 326.35
428.11, 7.03, 326.41
428.64, 7.06, 326.48
429.23, 7.10, 326.55
429.98, 7.13, 326.65
431.01, 7.14, 326.77
431.66, 7.22, 326.85
432.63, 7.28, 326.98
434.60, 7.28, 327.22
438.85, 7.15, 327.73
442.68, 7.15, 328.20
425.25, 6.76, 325.97
425.50, 6.78, 326.00
425.78, 6.80, 326.03
426.04, 6.83, 326.06
426.32, 6.86, 326.09
426.62, 6.89, 326.12
426.94, 6.92, 326.16
427.27, 6.96, 326.20
427.64, 7.00, 326.24
428.12, 7.03, 326.30
428.65, 7.07, 326.36
429.25, 7.10, 326.42
430.01, 7.13, 326.51
431.03, 7.15, 326.62
431.68, 7.23, 326.70
432.65, 7.29, 326.81
434.63, 7.29, 327.02
438.91, 7.16, 327.49
442.80, 7.16, 327.91
425.26, 6.77, 325.89
425.51, 6.79, 325.91
¯425.79, 6.80, 325.94
426.05, 6.83, 325.97
426.33, 6.86, 326.00
426.63, 6.89, 326.03
426.95, 6.93, 326.06
427.29, 6.97, 326.10
427.66, 7.01, 326.13
428.13, 7.04, 326.18
428.67, 7.07, 326.24
429.27, 7.11, 326.30
430.02, 7.14, 326.37
431.04, 7.15, 326.47
431.70, 7.23, 326.54
432.67, 7.30, 326.64
434.66, 7.30, 326.83
439.01, 7.17, 327.25
442.91, 7.17, 327.63
425.26, 6.77, 325.81
425.52, 6.79, 325.83
425.80, 6.80, 325.86
426.06, 6.83, 325.88
426.34, 6.86, 325.91
426.64, 6.90, 325.93
426.96, 6.93, 325.96
427.30, 6.97, 325.99
427.68, 7.01, 326.03
428.15, 7.04, 326.07
428.69, 7.08, 326.11
429.28, 7.11, 326.17
430.03, 7.15, 326.23
431.06, 7.16, 326.32
431.72, 7.24, 326.38
432.71, 7.30, 326.47
434.70, 7.30, 326.64
439.09, 7.17, 327.00
443.01, 7.18, 327.34
425.27, 6.78, 325.73
425.53, 6.79, 325.75
425.81, 6.81, 325.77
426.07, 6.84, 325.79
426.35, 6.87, 325.81
426.65, 6.90, 325.84
426.97, 6.94, 325.86
427.32, 6.97, 325.89
427.70, 7.01, 325.92
428.17, 7.05, 325.95
428.71, 7.08, 325.99
429.30, 7.12, 326.04
430.06, 7.15, 326.09
431.07, 7.17, 326.17
431.74, 7.25, 326.22
¯432.74, 7.31, 326.30
434.74, 7.31, 326.44
439.17, 7.18, 326.76
443.11, 7.19, 327.05
425.27, 6.78, 325.65
425.54, 6.79, 325.67
425.82, 6.81, 325.68
426.08, 6.84, 325.70
426.36, 6.87, 325.72
426.66, 6.90, 325.74
426.98, 6.94, 325.76
427.33, 6.98, 325.78
427.71, 7.02, 325.81
428.19, 7.05, 325.84
428.73, 7.08, 325.87
429.32, 7.12, 325.91
430.09, 7.15, 325.96
431.10, 7.17, 326.02
431.75, 7.25, 326.06
432.78, 7.32, 326.13
434.78, 7.32, 326.25
439.24, 7.19, 326.51
443.19, 7.20, 326.75
425.28, 6.78, 325.57
425.55, 6.80, 325.58
425.83, 6.81, 325.60
426.09, 6.84, 325.61
426.37, 6.87, 325.63
426.67, 6.91, 325.64
426.99, 6.94, 325.66
427.34, 6.98, 325.68
427.72, 7.02, 325.70
428.21, 7.05, 325.72
428.75, 7.09, 325.75
429.34, 7.13, 325.78
430.12, 7.16, 325.82
431.14, 7.17, 325.87
431.77, 7.26, 325.90
432.80, 7.32, 325.96
434.81, 7.32, 326.05
439.31, 7.19, 326.27
443.28, 7.21, 326.46
425.29, 6.78, 325.49
425.55, 6.80, 325.50
425.83, 6.82, 325.51
426.09, 6.85, 325.52
426.37, 6.88, 325.53
426.67, 6.91, 325.55
427.00, 6.95, 325.56
427.35, 6.98, 325.57
427.74, 7.02, 325.59
¯428.22, 7.06, 325.61
428.76, 7.09, 325.63
429.36, 7.13, 325.65
430.14, 7.16, 325.68
431.17, 7.18, 325.72
431.79, 7.27, 325.74
432.83, 7.33, 325.79
434.84, 7.33, 325.86
439.40, 7.20, 326.02
443.35, 7.22, 326.16
425.29, 6.79, 325.41
425.56, 6.80, 325.42
425.84, 6.82, 325.42
426.10, 6.85, 325.43
426.38, 6.88, 325.44
426.68, 6.92, 325.45
427.00, 6.95, 325.46
427.36, 6.99, 325.47
427.75, 7.03, 325.48
428.24, 7.06, 325.49
428.78, 7.09, 325.51
429.38, 7.13, 325.52
430.17, 7.16, 325.54
431.19, 7.18, 325.57
431.81, 7.27, 325.59
432.85, 7.33, 325.61
434.87, 7.34, 325.66
439.49, 7.20, 325.77
425.29, 6.79, 325.33
425.56, 6.80, 325.33
425.84, 6.82, 325.34
426.10, 6.85, 325.34
426.38, 6.88, 325.35
426.69, 6.92, 325.35
427.01, 6.95, 325.36
427.37, 6.99, 325.36
427.76, 7.03, 325.37
428.25, 7.06, 325.38
428.79, 7.10, 325.38
429.40, 7.14, 325.39
430.19, 7.17, 325.40
431.20, 7.19, 325.41
431.83, 7.28, 325.43
432.87, 7.34, 325.44
434.91, 7.34, 325.46
439.57, 7.21, 325.51
425.30, 6.79, 325.25
425.57, 6.81, 325.25
425.84, 6.83, 325.25
426.11, 6.86, 325.25
426.39, 6.89, 325.25
¯426.69, 6.92, 325.25
427.02, 6.96, 325.25
427.38, 6.99, 325.26
427.77, 7.03, 325.26
428.26, 7.07, 325.26
428.80, 7.10, 325.26
429.41, 7.14, 325.26
430.21, 7.17, 325.26
431.22, 7.19, 325.26
431.84, 7.28, 325.27
432.89, 7.34, 325.27
434.96, 7.35, 325.27
439.65, 7.21, 325.26
425.30, 6.79, 325.17
425.57, 6.81, 325.17
425.85, 6.83, 325.16
426.11, 6.86, 325.16
426.39, 6.89, 325.16
426.69, 6.92, 325.16
427.02, 6.96, 325.15
427.38, 7.00, 325.15
427.78, 7.04, 325.15
428.27, 7.07, 325.14
428.82, 7.10, 325.14
429.42, 7.14, 325.13
430.23, 7.17, 325.12
431.23, 7.20, 325.11
431.86, 7.28, 325.10
432.93, 7.35, 325.09
435.01, 7.35, 325.07
439.72, 7.22, 325.00
425.30, 6.80, 325.09
425.57, 6.81, 325.08
425.85, 6.83, 325.08
426.11, 6.86, 325.07
426.39, 6.89, 325.07
426.70, 6.93, 325.06
427.03, 6.96, 325.05
427.39, 7.00, 325.04
427.79, 7.04, 325.04
428.28, 7.07, 325.02
428.83, 7.11, 325.01
429.43, 7.15, 325.00
430.25, 7.17, 324.98
431.24, 7.20, 324.96
431.88, 7.29, 324.94
432.95, 7.35, 324.92
435.05, 7.35, 324.87
439.79, 7.22, 324.74
425.30, 6.80, 325.01
425.57, 6.81, 325.00
¯425.85, 6.83, 324.99
426.11, 6.86, 324.98
426.39, 6.90, 324.97
426.70, 6.93, 324.96
427.03, 6.96, 324.95
427.39, 7.00, 324.94
427.79, 7.04, 324.92
428.29, 7.07, 324.91
428.83, 7.11, 324.89
429.44, 7.15, 324.87
430.26, 7.18, 324.84
431.24, 7.21, 324.80
431.89, 7.29, 324.78
432.97, 7.36, 324.74
435.08, 7.36, 324.67
439.84, 7.23, 324.49
425.30, 6.80, 324.93
425.57, 6.82, 324.91
425.85, 6.84, 324.90
426.11, 6.87, 324.89
426.39, 6.90, 324.88
426.70, 6.93, 324.86
427.04, 6.97, 324.85
427.40, 7.00, 324.83
427.80, 7.04, 324.81
428.29, 7.08, 324.79
428.84, 7.11, 324.76
429.45, 7.15, 324.74
430.27, 7.18, 324.70
431.25, 7.21, 324.65
431.91, 7.30, 324.62
432.98, 7.36, 324.57
435.10, 7.36, 324.47
439.86, 7.24, 324.23
425.30, 6.80, 324.85
425.57, 6.82, 324.83
425.85, 6.84, 324.81
426.11, 6.87, 324.80
426.39, 6.90, 324.78
426.70, 6.93, 324.77
427.04, 6.97, 324.75
427.40, 7.01, 324.73
427.80, 7.05, 324.70
428.30, 7.08, 324.67
428.84, 7.11, 324.64
429.46, 7.16, 324.60
430.27, 7.19, 324.56
431.25, 7.21, 324.50
431.93, 7.30, 324.46
432.99, 7.36, 324.39
435.11, 7.37, 324.26
¯439.90, 7.24, 323.96
425.30, 6.81, 324.77
425.57, 6.82, 324.75
425.84, 6.84, 324.73
426.11, 6.87, 324.71
426.39, 6.90, 324.69
426.70, 6.94, 324.67
427.04, 6.97, 324.64
427.40, 7.01, 324.62
427.80, 7.05, 324.59
428.30, 7.08, 324.55
428.85, 7.12, 324.52
429.46, 7.16, 324.47
430.27, 7.19, 324.41
431.25, 7.22, 324.34
431.94, 7.30, 324.29
432.99, 7.37, 324.22
435.14, 7.37, 324.06
439.94, 7.25, 323.70
425.29, 6.81, 324.69
425.56, 6.82, 324.66
425.84, 6.84, 324.64
426.10, 6.87, 324.62
426.39, 6.90, 324.59
426.70, 6.94, 324.57
427.04, 6.97, 324.54
427.40, 7.01, 324.51
427.80, 7.05, 324.48
428.30, 7.08, 324.44
428.85, 7.12, 324.39
429.46, 7.16, 324.34
430.26, 7.19, 324.27
431.25, 7.22, 324.19
431.96, 7.30, 324.13
433.00, 7.37, 324.04
435.16, 7.38, 323.86
439.97, 7.25, 323.44
425.29, 6.81, 324.61
425.56, 6.83, 324.58
425.84, 6.85, 324.55
426.10, 6.88, 324.53
426.39, 6.91, 324.50
426.70, 6.94, 324.47
427.04, 6.97, 324.44
427.40, 7.01, 324.40
427.80, 7.05, 324.37
428.30, 7.09, 324.32
428.85, 7.12, 324.27
429.47, 7.16, 324.21
430.27, 7.19, 324.13
431.27, 7.22, 324.03
¯431.98, 7.31, 323.96
433.01, 7.38, 323.87
435.18, 7.38, 323.65
440.00, 7.26, 323.17
425.28, 6.81, 324.53
425.55, 6.83, 324.50
425.83, 6.85, 324.47
426.10, 6.88, 324.44
426.39, 6.91, 324.41
426.70, 6.94, 324.37
427.04, 6.98, 324.34
427.40, 7.01, 324.30
427.80, 7.05, 324.25
428.30, 7.09, 324.20
428.86, 7.12, 324.14
429.49, 7.16, 324.07
430.29, 7.20, 323.98
431.30, 7.22, 323.87
431.99, 7.31, 323.80
433.01, 7.38, 323.69
435.19, 7.39, 323.45
440.02, 7.26, 322.91
425.27, 6.81, 324.45
425.54, 6.83, 324.41
425.83, 6.85, 324.38
426.09, 6.88, 324.35
426.38, 6.91, 324.31
426.70, 6.94, 324.27
427.03, 6.98, 324.23
427.40, 7.02, 324.19
427.81, 7.05, 324.14
428.32, 7.09, 324.08
428.88, 7.12, 324.01
429.50, 7.16, 323.94
430.31, 7.20, 323.84
431.29, 7.23, 323.72
432.01, 7.31, 323.63
433.02, 7.38, 323.51
435.20, 7.39, 323.24
440.06, 7.27, 322.64
425.27, 6.82, 324.37
425.54, 6.83, 324.33
425.82, 6.85, 324.29
426.09, 6.88, 324.26
426.38, 6.91, 324.22
426.69, 6.94, 324.18
427.03, 6.98, 324.13
427.39, 7.02, 324.08
427.82, 7.05, 324.03
428.33, 7.08, 323.96
428.90, 7.12, 323.88
¯429.51, 7.16, 323.80
430.32, 7.20, 323.69
431.29, 7.23, 323.56
432.03, 7.31, 323.46
433.02, 7.39, 323.33
435.20, 7.39, 323.04
440.11, 7.27, 322.37
425.26, 6.82, 324.28
425.53, 6.83, 324.25
425.81, 6.85, 324.20
426.08, 6.88, 324.16
426.37, 6.91, 324.12
426.69, 6.94, 324.08
427.02, 6.98, 324.03
427.38, 7.02, 323.98
427.83, 7.05, 323.91
428.34, 7.08, 323.84
428.91, 7.12, 323.75
429.52, 7.16, 323.67
430.33, 7.20, 323.55
431.29, 7.23, 323.41
432.04, 7.31, 323.30
433.01, 7.39, 323.16
435.20, 7.40, 322.83
440.16, 7.27, 322.10
425.25, 6.82, 324.21
425.51, 6.84, 324.16
425.80, 6.85, 324.12
426.08, 6.88, 324.07
426.37, 6.91, 324.03
426.68, 6.95, 323.98
427.01, 6.98, 323.93
427.38, 7.02, 323.87
427.84, 7.05, 323.80
428.36, 7.08, 323.71
428.93, 7.12, 323.62
429.52, 7.16, 323.53
430.34, 7.20, 323.40
431.28, 7.23, 323.25
432.06, 7.31, 323.13
433.01, 7.39, 322.98
435.21, 7.40, 322.62
440.19, 7.27, 321.82
425.23, 6.82, 324.13
425.49, 6.84, 324.08
425.80, 6.85, 324.03
426.07, 6.88, 323.98
426.36, 6.91, 323.93
426.67, 6.95, 323.88
427.01, 6.98, 323.82
427.38, 7.02, 323.76
¯427.85, 7.05, 323.68
428.37, 7.08, 323.59
428.94, 7.12, 323.49
429.52, 7.16, 323.39
430.34, 7.20, 323.25
431.27, 7.24, 323.09
432.07, 7.31, 322.96
432.99, 7.40, 322.80
435.20, 7.40, 322.42
440.22, 7.28, 321.55
425.21, 6.83, 324.05
425.47, 6.84, 324.00
425.79, 6.85, 323.94
426.06, 6.88, 323.89
426.35, 6.91, 323.84
426.66, 6.95, 323.78
427.00, 6.98, 323.72
427.39, 7.02, 323.65
427.86, 7.05, 323.56
428.37, 7.08, 323.47
428.94, 7.12, 323.36
429.52, 7.16, 323.26
430.35, 7.20, 323.11
431.26, 7.24, 322.94
432.09, 7.31, 322.79
432.98, 7.40, 322.62
435.20, 7.41, 322.21
440.24, 7.28, 321.27
425.19, 6.83, 323.97
425.45, 6.85, 323.92
425.78, 6.86, 323.85
426.05, 6.88, 323.80
426.34, 6.91, 323.74
426.65, 6.95, 323.68
426.99, 6.98, 323.62
427.39, 7.01, 323.54
427.86, 7.04, 323.45
428.38, 7.08, 323.34
428.94, 7.12, 323.23
429.52, 7.16, 323.12
430.35, 7.20, 322.96
431.24, 7.24, 322.78
432.11, 7.31, 322.61
432.97, 7.40, 322.44
435.19, 7.41, 322.00
440.25, 7.28, 321.00
425.17, 6.83, 323.89
425.44, 6.85, 323.84
425.76, 6.86, 323.77
426.04, 6.88, 323.71
426.33, 6.92, 323.65
¯426.64, 6.95, 323.59
426.97, 6.98, 323.52
427.39, 7.01, 323.43
427.87, 7.04, 323.33
428.39, 7.07, 323.22
428.94, 7.11, 323.10
429.52, 7.16, 322.98
430.34, 7.20, 322.81
431.23, 7.24, 322.63
432.12, 7.31, 322.44
432.96, 7.41, 322.26
435.19, 7.41, 321.80
440.22, 7.29, 320.73
425.15, 6.84, 323.81
425.42, 6.85, 323.75
425.75, 6.86, 323.68
426.02, 6.88, 323.62
426.31, 6.92, 323.56
426.63, 6.95, 323.49
426.97, 6.98, 323.41
427.40, 7.01, 323.32
427.87, 7.04, 323.21
428.39, 7.07, 323.10
428.93, 7.11, 322.98
429.52, 7.16, 322.85
430.32, 7.20, 322.67
431.21, 7.25, 322.47
432.14, 7.31, 322.26
432.95, 7.41, 322.08
435.18, 7.41, 321.59
440.19, 7.29, 320.46
425.13, 6.84, 323.74
425.40, 6.85, 323.67
425.73, 6.86, 323.59
426.01, 6.89, 323.53
426.30, 6.92, 323.46
426.61, 6.95, 323.39
426.97, 6.98, 323.31
427.40, 7.01, 323.20
427.87, 7.04, 323.09
428.39, 7.07, 322.97
428.93, 7.11, 322.85
429.51, 7.16, 322.71
430.30, 7.20, 322.52
431.19, 7.25, 322.31
432.15, 7.31, 322.09
432.93, 7.41, 321.91
435.17, 7.42, 321.38
440.17, 7.30, 320.19
425.10, 6.84, 323.66
425.39, 6.85, 323.59
¯425.71, 6.86, 323.51
426.00, 6.89, 323.44
426.29, 6.92, 323.37
426.60, 6.95, 323.29
426.96, 6.98, 323.20
427.39, 7.01, 323.09
427.87, 7.04, 322.98
428.39, 7.07, 322.85
428.92, 7.11, 322.72
429.51, 7.16, 322.57
430.28, 7.20, 322.38
431.17, 7.25, 322.16
432.17, 7.31, 321.91
432.91, 7.41, 321.73
435.15, 7.42, 321.17
440.16, 7.30, 319.92
425.08, 6.84, 323.58
425.37, 6.85, 323.51
425.69, 6.86, 323.42
425.98, 6.89, 323.35
426.27, 6.92, 323.27
426.58, 6.95, 323.19
426.96, 6.98, 323.09
427.39, 7.00, 322.98
427.87, 7.03, 322.86
428.38, 7.07, 322.72
428.91, 7.11, 322.58
429.50, 7.16, 322.43
430.25, 7.21, 322.23
431.14, 7.25, 322.00
432.18, 7.30, 321.73
432.88, 7.41, 321.55
435.13, 7.42, 320.96
440.14, 7.30, 319.64
425.06, 6.85, 323.51
425.35, 6.86, 323.43
425.67, 6.86, 323.34
425.97, 6.89, 323.26
426.25, 6.92, 323.18
426.57, 6.95, 323.09
426.95, 6.98, 322.99
427.39, 7.00, 322.87
427.86, 7.03, 322.74
428.37, 7.07, 322.60
428.90, 7.11, 322.45
429.49, 7.16, 322.29
430.23, 7.21, 322.09
431.11, 7.25, 321.85
432.20, 7.30, 321.55
432.85, 7.42, 321.37
435.11, 7.42, 320.75
¯440.12, 7.30, 319.37
425.03, 6.85, 323.43
425.33, 6.86, 323.34
425.65, 6.86, 323.25
425.95, 6.89, 323.17
426.24, 6.92, 323.08
426.55, 6.95, 322.99
426.95, 6.97, 322.88
427.38, 7.00, 322.76
427.86, 7.03, 322.62
428.36, 7.07, 322.48
428.89, 7.11, 322.32
429.47, 7.16, 322.16
430.20, 7.21, 321.95
431.09, 7.25, 321.69
432.21, 7.30, 321.37
432.83, 7.42, 321.19
435.08, 7.42, 320.54
440.10, 7.31, 319.09
425.01, 6.85, 323.35
425.31, 6.86, 323.26
425.63, 6.87, 323.17
425.93, 6.89, 323.08
426.22, 6.92, 322.99
426.54, 6.95, 322.89
426.94, 6.97, 322.77
427.37, 7.00, 322.64
427.85, 7.03, 322.50
428.34, 7.06, 322.35
428.87, 7.11, 322.19
429.44, 7.16, 322.02
430.17, 7.21, 321.80
431.06, 7.25, 321.53
432.23, 7.29, 321.18
432.79, 7.42, 321.02
435.04, 7.43, 320.34
440.08, 7.31, 318.81
424.99, 6.85, 323.28
425.28, 6.86, 323.18
425.60, 6.87, 323.08
425.91, 6.89, 322.99
426.20, 6.92, 322.90
426.53, 6.94, 322.79
426.93, 6.97, 322.67
427.36, 6.99, 322.53
427.84, 7.02, 322.38
428.32, 7.06, 322.23
428.84, 7.11, 322.07
429.42, 7.16, 321.89
430.14, 7.21, 321.66
431.03, 7.26, 321.38
¯432.24, 7.29, 321.00
432.76, 7.42, 320.84
435.00, 7.43, 320.13
440.07, 7.31, 318.53
424.97, 6.85, 323.20
425.26, 6.86, 323.10
425.58, 6.87, 323.00
425.89, 6.88, 322.90
426.18, 6.92, 322.80
426.52, 6.94, 322.69
426.92, 6.97, 322.56
427.35, 6.99, 322.42
427.83, 7.02, 322.26
428.30, 7.06, 322.11
428.82, 7.11, 321.94
429.39, 7.16, 321.75
430.10, 7.21, 321.52
431.01, 7.26, 321.22
432.26, 7.29, 320.81
432.72, 7.42, 320.66
434.96, 7.43, 319.93
440.08, 7.31, 318.24
424.94, 6.85, 323.12
425.23, 6.86, 323.02
425.55, 6.87, 322.91
425.87, 6.88, 322.81
426.16, 6.92, 322.71
426.51, 6.94, 322.59
426.91, 6.96, 322.45
427.34, 6.99, 322.30
427.80, 7.02, 322.15
428.27, 7.06, 321.99
428.79, 7.11, 321.81
429.36, 7.16, 321.62
430.06, 7.21, 321.38
430.97, 7.26, 321.07
432.24, 7.29, 320.63
432.67, 7.42, 320.49
434.91, 7.43, 319.72
440.10, 7.30, 317.95
424.92, 6.85, 323.05
425.21, 6.86, 322.94
425.52, 6.87, 322.83
425.85, 6.88, 322.72
426.13, 6.91, 322.61
426.50, 6.94, 322.49
426.89, 6.96, 322.34
427.31, 6.99, 322.20
427.77, 7.02, 322.03
428.24, 7.06, 321.87
428.76, 7.11, 321.68
¯429.33, 7.16, 321.48
430.03, 7.21, 321.23
430.94, 7.26, 320.91
432.20, 7.29, 320.46
432.62, 7.43, 320.31
434.86, 7.43, 319.52
440.11, 7.30, 317.65
424.89, 6.86, 322.97
425.18, 6.86, 322.86
425.49, 6.87, 322.75
425.82, 6.88, 322.63
426.12, 6.91, 322.52
426.48, 6.93, 322.38
426.87, 6.96, 322.24
427.28, 6.99, 322.09
427.74, 7.02, 321.92
428.21, 7.06, 321.75
428.73, 7.11, 321.56
429.30, 7.16, 321.35
429.99, 7.21, 321.09
430.90, 7.26, 320.75
432.14, 7.29, 320.30
432.57, 7.43, 320.14
434.80, 7.43, 319.32
437.89, 7.44, 318.18
424.86, 6.86, 322.89
425.15, 6.86, 322.78
425.46, 6.87, 322.67
425.80, 6.88, 322.54
426.10, 6.91, 322.42
426.46, 6.93, 322.28
426.83, 6.96, 322.14
427.24, 6.99, 321.99
