ŸVERSION 0.7
FIELDS x y z
SIZE 8 8 8
TYPE F F F
COUNT 1 1 1
WIDTH 2271
HEIGHT 1
VIEWPOINT 404.62, 13.00, 330.65 1 385.45, 6.73, 326.42
POINTS 2271
DATA ascii
379.40, 3.95, 325.32
378.30, 3.70, 325.19
377.06, 3.45, 325.05
375.97, 3.26, 324.92
374.84, 3.10, 324.79
373.63, 2.94, 324.65
372.41, 2.82, 324.51
371.20, 2.72, 324.37
369.90, 2.63, 324.22
368.53, 2.56, 324.06
367.24, 2.54, 323.91
365.88, 2.54, 323.75
364.33, 2.54, 323.57
382.42, 4.50, 325.74
382.15, 4.47, 325.71
381.86, 4.44, 325.68
381.50, 4.39, 325.65
381.05, 4.32, 325.60
380.42, 4.19, 325.53
379.39, 3.95, 325.43
378.28, 3.70, 325.32
377.04, 3.45, 325.19
375.94, 3.26, 325.07
374.81, 3.10, 324.96
373.60, 2.94, 324.83
372.38, 2.82, 324.71
371.16, 2.72, 324.58
369.84, 2.63, 324.44
368.49, 2.56, 324.30
367.20, 2.54, 324.17
365.83, 2.54, 324.02
364.28, 2.54, 323.86
382.42, 4.50, 325.81
382.14, 4.47, 325.79
381.86, 4.44, 325.76
381.50, 4.40, 325.73
381.04, 4.32, 325.69
380.41, 4.20, 325.63
379.38, 3.95, 325.54
378.27, 3.71, 325.44
¯377.02, 3.45, 325.33
375.92, 3.26, 325.23
374.78, 3.10, 325.12
373.57, 2.94, 325.01
372.35, 2.81, 324.90
371.13, 2.72, 324.79
369.79, 2.62, 324.67
368.44, 2.56, 324.54
367.15, 2.54, 324.42
365.79, 2.54, 324.30
364.23, 2.54, 324.16
382.41, 4.50, 325.89
382.14, 4.47, 325.86
381.85, 4.45, 325.84
381.49, 4.40, 325.81
381.03, 4.32, 325.78
380.40, 4.20, 325.73
379.37, 3.95, 325.65
378.26, 3.71, 325.56
377.00, 3.45, 325.46
375.90, 3.26, 325.38
374.76, 3.10, 325.29
373.54, 2.94, 325.19
372.32, 2.81, 325.10
371.10, 2.72, 325.00
369.74, 2.62, 324.89
368.40, 2.56, 324.79
367.12, 2.54, 324.68
365.74, 2.54, 324.57
364.18, 2.54, 324.45
382.41, 4.50, 325.96
382.13, 4.47, 325.94
381.85, 4.45, 325.92
381.49, 4.40, 325.90
381.03, 4.32, 325.87
380.40, 4.20, 325.83
379.37, 3.96, 325.76
378.25, 3.71, 325.69
376.99, 3.45, 325.60
375.88, 3.26, 325.53
374.74, 3.10, 325.45
373.52, 2.94, 325.37
372.30, 2.81, 325.29
371.08, 2.72, 325.21
369.69, 2.61, 325.12
368.36, 2.56, 325.03
367.08, 2.54, 324.94
365.70, 2.54, 324.85
364.14, 2.54, 324.74
382.40, 4.50, 326.03
382.13, 4.48, 326.02
¯381.84, 4.45, 326.00
381.49, 4.40, 325.98
381.02, 4.32, 325.96
380.39, 4.20, 325.92
379.37, 3.96, 325.87
378.25, 3.71, 325.81
376.98, 3.45, 325.74
375.87, 3.26, 325.68
374.72, 3.10, 325.62
373.50, 2.94, 325.56
372.28, 2.81, 325.49
371.06, 2.72, 325.42
369.65, 2.61, 325.35
368.32, 2.55, 325.27
367.04, 2.54, 325.20
365.66, 2.54, 325.13
364.10, 2.54, 325.04
382.40, 4.51, 326.10
382.13, 4.48, 326.09
381.84, 4.45, 326.08
381.49, 4.41, 326.06
381.02, 4.33, 326.05
380.39, 4.20, 326.02
379.38, 3.97, 325.98
378.25, 3.71, 325.93
376.97, 3.45, 325.88
375.86, 3.27, 325.84
374.71, 3.10, 325.79
373.48, 2.94, 325.74
372.26, 2.81, 325.69
371.04, 2.72, 325.63
369.61, 2.61, 325.57
368.29, 2.55, 325.52
367.01, 2.54, 325.46
365.63, 2.54, 325.40
364.03, 2.53, 325.33
382.40, 4.51, 326.18
382.13, 4.48, 326.17
381.84, 4.45, 326.16
381.49, 4.41, 326.15
381.02, 4.33, 326.14
380.40, 4.21, 326.12
379.39, 3.97, 326.09
378.25, 3.72, 326.06
376.97, 3.45, 326.02
375.86, 3.27, 325.99
374.70, 3.10, 325.96
373.47, 2.94, 325.92
372.24, 2.81, 325.88
371.02, 2.72, 325.85
369.57, 2.60, 325.80
¯368.26, 2.55, 325.76
366.98, 2.54, 325.72
365.60, 2.54, 325.68
363.99, 2.53, 325.63
382.40, 4.51, 326.25
382.13, 4.48, 326.24
381.84, 4.45, 326.24
381.50, 4.41, 326.23
381.03, 4.33, 326.22
380.40, 4.21, 326.21
379.40, 3.98, 326.20
378.25, 3.72, 326.18
376.97, 3.45, 326.16
375.86, 3.27, 326.14
374.69, 3.10, 326.12
373.46, 2.94, 326.10
372.23, 2.82, 326.08
371.01, 2.72, 326.06
369.54, 2.60, 326.03
368.23, 2.55, 326.01
366.95, 2.54, 325.99
365.55, 2.53, 325.96
363.95, 2.53, 325.93
382.40, 4.51, 326.32
382.13, 4.48, 326.32
381.84, 4.46, 326.32
381.50, 4.42, 326.32
381.03, 4.34, 326.31
380.41, 4.21, 326.31
379.42, 3.99, 326.31
378.26, 3.73, 326.30
376.97, 3.46, 326.30
375.86, 3.27, 326.30
374.69, 3.10, 326.29
373.45, 2.94, 326.28
372.22, 2.82, 326.28
371.00, 2.72, 326.27
369.51, 2.60, 326.26
368.20, 2.55, 326.26
366.93, 2.54, 326.25
365.50, 2.53, 326.24
363.91, 2.52, 326.23
382.40, 4.51, 326.39
382.13, 4.48, 326.39
381.84, 4.46, 326.40
381.51, 4.42, 326.40
381.04, 4.34, 326.40
380.42, 4.22, 326.41
379.44, 3.99, 326.42
378.27, 3.73, 326.43
376.97, 3.46, 326.44
¯375.86, 3.28, 326.45
374.69, 3.10, 326.46
373.45, 2.95, 326.47
372.22, 2.82, 326.48
370.99, 2.72, 326.48
369.48, 2.59, 326.49
367.46, 2.39, 326.51
366.48, 2.45, 326.51
365.47, 2.53, 326.52
363.88, 2.52, 326.53
382.40, 4.51, 326.47
382.13, 4.49, 326.47
381.85, 4.46, 326.48
381.52, 4.42, 326.48
381.05, 4.35, 326.49
380.43, 4.22, 326.50
379.47, 4.00, 326.53
378.28, 3.74, 326.55
376.98, 3.46, 326.58
375.87, 3.28, 326.60
374.69, 3.11, 326.62
373.45, 2.95, 326.65
372.21, 2.82, 326.67
370.99, 2.73, 326.70
368.59, 2.39, 326.75
367.38, 2.37, 326.77
366.65, 2.49, 326.78
365.45, 2.53, 326.80
363.85, 2.52, 326.83
382.40, 4.52, 326.54
382.13, 4.49, 326.55
381.85, 4.46, 326.56
381.53, 4.43, 326.57
381.06, 4.35, 326.58
380.44, 4.23, 326.60
379.49, 4.02, 326.63
378.30, 3.75, 326.67
376.99, 3.47, 326.72
375.88, 3.29, 326.75
374.69, 3.11, 326.79
373.45, 2.95, 326.83
371.42, 2.62, 326.90
370.23, 2.54, 326.94
368.43, 2.35, 326.99
367.30, 2.36, 327.03
366.69, 2.50, 327.04
365.42, 2.52, 327.08
363.82, 2.52, 327.13
382.41, 4.52, 326.61
382.14, 4.49, 326.62
381.85, 4.46, 326.63
¯381.54, 4.43, 326.65
381.07, 4.36, 326.67
380.45, 4.24, 326.70
379.53, 4.03, 326.74
378.33, 3.75, 326.80
377.01, 3.48, 326.86
375.90, 3.29, 326.91
374.70, 3.11, 326.96
372.59, 2.72, 327.06
371.43, 2.62, 327.11
370.23, 2.54, 327.16
368.27, 2.32, 327.24
367.22, 2.34, 327.29
366.64, 2.49, 327.31
365.38, 2.52, 327.36
363.79, 2.52, 327.43
382.42, 4.52, 326.68
382.15, 4.49, 326.70
381.86, 4.47, 326.71
381.55, 4.44, 326.73
381.09, 4.36, 326.76
380.47, 4.24, 326.79
379.56, 4.04, 326.85
378.35, 3.76, 326.92
377.04, 3.49, 326.99
375.92, 3.30, 327.06
374.71, 3.12, 327.13
372.60, 2.72, 327.25
371.43, 2.62, 327.31
369.95, 2.47, 327.40
368.20, 2.30, 327.50
367.31, 2.36, 327.54
366.59, 2.48, 327.58
365.32, 2.51, 327.65
363.77, 2.52, 327.73
382.42, 4.52, 326.75
382.15, 4.49, 326.77
381.87, 4.47, 326.79
381.56, 4.44, 326.81
381.11, 4.37, 326.84
380.49, 4.25, 326.89
379.60, 4.05, 326.95
378.38, 3.77, 327.04
377.08, 3.50, 327.13
375.94, 3.31, 327.21
373.80, 2.86, 327.36
372.60, 2.72, 327.44
371.44, 2.62, 327.52
369.38, 2.34, 327.66
368.13, 2.29, 327.75
367.48, 2.40, 327.79
¯366.54, 2.47, 327.85
365.27, 2.50, 327.94
363.75, 2.51, 328.04
382.43, 4.52, 326.83
382.16, 4.50, 326.85
381.88, 4.47, 326.87
381.57, 4.44, 326.90
381.13, 4.37, 326.93
380.51, 4.26, 326.98
379.64, 4.07, 327.05
378.41, 3.78, 327.16
377.12, 3.51, 327.26
374.95, 3.01, 327.45
373.81, 2.86, 327.54
372.61, 2.72, 327.64
371.45, 2.63, 327.73
369.06, 2.26, 327.93
368.07, 2.27, 328.00
367.58, 2.42, 328.04
366.49, 2.46, 328.12
365.21, 2.49, 328.22
363.73, 2.51, 328.34
382.44, 4.53, 326.90
382.17, 4.50, 326.92
381.89, 4.47, 326.95
381.58, 4.45, 326.98
381.15, 4.38, 327.02
380.54, 4.26, 327.08
379.69, 4.08, 327.16
378.45, 3.79, 327.28
377.16, 3.52, 327.40
374.96, 3.01, 327.61
373.83, 2.86, 327.72
372.63, 2.73, 327.83
371.46, 2.63, 327.94
368.98, 2.24, 328.17
368.01, 2.26, 328.26
367.53, 2.41, 328.30
366.44, 2.45, 328.40
365.16, 2.48, 328.52
382.45, 4.53, 326.97
382.18, 4.50, 327.00
381.90, 4.48, 327.03
381.59, 4.45, 327.06
381.17, 4.39, 327.10
380.56, 4.27, 327.17
379.74, 4.10, 327.26
378.49, 3.80, 327.39
376.20, 3.22, 327.64
374.98, 3.02, 327.77
373.85, 2.87, 327.89
¯372.64, 2.73, 328.02
371.48, 2.63, 328.14
368.94, 2.23, 328.42
368.07, 2.27, 328.50
367.48, 2.40, 328.56
366.39, 2.44, 328.68
365.11, 2.47, 328.81
382.46, 4.53, 327.04
382.19, 4.51, 327.07
381.91, 4.48, 327.11
381.60, 4.45, 327.14
381.19, 4.39, 327.19
380.59, 4.28, 327.26
379.79, 4.11, 327.36
378.53, 3.81, 327.51
376.23, 3.23, 327.79
375.00, 3.02, 327.94
373.87, 2.87, 328.07
372.67, 2.73, 328.21
371.51, 2.64, 328.35
368.91, 2.22, 328.66
368.25, 2.31, 328.73
367.44, 2.39, 328.83
366.34, 2.43, 328.95
365.06, 2.46, 329.10
382.47, 4.54, 327.11
382.20, 4.51, 327.15
381.92, 4.48, 327.18
381.62, 4.45, 327.22
381.22, 4.40, 327.28
380.62, 4.29, 327.35
379.85, 4.13, 327.46
378.58, 3.83, 327.63
376.25, 3.23, 327.94
375.03, 3.03, 328.10
373.90, 2.88, 328.25
372.70, 2.74, 328.40
371.55, 2.65, 328.55
368.87, 2.20, 328.91
368.38, 2.34, 328.97
367.40, 2.38, 329.09
366.28, 2.42, 329.24
365.02, 2.45, 329.40
382.49, 4.54, 327.18
382.22, 4.51, 327.22
381.94, 4.49, 327.26
381.63, 4.46, 327.31
381.25, 4.41, 327.36
380.65, 4.30, 327.45
379.91, 4.15, 327.55
377.43, 3.45, 327.92
¯376.28, 3.24, 328.08
375.08, 3.04, 328.26
373.94, 2.89, 328.42
372.73, 2.75, 328.60
369.72, 2.17, 329.03
368.84, 2.19, 329.16
368.39, 2.34, 329.22
367.36, 2.37, 329.36
366.24, 2.41, 329.52
364.97, 2.44, 329.69
382.50, 4.54, 327.25
382.23, 4.51, 327.30
381.95, 4.49, 327.34
381.65, 4.46, 327.39
381.28, 4.42, 327.44
380.69, 4.31, 327.54
379.97, 4.16, 327.65
377.48, 3.46, 328.05
376.33, 3.25, 328.23
375.14, 3.05, 328.42
373.99, 2.90, 328.60
372.77, 2.75, 328.79
369.70, 2.16, 329.27
368.81, 2.18, 329.41
368.36, 2.33, 329.47
367.33, 2.36, 329.63
366.19, 2.40, 329.80
364.93, 2.43, 329.99
382.52, 4.55, 327.32
382.24, 4.52, 327.37
381.97, 4.49, 327.42
381.66, 4.46, 327.47
381.31, 4.43, 327.53
380.72, 4.32, 327.63
380.03, 4.18, 327.74
377.54, 3.48, 328.17
376.38, 3.26, 328.37
375.19, 3.06, 328.57
374.03, 2.91, 328.77
372.81, 2.76, 328.97
369.67, 2.15, 329.51
368.95, 2.21, 329.63
368.34, 2.32, 329.73
367.30, 2.35, 329.90
366.15, 2.38, 330.09
364.90, 2.42, 330.29
382.53, 4.55, 327.39
382.26, 4.52, 327.44
381.98, 4.50, 327.49
381.68, 4.47, 327.55
381.33, 4.43, 327.61
¯380.76, 4.33, 327.72
380.08, 4.20, 327.84
377.62, 3.50, 328.29
376.44, 3.28, 328.51
375.25, 3.08, 328.73
374.08, 2.92, 328.94
372.85, 2.77, 329.16
369.65, 2.14, 329.75
369.10, 2.25, 329.84
368.31, 2.31, 329.98
367.27, 2.34, 330.17
366.11, 2.37, 330.37
364.84, 2.41, 330.60
382.55, 4.55, 327.46
382.28, 4.52, 327.52
382.00, 4.50, 327.57
381.70, 4.47, 327.63
381.36, 4.44, 327.69
380.80, 4.34, 327.80
378.79, 3.75, 328.20
377.70, 3.52, 328.41
376.50, 3.29, 328.65
375.32, 3.09, 328.88
374.14, 2.93, 329.11
372.90, 2.78, 329.35
369.63, 2.13, 329.99
369.23, 2.27, 330.06
368.28, 2.30, 330.24
367.24, 2.33, 330.44
366.08, 2.36, 330.66
364.79, 2.40, 330.91
382.56, 4.55, 327.53
382.30, 4.53, 327.59
382.02, 4.50, 327.65
381.72, 4.48, 327.71
381.39, 4.45, 327.78
380.84, 4.35, 327.89
378.86, 3.77, 328.31
377.79, 3.55, 328.53
376.57, 3.30, 328.79
375.38, 3.11, 329.03
374.19, 2.94, 329.28
372.94, 2.78, 329.54
369.61, 2.12, 330.23
369.21, 2.26, 330.31
368.26, 2.29, 330.51
367.21, 2.32, 330.72
366.04, 2.35, 330.95
364.75, 2.39, 331.22
382.58, 4.56, 327.60
382.32, 4.53, 327.66
¯382.04, 4.51, 327.72
381.74, 4.48, 327.79
381.42, 4.45, 327.86
380.09, 4.07, 328.16
378.93, 3.79, 328.41
377.88, 3.57, 328.65
376.63, 3.32, 328.92
375.46, 3.12, 329.18
374.25, 2.95, 329.45
372.99, 2.79, 329.72
369.61, 2.11, 330.47
369.19, 2.25, 330.56
368.23, 2.28, 330.77
367.18, 2.31, 331.00
366.01, 2.34, 331.25
364.71, 2.37, 331.53
382.60, 4.56, 327.67
382.34, 4.53, 327.73
382.06, 4.51, 327.80
381.76, 4.48, 327.87
381.44, 4.45, 327.94
380.16, 4.09, 328.25
379.02, 3.81, 328.51
377.97, 3.59, 328.76
376.70, 3.33, 329.06
375.53, 3.14, 329.33
374.31, 2.96, 329.62
373.05, 2.80, 329.91
369.77, 2.14, 330.68
369.17, 2.24, 330.81
368.21, 2.27, 331.03
367.15, 2.30, 331.27
365.99, 2.33, 331.54
364.68, 2.36, 331.84
382.62, 4.56, 327.74
382.36, 4.54, 327.81
382.08, 4.51, 327.87
381.79, 4.49, 327.95
381.46, 4.46, 328.03
380.23, 4.11, 328.33
379.11, 3.84, 328.61
378.06, 3.62, 328.87
376.77, 3.35, 329.19
375.61, 3.16, 329.48
374.38, 2.97, 329.78
370.38, 2.06, 330.77
369.90, 2.17, 330.89
369.15, 2.23, 331.07
368.19, 2.26, 331.30
367.13, 2.28, 331.56
365.95, 2.32, 331.84
¯364.64, 2.35, 332.16
382.63, 4.56, 327.81
382.38, 4.54, 327.88
382.11, 4.52, 327.95
381.81, 4.49, 328.02
381.01, 4.28, 328.24
380.30, 4.13, 328.42
379.20, 3.86, 328.71
378.15, 3.64, 328.98
376.84, 3.37, 329.32
375.69, 3.17, 329.62
374.44, 2.98, 329.95
370.37, 2.04, 331.01
370.01, 2.19, 331.10
369.13, 2.21, 331.32
368.17, 2.24, 331.57
367.11, 2.27, 331.84
365.92, 2.30, 332.14
364.61, 2.34, 332.47
382.65, 4.57, 327.88
382.40, 4.55, 327.95
382.13, 4.52, 328.02
381.84, 4.50, 328.10
381.04, 4.29, 328.32
380.37, 4.15, 328.51
379.30, 3.89, 328.80
378.25, 3.67, 329.09
376.92, 3.38, 329.45
375.77, 3.19, 329.77
373.15, 2.60, 330.49
370.36, 2.03, 331.25
370.00, 2.18, 331.34
369.11, 2.20, 331.58
368.14, 2.23, 331.84
367.09, 2.26, 332.12
365.90, 2.29, 332.44
364.58, 2.32, 332.79
382.68, 4.57, 327.95
382.43, 4.55, 328.02
382.16, 4.52, 328.10
381.41, 4.32, 328.31
381.07, 4.29, 328.41
380.45, 4.17, 328.59
379.39, 3.91, 328.89
378.35, 3.69, 329.19
377.02, 3.41, 329.57
375.86, 3.21, 329.91
371.13, 2.00, 331.27
370.39, 2.03, 331.48
369.98, 2.16, 331.59
369.09, 2.19, 331.84
¯368.12, 2.21, 332.11
367.06, 2.25, 332.41
365.87, 2.28, 332.74
382.70, 4.57, 328.02
382.45, 4.55, 328.09
382.18, 4.53, 328.17
381.44, 4.33, 328.40
381.10, 4.30, 328.50
380.53, 4.19, 328.67
379.49, 3.94, 328.98
378.45, 3.72, 329.30
377.15, 3.44, 329.69
375.95, 3.23, 330.05
371.12, 1.99, 331.50
370.54, 2.06, 331.67
369.97, 2.15, 331.84
369.08, 2.17, 332.10
368.10, 2.20, 332.39
367.03, 2.23, 332.70
365.85, 2.26, 333.05
382.72, 4.58, 328.09
382.48, 4.56, 328.16
381.78, 4.36, 328.38
381.47, 4.33, 328.48
381.13, 4.30, 328.59
380.61, 4.22, 328.75
379.59, 3.97, 329.07
378.55, 3.74, 329.40
377.28, 3.47, 329.80
376.05, 3.25, 330.18
371.12, 1.97, 331.74
370.67, 2.08, 331.87
369.96, 2.14, 332.09
369.06, 2.16, 332.37
368.08, 2.19, 332.67
367.00, 2.21, 333.00
365.82, 2.25, 333.36
382.74, 4.58, 328.15
382.50, 4.56, 328.23
381.81, 4.36, 328.46
381.50, 4.33, 328.56
381.16, 4.31, 328.67
380.70, 4.24, 328.82
379.69, 3.99, 329.15
378.66, 3.77, 329.49
377.40, 3.50, 329.90
376.15, 3.27, 330.31
371.12, 1.96, 331.97
370.78, 2.10, 332.08
369.95, 2.12, 332.34
369.04, 2.14, 332.63
¯368.07, 2.17, 332.94
366.98, 2.20, 333.29
365.79, 2.23, 333.68
382.77, 4.58, 328.22
382.12, 4.39, 328.44
381.84, 4.37, 328.54
381.53, 4.34, 328.64
381.19, 4.31, 328.76
380.78, 4.26, 328.90
379.79, 4.02, 329.24
378.76, 3.80, 329.59
377.54, 3.54, 330.01
376.26, 3.29, 330.44
371.12, 1.95, 332.21
370.78, 2.09, 332.31
369.95, 2.11, 332.59
369.03, 2.13, 332.90
368.04, 2.15, 333.23
366.96, 2.18, 333.59
365.75, 2.21, 333.99
382.79, 4.59, 328.29
382.15, 4.40, 328.52
381.87, 4.37, 328.62
381.56, 4.34, 328.73
381.23, 4.31, 328.84
380.86, 4.28, 328.97
379.89, 4.05, 329.32
378.87, 3.82, 329.68
377.67, 3.57, 330.11
376.37, 3.32, 330.57
371.12, 1.93, 332.44
370.77, 2.07, 332.56
369.94, 2.10, 332.85
369.02, 2.11, 333.17
368.02, 2.14, 333.52
366.94, 2.17, 333.89
365.72, 2.20, 334.31
382.44, 4.42, 328.50
382.18, 4.40, 328.59
381.90, 4.38, 328.69
381.60, 4.35, 328.81
381.27, 4.32, 328.93
380.90, 4.29, 329.06
380.00, 4.08, 329.39
378.99, 3.85, 329.77
377.80, 3.60, 330.20
376.48, 3.34, 330.69
371.27, 1.96, 332.63
370.77, 2.06, 332.80
369.94, 2.08, 333.11
369.02, 2.10, 333.44
¯368.00, 2.12, 333.80
366.91, 2.15, 334.20
382.47, 4.43, 328.57
382.21, 4.40, 328.67
381.94, 4.38, 328.77
381.63, 4.35, 328.89
381.30, 4.32, 329.01
380.94, 4.29, 329.15
380.10, 4.10, 329.47
379.12, 3.89, 329.85
377.94, 3.63, 330.30
376.60, 3.36, 330.81
371.40, 1.98, 332.82
370.76, 2.04, 333.05
369.93, 2.06, 333.37
369.01, 2.08, 333.71
367.99, 2.10, 334.09
366.88, 2.13, 334.51
382.50, 4.43, 328.64
382.25, 4.41, 328.74
381.97, 4.38, 328.85
381.67, 4.36, 328.97
381.34, 4.33, 329.09
380.98, 4.30, 329.24
380.21, 4.13, 329.54
379.25, 3.92, 329.93
378.08, 3.67, 330.39
376.71, 3.39, 330.93
371.50, 2.00, 333.01
370.76, 2.03, 333.30
369.92, 2.04, 333.63
369.00, 2.07, 333.99
367.99, 2.09, 334.38
366.86, 2.11, 334.82
382.54, 4.43, 328.71
382.28, 4.41, 328.81
382.01, 4.39, 328.92
381.71, 4.36, 329.04
381.38, 4.34, 329.18
381.02, 4.30, 329.32
380.32, 4.16, 329.61
379.38, 3.95, 330.00
378.22, 3.70, 330.48
376.83, 3.41, 331.05
371.53, 1.99, 333.24
370.76, 2.01, 333.55
369.92, 2.03, 333.89
368.99, 2.05, 334.27
367.97, 2.07, 334.68
366.84, 2.09, 335.13
382.57, 4.44, 328.78
¯382.32, 4.42, 328.88
382.04, 4.39, 329.00
381.75, 4.37, 329.12
381.42, 4.34, 329.26
381.07, 4.31, 329.41
380.43, 4.19, 329.68
379.51, 3.99, 330.07
378.36, 3.74, 330.56
376.95, 3.44, 331.16
371.54, 1.98, 333.48
370.76, 1.99, 333.81
369.91, 2.01, 334.16
368.98, 2.03, 334.55
367.96, 2.05, 334.98
366.83, 2.07, 335.45
382.60, 4.44, 328.84
382.35, 4.42, 328.95
382.08, 4.40, 329.07
381.79, 4.37, 329.20
381.46, 4.35, 329.34
381.11, 4.32, 329.49
380.54, 4.22, 329.75
379.62, 4.01, 330.15
378.50, 3.77, 330.64
377.12, 3.48, 331.25
371.54, 1.96, 333.72
370.76, 1.97, 334.06
369.91, 1.99, 334.43
368.98, 2.01, 334.83
367.95, 2.03, 335.28
366.26, 1.92, 336.01
382.64, 4.45, 328.91
382.39, 4.43, 329.02
382.12, 4.40, 329.15
381.83, 4.38, 329.28
381.51, 4.35, 329.42
381.16, 4.32, 329.58
380.65, 4.25, 329.81
379.74, 4.04, 330.23
378.64, 3.80, 330.72
377.30, 3.52, 331.33
371.55, 1.94, 333.97
370.77, 1.96, 334.32
369.91, 1.97, 334.70
368.98, 1.99, 335.12
367.94, 2.01, 335.58
366.24, 1.90, 336.35
382.67, 4.45, 328.98
382.43, 4.43, 329.09
382.16, 4.41, 329.22
381.87, 4.38, 329.35
¯381.55, 4.36, 329.50
381.20, 4.33, 329.66
380.77, 4.28, 329.87
379.85, 4.07, 330.30
378.79, 3.84, 330.80
377.48, 3.56, 331.41
371.56, 1.92, 334.21
370.77, 1.94, 334.58
369.91, 1.95, 334.97
368.97, 1.97, 335.41
367.93, 1.99, 335.89
366.22, 1.88, 336.68
382.71, 4.46, 329.05
382.46, 4.44, 329.16
382.20, 4.41, 329.29
381.91, 4.39, 329.43
381.60, 4.36, 329.58
381.25, 4.33, 329.75
380.87, 4.30, 329.93
379.97, 4.10, 330.37
378.93, 3.87, 330.87
377.66, 3.60, 331.49
371.57, 1.91, 334.46
370.78, 1.92, 334.84
369.92, 1.93, 335.25
368.97, 1.95, 335.70
367.92, 1.97, 336.20
366.22, 1.86, 337.02
382.75, 4.46, 329.11
382.50, 4.44, 329.23
382.24, 4.42, 329.36
381.95, 4.40, 329.51
381.64, 4.37, 329.66
381.30, 4.34, 329.83
380.92, 4.31, 330.02
380.09, 4.13, 330.43
379.07, 3.90, 330.95
377.84, 3.65, 331.56
371.58, 1.89, 334.71
370.79, 1.90, 335.10
369.92, 1.91, 335.53
368.97, 1.93, 336.00
367.92, 1.95, 336.51
382.79, 4.47, 329.18
382.54, 4.45, 329.30
382.28, 4.42, 329.44
382.00, 4.40, 329.58
381.69, 4.37, 329.74
381.35, 4.35, 329.91
380.98, 4.31, 330.10
380.21, 4.16, 330.50
¯379.20, 3.94, 331.02
378.01, 3.69, 331.63
371.59, 1.87, 334.96
370.80, 1.88, 335.37
369.93, 1.89, 335.81
368.97, 1.91, 336.29
367.91, 1.93, 336.83
382.83, 4.47, 329.24
382.59, 4.45, 329.37
382.33, 4.43, 329.51
382.04, 4.41, 329.66
381.74, 4.38, 329.82
381.40, 4.35, 329.99
381.03, 4.32, 330.19
380.33, 4.18, 330.56
379.34, 3.97, 331.09
378.19, 3.73, 331.70
371.61, 1.85, 335.22
370.81, 1.86, 335.63
369.94, 1.87, 336.09
368.98, 1.89, 336.59
367.91, 1.90, 337.15
382.86, 4.48, 329.31
382.63, 4.46, 329.44
382.37, 4.44, 329.58
382.09, 4.41, 329.73
381.79, 4.39, 329.89
381.45, 4.36, 330.07
381.09, 4.33, 330.27
380.46, 4.21, 330.62
379.47, 4.00, 331.16
378.37, 3.77, 331.76
371.62, 1.83, 335.48
370.82, 1.84, 335.91
369.95, 1.85, 336.38
368.98, 1.87, 336.90
367.41, 1.75, 337.75
382.90, 4.48, 329.37
382.67, 4.46, 329.50
382.42, 4.44, 329.65
382.14, 4.42, 329.80
381.84, 4.39, 329.97
381.51, 4.37, 330.15
381.14, 4.34, 330.36
380.58, 4.24, 330.67
379.61, 4.03, 331.22
378.55, 3.81, 331.82
371.64, 1.81, 335.73
370.84, 1.82, 336.18
369.96, 1.83, 336.67
368.99, 1.84, 337.20
¯367.41, 1.73, 338.08
382.95, 4.49, 329.44
382.71, 4.47, 329.57
382.46, 4.45, 329.72
382.19, 4.42, 329.87
381.89, 4.40, 330.04
381.56, 4.37, 330.23
381.20, 4.34, 330.44
380.70, 4.27, 330.73
379.75, 4.06, 331.28
378.73, 3.86, 331.87
371.66, 1.79, 335.99
370.86, 1.80, 336.45
369.97, 1.81, 336.96
369.00, 1.82, 337.51
367.41, 1.71, 338.42
382.99, 4.49, 329.50
382.76, 4.47, 329.64
382.51, 4.45, 329.78
382.24, 4.43, 329.94
381.94, 4.41, 330.12
381.62, 4.38, 330.31
381.26, 4.35, 330.52
380.82, 4.30, 330.78
379.88, 4.09, 331.34
378.90, 3.90, 331.92
371.69, 1.76, 336.26
370.87, 1.77, 336.73
369.99, 1.79, 337.25
369.01, 1.80, 337.82
367.41, 1.68, 338.77
383.03, 4.50, 329.56
382.80, 4.48, 329.70
382.56, 4.46, 329.85
382.29, 4.44, 330.01
381.99, 4.41, 330.19
381.67, 4.39, 330.39
381.32, 4.36, 330.60
380.90, 4.32, 330.85
380.02, 4.12, 331.40
379.07, 3.93, 331.98
371.71, 1.74, 336.52
370.90, 1.75, 337.01
370.00, 1.76, 337.55
369.02, 1.77, 338.14
367.41, 1.65, 339.12
383.07, 4.50, 329.63
382.85, 4.48, 329.76
382.60, 4.46, 329.92
382.34, 4.44, 330.08
382.05, 4.42, 330.27
¯381.73, 4.39, 330.46
381.38, 4.36, 330.68
380.97, 4.32, 330.94
380.16, 4.15, 331.45
379.23, 3.97, 332.03
371.74, 1.72, 336.78
370.92, 1.73, 337.29
370.02, 1.74, 337.85
369.03, 1.75, 338.46
383.12, 4.50, 329.69
382.90, 4.49, 329.83
382.65, 4.47, 329.98
382.39, 4.45, 330.15
382.10, 4.42, 330.34
381.79, 4.40, 330.54
381.44, 4.37, 330.76
381.03, 4.33, 331.02
380.30, 4.19, 331.50
379.39, 4.01, 332.09
371.77, 1.70, 337.05
370.95, 1.71, 337.58
370.04, 1.72, 338.15
368.56, 1.59, 339.10
383.16, 4.51, 329.75
382.94, 4.49, 329.89
382.70, 4.48, 330.05
382.44, 4.45, 330.22
382.16, 4.43, 330.41
381.85, 4.41, 330.61
381.50, 4.38, 330.84
381.10, 4.34, 331.11
380.44, 4.22, 331.54
379.55, 4.04, 332.13
371.80, 1.68, 337.32
370.97, 1.68, 337.86
370.07, 1.69, 338.46
368.58, 1.56, 339.44
383.21, 4.51, 329.81
382.99, 4.50, 329.95
382.76, 4.48, 330.11
382.50, 4.46, 330.29
382.21, 4.44, 330.48
381.91, 4.41, 330.69
381.56, 4.38, 330.92
381.17, 4.35, 331.19
380.59, 4.25, 331.58
379.71, 4.08, 332.18
371.83, 1.65, 337.60
371.00, 1.66, 338.16
370.09, 1.66, 338.77
368.60, 1.54, 339.77
¯383.25, 4.52, 329.87
383.04, 4.50, 330.02
382.81, 4.49, 330.18
382.55, 4.47, 330.35
382.27, 4.44, 330.55
381.97, 4.42, 330.76
381.63, 4.39, 331.00
381.24, 4.35, 331.27
380.74, 4.29, 331.61
379.87, 4.11, 332.22
371.86, 1.63, 337.87
371.03, 1.63, 338.45
370.11, 1.64, 339.08
368.62, 1.51, 340.12
383.30, 4.52, 329.93
383.09, 4.51, 330.08
382.86, 4.49, 330.24
382.61, 4.47, 330.42
382.33, 4.45, 330.62
382.03, 4.43, 330.83
381.69, 4.40, 331.07
381.31, 4.36, 331.35
380.87, 4.32, 331.66
380.03, 4.15, 332.26
371.90, 1.61, 338.15
371.06, 1.61, 338.74
370.14, 1.61, 339.40
368.63, 1.48, 340.47
383.35, 4.53, 329.99
383.14, 4.51, 330.14
382.91, 4.50, 330.30
382.66, 4.48, 330.49
382.39, 4.46, 330.68
382.09, 4.43, 330.90
381.76, 4.41, 331.15
381.38, 4.37, 331.43
380.95, 4.33, 331.74
380.19, 4.19, 332.30
371.94, 1.58, 338.43
371.10, 1.58, 339.04
370.17, 1.58, 339.72
368.65, 1.45, 340.83
383.40, 4.53, 330.04
383.19, 4.52, 330.20
382.96, 4.50, 330.37
382.72, 4.49, 330.55
382.45, 4.47, 330.75
382.16, 4.44, 330.97
381.83, 4.41, 331.22
381.45, 4.38, 331.50
381.03, 4.34, 331.82
¯380.35, 4.22, 332.33
371.98, 1.56, 338.71
371.14, 1.56, 339.34
370.20, 1.56, 340.04
383.45, 4.54, 330.10
383.24, 4.53, 330.26
383.02, 4.51, 330.43
382.78, 4.49, 330.61
382.51, 4.47, 330.82
382.22, 4.45, 331.04
381.89, 4.42, 331.29
381.52, 4.39, 331.58
381.10, 4.35, 331.90
380.51, 4.25, 332.36
372.03, 1.53, 338.99
371.18, 1.53, 339.65
369.79, 1.39, 340.72
383.50, 4.55, 330.16
383.29, 4.53, 330.32
383.07, 4.52, 330.49
382.84, 4.50, 330.68
382.57, 4.48, 330.88
382.28, 4.46, 331.11
381.96, 4.43, 331.36
381.59, 4.39, 331.65
381.18, 4.35, 331.98
380.66, 4.29, 332.39
372.08, 1.51, 339.28
371.22, 1.50, 339.95
369.82, 1.36, 341.06
383.55, 4.55, 330.21
383.34, 4.54, 330.37
383.13, 4.52, 330.55
382.89, 4.51, 330.74
382.64, 4.49, 330.95
382.35, 4.46, 331.18
382.03, 4.44, 331.43
381.67, 4.40, 331.73
381.26, 4.36, 332.06
380.82, 4.32, 332.42
372.13, 1.48, 339.57
371.27, 1.48, 340.26
369.86, 1.33, 341.40
383.60, 4.56, 330.27
383.40, 4.54, 330.43
383.18, 4.53, 330.61
382.95, 4.51, 330.80
382.70, 4.49, 331.01
382.42, 4.47, 331.24
382.10, 4.45, 331.50
381.75, 4.41, 331.80
¯381.35, 4.37, 332.13
380.92, 4.34, 332.48
380.15, 4.20, 333.13
371.32, 1.45, 340.57
369.90, 1.30, 341.75
383.65, 4.56, 330.32
383.45, 4.55, 330.49
383.24, 4.53, 330.67
383.01, 4.52, 330.86
382.76, 4.50, 331.07
382.49, 4.48, 331.31
382.18, 4.45, 331.57
381.82, 4.42, 331.87
381.43, 4.38, 332.20
381.01, 4.35, 332.56
380.33, 4.24, 333.15
371.37, 1.42, 340.89
369.94, 1.27, 342.10
383.70, 4.57, 330.37
383.51, 4.55, 330.54
383.30, 4.54, 330.72
383.07, 4.52, 330.92
382.83, 4.51, 331.13
382.55, 4.49, 331.37
382.25, 4.46, 331.64
381.90, 4.43, 331.94
381.52, 4.39, 332.28
381.10, 4.36, 332.64
380.50, 4.28, 333.16
371.42, 1.39, 341.20
383.75, 4.57, 330.43
383.56, 4.56, 330.60
383.36, 4.55, 330.78
383.13, 4.53, 330.98
382.89, 4.51, 331.20
382.62, 4.49, 331.44
382.32, 4.47, 331.70
381.98, 4.44, 332.01
381.60, 4.40, 332.35
381.20, 4.37, 332.71
380.68, 4.31, 333.18
371.48, 1.36, 341.52
383.81, 4.58, 330.48
383.62, 4.57, 330.65
383.42, 4.55, 330.84
383.20, 4.54, 331.04
382.96, 4.52, 331.26
382.69, 4.50, 331.50
382.40, 4.48, 331.77
382.06, 4.45, 332.08
381.69, 4.41, 332.42
¯381.29, 4.38, 332.78
380.85, 4.35, 333.19
371.54, 1.33, 341.85
383.86, 4.58, 330.53
383.68, 4.57, 330.70
383.48, 4.56, 330.89
383.26, 4.54, 331.10
383.02, 4.53, 331.32
382.76, 4.51, 331.56
382.47, 4.49, 331.83
382.14, 4.46, 332.14
381.78, 4.42, 332.49
381.38, 4.39, 332.86
380.95, 4.36, 333.26
371.60, 1.30, 342.17
383.92, 4.59, 330.58
383.73, 4.58, 330.76
383.54, 4.56, 330.95
383.32, 4.55, 331.15
383.09, 4.53, 331.38
382.84, 4.52, 331.62
382.55, 4.49, 331.90
382.22, 4.47, 332.21
381.87, 4.44, 332.55
381.48, 4.40, 332.93
381.05, 4.38, 333.33
371.24, 1.12, 342.93
383.97, 4.59, 330.63
383.79, 4.58, 330.81
383.60, 4.57, 331.00
383.39, 4.56, 331.21
383.16, 4.54, 331.43
382.91, 4.52, 331.68
382.63, 4.50, 331.96
382.31, 4.48, 332.27
381.95, 4.45, 332.62
381.57, 4.42, 333.00
381.16, 4.39, 333.40
371.31, 1.09, 343.27
384.03, 4.60, 330.68
383.85, 4.59, 330.86
383.66, 4.58, 331.05
383.45, 4.56, 331.26
383.22, 4.55, 331.49
382.98, 4.53, 331.74
382.70, 4.51, 332.02
382.39, 4.49, 332.33
382.04, 4.46, 332.68
381.67, 4.43, 333.06
381.26, 4.40, 333.47
371.38, 1.06, 343.62
¯384.09, 4.61, 330.73
383.91, 4.59, 330.91
383.72, 4.58, 331.11
383.51, 4.57, 331.32
383.29, 4.55, 331.55
383.05, 4.54, 331.80
382.78, 4.52, 332.07
382.48, 4.50, 332.39
382.14, 4.47, 332.74
381.76, 4.44, 333.13
381.36, 4.41, 333.54
380.92, 4.38, 334.00
384.14, 4.61, 330.77
383.97, 4.60, 330.96
383.78, 4.59, 331.16
383.58, 4.58, 331.37
383.36, 4.56, 331.60
383.12, 4.55, 331.86
382.86, 4.53, 332.13
382.56, 4.50, 332.45
382.23, 4.48, 332.81
381.86, 4.45, 333.20
381.46, 4.42, 333.61
381.05, 4.41, 334.05
384.20, 4.62, 330.82
384.03, 4.61, 331.01
383.85, 4.59, 331.21
383.65, 4.58, 331.42
383.43, 4.57, 331.66
383.19, 4.55, 331.91
382.94, 4.54, 332.19
382.65, 4.51, 332.51
382.32, 4.49, 332.87
381.96, 4.46, 333.26
381.57, 4.43, 333.68
381.18, 4.43, 334.09
384.26, 4.62, 330.87
384.09, 4.61, 331.05
383.91, 4.60, 331.26
383.71, 4.59, 331.47
383.50, 4.58, 331.71
383.27, 4.56, 331.97
383.02, 4.54, 332.25
382.73, 4.52, 332.56
382.41, 4.50, 332.92
382.05, 4.47, 333.32
381.67, 4.45, 333.74
381.32, 4.45, 334.14
384.32, 4.63, 330.91
384.15, 4.62, 331.10
383.97, 4.61, 331.31
¯383.78, 4.60, 331.53
383.57, 4.58, 331.76
383.34, 4.57, 332.02
383.09, 4.55, 332.31
382.82, 4.53, 332.62
382.50, 4.51, 332.98
382.15, 4.48, 333.38
381.78, 4.46, 333.81
381.45, 4.47, 334.18
384.38, 4.63, 330.96
384.22, 4.62, 331.15
384.04, 4.61, 331.35
383.85, 4.60, 331.57
383.64, 4.59, 331.82
383.42, 4.57, 332.08
383.17, 4.56, 332.36
382.90, 4.54, 332.68
382.60, 4.52, 333.04
382.25, 4.49, 333.44
381.88, 4.47, 333.87
381.58, 4.48, 334.22
384.44, 4.64, 331.00
384.28, 4.63, 331.19
384.10, 4.62, 331.40
383.92, 4.61, 331.62
383.71, 4.60, 331.87
383.49, 4.58, 332.13
383.25, 4.57, 332.42
382.99, 4.55, 332.74
382.69, 4.53, 333.09
382.35, 4.50, 333.50
381.99, 4.48, 333.93
381.71, 4.50, 334.26
384.50, 4.65, 331.04
384.34, 4.64, 331.24
384.17, 4.63, 331.45
383.99, 4.62, 331.67
383.79, 4.60, 331.92
383.57, 4.59, 332.18
383.33, 4.58, 332.47
383.07, 4.56, 332.79
382.79, 4.54, 333.14
382.45, 4.51, 333.56
382.10, 4.49, 333.99
381.84, 4.52, 334.30
381.56, 4.55, 334.64
384.56, 4.65, 331.08
384.40, 4.64, 331.28
384.24, 4.63, 331.49
384.06, 4.62, 331.72
383.86, 4.61, 331.96
¯383.65, 4.60, 332.23
383.41, 4.58, 332.53
383.16, 4.57, 332.85
382.88, 4.55, 333.20
382.55, 4.53, 333.61
382.22, 4.51, 334.03
381.97, 4.54, 334.34
381.69, 4.57, 334.68
384.62, 4.66, 331.13
384.47, 4.65, 331.32
384.30, 4.64, 331.53
384.13, 4.63, 331.76
383.93, 4.62, 332.01
383.72, 4.60, 332.28
383.50, 4.59, 332.58
383.25, 4.58, 332.90
382.97, 4.56, 333.26
382.66, 4.54, 333.66
382.34, 4.53, 334.06
382.10, 4.56, 334.38
381.83, 4.59, 334.72
384.68, 4.66, 331.17
384.53, 4.66, 331.36
384.37, 4.65, 331.58
384.20, 4.64, 331.81
384.01, 4.62, 332.06
383.80, 4.61, 332.33
383.58, 4.60, 332.63
383.33, 4.58, 332.95
383.06, 4.57, 333.31
382.76, 4.55, 333.71
382.46, 4.55, 334.10
382.22, 4.58, 334.41
381.96, 4.61, 334.75
384.75, 4.67, 331.20
384.60, 4.66, 331.40
384.44, 4.65, 331.62
384.27, 4.64, 331.85
384.08, 4.63, 332.10
383.88, 4.62, 332.38
383.66, 4.61, 332.68
383.42, 4.59, 333.00
383.15, 4.58, 333.37
382.86, 4.56, 333.77
382.59, 4.56, 334.13
382.35, 4.59, 334.45
382.10, 4.63, 334.79
384.81, 4.68, 331.24
384.66, 4.67, 331.44
384.51, 4.66, 331.66
384.34, 4.65, 331.90
¯384.16, 4.64, 332.15
383.96, 4.63, 332.42
383.74, 4.61, 332.72
383.51, 4.60, 333.05
383.25, 4.59, 333.42
382.96, 4.57, 333.82
382.71, 4.58, 334.17
382.48, 4.61, 334.48
382.23, 4.65, 334.82
384.87, 4.68, 331.29
384.73, 4.67, 331.48
384.58, 4.67, 331.70
384.41, 4.66, 331.94
384.23, 4.65, 332.19
384.04, 4.63, 332.47
383.83, 4.62, 332.77
383.60, 4.61, 333.10
383.34, 4.59, 333.47
383.06, 4.58, 333.87
382.83, 4.60, 334.20
382.60, 4.63, 334.52
382.36, 4.66, 334.85
382.10, 4.70, 335.22
384.93, 4.69, 331.32
384.80, 4.68, 331.52
384.65, 4.67, 331.74
384.49, 4.66, 331.98
384.31, 4.65, 332.23
384.12, 4.64, 332.51
383.91, 4.63, 332.82
383.68, 4.62, 333.15
383.43, 4.60, 333.52
383.16, 4.59, 333.93
382.93, 4.61, 334.25
382.73, 4.65, 334.55
382.50, 4.68, 334.88
382.24, 4.72, 335.25
384.99, 4.69, 331.36
384.86, 4.69, 331.56
384.72, 4.68, 331.78
384.56, 4.67, 332.02
384.39, 4.66, 332.28
384.20, 4.65, 332.56
384.00, 4.64, 332.86
383.77, 4.63, 333.20
383.53, 4.61, 333.57
383.26, 4.60, 333.98
383.04, 4.62, 334.30
382.85, 4.66, 334.58
382.63, 4.70, 334.91
382.38, 4.74, 335.28
¯385.06, 4.70, 331.40
384.93, 4.69, 331.60
384.79, 4.69, 331.82
384.63, 4.68, 332.06
384.46, 4.67, 332.32
384.28, 4.66, 332.60
384.08, 4.65, 332.91
383.86, 4.63, 333.24
383.62, 4.62, 333.62
383.36, 4.61, 334.02
383.15, 4.63, 334.35
382.96, 4.67, 334.63
382.76, 4.72, 334.94
382.52, 4.76, 335.31
385.12, 4.70, 331.44
384.99, 4.70, 331.64
384.85, 4.69, 331.86
384.71, 4.68, 332.09
384.54, 4.67, 332.36
384.36, 4.67, 332.64
384.17, 4.65, 332.95
383.95, 4.64, 333.29
383.72, 4.63, 333.66
383.47, 4.62, 334.05
383.26, 4.64, 334.39
383.07, 4.68, 334.68
382.88, 4.73, 334.98
382.65, 4.77, 335.34
385.18, 4.70, 331.48
385.06, 4.70, 331.68
384.92, 4.70, 331.90
384.78, 4.69, 332.13
384.62, 4.68, 332.39
384.44, 4.67, 332.68
384.25, 4.66, 332.99
384.05, 4.65, 333.33
383.82, 4.64, 333.71
383.58, 4.64, 334.09
383.37, 4.66, 334.42
383.19, 4.69, 334.72
383.00, 4.74, 335.03
382.79, 4.79, 335.36
385.25, 4.71, 331.51
385.12, 4.71, 331.72
384.99, 4.70, 331.94
384.85, 4.70, 332.17
384.70, 4.69, 332.43
384.53, 4.68, 332.72
384.34, 4.67, 333.03
384.14, 4.66, 333.37
383.91, 4.65, 333.75
¯383.69, 4.65, 334.12
383.49, 4.67, 334.46
383.30, 4.71, 334.77
383.11, 4.75, 335.08
382.91, 4.80, 335.40
382.69, 4.85, 335.78
385.31, 4.71, 331.55
385.19, 4.71, 331.75
385.06, 4.71, 331.97
384.92, 4.70, 332.21
384.78, 4.70, 332.47
384.61, 4.69, 332.76
384.43, 4.68, 333.07
384.23, 4.67, 333.41
384.01, 4.66, 333.79
383.80, 4.66, 334.15
383.60, 4.68, 334.49
383.41, 4.72, 334.81
383.23, 4.76, 335.12
383.03, 4.81, 335.45
382.83, 4.87, 335.80
385.38, 4.72, 331.58
385.26, 4.72, 331.79
385.13, 4.71, 332.01
385.00, 4.71, 332.25
384.85, 4.70, 332.51
384.69, 4.70, 332.79
384.51, 4.69, 333.11
384.32, 4.68, 333.45
384.11, 4.67, 333.83
383.91, 4.67, 334.18
383.72, 4.70, 334.52
383.52, 4.73, 334.86
383.35, 4.77, 335.17
383.16, 4.82, 335.50
382.95, 4.88, 335.85
385.44, 4.72, 331.61
385.33, 4.72, 331.82
385.20, 4.72, 332.05
385.07, 4.71, 332.29
384.93, 4.71, 332.55
384.77, 4.70, 332.83
384.60, 4.69, 333.14
384.41, 4.69, 333.49
384.20, 4.67, 333.87
384.02, 4.69, 334.21
383.83, 4.71, 334.55
383.64, 4.74, 334.90
383.46, 4.78, 335.21
383.28, 4.84, 335.54
383.08, 4.89, 335.90
¯385.51, 4.73, 331.65
385.40, 4.73, 331.85
385.28, 4.72, 332.08
385.15, 4.72, 332.32
385.01, 4.71, 332.58
384.86, 4.71, 332.87
384.69, 4.70, 333.18
384.50, 4.69, 333.53
384.30, 4.68, 333.91
384.12, 4.70, 334.24
383.94, 4.72, 334.58
383.75, 4.75, 334.94
383.58, 4.79, 335.25
383.40, 4.85, 335.58
385.57, 4.73, 331.68
385.46, 4.73, 331.89
385.35, 4.73, 332.11
385.22, 4.72, 332.36
385.08, 4.72, 332.62
384.94, 4.72, 332.91
384.78, 4.71, 333.22
384.60, 4.70, 333.56
384.40, 4.69, 333.95
384.23, 4.71, 334.27
384.06, 4.73, 334.61
383.86, 4.76, 334.97
383.70, 4.81, 335.29
383.52, 4.86, 335.63
385.64, 4.74, 331.71
385.53, 4.74, 331.92
385.42, 4.73, 332.15
385.30, 4.73, 332.39
385.16, 4.73, 332.66
385.02, 4.72, 332.94
384.86, 4.72, 333.25
384.69, 4.71, 333.60
384.50, 4.70, 333.98
384.34, 4.72, 334.30
384.17, 4.75, 334.63
383.98, 4.77, 335.00
383.81, 4.82, 335.33
383.64, 4.87, 335.67
385.71, 4.74, 331.74
385.60, 4.74, 331.95
385.49, 4.74, 332.18
385.37, 4.73, 332.43
385.24, 4.73, 332.69
385.10, 4.73, 332.98
384.95, 4.72, 333.29
384.78, 4.72, 333.63
384.60, 4.71, 334.01
¯384.45, 4.74, 334.32
384.28, 4.76, 334.66
384.10, 4.79, 335.03
383.93, 4.83, 335.37
383.76, 4.88, 335.71
385.77, 4.75, 331.77
385.67, 4.75, 331.98
385.56, 4.74, 332.21
385.45, 4.74, 332.46
385.32, 4.74, 332.72
385.18, 4.73, 333.01
385.04, 4.73, 333.33
384.88, 4.73, 333.67
384.70, 4.72, 334.03
384.55, 4.75, 334.35
384.39, 4.77, 334.69
384.22, 4.80, 335.05
384.05, 4.84, 335.41
383.88, 4.89, 335.75
385.84, 4.75, 331.79
385.74, 4.75, 332.01
385.64, 4.75, 332.24
385.52, 4.75, 332.49
385.40, 4.74, 332.76
385.27, 4.74, 333.05
385.12, 4.74, 333.36
384.97, 4.73, 333.71
384.80, 4.73, 334.06
384.66, 4.76, 334.37
384.51, 4.78, 334.71
384.34, 4.81, 335.07
384.16, 4.84, 335.45
384.01, 4.90, 335.79
388.59, 4.75, 320.23
388.61, 4.75, 320.00
388.63, 4.75, 319.74
388.66, 4.75, 319.47
388.68, 4.75, 319.18
388.71, 4.75, 318.87
388.75, 4.75, 318.53
388.76, 4.80, 318.33
388.76, 4.88, 318.26
388.77, 4.97, 318.20
388.77, 5.06, 318.13
388.77, 5.15, 318.07
388.77, 5.24, 318.00
388.77, 5.33, 317.93
388.77, 5.42, 317.86
388.78, 5.51, 317.79
388.78, 5.61, 317.72
388.78, 5.71, 317.65
¯388.78, 5.80, 317.58
388.78, 5.90, 317.51
388.78, 6.00, 317.43
388.79, 6.10, 317.36
388.79, 6.20, 317.28
388.79, 6.31, 317.20
388.79, 6.41, 317.12
388.79, 6.52, 317.04
388.80, 6.63, 316.96
388.80, 6.74, 316.88
388.80, 6.86, 316.79
388.80, 6.97, 316.71
388.80, 7.09, 316.62
388.51, 4.75, 320.22
388.53, 4.75, 319.99
388.55, 4.75, 319.73
388.58, 4.75, 319.46
388.60, 4.75, 319.17
388.63, 4.74, 318.86
388.65, 4.74, 318.52
388.67, 4.79, 318.32
388.67, 4.88, 318.26
388.67, 4.97, 318.19
388.67, 5.05, 318.13
388.67, 5.14, 318.06
388.67, 5.23, 317.99
388.67, 5.32, 317.93
388.67, 5.42, 317.86
388.67, 5.51, 317.79
388.67, 5.60, 317.72
388.67, 5.70, 317.65
388.68, 5.80, 317.57
388.68, 5.90, 317.50
388.68, 6.00, 317.43
388.68, 6.10, 317.35
388.68, 6.20, 317.27
388.68, 6.30, 317.20
388.68, 6.41, 317.12
388.68, 6.52, 317.04
388.68, 6.63, 316.96
388.68, 6.74, 316.87
388.68, 6.85, 316.79
388.69, 6.97, 316.70
388.69, 7.08, 316.62
388.44, 4.74, 320.21
388.46, 4.74, 319.98
388.47, 4.74, 319.72
388.49, 4.74, 319.45
388.51, 4.74, 319.16
388.54, 4.74, 318.85
388.56, 4.74, 318.50
¯388.57, 4.79, 318.32
388.57, 4.88, 318.26
388.57, 4.96, 318.19
388.57, 5.05, 318.13
388.57, 5.14, 318.06
388.57, 5.23, 318.00
388.57, 5.32, 317.93
388.57, 5.41, 317.86
388.57, 5.51, 317.79
388.57, 5.60, 317.72
388.57, 5.70, 317.65
388.57, 5.79, 317.58
388.57, 5.89, 317.50
388.57, 5.99, 317.43
388.57, 6.09, 317.35
388.57, 6.19, 317.28
388.57, 6.30, 317.20
388.57, 6.40, 317.12
388.57, 6.51, 317.04
388.57, 6.62, 316.96
388.57, 6.73, 316.88
388.57, 6.84, 316.79
388.57, 6.96, 316.71
388.57, 7.08, 316.62
388.37, 4.74, 320.20
388.38, 4.74, 319.97
388.40, 4.74, 319.72
388.41, 4.74, 319.44
388.43, 4.73, 319.15
388.45, 4.73, 318.84
388.47, 4.73, 318.49
388.47, 4.78, 318.32
388.47, 4.87, 318.26
388.47, 4.96, 318.20
388.47, 5.05, 318.13
388.47, 5.14, 318.06
388.47, 5.23, 318.00
388.47, 5.32, 317.93
388.47, 5.41, 317.86
388.47, 5.50, 317.79
388.47, 5.60, 317.72
388.46, 5.69, 317.65
388.46, 5.79, 317.58
388.46, 5.89, 317.50
388.46, 5.99, 317.43
388.46, 6.09, 317.35
388.46, 6.19, 317.28
388.46, 6.29, 317.20
388.46, 6.40, 317.12
388.46, 6.51, 317.04
388.46, 6.62, 316.96
¯388.45, 6.73, 316.88
388.45, 6.84, 316.79
388.45, 6.95, 316.71
388.45, 7.07, 316.62
388.29, 4.74, 320.20
388.31, 4.73, 319.96
388.32, 4.73, 319.71
388.33, 4.73, 319.44
388.34, 4.73, 319.14
388.36, 4.73, 318.83
388.37, 4.72, 318.48
388.38, 4.78, 318.32
388.37, 4.87, 318.26
388.37, 4.95, 318.19
388.37, 5.04, 318.13
388.37, 5.13, 318.07
388.37, 5.22, 318.00
388.37, 5.31, 317.93
388.36, 5.41, 317.86
388.36, 5.50, 317.79
388.36, 5.59, 317.72
388.36, 5.69, 317.65
388.36, 5.78, 317.58
388.36, 5.88, 317.51
388.35, 5.98, 317.43
388.35, 6.08, 317.36
388.35, 6.19, 317.28
388.35, 6.29, 317.20
388.35, 6.39, 317.13
388.34, 6.50, 317.05
388.34, 6.61, 316.96
388.34, 6.72, 316.88
388.34, 6.83, 316.80
388.34, 6.95, 316.71
388.33, 7.06, 316.63
388.22, 4.73, 320.19
388.23, 4.73, 319.96
388.24, 4.73, 319.70
388.25, 4.72, 319.43
388.26, 4.72, 319.14
388.27, 4.72, 318.82
388.28, 4.72, 318.47
388.28, 4.78, 318.32
388.28, 4.86, 318.25
388.27, 4.95, 318.19
388.27, 5.04, 318.13
388.27, 5.13, 318.06
388.27, 5.22, 318.00
388.26, 5.31, 317.93
388.26, 5.40, 317.87
388.26, 5.49, 317.80
¯388.26, 5.59, 317.73
388.25, 5.68, 317.65
388.25, 5.78, 317.58
388.25, 5.88, 317.51
388.25, 5.98, 317.44
388.24, 6.08, 317.36
388.24, 6.18, 317.28
388.24, 6.28, 317.21
388.24, 6.39, 317.13
388.23, 6.50, 317.05
388.23, 6.60, 316.97
388.23, 6.71, 316.89
388.22, 6.83, 316.80
388.22, 6.94, 316.72
388.22, 7.06, 316.63
388.15, 4.73, 320.19
388.15, 4.72, 319.95
388.16, 4.72, 319.70
388.16, 4.72, 319.42
388.17, 4.72, 319.13
388.18, 4.71, 318.81
388.18, 4.71, 318.47
388.18, 4.77, 318.32
388.18, 4.86, 318.25
388.18, 4.95, 318.19
388.17, 5.03, 318.13
388.17, 5.12, 318.06
388.17, 5.21, 318.00
388.16, 5.31, 317.93
388.16, 5.40, 317.87
388.16, 5.49, 317.80
388.15, 5.58, 317.73
388.15, 5.68, 317.66
388.15, 5.78, 317.59
388.14, 5.87, 317.51
388.14, 5.97, 317.44
388.14, 6.07, 317.36
388.13, 6.18, 317.29
388.13, 6.28, 317.21
388.12, 6.38, 317.13
388.12, 6.49, 317.05
388.12, 6.60, 316.97
388.11, 6.71, 316.89
388.11, 6.82, 316.80
388.10, 6.94, 316.72
388.10, 7.05, 316.63
388.07, 4.72, 320.18
388.08, 4.72, 319.95
388.08, 4.72, 319.69
388.08, 4.71, 319.42
388.08, 4.71, 319.12
¯388.09, 4.71, 318.81
388.09, 4.71, 318.46
388.09, 4.77, 318.31
388.08, 4.85, 318.25
388.08, 4.94, 318.19
388.07, 5.03, 318.13
388.07, 5.12, 318.06
388.07, 5.21, 318.00
388.06, 5.30, 317.93
388.06, 5.39, 317.87
388.05, 5.49, 317.80
388.05, 5.58, 317.73
388.05, 5.67, 317.66
388.04, 5.77, 317.59
388.04, 5.87, 317.52
388.03, 5.97, 317.44
388.03, 6.07, 317.37
388.02, 6.17, 317.29
388.02, 6.27, 317.21
388.01, 6.38, 317.13
388.01, 6.48, 317.06
388.00, 6.59, 316.97
388.00, 6.70, 316.89
387.99, 6.82, 316.81
387.99, 6.93, 316.72
387.98, 7.05, 316.64
388.00, 4.72, 320.18
388.00, 4.71, 319.94
388.00, 4.71, 319.69
388.00, 4.71, 319.42
388.00, 4.71, 319.12
388.00, 4.70, 318.80
387.99, 4.70, 318.46
387.99, 4.76, 318.31
387.99, 4.85, 318.25
387.98, 4.94, 318.19
387.98, 5.02, 318.13
387.97, 5.11, 318.06
387.97, 5.20, 318.00
387.96, 5.29, 317.93
387.96, 5.39, 317.86
387.95, 5.48, 317.80
387.95, 5.57, 317.73
387.94, 5.67, 317.66
387.94, 5.77, 317.59
387.93, 5.86, 317.52
387.93, 5.96, 317.44
387.92, 6.06, 317.37
387.91, 6.16, 317.29
387.91, 6.27, 317.22
387.90, 6.37, 317.14
¯387.90, 6.48, 317.06
387.89, 6.59, 316.98
387.89, 6.70, 316.90
387.88, 6.81, 316.81
387.87, 6.92, 316.73
387.87, 7.04, 316.64
387.93, 4.71, 320.18
387.92, 4.71, 319.94
387.92, 4.71, 319.69
387.91, 4.70, 319.41
387.91, 4.70, 319.12
387.91, 4.70, 318.80
387.90, 4.69, 318.45
387.89, 4.76, 318.31
387.89, 4.84, 318.25
387.88, 4.93, 318.19
387.88, 5.02, 318.12
387.87, 5.11, 318.06
387.87, 5.20, 318.00
387.86, 5.29, 317.93
387.85, 5.38, 317.86
387.85, 5.47, 317.80
387.84, 5.57, 317.73
387.84, 5.66, 317.66
387.83, 5.76, 317.59
387.82, 5.86, 317.52
387.82, 5.96, 317.45
387.81, 6.06, 317.37
387.81, 6.16, 317.30
387.80, 6.26, 317.22
387.79, 6.37, 317.14
387.79, 6.47, 317.06
387.78, 6.58, 316.98
387.77, 6.69, 316.90
387.77, 6.80, 316.82
387.76, 6.92, 316.73
387.75, 7.03, 316.64
387.85, 4.71, 320.18
387.85, 4.70, 319.94
387.84, 4.70, 319.68
387.83, 4.70, 319.41
387.82, 4.69, 319.12
387.81, 4.69, 318.80
387.80, 4.69, 318.45
387.80, 4.75, 318.31
387.79, 4.84, 318.25
387.79, 4.92, 318.19
387.78, 5.01, 318.12
387.77, 5.10, 318.06
387.77, 5.19, 318.00
387.76, 5.28, 317.93
¯387.75, 5.38, 317.86
387.75, 5.47, 317.80
387.74, 5.56, 317.73
387.73, 5.66, 317.66
387.73, 5.75, 317.59
387.72, 5.85, 317.52
387.71, 5.95, 317.45
387.70, 6.05, 317.38
387.70, 6.15, 317.30
387.69, 6.26, 317.22
387.68, 6.36, 317.14
387.67, 6.47, 317.07
387.67, 6.58, 316.98
387.66, 6.69, 316.90
387.65, 6.80, 316.82
387.64, 6.91, 316.73
387.63, 7.03, 316.65
387.78, 4.70, 320.18
387.77, 4.70, 319.94
387.76, 4.70, 319.68
387.75, 4.69, 319.41
387.74, 4.69, 319.11
387.72, 4.68, 318.79
387.71, 4.68, 318.45
387.70, 4.74, 318.31
387.69, 4.83, 318.25
387.69, 4.92, 318.19
387.68, 5.01, 318.12
387.67, 5.10, 318.06
387.67, 5.19, 317.99
387.66, 5.28, 317.93
387.65, 5.37, 317.86
387.64, 5.46, 317.80
387.64, 5.56, 317.73
387.63, 5.65, 317.66
387.62, 5.75, 317.59
387.61, 5.85, 317.52
387.60, 5.95, 317.45
387.60, 6.05, 317.38
387.59, 6.15, 317.30
387.58, 6.25, 317.23
387.57, 6.36, 317.15
387.56, 6.46, 317.07
387.55, 6.57, 316.99
387.55, 6.68, 316.91
387.54, 6.79, 316.82
387.53, 6.91, 316.74
387.52, 7.02, 316.65
387.71, 4.70, 320.18
387.69, 4.69, 319.94
387.68, 4.69, 319.68
¯387.67, 4.69, 319.41
387.65, 4.68, 319.11
387.63, 4.68, 318.79
387.61, 4.67, 318.45
387.60, 4.74, 318.31
387.60, 4.83, 318.25
387.59, 4.91, 318.19
387.58, 5.00, 318.12
387.57, 5.09, 318.06
387.57, 5.18, 317.99
387.56, 5.27, 317.93
387.55, 5.36, 317.86
387.54, 5.46, 317.80
387.53, 5.55, 317.73
387.52, 5.65, 317.66
387.52, 5.74, 317.59
387.51, 5.84, 317.52
387.50, 5.94, 317.45
387.49, 6.04, 317.37
387.48, 6.14, 317.30
387.47, 6.25, 317.23
387.46, 6.35, 317.15
387.45, 6.46, 317.07
387.44, 6.57, 316.99
387.43, 6.68, 316.91
387.42, 6.79, 316.83
387.41, 6.90, 316.74
387.40, 7.02, 316.65
387.63, 4.69, 320.18
387.62, 4.69, 319.94
387.60, 4.68, 319.69
387.58, 4.68, 319.41
387.56, 4.68, 319.12
387.54, 4.67, 318.80
387.52, 4.67, 318.45
387.51, 4.73, 318.31
387.50, 4.82, 318.25
387.49, 4.91, 318.19
387.48, 4.99, 318.12
387.47, 5.08, 318.06
387.46, 5.17, 317.99
387.46, 5.26, 317.93
387.45, 5.36, 317.86
387.44, 5.45, 317.79
387.43, 5.54, 317.73
387.42, 5.64, 317.66
387.41, 5.74, 317.59
387.40, 5.83, 317.52
387.39, 5.93, 317.45
387.38, 6.03, 317.37
387.37, 6.14, 317.30
¯387.36, 6.24, 317.23
387.35, 6.34, 317.15
387.34, 6.45, 317.07
387.33, 6.56, 317.00
387.32, 6.67, 316.91
387.31, 6.78, 316.83
387.30, 6.89, 316.74
387.28, 7.01, 316.66
387.56, 4.69, 320.18
387.54, 4.68, 319.94
387.52, 4.68, 319.69
387.50, 4.68, 319.41
387.48, 4.67, 319.12
387.45, 4.67, 318.80
387.42, 4.66, 318.45
387.41, 4.73, 318.31
387.40, 4.81, 318.25
387.39, 4.90, 318.19
387.38, 4.99, 318.12
387.37, 5.08, 318.06
387.36, 5.17, 317.99
387.35, 5.26, 317.93
387.34, 5.35, 317.86
387.33, 5.44, 317.79
387.32, 5.54, 317.73
387.31, 5.63, 317.66
387.30, 5.73, 317.59
387.29, 5.83, 317.52
387.28, 5.93, 317.45
387.27, 6.03, 317.37
387.26, 6.13, 317.30
387.25, 6.23, 317.23
387.24, 6.34, 317.15
387.23, 6.44, 317.07
387.22, 6.55, 316.99
387.21, 6.66, 316.92
387.19, 6.78, 316.83
387.18, 6.89, 316.75
387.17, 7.00, 316.66
387.48, 4.68, 320.18
387.46, 4.68, 319.95
387.44, 4.67, 319.69
387.42, 4.67, 319.42
387.39, 4.67, 319.12
387.36, 4.66, 318.80
387.33, 4.66, 318.45
387.31, 4.72, 318.31
387.30, 4.80, 318.25
387.29, 4.89, 318.19
387.28, 4.98, 318.12
387.27, 5.07, 318.06
¯387.26, 5.16, 317.99
387.25, 5.25, 317.93
387.24, 5.34, 317.86
387.23, 5.44, 317.79
387.22, 5.53, 317.73
387.21, 5.63, 317.66
387.20, 5.72, 317.59
387.19, 5.82, 317.52
387.18, 5.92, 317.45
387.16, 6.02, 317.37
387.15, 6.12, 317.30
387.14, 6.23, 317.22
387.13, 6.33, 317.15
387.12, 6.44, 317.07
387.10, 6.55, 316.99
387.09, 6.66, 316.91
387.08, 6.77, 316.83
387.06, 6.88, 316.75
387.05, 7.00, 316.67
387.41, 4.68, 320.19
387.39, 4.67, 319.95
387.36, 4.67, 319.69
387.33, 4.66, 319.42
387.30, 4.66, 319.12
387.27, 4.65, 318.80
387.23, 4.65, 318.46
387.22, 4.71, 318.31
387.21, 4.80, 318.25
387.20, 4.89, 318.19
387.18, 4.97, 318.12
387.17, 5.06, 318.06
387.16, 5.15, 317.99
387.15, 5.24, 317.93
387.14, 5.34, 317.86
387.13, 5.43, 317.79
387.12, 5.52, 317.73
387.10, 5.62, 317.66
387.09, 5.72, 317.59
387.08, 5.81, 317.52
387.07, 5.91, 317.45
387.06, 6.01, 317.37
387.04, 6.12, 317.30
387.03, 6.22, 317.22
387.02, 6.33, 317.15
387.00, 6.43, 317.07
386.99, 6.54, 316.99
386.98, 6.65, 316.91
386.96, 6.76, 316.83
386.95, 6.88, 316.75
386.93, 6.99, 316.67
387.34, 4.67, 320.19
¯387.31, 4.67, 319.95
387.28, 4.66, 319.70
387.25, 4.66, 319.43
387.22, 4.65, 319.13
387.18, 4.65, 318.81
387.14, 4.64, 318.46
387.12, 4.70, 318.31
387.11, 4.79, 318.25
387.10, 4.88, 318.19
387.08, 4.97, 318.12
387.07, 5.06, 318.06
387.06, 5.15, 318.00
387.05, 5.24, 317.93
387.04, 5.33, 317.86
387.02, 5.42, 317.80
387.01, 5.52, 317.73
387.00, 5.61, 317.66
386.99, 5.71, 317.59
386.97, 5.81, 317.52
386.96, 5.91, 317.45
386.95, 6.01, 317.37
386.93, 6.11, 317.30
386.92, 6.21, 317.22
386.91, 6.32, 317.15
386.89, 6.43, 317.07
386.88, 6.53, 316.99
386.86, 6.65, 316.91
386.85, 6.76, 316.83
386.83, 6.87, 316.75
386.82, 6.99, 316.67
387.26, 4.67, 320.20
387.23, 4.66, 319.96
387.20, 4.66, 319.71
387.17, 4.65, 319.43
387.13, 4.65, 319.14
387.09, 4.64, 318.82
387.04, 4.64, 318.47
387.02, 4.70, 318.32
387.01, 4.78, 318.25
387.00, 4.87, 318.19
386.98, 4.96, 318.13
386.97, 5.05, 318.06
386.96, 5.14, 318.00
386.95, 5.23, 317.93
386.93, 5.32, 317.86
386.92, 5.42, 317.80
386.91, 5.51, 317.73
386.89, 5.61, 317.66
386.88, 5.70, 317.59
386.87, 5.80, 317.52
386.85, 5.90, 317.45
¯386.84, 6.00, 317.37
386.82, 6.10, 317.30
386.81, 6.21, 317.22
386.79, 6.31, 317.15
386.78, 6.42, 317.07
386.76, 6.53, 316.99
386.75, 6.64, 316.91
386.73, 6.75, 316.83
386.71, 6.87, 316.75
386.70, 6.98, 316.66
387.19, 4.66, 320.21
387.16, 4.66, 319.97
387.12, 4.65, 319.71
387.08, 4.65, 319.44
387.04, 4.64, 319.14
387.00, 4.64, 318.82
386.95, 4.63, 318.48
386.92, 4.69, 318.32
386.91, 4.77, 318.25
386.90, 4.86, 318.19
386.88, 4.95, 318.13
386.87, 5.04, 318.06
386.86, 5.13, 318.00
386.84, 5.22, 317.93
386.83, 5.31, 317.86
386.82, 5.41, 317.80
386.80, 5.50, 317.73
386.79, 5.60, 317.66
386.77, 5.70, 317.59
386.76, 5.79, 317.52
386.74, 5.89, 317.45
386.73, 5.99, 317.37
386.71, 6.10, 317.30
386.70, 6.20, 317.22
386.68, 6.31, 317.15
386.66, 6.41, 317.07
386.65, 6.52, 316.99
386.63, 6.63, 316.92
386.62, 6.75, 316.83
386.60, 6.86, 316.75
386.58, 6.98, 316.67
387.12, 4.66, 320.21
387.08, 4.65, 319.98
387.04, 4.65, 319.72
387.00, 4.64, 319.45
386.96, 4.64, 319.15
386.91, 4.63, 318.83
386.85, 4.62, 318.49
386.83, 4.68, 318.32
386.81, 4.77, 318.26
386.80, 4.85, 318.19
¯386.78, 4.94, 318.13
386.77, 5.03, 318.06
386.76, 5.12, 318.00
386.74, 5.21, 317.93
386.73, 5.31, 317.86
386.71, 5.40, 317.80
386.70, 5.50, 317.73
386.68, 5.59, 317.66
386.67, 5.69, 317.59
386.65, 5.79, 317.52
386.63, 5.89, 317.45
386.62, 5.99, 317.38
386.60, 6.09, 317.30
386.59, 6.19, 317.23
386.57, 6.30, 317.15
386.55, 6.41, 317.08
386.53, 6.52, 317.00
386.52, 6.63, 316.92
386.50, 6.74, 316.84
386.48, 6.85, 316.76
386.46, 6.97, 316.67
387.04, 4.65, 320.22
387.00, 4.65, 319.98
386.96, 4.64, 319.73
386.92, 4.64, 319.46
386.87, 4.63, 319.16
386.82, 4.63, 318.84
386.76, 4.62, 318.50
386.73, 4.67, 318.32
386.71, 4.76, 318.26
386.70, 4.85, 318.19
386.68, 4.93, 318.13
386.67, 5.02, 318.07
386.65, 5.12, 318.00
386.64, 5.21, 317.94
386.62, 5.30, 317.87
386.61, 5.39, 317.80
386.59, 5.49, 317.73
