ŸVERSION 0.7
FIELDS x y z
SIZE 8 8 8
TYPE F F F
COUNT 1 1 1
WIDTH 2271
HEIGHT 1
VIEWPOINT 439.15, 14.95, 252.44 1 443.80, 9.17, 271.68
POINTS 2271
DATA ascii
445.74, 7.02, 276.25
¯445.90, 7.01, 276.69
446.07, 7.01, 277.18
446.26, 7.00, 277.72
446.48, 6.99, 278.34
446.73, 6.98, 279.03
447.01, 6.96, 279.82
447.33, 6.95, 280.73
447.69, 6.94, 281.74
448.13, 6.92, 282.97
448.73, 6.87, 284.66
448.91, 7.02, 285.19
448.90, 7.24, 285.19
448.88, 7.47, 285.19
448.87, 7.69, 285.19
448.86, 7.91, 285.19
448.84, 8.13, 285.19
448.83, 8.35, 285.19
448.82, 8.57, 285.19
448.80, 8.79, 285.19
448.79, 9.01, 285.19
444.65, 7.23, 273.02
444.72, 7.23, 273.20
444.79, 7.22, 273.40
444.87, 7.21, 273.62
444.96, 7.21, 273.85
445.21, 7.06, 274.52
445.32, 7.05, 274.81
445.44, 7.04, 275.12
445.56, 7.03, 275.46
445.70, 7.03, 275.83
445.84, 7.02, 276.23
446.01, 7.01, 276.67
446.19, 7.01, 277.16
446.39, 7.00, 277.71
446.62, 6.99, 278.32
446.87, 6.98, 279.01
447.16, 6.97, 279.80
447.50, 6.95, 280.71
447.87, 6.95, 281.71
448.32, 6.93, 282.92
448.93, 6.88, 284.59
449.14, 7.02, 285.19
449.13, 7.25, 285.19
449.12, 7.47, 285.19
449.10, 7.69, 285.19
449.09, 7.92, 285.19
449.08, 8.14, 285.19
449.06, 8.36, 285.19
449.05, 8.58, 285.19
449.04, 8.80, 285.19
449.02, 9.02, 285.19
¯444.71, 7.23, 273.00
444.78, 7.23, 273.19
444.86, 7.22, 273.39
444.94, 7.22, 273.60
445.19, 7.06, 274.23
445.29, 7.06, 274.50
445.41, 7.05, 274.79
445.53, 7.04, 275.10
445.66, 7.03, 275.44
445.80, 7.03, 275.81
445.95, 7.02, 276.21
446.12, 7.02, 276.65
446.31, 7.01, 277.14
446.52, 7.00, 277.68
446.75, 6.99, 278.30
447.02, 6.98, 278.99
447.32, 6.97, 279.78
447.67, 6.95, 280.69
448.05, 6.95, 281.70
448.50, 6.94, 282.87
449.14, 6.89, 284.53
449.38, 7.02, 285.19
449.37, 7.25, 285.19
449.36, 7.47, 285.19
449.34, 7.70, 285.19
449.33, 7.92, 285.19
449.32, 8.15, 285.19
449.30, 8.37, 285.19
449.29, 8.59, 285.19
449.27, 8.81, 285.19
449.26, 9.04, 285.19
444.77, 7.23, 272.98
444.85, 7.23, 273.17
444.93, 7.22, 273.37
445.01, 7.22, 273.58
445.27, 7.06, 274.21
445.38, 7.06, 274.48
445.49, 7.05, 274.77
445.62, 7.04, 275.08
445.75, 7.04, 275.42
445.90, 7.03, 275.79
446.06, 7.02, 276.19
446.23, 7.02, 276.63
446.42, 7.01, 277.12
446.64, 7.00, 277.66
446.89, 6.99, 278.27
447.16, 6.98, 278.97
447.47, 6.97, 279.76
447.84, 6.96, 280.67
448.24, 6.95, 281.68
448.69, 6.95, 282.82
¯449.36, 6.90, 284.49
449.62, 7.02, 285.19
449.61, 7.25, 285.19
449.60, 7.48, 285.19
449.58, 7.70, 285.19
449.57, 7.93, 285.19
449.55, 8.15, 285.19
449.54, 8.38, 285.19
449.53, 8.60, 285.19
449.51, 8.82, 285.19
449.50, 9.05, 285.19
444.83, 7.23, 272.96
444.91, 7.23, 273.15
444.99, 7.22, 273.35
445.25, 7.07, 273.94
445.35, 7.07, 274.19
445.46, 7.06, 274.45
445.58, 7.05, 274.74
445.71, 7.04, 275.06
445.85, 7.04, 275.40
446.00, 7.03, 275.76
446.16, 7.03, 276.16
446.34, 7.02, 276.60
446.54, 7.01, 277.09
446.77, 7.00, 277.64
447.02, 6.99, 278.25
447.31, 6.98, 278.94
447.63, 6.97, 279.74
448.01, 6.96, 280.65
448.42, 6.95, 281.66
448.88, 6.96, 282.78
449.58, 6.90, 284.47
449.87, 7.03, 285.19
449.85, 7.25, 285.19
449.84, 7.48, 285.19
449.82, 7.71, 285.19
449.81, 7.93, 285.19
449.80, 8.16, 285.19
449.78, 8.39, 285.19
449.77, 8.61, 285.19
449.75, 8.83, 285.19
449.74, 9.06, 285.19
444.90, 7.23, 272.95
444.98, 7.23, 273.13
445.06, 7.22, 273.33
445.32, 7.07, 273.92
445.43, 7.07, 274.17
445.54, 7.06, 274.43
445.66, 7.05, 274.72
445.80, 7.05, 275.03
445.94, 7.04, 275.38
¯446.10, 7.03, 275.74
446.27, 7.03, 276.14
446.45, 7.02, 276.58
446.66, 7.01, 277.07
446.89, 7.00, 277.61
447.15, 7.00, 278.22
447.45, 6.99, 278.92
447.79, 6.97, 279.71
448.18, 6.96, 280.62
448.61, 6.95, 281.64
449.08, 6.96, 282.76
449.81, 6.91, 284.46
450.09, 7.03, 285.13
450.08, 7.26, 285.14
450.08, 7.49, 285.17
450.07, 7.71, 285.19
450.05, 7.94, 285.19
450.04, 8.17, 285.19
450.03, 8.39, 285.19
450.01, 8.62, 285.19
450.00, 8.84, 285.19
449.98, 9.07, 285.19
444.96, 7.24, 272.93
445.04, 7.23, 273.11
445.13, 7.23, 273.31
445.40, 7.07, 273.90
445.50, 7.07, 274.14
445.62, 7.06, 274.41
445.75, 7.06, 274.70
445.89, 7.05, 275.01
446.04, 7.04, 275.35
446.20, 7.03, 275.71
446.37, 7.03, 276.11
446.56, 7.02, 276.55
446.78, 7.01, 277.04
447.02, 7.01, 277.58
447.29, 7.00, 278.20
447.60, 6.99, 278.89
447.94, 6.98, 279.68
448.35, 6.96, 280.60
448.80, 6.95, 281.62
449.30, 6.95, 282.77
450.04, 6.91, 284.43
450.93, 6.86, 286.46
451.02, 7.08, 286.69
451.02, 7.32, 286.73
451.02, 7.57, 286.77
451.02, 7.82, 286.80
451.02, 8.07, 286.84
451.02, 8.31, 286.87
451.02, 8.56, 286.91
¯451.02, 8.81, 286.95
450.21, 9.08, 285.13
445.02, 7.24, 272.91
445.10, 7.23, 273.09
445.37, 7.08, 273.65
445.47, 7.08, 273.87
445.58, 7.07, 274.12
445.70, 7.06, 274.38
445.83, 7.06, 274.67
445.97, 7.05, 274.98
446.13, 7.04, 275.32
446.30, 7.04, 275.69
446.48, 7.03, 276.08
446.68, 7.02, 276.52
446.90, 7.02, 277.01
447.15, 7.01, 277.56
447.42, 7.00, 278.17
447.74, 6.99, 278.86
448.10, 6.98, 279.66
448.52, 6.96, 280.57
448.99, 6.96, 281.60
449.54, 6.94, 282.83
450.26, 6.91, 284.41
450.96, 6.93, 285.95
450.96, 7.17, 285.98
450.96, 7.40, 286.02
450.96, 7.64, 286.05
451.02, 7.87, 286.21
451.02, 8.11, 286.24
451.02, 8.35, 286.27
451.02, 8.59, 286.31
451.02, 8.84, 286.34
451.02, 9.08, 286.38
445.08, 7.24, 272.88
445.17, 7.23, 273.07
445.44, 7.08, 273.62
445.54, 7.08, 273.85
445.66, 7.07, 274.09
445.78, 7.07, 274.36
445.92, 7.06, 274.64
446.06, 7.05, 274.95
446.22, 7.04, 275.30
446.40, 7.04, 275.66
446.58, 7.03, 276.06
446.79, 7.02, 276.49
447.02, 7.02, 276.98
447.27, 7.01, 277.53
447.56, 7.00, 278.14
447.89, 6.99, 278.83
448.26, 6.98, 279.62
448.69, 6.97, 280.54
¯449.17, 6.96, 281.57
449.79, 6.93, 282.89
450.51, 6.91, 284.42
451.21, 6.93, 285.92
451.20, 7.18, 285.92
451.18, 7.42, 285.92
451.17, 7.66, 285.92
451.15, 7.90, 285.92
451.14, 8.14, 285.92
451.12, 8.38, 285.92
451.10, 8.62, 285.92
451.09, 8.86, 285.92
451.07, 9.10, 285.92
445.14, 7.24, 272.86
445.41, 7.09, 273.39
445.51, 7.08, 273.60
445.62, 7.08, 273.82
445.74, 7.07, 274.07
445.86, 7.07, 274.33
446.00, 7.06, 274.62
446.15, 7.05, 274.93
446.32, 7.04, 275.27
446.49, 7.04, 275.63
446.69, 7.03, 276.03
446.90, 7.03, 276.46
447.13, 7.02, 276.95
447.40, 7.01, 277.49
447.69, 7.00, 278.11
448.03, 6.99, 278.80
448.42, 6.98, 279.59
448.86, 6.97, 280.51
449.39, 6.95, 281.60
450.05, 6.92, 282.95
450.80, 6.90, 284.50
451.48, 6.93, 285.92
451.47, 7.18, 285.92
451.45, 7.42, 285.92
451.43, 7.66, 285.92
451.42, 7.91, 285.92
451.40, 8.15, 285.92
451.39, 8.39, 285.92
451.37, 8.63, 285.92
451.35, 8.87, 285.92
451.34, 9.11, 285.92
445.20, 7.24, 272.84
445.47, 7.09, 273.36
445.58, 7.09, 273.57
445.69, 7.08, 273.80
445.81, 7.07, 274.04
445.94, 7.07, 274.30
446.09, 7.06, 274.59
¯446.24, 7.05, 274.90
446.41, 7.05, 275.24
446.59, 7.04, 275.60
446.79, 7.03, 276.00
447.01, 7.03, 276.43
447.25, 7.02, 276.92
447.52, 7.01, 277.46
447.83, 7.00, 278.07
448.18, 7.00, 278.77
448.57, 6.98, 279.56
449.03, 6.97, 280.48
449.61, 6.94, 281.64
450.30, 6.91, 283.01
451.09, 6.88, 284.58
451.67, 6.95, 285.76
451.74, 7.18, 285.92
451.72, 7.42, 285.92
451.70, 7.67, 285.92
451.69, 7.91, 285.92
451.67, 8.16, 285.92
451.66, 8.40, 285.92
451.64, 8.64, 285.92
451.62, 8.88, 285.92
451.61, 9.12, 285.92
445.26, 7.24, 272.82
445.54, 7.09, 273.34
445.65, 7.09, 273.55
445.76, 7.08, 273.77
445.89, 7.08, 274.01
446.02, 7.07, 274.27
446.17, 7.06, 274.56
446.33, 7.06, 274.87
446.50, 7.05, 275.20
446.69, 7.04, 275.57
446.90, 7.04, 275.96
447.12, 7.03, 276.40
447.37, 7.02, 276.89
447.65, 7.02, 277.43
447.97, 7.01, 278.04
448.32, 7.00, 278.73
448.73, 6.99, 279.52
449.20, 6.97, 280.44
449.71, 6.97, 281.43
450.56, 6.90, 283.07
451.32, 6.89, 284.53
451.88, 6.97, 285.65
452.01, 7.18, 285.92
451.99, 7.43, 285.92
451.98, 7.67, 285.92
451.96, 7.92, 285.92
451.94, 8.16, 285.92
¯451.93, 8.41, 285.92
451.91, 8.65, 285.92
451.89, 8.89, 285.92
451.88, 9.14, 285.92
445.50, 7.10, 273.12
445.61, 7.09, 273.31
445.72, 7.09, 273.52
445.84, 7.08, 273.74
445.97, 7.08, 273.98
446.10, 7.07, 274.24
446.26, 7.06, 274.53
446.42, 7.06, 274.84
446.60, 7.05, 275.17
446.79, 7.04, 275.54
447.00, 7.04, 275.93
447.23, 7.03, 276.37
447.49, 7.02, 276.85
447.78, 7.02, 277.39
448.10, 7.01, 278.00
448.47, 7.00, 278.69
448.89, 6.99, 279.49
449.35, 6.99, 280.36
449.82, 7.00, 281.24
450.83, 6.88, 283.13
451.52, 6.90, 284.44
452.12, 6.98, 285.57
452.29, 7.18, 285.92
452.27, 7.43, 285.92
452.25, 7.68, 285.92
452.24, 7.92, 285.92
452.22, 8.17, 285.92
452.20, 8.42, 285.92
452.19, 8.66, 285.92
452.17, 8.91, 285.92
452.15, 9.15, 285.92
445.57, 7.10, 273.09
445.68, 7.09, 273.28
445.79, 7.09, 273.49
445.91, 7.08, 273.71
446.04, 7.08, 273.95
446.18, 7.07, 274.21
446.34, 7.07, 274.50
446.51, 7.06, 274.80
446.69, 7.05, 275.14
446.89, 7.04, 275.50
447.11, 7.04, 275.90
447.34, 7.03, 276.33
447.61, 7.03, 276.81
447.90, 7.02, 277.35
448.24, 7.01, 277.96
448.61, 7.00, 278.65
¯449.05, 6.99, 279.45
449.49, 7.00, 280.26
449.97, 7.02, 281.14
451.10, 6.87, 283.18
451.72, 6.91, 284.34
452.35, 6.99, 285.50
452.57, 7.18, 285.92
452.55, 7.43, 285.92
452.53, 7.68, 285.92
452.52, 7.93, 285.92
452.50, 8.18, 285.92
452.48, 8.43, 285.92
452.47, 8.67, 285.92
452.45, 8.92, 285.92
452.43, 9.17, 285.92
445.63, 7.10, 273.06
445.74, 7.10, 273.25
445.86, 7.09, 273.46
445.98, 7.09, 273.68
446.12, 7.08, 273.92
446.26, 7.07, 274.18
446.42, 7.07, 274.46
446.60, 7.06, 274.77
446.78, 7.05, 275.10
446.99, 7.05, 275.47
447.21, 7.04, 275.86
447.45, 7.03, 276.29
447.73, 7.03, 276.78
448.03, 7.02, 277.32
448.37, 7.01, 277.92
448.76, 7.00, 278.61
449.21, 6.99, 279.41
449.63, 7.01, 280.17
450.12, 7.03, 281.04
451.39, 6.85, 283.28
451.92, 6.93, 284.24
452.58, 7.00, 285.42
452.85, 7.18, 285.92
452.84, 7.43, 285.92
452.82, 7.69, 285.92
452.80, 7.94, 285.92
452.78, 8.19, 285.92
452.77, 8.43, 285.92
452.75, 8.68, 285.92
452.73, 8.93, 285.92
452.71, 9.18, 285.92
445.70, 7.10, 273.03
445.81, 7.10, 273.23
445.93, 7.09, 273.43
446.06, 7.09, 273.65
446.19, 7.08, 273.89
¯446.34, 7.08, 274.15
446.51, 7.07, 274.43
446.68, 7.06, 274.73
446.88, 7.06, 275.07
447.09, 7.05, 275.43
447.31, 7.04, 275.82
447.56, 7.04, 276.26
447.84, 7.03, 276.74
448.15, 7.02, 277.28
448.51, 7.01, 277.88
448.91, 7.01, 278.57
449.36, 7.00, 279.35
449.77, 7.02, 280.08
450.27, 7.04, 280.94
451.70, 6.83, 283.38
452.14, 6.94, 284.15
452.82, 7.01, 285.34
453.14, 7.18, 285.92
453.12, 7.44, 285.92
453.11, 7.69, 285.92
453.09, 7.94, 285.92
453.07, 8.19, 285.92
453.05, 8.44, 285.92
453.04, 8.69, 285.92
453.02, 8.94, 285.92
453.00, 9.19, 285.92
445.76, 7.10, 273.00
445.88, 7.10, 273.20
446.00, 7.09, 273.40
446.13, 7.09, 273.62
446.27, 7.08, 273.86
446.42, 7.08, 274.12
446.59, 7.07, 274.39
446.77, 7.06, 274.70
446.97, 7.06, 275.03
447.19, 7.05, 275.39
447.42, 7.04, 275.78
447.67, 7.04, 276.22
447.96, 7.03, 276.70
448.28, 7.02, 277.23
448.64, 7.02, 277.84
449.05, 7.01, 278.53
449.53, 7.00, 279.32
449.92, 7.03, 279.98
450.42, 7.06, 280.83
452.01, 6.81, 283.48
452.47, 6.91, 284.27
453.05, 7.02, 285.26
453.43, 7.18, 285.92
453.42, 7.44, 285.92
453.40, 7.69, 285.92
¯453.38, 7.95, 285.92
453.36, 8.20, 285.92
453.34, 8.45, 285.92
453.33, 8.71, 285.92
453.31, 8.96, 285.92
453.29, 9.21, 285.92
445.82, 7.10, 272.98
445.94, 7.10, 273.17
446.07, 7.10, 273.37
446.20, 7.09, 273.59
446.35, 7.09, 273.83
446.50, 7.08, 274.08
446.67, 7.07, 274.36
446.86, 7.07, 274.66
447.06, 7.06, 274.99
447.28, 7.05, 275.36
447.52, 7.05, 275.75
447.79, 7.04, 276.18
448.08, 7.03, 276.65
448.41, 7.03, 277.19
448.78, 7.02, 277.79
449.20, 7.01, 278.48
449.70, 7.00, 279.30
450.10, 7.03, 279.96
450.57, 7.07, 280.73
452.34, 6.79, 283.59
452.82, 6.89, 284.40
453.54, 6.97, 285.57
445.89, 7.11, 272.94
446.01, 7.10, 273.13
446.14, 7.10, 273.34
446.27, 7.09, 273.56
446.42, 7.09, 273.79
446.58, 7.08, 274.05
446.76, 7.08, 274.32
446.94, 7.07, 274.62
447.15, 7.06, 274.95
447.38, 7.05, 275.31
447.63, 7.05, 275.70
447.90, 7.04, 276.13
448.20, 7.04, 276.61
448.53, 7.03, 277.15
448.91, 7.02, 277.75
449.35, 7.01, 278.44
449.86, 7.00, 279.25
450.28, 7.03, 279.93
450.75, 7.07, 280.68
452.67, 6.76, 283.70
453.16, 6.87, 284.50
453.53, 7.03, 285.10
445.95, 7.11, 272.91
¯446.07, 7.10, 273.10
446.20, 7.10, 273.30
446.34, 7.09, 273.52
446.50, 7.09, 273.76
446.66, 7.08, 274.01
446.84, 7.08, 274.28
447.03, 7.07, 274.58
447.24, 7.06, 274.91
447.48, 7.06, 275.27
447.73, 7.05, 275.66
448.01, 7.04, 276.09
448.31, 7.04, 276.57
448.66, 7.03, 277.10
449.05, 7.02, 277.70
449.50, 7.01, 278.40
450.02, 7.00, 279.21
450.47, 7.03, 279.90
450.95, 7.07, 280.65
453.01, 6.74, 283.81
453.40, 6.88, 284.44
453.78, 7.04, 285.04
446.01, 7.11, 272.88
446.14, 7.10, 273.07
446.27, 7.10, 273.27
446.42, 7.10, 273.49
446.57, 7.09, 273.72
446.74, 7.08, 273.97
446.92, 7.08, 274.24
447.12, 7.07, 274.54
447.33, 7.07, 274.87
447.57, 7.06, 275.23
447.83, 7.05, 275.62
448.11, 7.05, 276.04
448.43, 7.04, 276.52
448.78, 7.03, 277.05
449.18, 7.03, 277.65
449.65, 7.01, 278.35
450.19, 7.00, 279.17
450.65, 7.03, 279.87
451.15, 7.07, 280.62
453.28, 6.73, 283.80
453.65, 6.88, 284.37
454.04, 7.04, 284.98
446.08, 7.11, 272.85
446.20, 7.11, 273.03
446.34, 7.10, 273.23
446.49, 7.10, 273.45
446.64, 7.09, 273.68
446.82, 7.09, 273.93
447.00, 7.08, 274.20
447.20, 7.07, 274.50
¯447.43, 7.07, 274.83
447.67, 7.06, 275.18
447.94, 7.05, 275.57
448.22, 7.05, 276.00
448.55, 7.04, 276.47
448.91, 7.04, 277.00
449.32, 7.03, 277.60
449.80, 7.01, 278.31
450.35, 7.00, 279.12
450.84, 7.03, 279.84
453.17, 6.59, 283.22
453.52, 6.74, 283.74
453.89, 6.89, 284.31
454.29, 7.05, 284.92
446.14, 7.11, 272.81
446.27, 7.11, 273.00
446.41, 7.10, 273.20
446.56, 7.10, 273.41
446.72, 7.09, 273.64
446.89, 7.09, 273.89
447.08, 7.08, 274.16
447.29, 7.08, 274.46
447.52, 7.07, 274.78
447.77, 7.06, 275.14
448.04, 7.05, 275.53
448.33, 7.05, 275.95
448.66, 7.04, 276.42
449.03, 7.04, 276.95
449.45, 7.03, 277.54
449.95, 7.01, 278.26
450.52, 7.00, 279.07
451.03, 7.02, 279.81
453.47, 6.58, 283.25
453.79, 6.73, 283.73
454.14, 6.89, 284.24
454.55, 7.05, 284.85
446.20, 7.11, 272.78
446.33, 7.11, 272.96
446.47, 7.11, 273.16
446.63, 7.10, 273.37
446.79, 7.10, 273.60
446.97, 7.09, 273.85
447.16, 7.08, 274.12
447.37, 7.08, 274.42
447.61, 7.07, 274.74
447.86, 7.06, 275.09
448.14, 7.06, 275.48
448.44, 7.05, 275.90
448.78, 7.05, 276.37
449.16, 7.04, 276.90
449.49, 7.06, 277.36
¯450.09, 7.02, 278.20
450.68, 7.00, 279.02
451.47, 6.95, 280.12
453.77, 6.57, 283.28
454.10, 6.72, 283.76
454.46, 6.88, 284.28
454.84, 7.05, 284.82
446.26, 7.11, 272.74
446.40, 7.11, 272.93
446.54, 7.11, 273.12
446.70, 7.10, 273.34
446.86, 7.10, 273.56
447.05, 7.09, 273.81
447.24, 7.09, 274.08
447.46, 7.08, 274.37
447.70, 7.07, 274.69
447.96, 7.07, 275.04
448.24, 7.06, 275.43
448.55, 7.05, 275.85
448.90, 7.05, 276.32
449.27, 7.05, 276.82
449.58, 7.08, 277.25
450.13, 7.05, 278.00
450.85, 7.00, 278.97
453.17, 6.56, 282.08
454.08, 6.55, 283.31
454.42, 6.71, 283.80
454.79, 6.87, 284.32
455.25, 7.03, 284.95
446.32, 7.12, 272.71
446.46, 7.11, 272.89
446.61, 7.11, 273.09
446.77, 7.10, 273.30
446.94, 7.10, 273.52
447.12, 7.09, 273.77
447.32, 7.09, 274.03
447.54, 7.08, 274.32
447.79, 7.08, 274.64
448.05, 7.07, 274.99
448.34, 7.06, 275.38
448.66, 7.06, 275.80
449.01, 7.05, 276.27
449.36, 7.06, 276.72
449.67, 7.09, 277.14
450.17, 7.09, 277.80
450.88, 7.04, 278.74
453.49, 6.53, 282.14
454.39, 6.53, 283.33
454.75, 6.69, 283.83
455.17, 6.85, 284.40
446.38, 7.12, 272.67
¯446.52, 7.11, 272.85
446.67, 7.11, 273.05
446.83, 7.11, 273.25
447.01, 7.10, 273.48
447.20, 7.10, 273.72
447.40, 7.09, 273.99
447.63, 7.08, 274.28
447.87, 7.08, 274.59
448.14, 7.07, 274.94
448.44, 7.06, 275.33
448.77, 7.06, 275.75
449.13, 7.05, 276.21
449.44, 7.07, 276.62
449.76, 7.11, 277.04
450.20, 7.12, 277.60
450.91, 7.08, 278.51
453.82, 6.51, 282.21
454.71, 6.52, 283.36
455.09, 6.67, 283.87
455.71, 6.80, 284.68
446.44, 7.12, 272.63
446.59, 7.12, 272.81
446.74, 7.11, 273.01
446.90, 7.11, 273.21
447.08, 7.10, 273.44
447.27, 7.10, 273.68
447.48, 7.09, 273.94
447.71, 7.09, 274.23
447.96, 7.08, 274.54
448.24, 7.07, 274.89
448.54, 7.07, 275.27
448.88, 7.06, 275.69
449.24, 7.06, 276.15
449.53, 7.09, 276.52
449.86, 7.12, 276.93
450.23, 7.15, 277.41
450.93, 7.11, 278.29
454.15, 6.48, 282.28
455.03, 6.50, 283.39
455.61, 6.62, 284.13
456.28, 6.75, 284.98
446.50, 7.12, 272.60
446.65, 7.12, 272.77
446.80, 7.11, 272.97
446.97, 7.11, 273.17
447.15, 7.11, 273.39
447.35, 7.10, 273.63
447.56, 7.09, 273.89
447.80, 7.09, 274.18
448.05, 7.08, 274.49
448.33, 7.08, 274.84
¯448.64, 7.07, 275.22
448.98, 7.06, 275.64
449.32, 7.07, 276.05
449.62, 7.10, 276.42
449.95, 7.14, 276.83
450.30, 7.18, 277.27
450.96, 7.15, 278.07
454.46, 6.46, 282.31
455.48, 6.46, 283.55
456.17, 6.56, 284.41
446.56, 7.12, 272.56
446.71, 7.12, 272.74
446.87, 7.11, 272.93
447.04, 7.11, 273.13
447.22, 7.11, 273.35
447.42, 7.10, 273.59
447.64, 7.10, 273.85
447.88, 7.09, 274.13
448.14, 7.08, 274.44
448.42, 7.08, 274.78
448.74, 7.07, 275.16
449.09, 7.06, 275.58
449.40, 7.08, 275.95
449.70, 7.11, 276.32
450.03, 7.15, 276.72
450.40, 7.19, 277.16
450.98, 7.19, 277.86
454.78, 6.44, 282.34
455.72, 6.46, 283.46
456.55, 6.54, 284.47
446.63, 7.12, 272.52
446.78, 7.12, 272.70
446.94, 7.12, 272.88
447.11, 7.11, 273.09
447.30, 7.11, 273.31
447.50, 7.10, 273.54
447.72, 7.10, 273.80
447.96, 7.09, 274.08
448.23, 7.09, 274.39
448.52, 7.08, 274.73
448.84, 7.07, 275.10
449.20, 7.07, 275.52
449.48, 7.09, 275.86
449.79, 7.13, 276.22
450.12, 7.16, 276.61
450.49, 7.20, 277.04
451.00, 7.22, 277.65
455.10, 6.42, 282.36
455.96, 6.47, 283.36
456.81, 6.55, 284.37
446.69, 7.12, 272.48
¯446.84, 7.12, 272.66
447.00, 7.12, 272.84
447.18, 7.11, 273.04
447.37, 7.11, 273.26
447.58, 7.10, 273.50
447.80, 7.10, 273.75
448.05, 7.09, 274.03
448.32, 7.09, 274.34
448.61, 7.08, 274.67
448.94, 7.07, 275.05
449.27, 7.08, 275.42
449.56, 7.11, 275.76
449.87, 7.14, 276.12
450.21, 7.18, 276.51
450.58, 7.22, 276.93
451.02, 7.25, 277.44
452.59, 7.05, 279.20
456.20, 6.47, 283.26
459.11, 6.16, 286.55
446.75, 7.12, 272.44
446.90, 7.12, 272.62
447.07, 7.12, 272.80
447.25, 7.11, 273.00
447.44, 7.11, 273.22
447.65, 7.10, 273.45
447.88, 7.10, 273.70
448.13, 7.09, 273.98
448.40, 7.09, 274.28
448.71, 7.08, 274.62
449.04, 7.08, 274.99
449.30, 7.11, 275.28
449.52, 7.16, 275.53
449.86, 7.18, 275.91
450.23, 7.21, 276.33
450.65, 7.24, 276.79
451.08, 7.28, 277.28
452.61, 7.09, 278.96
456.43, 6.48, 283.15
446.81, 7.12, 272.40
446.96, 7.12, 272.57
447.13, 7.12, 272.76
447.32, 7.11, 272.96
447.51, 7.11, 273.17
447.73, 7.11, 273.40
447.96, 7.10, 273.65
448.22, 7.10, 273.93
448.49, 7.09, 274.23
448.80, 7.08, 274.56
449.14, 7.08, 274.93
449.34, 7.13, 275.15
449.50, 7.20, 275.34
¯449.78, 7.24, 275.65
450.14, 7.27, 276.04
450.54, 7.30, 276.47
450.98, 7.34, 276.96
452.39, 7.18, 278.46
456.66, 6.48, 283.03
446.87, 7.13, 272.36
447.03, 7.12, 272.53
447.20, 7.12, 272.71
447.38, 7.11, 272.91
447.59, 7.11, 273.12
447.80, 7.11, 273.35
448.04, 7.10, 273.60
448.30, 7.10, 273.88
448.58, 7.09, 274.18
448.90, 7.08, 274.51
449.23, 7.08, 274.86
449.38, 7.15, 275.03
449.54, 7.22, 275.21
449.71, 7.29, 275.39
450.06, 7.33, 275.76
450.44, 7.36, 276.17
450.87, 7.40, 276.63
451.70, 7.36, 277.51
456.86, 6.50, 282.89
446.92, 7.13, 272.32
447.09, 7.12, 272.49
447.26, 7.12, 272.67
447.45, 7.12, 272.86
447.66, 7.11, 273.07
447.88, 7.11, 273.30
448.12, 7.10, 273.55
448.38, 7.10, 273.82
448.67, 7.09, 274.12
448.99, 7.09, 274.45
449.27, 7.10, 274.74
449.42, 7.17, 274.91
449.58, 7.24, 275.08
449.75, 7.32, 275.26
449.98, 7.38, 275.50
450.35, 7.42, 275.89
450.76, 7.46, 276.31
451.28, 7.49, 276.86
457.05, 6.51, 282.73
446.98, 7.13, 272.28
447.15, 7.12, 272.44
447.33, 7.12, 272.62
447.52, 7.12, 272.82
447.73, 7.11, 273.03
447.95, 7.11, 273.25
448.20, 7.10, 273.50
¯448.47, 7.10, 273.77
448.76, 7.09, 274.07
449.08, 7.09, 274.39
449.31, 7.12, 274.62
449.46, 7.19, 274.78
449.62, 7.26, 274.95
449.79, 7.34, 275.13
449.97, 7.41, 275.31
450.26, 7.47, 275.61
450.65, 7.51, 276.01
451.09, 7.56, 276.46
452.55, 7.42, 277.92
447.04, 7.13, 272.23
447.21, 7.12, 272.40
447.39, 7.12, 272.58
447.59, 7.12, 272.77
447.80, 7.11, 272.98
448.03, 7.11, 273.20
448.28, 7.10, 273.45
448.55, 7.10, 273.71
448.85, 7.09, 274.01
449.18, 7.09, 274.33
449.35, 7.14, 274.51
449.50, 7.21, 274.66
449.66, 7.28, 274.83
449.83, 7.36, 275.00
450.01, 7.43, 275.18
450.19, 7.52, 275.37
450.55, 7.56, 275.73
450.97, 7.61, 276.14
451.95, 7.57, 277.10
447.10, 7.13, 272.19
447.27, 7.13, 272.35
447.45, 7.12, 272.53
447.65, 7.12, 272.72
447.87, 7.11, 272.92
448.10, 7.11, 273.15
448.35, 7.11, 273.39
448.63, 7.10, 273.66
448.93, 7.10, 273.95
449.24, 7.10, 274.24
449.39, 7.16, 274.39
449.54, 7.23, 274.54
449.70, 7.30, 274.70
449.87, 7.38, 274.87
450.05, 7.45, 275.05
450.23, 7.54, 275.23
450.45, 7.61, 275.45
450.86, 7.66, 275.84
451.55, 7.67, 276.51
447.16, 7.13, 272.14
¯447.33, 7.13, 272.31
447.52, 7.12, 272.48
447.72, 7.12, 272.67
447.94, 7.12, 272.87
448.17, 7.11, 273.09
448.43, 7.11, 273.34
448.71, 7.10, 273.60
449.02, 7.10, 273.89
449.28, 7.12, 274.13
449.43, 7.18, 274.27
449.58, 7.25, 274.42
449.74, 7.32, 274.58
449.91, 7.40, 274.75
450.08, 7.47, 274.92
450.27, 7.56, 275.10
450.46, 7.64, 275.28
450.75, 7.71, 275.56
451.19, 7.77, 275.98
452.67, 7.66, 277.36
447.21, 7.13, 272.10
447.39, 7.13, 272.26
447.58, 7.12, 272.43
447.78, 7.12, 272.62
448.00, 7.12, 272.82
448.24, 7.11, 273.04
448.51, 7.11, 273.28
448.79, 7.10, 273.54
449.11, 7.10, 273.83
449.31, 7.14, 274.02
449.46, 7.20, 274.16
449.62, 7.27, 274.31
449.78, 7.34, 274.46
449.94, 7.42, 274.62
450.12, 7.49, 274.79
450.30, 7.57, 274.96
450.49, 7.66, 275.14
450.70, 7.75, 275.34
451.06, 7.82, 275.67
452.20, 7.77, 276.71
447.27, 7.13, 272.05
447.45, 7.13, 272.21
447.64, 7.12, 272.38
447.85, 7.12, 272.57
448.07, 7.12, 272.77
448.32, 7.11, 272.98
448.58, 7.11, 273.22
448.87, 7.10, 273.48
449.19, 7.10, 273.76
449.35, 7.16, 273.91
449.50, 7.22, 274.05
449.65, 7.29, 274.19
¯449.81, 7.36, 274.34
449.98, 7.43, 274.49
450.15, 7.51, 274.66
450.34, 7.59, 274.83
450.53, 7.68, 275.01
450.73, 7.77, 275.19
450.94, 7.86, 275.39
451.78, 7.86, 276.14
447.32, 7.13, 272.00
447.51, 7.13, 272.16
447.70, 7.13, 272.33
447.91, 7.12, 272.51
448.14, 7.12, 272.71
448.39, 7.11, 272.93
448.66, 7.11, 273.16
448.95, 7.11, 273.42
449.24, 7.11, 273.67
449.38, 7.17, 273.80
449.53, 7.24, 273.93
449.69, 7.31, 274.07
449.85, 7.38, 274.22
450.01, 7.45, 274.37
450.19, 7.53, 274.53
450.37, 7.61, 274.70
450.56, 7.70, 274.87
450.76, 7.78, 275.05
450.98, 7.88, 275.24
451.41, 7.94, 275.63
452.25, 7.96, 276.36
447.38, 7.13, 271.95
447.56, 7.13, 272.11
447.76, 7.13, 272.28
447.98, 7.12, 272.46
448.21, 7.12, 272.66
448.46, 7.12, 272.87
448.73, 7.11, 273.10
449.03, 7.11, 273.36
449.28, 7.13, 273.56
449.42, 7.19, 273.69
449.57, 7.26, 273.82
449.72, 7.33, 273.96
449.88, 7.40, 274.10
450.04, 7.47, 274.24
450.20, 7.55, 274.39
450.37, 7.64, 274.54
450.55, 7.72, 274.70
450.74, 7.81, 274.86
450.93, 7.91, 275.04
451.14, 8.01, 275.22
451.43, 8.10, 275.47
452.27, 8.14, 276.19
¯447.43, 7.13, 271.91
447.62, 7.13, 272.06
447.82, 7.13, 272.23
448.04, 7.12, 272.41
448.27, 7.12, 272.60
448.53, 7.12, 272.81
448.81, 7.11, 273.04
449.11, 7.11, 273.29
449.28, 7.16, 273.43
449.41, 7.22, 273.55
449.55, 7.29, 273.67
449.69, 7.36, 273.79
449.84, 7.44, 273.92
449.99, 7.51, 274.05
450.15, 7.59, 274.19
450.32, 7.67, 274.34
450.49, 7.76, 274.49
450.67, 7.85, 274.64
450.86, 7.94, 274.81
451.06, 8.04, 274.98
451.27, 8.14, 275.17
451.50, 8.25, 275.37
452.28, 8.31, 276.02
447.49, 7.13, 271.86
447.68, 7.13, 272.01
447.88, 7.13, 272.17
448.10, 7.13, 272.35
448.34, 7.12, 272.54
448.60, 7.12, 272.75
448.87, 7.12, 272.97
449.18, 7.11, 273.22
449.30, 7.18, 273.32
449.39, 7.26, 273.40
449.51, 7.33, 273.50
449.65, 7.40, 273.62
449.79, 7.47, 273.74
449.94, 7.55, 273.87
450.10, 7.63, 274.00
450.26, 7.71, 274.14
450.43, 7.79, 274.28
450.60, 7.88, 274.43
450.79, 7.98, 274.59
450.98, 8.07, 274.76
451.18, 8.18, 274.93
451.41, 8.28, 275.12
451.65, 8.39, 275.32
452.29, 8.48, 275.85
447.54, 7.14, 271.80
447.73, 7.13, 271.96
447.94, 7.13, 272.12
448.16, 7.13, 272.29
¯448.40, 7.13, 272.48
448.66, 7.12, 272.68
448.94, 7.12, 272.90
449.23, 7.12, 273.13
449.32, 7.20, 273.21
449.41, 7.28, 273.29
449.50, 7.36, 273.37
449.61, 7.44, 273.46
449.75, 7.51, 273.57
449.89, 7.58, 273.69
450.05, 7.66, 273.82
450.20, 7.74, 273.95
450.37, 7.83, 274.09
450.54, 7.92, 274.23
450.72, 8.01, 274.38
450.91, 8.10, 274.54
451.11, 8.21, 274.70
451.32, 8.31, 274.88
451.55, 8.42, 275.07
451.79, 8.54, 275.27
452.30, 8.64, 275.67
447.59, 7.14, 271.75
447.79, 7.14, 271.90
447.99, 7.13, 272.06
448.22, 7.13, 272.23
448.46, 7.13, 272.41
448.72, 7.13, 272.62
449.00, 7.12, 272.83
449.25, 7.14, 273.02
449.34, 7.22, 273.10
449.43, 7.30, 273.17
449.52, 7.38, 273.25
449.62, 7.46, 273.33
449.72, 7.54, 273.41
449.85, 7.62, 273.52
450.00, 7.69, 273.64
450.15, 7.78, 273.77
450.31, 7.86, 273.90
450.48, 7.95, 274.04
450.66, 8.04, 274.18
450.84, 8.13, 274.33
451.03, 8.23, 274.48
451.23, 8.34, 274.65
451.46, 8.45, 274.83
451.69, 8.56, 275.01
451.94, 8.68, 275.22
452.30, 8.80, 275.50
447.64, 7.14, 271.70
447.84, 7.14, 271.84
448.04, 7.14, 272.00
448.27, 7.13, 272.17
¯448.51, 7.13, 272.35
448.78, 7.13, 272.55
449.07, 7.13, 272.76
449.26, 7.16, 272.91
449.35, 7.24, 272.99
449.44, 7.32, 273.06
449.54, 7.39, 273.14
449.63, 7.48, 273.22
449.73, 7.56, 273.30
449.83, 7.64, 273.38
449.95, 7.73, 273.47
450.10, 7.81, 273.59
450.26, 7.89, 273.72
450.42, 7.98, 273.85
450.59, 8.07, 273.98
450.77, 8.16, 274.12
450.96, 8.26, 274.27
451.15, 8.36, 274.42
451.37, 8.47, 274.59
451.59, 8.58, 274.77
451.83, 8.70, 274.96
452.09, 8.83, 275.16
452.35, 8.96, 275.37
447.69, 7.14, 271.64
447.89, 7.14, 271.78
448.10, 7.14, 271.94
448.32, 7.14, 272.10
448.57, 7.14, 272.28
448.84, 7.13, 272.48
449.13, 7.13, 272.69
449.28, 7.18, 272.81
449.37, 7.26, 272.88
449.46, 7.34, 272.95
449.56, 7.41, 273.02
449.65, 7.49, 273.10
449.75, 7.58, 273.18
449.85, 7.66, 273.26
449.95, 7.75, 273.34
450.06, 7.84, 273.42
450.20, 7.92, 273.54
450.36, 8.01, 273.66
450.53, 8.10, 273.79
450.70, 8.19, 273.92
450.88, 8.29, 274.06
451.07, 8.39, 274.21
451.28, 8.50, 274.37
451.50, 8.61, 274.54
451.73, 8.72, 274.72
451.98, 8.85, 274.91
452.24, 8.98, 275.11
452.51, 9.11, 275.32
¯447.74, 7.15, 271.58
447.93, 7.15, 271.72
448.15, 7.14, 271.88
448.38, 7.14, 272.04
448.63, 7.14, 272.22
448.90, 7.14, 272.41
449.19, 7.14, 272.62
449.30, 7.20, 272.70
449.39, 7.28, 272.77
449.48, 7.35, 272.84
449.57, 7.43, 272.91
449.67, 7.51, 272.99
449.76, 7.59, 273.06
449.86, 7.68, 273.14
449.97, 7.76, 273.22
450.07, 7.85, 273.30
450.18, 7.94, 273.38
450.31, 8.03, 273.48
450.47, 8.12, 273.61
450.64, 8.22, 273.73
450.82, 8.31, 273.87
451.00, 8.41, 274.01
451.19, 8.52, 274.15
451.41, 8.63, 274.31
451.63, 8.74, 274.48
451.87, 8.86, 274.66
452.12, 8.99, 274.85
452.39, 9.13, 275.05
452.67, 9.27, 275.26
447.78, 7.15, 271.53
447.98, 7.15, 271.67
448.20, 7.15, 271.82
448.43, 7.14, 271.98
448.68, 7.14, 272.15
448.96, 7.14, 272.34
449.23, 7.15, 272.53
449.32, 7.22, 272.60
449.40, 7.30, 272.66
449.49, 7.37, 272.73
449.59, 7.45, 272.80
449.68, 7.53, 272.87
449.78, 7.61, 272.95
449.88, 7.70, 273.02
449.98, 7.78, 273.10
450.08, 7.87, 273.18
450.19, 7.96, 273.26
450.30, 8.05, 273.34
450.42, 8.15, 273.43
450.58, 8.24, 273.55
450.75, 8.34, 273.68
450.93, 8.44, 273.81
¯451.12, 8.54, 273.95
451.32, 8.65, 274.10
451.54, 8.76, 274.26
451.77, 8.88, 274.43
452.01, 9.01, 274.61
452.27, 9.14, 274.79
452.54, 9.28, 274.99
452.83, 9.43, 275.20
447.83, 7.15, 271.47
448.03, 7.15, 271.61
448.25, 7.15, 271.75
448.48, 7.15, 271.91
448.74, 7.15, 272.08
449.01, 7.14, 272.27
449.25, 7.17, 272.43
449.33, 7.24, 272.49
449.42, 7.31, 272.56
449.51, 7.39, 272.62
449.60, 7.47, 272.69
449.70, 7.55, 272.76
449.79, 7.63, 272.83
449.89, 7.71, 272.91
449.99, 7.80, 272.98
450.10, 7.89, 273.06
450.20, 7.98, 273.14
450.31, 8.07, 273.22
450.43, 8.16, 273.30
450.54, 8.26, 273.39
450.68, 8.36, 273.49
450.86, 8.46, 273.62
451.04, 8.56, 273.75
451.24, 8.67, 273.89
451.45, 8.78, 274.04
451.67, 8.90, 274.20
451.91, 9.02, 274.37
452.16, 9.15, 274.55
452.42, 9.29, 274.74
452.71, 9.44, 274.94
453.04, 9.59, 275.18
447.87, 7.15, 271.41
448.08, 7.15, 271.54
448.30, 7.15, 271.69
448.53, 7.15, 271.85
448.79, 7.15, 272.01
449.07, 7.15, 272.20
449.26, 7.18, 272.33
449.35, 7.26, 272.39
449.44, 7.33, 272.45
449.53, 7.41, 272.52
449.62, 7.48, 272.58
449.71, 7.56, 272.65
¯449.81, 7.65, 272.72
449.91, 7.73, 272.79
450.01, 7.81, 272.87
450.11, 7.90, 272.94
450.22, 7.99, 273.02
450.33, 8.08, 273.10
450.44, 8.18, 273.18
450.55, 8.28, 273.26
450.67, 8.38, 273.35
450.79, 8.48, 273.43
450.97, 8.58, 273.56
451.16, 8.69, 273.69
451.36, 8.80, 273.83
451.58, 8.91, 273.98
451.81, 9.04, 274.14
452.05, 9.16, 274.31
452.34, 9.30, 274.51
452.64, 9.44, 274.72
452.96, 9.60, 274.94
447.92, 7.16, 271.35
448.12, 7.16, 271.48
448.34, 7.16, 271.63
448.58, 7.16, 271.78
448.84, 7.15, 271.95
449.13, 7.15, 272.13
449.28, 7.20, 272.23
449.36, 7.27, 272.29
449.45, 7.35, 272.35
449.54, 7.42, 272.41
449.63, 7.50, 272.48
449.73, 7.58, 272.54
449.82, 7.66, 272.61
449.92, 7.74, 272.68
450.02, 7.83, 272.75
450.12, 7.92, 272.82
450.23, 8.01, 272.90
450.34, 8.10, 272.97
450.45, 8.19, 273.05
450.56, 8.29, 273.13
450.68, 8.39, 273.22
450.80, 8.49, 273.30
450.93, 8.60, 273.39
451.08, 8.70, 273.50
451.28, 8.81, 273.63
451.49, 8.93, 273.77
451.73, 9.05, 273.94
451.99, 9.17, 274.11
452.27, 9.31, 274.30
452.57, 9.45, 274.50
452.88, 9.60, 274.72
447.96, 7.16, 271.29
¯448.17, 7.16, 271.42
448.39, 7.16, 271.56
448.63, 7.16, 271.71
448.90, 7.16, 271.88
449.18, 7.16, 272.05
449.29, 7.22, 272.13
449.38, 7.29, 272.19
449.47, 7.36, 272.25
449.55, 7.44, 272.31
449.65, 7.52, 272.37
449.74, 7.60, 272.43
449.83, 7.68, 272.50
449.93, 7.76, 272.57
450.03, 7.84, 272.64
450.14, 7.93, 272.71
450.24, 8.02, 272.78
450.35, 8.11, 272.85
450.46, 8.21, 272.93
450.57, 8.30, 273.01
450.69, 8.40, 273.09
450.81, 8.50, 273.17
450.94, 8.61, 273.26
451.07, 8.72, 273.34
451.21, 8.83, 273.44
451.44, 8.94, 273.59
451.68, 9.06, 273.75
451.94, 9.18, 273.92
452.21, 9.32, 274.10
452.50, 9.46, 274.29
452.81, 9.61, 274.50
448.01, 7.16, 271.23
448.21, 7.16, 271.36
448.44, 7.16, 271.50
448.68, 7.16, 271.64
448.95, 7.16, 271.80
449.22, 7.16, 271.97
449.31, 7.23, 272.03
449.39, 7.31, 272.08
449.48, 7.38, 272.14
449.57, 7.46, 272.20
449.66, 7.53, 272.26
449.75, 7.61, 272.33
449.85, 7.69, 272.39
449.95, 7.78, 272.46
450.05, 7.86, 272.52
450.15, 7.95, 272.59
450.25, 8.04, 272.66
450.36, 8.13, 272.73
450.47, 8.22, 272.81
450.58, 8.32, 272.88
450.70, 8.41, 272.96
¯450.85, 8.51, 273.06
451.01, 8.62, 273.16
451.17, 8.72, 273.27
451.28, 8.84, 273.35
451.40, 8.95, 273.43
451.63, 9.07, 273.57
451.88, 9.19, 273.73
452.15, 9.32, 273.91
452.43, 9.46, 274.09
452.73, 9.61, 274.28
448.05, 7.16, 271.17
448.26, 7.17, 271.30
448.49, 7.17, 271.43
448.73, 7.17, 271.58
449.00, 7.16, 271.73
449.24, 7.18, 271.88
449.32, 7.25, 271.93
449.41, 7.32, 271.99
449.49, 7.40, 272.04
449.58, 7.47, 272.10
449.67, 7.55, 272.16
449.77, 7.63, 272.22
449.86, 7.71, 272.28
449.96, 7.79, 272.35
450.06, 7.87, 272.41
450.16, 7.96, 272.48
450.26, 8.05, 272.54
450.39, 8.14, 272.62
450.52, 8.23, 272.71
450.66, 8.32, 272.80
450.81, 8.42, 272.89
450.96, 8.52, 272.99
451.11, 8.62, 273.09
451.25, 8.73, 273.17
451.36, 8.84, 273.25
451.49, 8.96, 273.33
451.61, 9.08, 273.42
451.83, 9.20, 273.55
452.09, 9.33, 273.72
452.37, 9.47, 273.89
452.66, 9.62, 274.07
448.09, 7.17, 271.11
448.30, 7.17, 271.24
448.53, 7.17, 271.37
448.78, 7.17, 271.51
449.05, 7.17, 271.66
449.25, 7.20, 271.78
449.34, 7.27, 271.83
449.42, 7.34, 271.89
449.51, 7.41, 271.94
449.60, 7.49, 272.00
¯449.69, 7.56, 272.06
449.78, 7.64, 272.11
449.87, 7.72, 272.17
449.97, 7.80, 272.24
450.09, 7.88, 272.31
450.22, 7.97, 272.39
450.35, 8.05, 272.47
450.48, 8.14, 272.55
450.62, 8.23, 272.64
450.76, 8.32, 272.73
450.91, 8.42, 272.82
451.06, 8.52, 272.92
451.21, 8.63, 273.01
451.32, 8.74, 273.08
451.44, 8.85, 273.16
451.57, 8.97, 273.24
451.69, 9.09, 273.32
451.82, 9.21, 273.40
452.03, 9.34, 273.53
452.30, 9.48, 273.70
452.59, 9.62, 273.87
448.13, 7.17, 271.05
448.35, 7.17, 271.17
448.58, 7.17, 271.30
448.83, 7.17, 271.44
449.10, 7.17, 271.59
449.27, 7.21, 271.69
449.35, 7.28, 271.74
449.43, 7.35, 271.79
449.52, 7.43, 271.84
449.61, 7.50, 271.90
449.70, 7.58, 271.96
449.82, 7.65, 272.03
449.94, 7.73, 272.10
450.06, 7.80, 272.17
450.18, 7.88, 272.24
450.31, 7.97, 272.32
450.44, 8.05, 272.40
450.58, 8.14, 272.48
450.72, 8.23, 272.57
450.86, 8.32, 272.66
451.01, 8.42, 272.75
451.17, 8.52, 272.84
451.29, 8.63, 272.91
451.40, 8.74, 272.99
451.52, 8.86, 273.06
451.65, 8.97, 273.14
451.78, 9.10, 273.22
451.91, 9.22, 273.30
452.04, 9.35, 273.39
452.24, 9.48, 273.51
¯452.52, 9.62, 273.68
448.18, 7.17, 270.99
448.39, 7.17, 271.11
448.62, 7.17, 271.23
448.87, 7.17, 271.37
449.14, 7.18, 271.51
449.28, 7.23, 271.59
449.36, 7.30, 271.64
449.46, 7.37, 271.70
449.56, 7.43, 271.76
449.67, 7.50, 271.82
449.79, 7.57, 271.89
449.90, 7.65, 271.96
450.02, 7.72, 272.03
450.14, 7.80, 272.10
450.27, 7.88, 272.17
450.40, 7.97, 272.25
450.53, 8.05, 272.33
450.67, 8.14, 272.41
450.82, 8.23, 272.50
450.97, 8.33, 272.58
451.12, 8.42, 272.67
451.25, 8.53, 272.75
451.36, 8.64, 272.82
451.48, 8.75, 272.89
451.61, 8.86, 272.97
451.73, 8.98, 273.04
451.86, 9.10, 273.12
451.99, 9.23, 273.20
452.13, 9.36, 273.29
452.27, 9.49, 273.37
452.46, 9.63, 273.49
448.22, 7.18, 270.93
448.43, 7.18, 271.04
448.67, 7.18, 271.17
448.92, 7.18, 271.30
449.19, 7.18, 271.44
449.33, 7.23, 271.52
449.43, 7.30, 271.57
449.53, 7.36, 271.63
449.64, 7.43, 271.70
449.75, 7.50, 271.76
449.87, 7.57, 271.82
449.99, 7.65, 271.89
450.11, 7.72, 271.96
450.23, 7.80, 272.03
450.36, 7.88, 272.10
450.49, 7.96, 272.18
450.63, 8.05, 272.26
450.77, 8.14, 272.34
450.92, 8.23, 272.42
¯451.07, 8.33, 272.51
451.21, 8.43, 272.59
451.32, 8.53, 272.66
451.44, 8.64, 272.73
451.56, 8.76, 272.80
451.69, 8.87, 272.87
451.81, 8.99, 272.95
451.94, 9.11, 273.03
452.08, 9.24, 273.11
452.22, 9.37, 273.19
452.36, 9.50, 273.27
452.51, 9.64, 273.36
448.26, 7.18, 270.87
448.48, 7.18, 270.98
448.71, 7.18, 271.10
448.97, 7.18, 271.23
449.23, 7.18, 271.36
449.37, 7.23, 271.44
449.50, 7.29, 271.51
449.61, 7.36, 271.57
449.72, 7.43, 271.63
449.83, 7.50, 271.69
449.95, 7.57, 271.76
450.07, 7.64, 271.82
450.19, 7.72, 271.89
450.32, 7.80, 271.96
450.45, 7.88, 272.03
450.59, 7.96, 272.11
450.73, 8.05, 272.19
450.87, 8.14, 272.27
451.02, 8.23, 272.35
451.17, 8.33, 272.43
451.29, 8.43, 272.50
451.40, 8.54, 272.57
451.52, 8.65, 272.63
451.64, 8.76, 272.70
451.77, 8.88, 272.78
451.90, 9.00, 272.85
452.03, 9.12, 272.93
452.17, 9.24, 273.01
452.31, 9.37, 273.09
452.45, 9.51, 273.17
452.60, 9.65, 273.26
448.29, 7.18, 270.80
448.52, 7.18, 270.91
448.75, 7.18, 271.03
449.02, 7.18, 271.16
449.26, 7.19, 271.28
449.40, 7.24, 271.35
449.55, 7.30, 271.43
449.69, 7.35, 271.50
¯449.80, 7.42, 271.56
449.91, 7.49, 271.62
450.03, 7.57, 271.69
450.15, 7.64, 271.75
450.28, 7.72, 271.82
450.41, 7.80, 271.89
450.54, 7.88, 271.96
450.68, 7.96, 272.04
450.82, 8.05, 272.11
450.97, 8.14, 272.19
451.12, 8.23, 272.27
451.25, 8.33, 272.34
451.36, 8.44, 272.41
451.48, 8.54, 272.47
451.60, 8.65, 272.54
451.72, 8.77, 272.61
451.85, 8.88, 272.68
451.98, 9.00, 272.75
452.11, 9.13, 272.83
452.25, 9.25, 272.90
452.40, 9.38, 272.98
452.54, 9.52, 273.07
452.69, 9.66, 273.15
448.33, 7.18, 270.74
448.56, 7.18, 270.84
448.80, 7.18, 270.96
449.07, 7.18, 271.09
449.28, 7.20, 271.19
449.43, 7.25, 271.27
449.57, 7.31, 271.34
449.73, 7.36, 271.42
449.88, 7.42, 271.50
450.00, 7.49, 271.56
450.12, 7.56, 271.62
450.24, 7.64, 271.68
450.37, 7.71, 271.75
450.50, 7.79, 271.82
450.64, 7.88, 271.89
450.78, 7.96, 271.96
450.92, 8.05, 272.04
451.07, 8.14, 272.12
451.21, 8.24, 272.19
451.32, 8.34, 272.25
451.44, 8.44, 272.31
451.56, 8.55, 272.38
451.68, 8.66, 272.44
451.80, 8.77, 272.51
451.93, 8.89, 272.58
452.06, 9.01, 272.65
452.20, 9.13, 272.73
452.34, 9.26, 272.80
¯452.48, 9.39, 272.88
452.63, 9.53, 272.96
452.77, 9.67, 273.04
448.37, 7.19, 270.67
448.60, 7.18, 270.78
448.85, 7.18, 270.90
449.12, 7.18, 271.02
449.31, 7.21, 271.11
449.45, 7.26, 271.18
449.60, 7.32, 271.25
449.75, 7.37, 271.33
449.91, 7.43, 271.41
450.08, 7.49, 271.49
450.20, 7.56, 271.55
450.33, 7.63, 271.61
450.46, 7.71, 271.68
450.59, 7.79, 271.75
450.73, 7.87, 271.82
450.87, 7.96, 271.89
451.02, 8.05, 271.96
451.17, 8.14, 272.04
451.28, 8.24, 272.10
451.40, 8.34, 272.16
451.51, 8.45, 272.22
451.63, 8.56, 272.28
451.76, 8.67, 272.35
451.88, 8.78, 272.41
452.01, 8.90, 272.48
452.15, 9.02, 272.55
452.29, 9.14, 272.63
452.42, 9.27, 272.70
452.54, 9.40, 272.76
452.67, 9.53, 272.83
452.80, 9.67, 272.90
448.41, 7.19, 270.61
448.64, 7.19, 270.71
448.89, 7.18, 270.83
449.17, 7.18, 270.95
449.33, 7.22, 271.03
449.47, 7.27, 271.09
449.62, 7.33, 271.16
449.78, 7.38, 271.24
449.94, 7.44, 271.31
450.11, 7.49, 271.39
450.28, 7.56, 271.48
450.41, 7.63, 271.54
450.55, 7.71, 271.61
450.68, 7.79, 271.67
450.82, 7.87, 271.74
450.97, 7.96, 271.81
451.12, 8.05, 271.89
¯451.24, 8.14, 271.95
451.36, 8.24, 272.01
451.47, 8.35, 272.07
451.59, 8.45, 272.13
451.71, 8.56, 272.19
451.84, 8.67, 272.25
451.97, 8.79, 272.32
452.09, 8.90, 272.38
452.20, 9.02, 272.44
452.32, 9.15, 272.50
452.44, 9.28, 272.57
452.57, 9.41, 272.63
452.69, 9.54, 272.70
452.82, 9.68, 272.76
448.45, 7.19, 270.55
448.69, 7.19, 270.65
448.94, 7.18, 270.76
449.21, 7.18, 270.88
449.35, 7.23, 270.94
449.50, 7.28, 271.01
449.65, 7.33, 271.08
449.80, 7.39, 271.15
449.96, 7.45, 271.22
450.13, 7.50, 271.30
450.30, 7.57, 271.38
450.49, 7.63, 271.46
450.64, 7.71, 271.53
450.78, 7.79, 271.60
450.92, 7.87, 271.67
451.07, 7.96, 271.74
451.21, 8.05, 271.80
451.32, 8.15, 271.86
451.43, 8.25, 271.91
451.55, 8.35, 271.97
451.67, 8.46, 272.03
451.79, 8.57, 272.09
451.89, 8.68, 272.14
452.00, 8.79, 272.20
452.12, 8.91, 272.26
452.23, 9.03, 272.32
452.35, 9.16, 272.37
452.47, 9.28, 272.44
452.59, 9.42, 272.50
452.72, 9.55, 272.56
452.85, 9.69, 272.63
448.49, 7.19, 270.48
448.73, 7.19, 270.58
448.98, 7.19, 270.69
449.24, 7.19, 270.80
449.38, 7.24, 270.86
449.52, 7.29, 270.92
¯449.67, 7.34, 270.99
449.83, 7.40, 271.06
449.99, 7.46, 271.13
450.15, 7.51, 271.20
450.33, 7.58, 271.28
450.51, 7.64, 271.36
450.70, 7.71, 271.45
450.87, 7.78, 271.52
451.01, 7.87, 271.59
451.17, 7.95, 271.66
451.28, 8.05, 271.71
451.39, 8.15, 271.77
451.51, 8.25, 271.82
451.61, 8.36, 271.87
451.71, 8.46, 271.92
451.81, 8.57, 271.97
451.92, 8.69, 272.02
452.03, 8.80, 272.08
452.14, 8.92, 272.13
452.26, 9.04, 272.19
452.38, 9.17, 272.25
452.50, 9.29, 272.31
452.62, 9.42, 272.37
452.75, 9.56, 272.43
452.88, 9.70, 272.49
448.53, 7.19, 270.42
448.77, 7.19, 270.51
449.03, 7.19, 270.62
449.26, 7.20, 270.71
449.40, 7.25, 270.77
449.54, 7.30, 270.84
449.69, 7.35, 270.90
449.85, 7.41, 270.97
450.01, 7.46, 271.04
450.18, 7.52, 271.11
450.35, 7.59, 271.18
450.54, 7.65, 271.26
450.73, 7.72, 271.34
450.93, 7.79, 271.43
451.11, 7.86, 271.51
451.24, 7.96, 271.57
451.34, 8.06, 271.61
451.43, 8.16, 271.66
451.53, 8.26, 271.71
451.63, 8.37, 271.75
451.74, 8.47, 271.80
451.84, 8.58, 271.85
451.95, 8.70, 271.90
452.06, 8.81, 271.96
452.17, 8.93, 272.01
452.28, 9.05, 272.06
¯452.40, 9.17, 272.12
452.52, 9.30, 272.18
452.65, 9.43, 272.24
452.77, 9.56, 272.30
452.90, 9.70, 272.36
448.57, 7.19, 270.35
448.81, 7.19, 270.45
449.07, 7.19, 270.55
449.28, 7.21, 270.63
449.42, 7.26, 270.69
449.57, 7.31, 270.75
449.72, 7.36, 270.81
449.87, 7.42, 270.88
450.03, 7.47, 270.94
450.20, 7.53, 271.01
450.38, 7.59, 271.09
450.56, 7.66, 271.16
450.75, 7.73, 271.24
450.95, 7.80, 271.32
451.18, 7.87, 271.42
451.27, 7.96, 271.46
451.36, 8.06, 271.50
451.46, 8.17, 271.55
451.56, 8.27, 271.59
451.66, 8.37, 271.64
451.76, 8.48, 271.69
451.87, 8.59, 271.74
451.97, 8.70, 271.79
452.08, 8.82, 271.84
452.19, 8.94, 271.89
452.31, 9.06, 271.94
452.43, 9.18, 272.00
452.55, 9.31, 272.05
452.67, 9.44, 272.11
452.80, 9.57, 272.17
452.93, 9.71, 272.23
448.61, 7.19, 270.29
448.85, 7.19, 270.38
449.11, 7.19, 270.48
449.30, 7.22, 270.55
449.44, 7.27, 270.61
449.59, 7.32, 270.66
449.74, 7.37, 270.72
449.89, 7.42, 270.79
450.05, 7.48, 270.85
450.22, 7.54, 270.92
450.40, 7.60, 270.99
450.58, 7.67, 271.06
450.77, 7.74, 271.14
451.00, 7.80, 271.23
451.20, 7.88, 271.31
¯451.30, 7.97, 271.35
451.39, 8.07, 271.39
451.49, 8.17, 271.44
451.58, 8.28, 271.48
451.68, 8.38, 271.53
451.79, 8.49, 271.57
451.89, 8.60, 271.62
452.00, 8.71, 271.67
452.11, 8.83, 271.72
452.22, 8.95, 271.77
452.34, 9.07, 271.82
452.45, 9.19, 271.87
452.57, 9.32, 271.92
452.70, 9.45, 271.98
452.83, 9.58, 272.04
452.96, 9.72, 272.09
448.65, 7.19, 270.22
448.89, 7.19, 270.31
449.16, 7.19, 270.40
449.32, 7.23, 270.47
449.46, 7.27, 270.52
449.61, 7.33, 270.58
449.76, 7.38, 270.64
449.91, 7.43, 270.70
450.08, 7.49, 270.76
450.24, 7.55, 270.82
450.42, 7.61, 270.89
450.60, 7.68, 270.96
450.82, 7.74, 271.05
451.08, 7.80, 271.14
451.23, 7.88, 271.20
451.32, 7.98, 271.24
451.42, 8.08, 271.29
451.51, 8.18, 271.33
451.61, 8.29, 271.37
451.71, 8.39, 271.41
451.81, 8.50, 271.46
451.92, 8.61, 271.50
452.02, 8.72, 271.55
452.13, 8.84, 271.60
452.25, 8.95, 271.64
452.36, 9.07, 271.69
452.48, 9.20, 271.74
452.60, 9.32, 271.80
452.72, 9.45, 271.85
452.85, 9.59, 271.91
452.98, 9.72, 271.96
448.68, 7.19, 270.15
448.93, 7.19, 270.24
449.20, 7.19, 270.33
449.34, 7.23, 270.39
¯449.48, 7.28, 270.44
449.63, 7.33, 270.49
449.78, 7.39, 270.55
449.93, 7.44, 270.61
450.10, 7.50, 270.67
450.27, 7.56, 270.73
450.44, 7.62, 270.80
450.66, 7.68, 270.87
450.90, 7.74, 270.96
451.16, 7.80, 271.06
451.26, 7.89, 271.10
451.35, 7.99, 271.14
451.44, 8.09, 271.18
451.54, 8.19, 271.22
451.64, 8.29, 271.26
451.74, 8.40, 271.30
451.84, 8.51, 271.34
451.94, 8.62, 271.39
452.05, 8.73, 271.43
452.16, 8.84, 271.48
452.27, 8.96, 271.52
452.39, 9.08, 271.57
452.51, 9.21, 271.62
452.63, 9.33, 271.67
452.75, 9.46, 271.72
452.88, 9.60, 271.78
453.01, 9.73, 271.83
448.72, 7.19, 270.08
448.97, 7.19, 270.17
449.23, 7.19, 270.26
449.36, 7.24, 270.30
449.50, 7.29, 270.35
449.65, 7.34, 270.41
449.80, 7.39, 270.46
449.95, 7.45, 270.52
450.12, 7.51, 270.58
450.29, 7.57, 270.64
450.49, 7.62, 270.71
450.73, 7.68, 270.79
450.97, 7.74, 270.88
451.19, 7.81, 270.96
451.28, 7.90, 270.99
451.38, 8.00, 271.03
451.47, 8.10, 271.07
451.57, 8.20, 271.11
451.67, 8.30, 271.15
451.77, 8.41, 271.19
451.87, 8.52, 271.23
451.97, 8.63, 271.27
452.08, 8.74, 271.31
452.19, 8.85, 271.36
¯452.30, 8.97, 271.40
452.41, 9.09, 271.45
452.53, 9.21, 271.50
452.65, 9.34, 271.54
452.78, 9.47, 271.59
452.90, 9.60, 271.65
453.04, 9.74, 271.70
448.75, 7.19, 270.02
449.00, 7.19, 270.10
449.25, 7.20, 270.18
449.38, 7.25, 270.22
449.52, 7.30, 270.27
449.67, 7.35, 270.32
449.82, 7.40, 270.37
449.97, 7.46, 270.43
450.14, 7.51, 270.48
450.34, 7.57, 270.55
450.56, 7.62, 270.63
450.80, 7.68, 270.71
451.05, 7.73, 270.79
451.22, 7.81, 270.85
451.31, 7.91, 270.89
451.40, 8.01, 270.92
451.50, 8.11, 270.96
451.59, 8.21, 271.00
451.69, 8.31, 271.04
451.79, 8.42, 271.07
451.90, 8.52, 271.11
452.00, 8.63, 271.16
452.11, 8.75, 271.20
452.22, 8.86, 271.24
452.33, 8.98, 271.28
452.44, 9.10, 271.33
452.56, 9.22, 271.37
452.68, 9.35, 271.42
452.80, 9.48, 271.47
452.93, 9.61, 271.52
453.06, 9.75, 271.57
448.79, 7.19, 269.95
449.04, 7.19, 270.03
449.26, 7.21, 270.10
449.40, 7.26, 270.14
449.54, 7.30, 270.19
449.69, 7.36, 270.24
449.84, 7.41, 270.29
449.99, 7.46, 270.34
450.19, 7.52, 270.40
450.40, 7.57, 270.47
450.63, 7.62, 270.54
450.87, 7.67, 270.62
451.12, 7.73, 270.70
¯451.24, 7.82, 270.75
451.34, 7.92, 270.78
451.43, 8.01, 270.82
451.52, 8.11, 270.85
451.62, 8.21, 270.89
451.72, 8.32, 270.92
451.82, 8.42, 270.96
451.92, 8.53, 271.00
452.03, 8.64, 271.04
452.13, 8.75, 271.08
452.24, 8.87, 271.12
452.36, 8.99, 271.16
452.47, 9.11, 271.21
452.59, 9.23, 271.25
452.71, 9.36, 271.30
452.83, 9.48, 271.34
452.96, 9.62, 271.39
453.09, 9.75, 271.44
448.82, 7.19, 269.88
449.07, 7.19, 269.95
449.28, 7.21, 270.02
449.42, 7.26, 270.06
449.56, 7.31, 270.10
449.70, 7.36, 270.15
449.85, 7.42, 270.20
450.04, 7.47, 270.26
450.25, 7.51, 270.32
450.47, 7.56, 270.39
450.70, 7.62, 270.46
450.94, 7.67, 270.53
451.18, 7.73, 270.61
451.27, 7.83, 270.64
451.36, 7.92, 270.67
451.45, 8.02, 270.71
451.55, 8.12, 270.74
451.65, 8.22, 270.78
451.75, 8.33, 270.81
451.85, 8.43, 270.85
451.95, 8.54, 270.89
452.05, 8.65, 270.93
452.16, 8.76, 270.96
452.27, 8.88, 271.00
452.38, 8.99, 271.04
452.50, 9.11, 271.09
452.62, 9.24, 271.13
452.74, 9.36, 271.17
452.86, 9.49, 271.22
453.01, 9.63, 271.27
448.85, 7.19, 269.81
449.11, 7.19, 269.88
449.30, 7.22, 269.93
¯449.43, 7.27, 269.98
449.58, 7.32, 270.02
449.72, 7.37, 270.06
449.90, 7.42, 270.12
450.10, 7.46, 270.18
450.31, 7.51, 270.24
450.53, 7.56, 270.30
450.76, 7.61, 270.37
451.01, 7.67, 270.45
451.20, 7.74, 270.51
451.30, 7.84, 270.54
451.39, 7.93, 270.57
451.48, 8.03, 270.60
451.58, 8.13, 270.63
451.67, 8.23, 270.67
451.77, 8.33, 270.70
451.87, 8.44, 270.74
451.98, 8.55, 270.77
452.08, 8.66, 270.81
452.19, 8.77, 270.85
452.30, 8.88, 270.89
452.41, 9.00, 270.93
452.53, 9.12, 270.97
452.65, 9.24, 271.01
452.78, 9.37, 271.05
452.93, 9.50, 271.10
453.07, 9.63, 271.15
448.88, 7.19, 269.74
449.14, 7.19, 269.81
449.31, 7.23, 269.85
449.45, 7.28, 269.89
449.59, 7.33, 269.94
449.76, 7.37, 269.98
449.96, 7.41, 270.04
450.16, 7.46, 270.10
450.37, 7.51, 270.16
450.59, 7.56, 270.22
450.83, 7.61, 270.29
451.08, 7.67, 270.36
451.23, 7.75, 270.40
451.32, 7.84, 270.43
451.41, 7.94, 270.46
451.51, 8.04, 270.49
451.60, 8.14, 270.53
451.70, 8.24, 270.56
451.80, 8.34, 270.59
451.90, 8.45, 270.63
452.00, 8.55, 270.66
452.11, 8.66, 270.70
452.22, 8.78, 270.73
452.33, 8.89, 270.77
¯452.44, 9.01, 270.81
452.57, 9.13, 270.85
452.71, 9.25, 270.89
452.85, 9.38, 270.94
452.99, 9.51, 270.99
448.91, 7.20, 269.67
449.17, 7.19, 269.73
449.33, 7.23, 269.77
449.47, 7.28, 269.81
449.63, 7.33, 269.86
449.82, 7.37, 269.91
450.01, 7.41, 269.96
450.22, 7.46, 270.02
450.43, 7.50, 270.07
450.66, 7.55, 270.13
450.90, 7.61, 270.20
451.15, 7.66, 270.27
451.25, 7.75, 270.30
451.34, 7.85, 270.33
451.44, 7.95, 270.36
451.53, 8.04, 270.39
451.63, 8.14, 270.42
451.72, 8.24, 270.45
451.82, 8.35, 270.48
451.93, 8.45, 270.51
452.03, 8.56, 270.55
452.14, 8.67, 270.58
452.24, 8.78, 270.62
452.37, 8.90, 270.65
452.50, 9.01, 270.69
452.63, 9.13, 270.74
452.77, 9.26, 270.78
452.91, 9.39, 270.82
453.06, 9.52, 270.87
448.94, 7.20, 269.59
449.21, 7.20, 269.66
449.35, 7.24, 269.69
449.50, 7.28, 269.74
449.68, 7.32, 269.78
449.87, 7.36, 269.83
450.07, 7.41, 269.88
450.28, 7.45, 269.93
450.49, 7.50, 269.99
450.72, 7.55, 270.05
450.97, 7.61, 270.11
451.19, 7.67, 270.17
451.28, 7.76, 270.20
451.37, 7.86, 270.22
451.46, 7.95, 270.25
451.56, 8.05, 270.28
451.65, 8.15, 270.31
¯451.75, 8.25, 270.34
451.85, 8.35, 270.37
451.95, 8.46, 270.40
452.06, 8.57, 270.43
452.17, 8.68, 270.47
452.30, 8.79, 270.51
452.43, 8.90, 270.54
452.56, 9.02, 270.58
452.69, 9.14, 270.62
452.83, 9.27, 270.66
452.97, 9.39, 270.71
453.12, 9.53, 270.75
448.97, 7.20, 269.52
449.23, 7.20, 269.58
449.38, 7.24, 269.62
449.55, 7.28, 269.66
449.73, 7.32, 269.70
449.92, 7.36, 269.75
450.12, 7.40, 269.80
450.33, 7.45, 269.85
450.55, 7.50, 269.90
450.79, 7.55, 269.96
451.03, 7.60, 270.02
451.21, 7.67, 270.07
451.30, 7.77, 270.09
451.39, 7.86, 270.12
451.49, 7.96, 270.15
451.58, 8.06, 270.17
451.68, 8.16, 270.20
451.78, 8.26, 270.23
451.88, 8.36, 270.26
451.99, 8.47, 270.29
452.11, 8.57, 270.33
452.23, 8.68, 270.36
452.36, 8.79, 270.40
452.49, 8.91, 270.43
452.62, 9.03, 270.47
452.75, 9.15, 270.51
452.89, 9.27, 270.55
453.04, 9.40, 270.59
449.00, 7.20, 269.45
449.25, 7.20, 269.50
449.43, 7.24, 269.54
449.60, 7.27, 269.58
449.79, 7.31, 269.63
449.98, 7.36, 269.67
450.18, 7.40, 269.72
450.39, 7.45, 269.77
450.62, 7.49, 269.82
450.85, 7.55, 269.87
451.10, 7.60, 269.93
¯451.24, 7.68, 269.96
451.33, 7.77, 269.99
451.42, 7.87, 270.01
451.51, 7.96, 270.04
451.61, 8.06, 270.07
451.70, 8.16, 270.09
451.81, 8.26, 270.12
451.92, 8.36, 270.15
452.04, 8.47, 270.19
452.16, 8.58, 270.22
452.29, 8.69, 270.25
452.41, 8.80, 270.29
452.54, 8.91, 270.32
452.68, 9.03, 270.36
452.82, 9.16, 270.40
452.96, 9.28, 270.43
453.10, 9.41, 270.47
449.02, 7.20, 269.38
449.26, 7.21, 269.42
449.45, 7.24, 269.46
449.64, 7.27, 269.51
449.84, 7.31, 269.55
450.03, 7.35, 269.59
450.24, 7.40, 269.64
450.45, 7.44, 269.68
450.68, 7.49, 269.73
