ŸVERSION 0.7
FIELDS x y z
SIZE 8 8 8
TYPE F F F
COUNT 1 1 1
WIDTH 2271
HEIGHT 1
VIEWPOINT 416.01, 14.54, 246.23 1 396.35, 8.86, 248.73
POINTS 2271
DATA ascii
388.75, 8.64, 242.76
388.75, 8.78, 242.77
388.75, 8.93, 242.78
388.75, 9.07, 242.79
388.74, 9.22, 242.79
388.72, 9.36, 242.79
393.97, 6.89, 245.31
393.75, 6.89, 245.20
393.50, 6.89, 245.08
393.24, 6.88, 244.96
392.96, 6.88, 244.82
392.66, 6.88, 244.68
392.32, 6.88, 244.51
391.94, 6.87, 244.33
391.52, 6.87, 244.13
391.09, 6.87, 243.92
390.61, 6.87, 243.69
389.87, 6.82, 243.33
389.17, 6.81, 242.99
388.74, 6.86, 242.79
388.72, 7.01, 242.79
388.70, 7.16, 242.79
388.68, 7.30, 242.79
388.66, 7.45, 242.79
388.64, 7.59, 242.79
388.62, 7.74, 242.79
388.59, 7.89, 242.79
388.57, 8.03, 242.79
388.55, 8.18, 242.79
388.53, 8.32, 242.79
388.51, 8.47, 242.79
388.49, 8.62, 242.79
388.47, 8.77, 242.79
388.45, 8.91, 242.79
388.43, 9.06, 242.79
388.40, 9.21, 242.79
388.38, 9.36, 242.79
393.95, 6.89, 245.38
393.72, 6.89, 245.27
393.48, 6.88, 245.16
393.22, 6.88, 245.04
392.94, 6.88, 244.91
392.63, 6.88, 244.77
392.29, 6.88, 244.61
391.91, 6.87, 244.43
391.49, 6.86, 244.23
391.05, 6.86, 244.03
390.55, 6.86, 243.79
389.85, 6.82, 243.47
389.18, 6.81, 243.15
¯388.52, 6.82, 242.85
388.38, 6.95, 242.79
388.36, 7.10, 242.79
388.34, 7.25, 242.79
388.32, 7.40, 242.79
388.30, 7.55, 242.79
388.27, 7.70, 242.79
381.46, 7.12, 239.58
378.82, 7.12, 238.36
393.93, 6.89, 245.45
393.70, 6.88, 245.35
393.46, 6.88, 245.24
393.20, 6.88, 245.12
392.92, 6.88, 244.99
392.61, 6.88, 244.86
392.27, 6.87, 244.70
391.89, 6.87, 244.53
391.47, 6.86, 244.34
391.01, 6.86, 244.13
390.49, 6.85, 243.90
389.86, 6.83, 243.61
389.18, 6.82, 243.31
388.53, 6.83, 243.01
388.06, 6.89, 242.81
388.00, 7.04, 242.79
387.56, 7.12, 242.60
386.46, 7.12, 242.10
385.13, 7.12, 241.50
383.52, 7.12, 240.78
381.50, 7.12, 239.87
378.89, 7.12, 238.69
393.91, 6.88, 245.52
393.68, 6.88, 245.42
393.44, 6.88, 245.32
393.18, 6.88, 245.20
392.89, 6.88, 245.08
392.59, 6.88, 244.95
392.24, 6.87, 244.80
391.86, 6.87, 244.63
391.44, 6.86, 244.45
390.98, 6.85, 244.24
390.45, 6.84, 244.01
389.86, 6.83, 243.76
389.20, 6.82, 243.46
388.54, 6.83, 243.18
388.07, 6.89, 242.98
387.63, 6.97, 242.79
387.55, 7.12, 242.77
386.46, 7.12, 242.29
385.15, 7.12, 241.72
383.54, 7.12, 241.02
¯381.54, 7.12, 240.15
378.97, 7.12, 239.03
393.89, 6.88, 245.59
393.66, 6.88, 245.50
393.42, 6.88, 245.40
393.16, 6.88, 245.28
392.87, 6.88, 245.17
392.57, 6.88, 245.04
392.22, 6.87, 244.89
391.84, 6.87, 244.73
391.42, 6.86, 244.55
390.96, 6.85, 244.36
390.45, 6.85, 244.14
389.87, 6.84, 243.90
389.21, 6.83, 243.62
388.55, 6.84, 243.34
388.09, 6.90, 243.15
387.59, 6.97, 242.94
387.21, 7.07, 242.79
386.46, 7.12, 242.48
385.16, 7.12, 241.93
383.57, 7.12, 241.26
381.58, 7.12, 240.43
379.04, 7.12, 239.35
393.87, 6.88, 245.66
393.64, 6.88, 245.57
393.40, 6.88, 245.47
393.14, 6.88, 245.37
392.85, 6.88, 245.25
392.55, 6.88, 245.13
392.20, 6.87, 244.98
391.82, 6.86, 244.83
391.40, 6.86, 244.66
390.94, 6.85, 244.47
390.44, 6.85, 244.27
389.88, 6.84, 244.04
389.22, 6.83, 243.77
388.56, 6.84, 243.50
388.10, 6.90, 243.32
387.57, 6.96, 243.11
386.79, 7.00, 242.79
386.47, 7.12, 242.67
385.17, 7.12, 242.14
383.60, 7.12, 241.50
381.63, 7.12, 240.70
379.12, 7.12, 239.68
393.85, 6.88, 245.74
393.62, 6.88, 245.65
393.38, 6.88, 245.55
393.12, 6.88, 245.45
392.84, 6.88, 245.34
¯392.53, 6.87, 245.22
392.18, 6.87, 245.08
391.80, 6.86, 244.93
391.38, 6.86, 244.77
390.92, 6.85, 244.58
390.42, 6.85, 244.39
389.88, 6.85, 244.18
389.24, 6.84, 243.92
388.57, 6.85, 243.66
388.12, 6.91, 243.49
387.47, 6.95, 243.24
386.66, 6.98, 242.92
386.32, 7.10, 242.79
385.19, 7.12, 242.35
383.63, 7.12, 241.74
381.68, 7.12, 240.97
379.19, 7.12, 240.00
393.83, 6.88, 245.81
393.61, 6.88, 245.72
393.36, 6.88, 245.63
393.10, 6.88, 245.53
392.82, 6.88, 245.42
392.51, 6.87, 245.31
392.16, 6.87, 245.17
391.78, 6.86, 245.03
391.36, 6.86, 244.87
390.91, 6.85, 244.70
390.41, 6.85, 244.51
389.87, 6.85, 244.31
389.25, 6.85, 244.07
388.59, 6.85, 243.82
388.10, 6.90, 243.64
387.37, 6.93, 243.37
386.54, 6.96, 243.05
385.84, 7.03, 242.79
385.21, 7.12, 242.56
383.66, 7.12, 241.97
381.73, 7.12, 241.24
379.27, 7.12, 240.31
393.82, 6.88, 245.88
393.59, 6.88, 245.80
393.35, 6.88, 245.71
393.08, 6.88, 245.61
392.80, 6.87, 245.51
392.49, 6.87, 245.40
392.14, 6.87, 245.27
391.76, 6.86, 245.13
391.35, 6.86, 244.98
390.90, 6.85, 244.81
390.40, 6.85, 244.63
389.86, 6.85, 244.44
¯389.26, 6.85, 244.22
388.60, 6.85, 243.98
388.01, 6.89, 243.76
387.28, 6.91, 243.50
386.42, 6.94, 243.19
385.38, 6.96, 242.81
385.23, 7.12, 242.77
383.69, 7.12, 242.20
381.78, 7.12, 241.51
379.35, 7.12, 240.62
376.16, 7.12, 239.46
383.75, 8.16, 242.29
383.75, 8.36, 242.31
383.75, 8.56, 242.32
383.75, 8.77, 242.34
383.75, 8.97, 242.35
383.75, 9.17, 242.36
383.75, 9.38, 242.38
393.80, 6.88, 245.95
393.58, 6.88, 245.87
393.33, 6.88, 245.79
393.07, 6.88, 245.70
392.79, 6.87, 245.60
392.47, 6.87, 245.49
392.13, 6.87, 245.36
391.75, 6.86, 245.23
391.34, 6.86, 245.09
390.89, 6.85, 244.93
390.39, 6.85, 244.75
389.85, 6.85, 244.57
389.25, 6.85, 244.35
388.58, 6.85, 244.12
387.92, 6.87, 243.89
387.18, 6.90, 243.63
386.31, 6.92, 243.33
385.44, 6.96, 243.02
384.77, 7.06, 242.80
383.75, 7.13, 242.44
383.75, 7.33, 242.46
383.75, 7.54, 242.47
383.75, 7.74, 242.48
383.75, 7.94, 242.50
383.75, 8.15, 242.51
383.75, 8.35, 242.52
383.75, 8.55, 242.54
383.75, 8.76, 242.55
383.75, 8.96, 242.56
383.75, 9.16, 242.58
383.75, 9.36, 242.59
393.79, 6.88, 246.03
393.56, 6.88, 245.95
¯393.32, 6.88, 245.87
393.06, 6.87, 245.78
392.77, 6.87, 245.68
392.46, 6.87, 245.58
392.11, 6.86, 245.46
391.74, 6.86, 245.33
391.33, 6.86, 245.19
390.88, 6.85, 245.04
390.39, 6.85, 244.88
389.85, 6.85, 244.69
389.25, 6.85, 244.49
388.56, 6.85, 244.26
387.84, 6.86, 244.02
387.09, 6.88, 243.77
386.20, 6.90, 243.47
385.50, 6.97, 243.24
384.84, 7.06, 243.02
383.77, 7.12, 242.66
383.75, 7.33, 242.67
383.75, 7.53, 242.68
383.75, 7.73, 242.70
383.75, 7.94, 242.71
383.75, 8.14, 242.72
383.75, 8.34, 242.74
383.75, 8.54, 242.75
383.75, 8.74, 242.76
383.75, 8.95, 242.78
383.75, 9.15, 242.79
383.71, 9.35, 242.79
393.78, 6.88, 246.10
393.55, 6.88, 246.02
393.30, 6.88, 245.95
393.04, 6.87, 245.86
392.76, 6.87, 245.77
392.45, 6.87, 245.67
392.10, 6.86, 245.55
391.73, 6.86, 245.43
391.32, 6.86, 245.30
390.87, 6.85, 245.16
390.38, 6.85, 245.00
389.84, 6.85, 244.82
389.24, 6.85, 244.63
388.55, 6.84, 244.41
387.76, 6.84, 244.15
387.00, 6.86, 243.90
386.15, 6.89, 243.63
385.56, 6.97, 243.44
384.91, 7.07, 243.24
383.52, 7.09, 242.79
383.47, 7.29, 242.79
383.43, 7.49, 242.79
¯383.39, 7.70, 242.79
383.35, 7.90, 242.79
383.31, 8.10, 242.79
383.26, 8.31, 242.79
393.77, 6.88, 246.17
393.54, 6.88, 246.10
393.29, 6.87, 246.02
393.03, 6.87, 245.94
392.75, 6.87, 245.85
392.43, 6.87, 245.76
392.09, 6.86, 245.65
391.72, 6.86, 245.54
391.31, 6.86, 245.41
390.86, 6.85, 245.27
390.37, 6.85, 245.12
389.84, 6.85, 244.95
389.24, 6.85, 244.77
388.55, 6.84, 244.55
387.75, 6.84, 244.30
386.91, 6.84, 244.04
386.20, 6.89, 243.83
385.61, 6.98, 243.65
384.98, 7.07, 243.46
382.85, 7.00, 242.79
382.01, 7.12, 242.54
379.70, 7.12, 241.82
376.67, 7.12, 240.89
393.76, 6.88, 246.24
393.53, 6.88, 246.18
393.28, 6.87, 246.10
393.02, 6.87, 246.03
392.74, 6.87, 245.94
392.42, 6.87, 245.85
392.08, 6.86, 245.75
391.71, 6.86, 245.64
391.31, 6.85, 245.52
390.86, 6.85, 245.38
390.37, 6.85, 245.24
389.84, 6.85, 245.08
389.23, 6.85, 244.90
388.54, 6.84, 244.69
387.75, 6.84, 244.46
386.84, 6.83, 244.19
386.25, 6.90, 244.02
385.67, 6.99, 243.85
385.04, 7.08, 243.67
382.78, 6.99, 242.99
382.07, 7.12, 242.79
379.79, 7.12, 242.11
376.81, 7.12, 241.23
393.75, 6.88, 246.32
¯393.52, 6.88, 246.25
393.27, 6.87, 246.18
393.01, 6.87, 246.11
392.73, 6.87, 246.03
392.41, 6.87, 245.94
392.08, 6.86, 245.84
391.71, 6.86, 245.74
391.30, 6.85, 245.62
390.85, 6.85, 245.49
390.37, 6.85, 245.36
389.84, 6.85, 245.21
389.23, 6.85, 245.03
388.54, 6.84, 244.84
387.75, 6.84, 244.61
386.85, 6.83, 244.36
386.29, 6.90, 244.20
385.73, 6.99, 244.05
385.11, 7.08, 243.88
383.10, 7.02, 243.31
381.28, 7.03, 242.79
379.88, 7.12, 242.40
376.94, 7.12, 241.57
393.74, 6.88, 246.39
393.51, 6.88, 246.33
393.27, 6.87, 246.26
393.00, 6.87, 246.19
392.72, 6.87, 246.11
392.41, 6.87, 246.03
392.07, 6.86, 245.94
391.70, 6.86, 245.84
391.30, 6.85, 245.73
390.85, 6.85, 245.61
390.37, 6.85, 245.48
389.84, 6.85, 245.33
389.23, 6.84, 245.17
388.54, 6.84, 244.98
387.75, 6.83, 244.77
386.85, 6.83, 244.52
386.61, 6.95, 244.47
385.76, 6.99, 244.24
385.17, 7.09, 244.09
383.45, 7.06, 243.62
380.93, 6.98, 242.93
379.97, 7.12, 242.68
378.75, 7.27, 242.36
378.75, 7.53, 242.38
378.75, 7.79, 242.40
378.75, 8.05, 242.41
378.75, 8.32, 242.43
378.75, 8.58, 242.45
378.75, 8.84, 242.47
¯378.75, 9.10, 242.48
378.75, 9.36, 242.50
393.73, 6.88, 246.46
393.51, 6.88, 246.40
393.26, 6.87, 246.34
393.00, 6.87, 246.27
392.71, 6.87, 246.20
392.40, 6.86, 246.12
392.07, 6.86, 246.03
391.70, 6.86, 245.94
391.30, 6.85, 245.83
390.85, 6.85, 245.72
390.37, 6.85, 245.60
389.83, 6.85, 245.46
389.23, 6.84, 245.30
388.54, 6.84, 245.12
387.76, 6.83, 244.92
386.86, 6.83, 244.69
386.62, 6.95, 244.64
385.77, 6.99, 244.42
385.20, 7.09, 244.28
383.79, 7.09, 243.92
381.10, 6.99, 243.22
379.42, 7.06, 242.79
378.75, 7.26, 242.63
378.75, 7.52, 242.65
386.59, 8.26, 244.71
386.59, 8.42, 244.72
378.75, 8.30, 242.70
378.75, 8.56, 242.72
378.75, 8.82, 242.73
378.75, 9.08, 242.75
378.75, 9.34, 242.77
394.10, 7.02, 246.64
393.50, 6.88, 246.48
393.26, 6.87, 246.42
392.99, 6.87, 246.36
392.71, 6.87, 246.29
392.39, 6.86, 246.21
392.06, 6.86, 246.13
391.70, 6.86, 246.04
391.29, 6.85, 245.94
390.85, 6.85, 245.83
390.37, 6.85, 245.71
389.83, 6.85, 245.58
389.23, 6.84, 245.43
388.54, 6.84, 245.27
387.76, 6.83, 245.08
386.87, 6.82, 244.86
386.63, 6.95, 244.81
386.43, 7.08, 244.77
¯385.21, 7.08, 244.47
383.99, 7.11, 244.17
381.27, 7.00, 243.50
378.56, 6.96, 242.84
378.29, 7.21, 242.79
386.59, 8.09, 244.87
386.60, 8.25, 244.88
386.60, 8.41, 244.89
394.09, 7.02, 246.70
393.50, 6.88, 246.56
393.25, 6.87, 246.50
392.99, 6.87, 246.44
392.70, 6.87, 246.37
392.39, 6.86, 246.30
392.06, 6.86, 246.22
391.69, 6.86, 246.14
391.29, 6.85, 246.05
390.85, 6.85, 245.94
390.37, 6.85, 245.83
389.83, 6.84, 245.71
389.23, 6.84, 245.57
388.55, 6.84, 245.41
387.77, 6.83, 245.23
386.88, 6.82, 245.02
386.64, 6.95, 244.97
386.44, 7.08, 244.94
386.22, 7.22, 244.90
383.73, 7.07, 244.31
381.45, 7.01, 243.78
378.62, 6.96, 243.12
379.84, 7.33, 243.42
385.92, 8.03, 244.88
386.24, 8.22, 244.96
386.36, 8.39, 245.00
386.24, 8.55, 244.98
379.86, 8.56, 243.51
379.68, 9.30, 243.52
394.09, 7.02, 246.77
393.88, 7.02, 246.72
393.25, 6.87, 246.58
392.98, 6.87, 246.52
392.69, 6.87, 246.46
392.39, 6.86, 246.39
392.05, 6.86, 246.32
391.69, 6.86, 246.24
391.29, 6.85, 246.15
390.86, 6.85, 246.05
390.37, 6.85, 245.95
389.84, 6.84, 245.83
389.23, 6.84, 245.70
388.55, 6.83, 245.55
¯387.78, 6.83, 245.38
386.89, 6.82, 245.19
386.65, 6.94, 245.14
386.27, 7.05, 245.06
385.02, 7.04, 244.79
383.46, 7.03, 244.45
381.62, 7.02, 244.05
378.67, 6.95, 243.40
379.12, 7.26, 243.52
379.84, 7.56, 243.69
379.84, 7.81, 243.71
379.83, 8.05, 243.72
378.82, 8.26, 243.52
378.75, 8.52, 243.52
378.47, 8.77, 243.47
378.47, 9.03, 243.49
378.52, 9.29, 243.52
394.09, 7.02, 246.84
393.87, 7.02, 246.80
393.25, 6.87, 246.66
392.98, 6.87, 246.60
392.69, 6.86, 246.54
392.38, 6.86, 246.48
392.05, 6.86, 246.41
391.69, 6.86, 246.34
391.29, 6.85, 246.25
390.86, 6.85, 246.16
390.37, 6.85, 246.06
389.84, 6.84, 245.95
389.24, 6.84, 245.83
388.56, 6.83, 245.69
387.79, 6.83, 245.53
386.91, 6.82, 245.35
386.33, 6.89, 245.23
385.89, 6.99, 245.15
384.87, 7.02, 244.94
383.25, 7.00, 244.61
381.79, 7.04, 244.31
378.72, 6.95, 243.67
377.89, 7.14, 243.52
377.81, 7.40, 243.52
378.47, 7.71, 243.67
378.47, 7.97, 243.69
378.47, 8.23, 243.70
378.47, 8.50, 243.72
378.47, 8.76, 243.74
376.97, 9.02, 243.45
377.22, 9.29, 243.52
394.08, 7.02, 246.91
393.87, 7.02, 246.87
393.65, 7.01, 246.82
¯392.98, 6.87, 246.68
392.69, 6.86, 246.63
392.38, 6.86, 246.57
392.05, 6.86, 246.50
391.69, 6.86, 246.43
391.29, 6.85, 246.36
390.86, 6.85, 246.27
390.38, 6.85, 246.18
389.84, 6.84, 246.08
389.24, 6.84, 245.96
388.57, 6.83, 245.83
387.80, 6.83, 245.68
386.93, 6.82, 245.51
386.34, 6.88, 245.40
385.72, 6.96, 245.29
384.70, 6.99, 245.09
383.30, 7.00, 244.82
381.96, 7.05, 244.57
378.78, 6.94, 243.95
376.31, 6.98, 243.47
376.43, 7.28, 243.52
376.97, 7.60, 243.64
376.97, 7.88, 243.66
376.97, 8.16, 243.68
376.97, 8.44, 243.69
379.84, 8.76, 244.27
375.47, 9.00, 243.44
375.76, 9.29, 243.52
394.08, 7.02, 246.97
393.87, 7.02, 246.94
393.64, 7.01, 246.89
392.97, 6.87, 246.76
392.69, 6.86, 246.71
392.38, 6.86, 246.66
392.05, 6.86, 246.60
391.69, 6.85, 246.53
391.29, 6.85, 246.46
390.86, 6.85, 246.38
390.38, 6.84, 246.30
389.85, 6.84, 246.20
389.25, 6.84, 246.09
388.58, 6.83, 245.97
387.82, 6.82, 245.83
386.94, 6.82, 245.67
386.35, 6.88, 245.57
385.59, 6.93, 245.44
384.47, 6.95, 245.24
383.35, 6.99, 245.04
382.12, 7.06, 244.82
378.91, 6.95, 244.23
376.43, 6.98, 243.79
¯375.47, 7.49, 243.65
375.47, 7.79, 243.67
375.47, 8.09, 243.69
379.84, 8.50, 244.50
379.84, 8.75, 244.51
394.08, 7.02, 247.04
393.87, 7.02, 247.01
393.64, 7.01, 246.97
393.40, 7.01, 246.93
392.68, 6.86, 246.80
392.38, 6.86, 246.75
392.05, 6.86, 246.69
391.69, 6.85, 246.63
391.30, 6.85, 246.56
390.86, 6.85, 246.49
390.39, 6.84, 246.41
389.86, 6.84, 246.32
389.26, 6.83, 246.22
388.59, 6.83, 246.11
387.83, 6.82, 245.98
386.96, 6.82, 245.84
386.36, 6.88, 245.74
385.45, 6.90, 245.59
384.24, 6.91, 245.38
383.40, 6.99, 245.25
382.29, 7.07, 245.07
379.08, 6.95, 244.52
377.25, 7.04, 244.22
379.84, 7.52, 244.68
379.86, 7.76, 244.70
379.86, 8.01, 244.72
379.86, 8.25, 244.73
379.86, 8.49, 244.75
379.84, 8.73, 244.76
379.84, 8.97, 244.78
379.84, 9.21, 244.79
394.08, 7.02, 247.11
393.87, 7.02, 247.08
393.64, 7.01, 247.04
393.40, 7.01, 247.00
392.69, 6.86, 246.88
392.38, 6.86, 246.83
392.05, 6.86, 246.78
391.69, 6.85, 246.73
391.30, 6.85, 246.67
390.87, 6.85, 246.60
390.39, 6.84, 246.53
389.86, 6.84, 246.44
389.27, 6.83, 246.35
388.61, 6.83, 246.25
387.85, 6.82, 246.13
¯386.99, 6.82, 246.00
386.24, 6.85, 245.88
385.32, 6.87, 245.74
384.15, 6.89, 245.56
383.45, 6.99, 245.46
382.46, 7.08, 245.31
379.25, 6.96, 244.80
378.99, 7.18, 244.78
378.89, 7.43, 244.78
378.79, 7.68, 244.78
378.68, 7.93, 244.78
378.58, 8.18, 244.78
378.48, 8.44, 244.78
378.47, 8.69, 244.79
378.43, 8.95, 244.80
378.32, 9.21, 244.80
394.08, 7.02, 247.18
393.87, 7.02, 247.15
393.65, 7.01, 247.11
393.40, 7.01, 247.08
392.69, 6.86, 246.97
392.38, 6.86, 246.92
392.05, 6.85, 246.88
391.70, 6.85, 246.82
391.31, 6.85, 246.77
390.88, 6.85, 246.71
390.40, 6.84, 246.64
389.87, 6.84, 246.56
389.28, 6.83, 246.48
388.62, 6.83, 246.38
387.87, 6.82, 246.28
387.01, 6.81, 246.15
386.12, 6.82, 246.03
385.18, 6.85, 245.90
384.20, 6.89, 245.76
383.50, 6.99, 245.67
382.62, 7.09, 245.55
379.42, 6.96, 245.08
377.24, 7.01, 244.77
377.24, 7.29, 244.79
377.24, 7.56, 244.81
377.24, 7.84, 244.83
377.24, 8.11, 244.84
376.84, 8.37, 244.80
375.47, 8.63, 244.62
376.30, 9.21, 244.78
394.08, 7.02, 247.24
393.87, 7.01, 247.21
393.65, 7.01, 247.19
393.40, 7.01, 247.15
393.13, 7.00, 247.12
¯392.38, 6.86, 247.01
392.06, 6.85, 246.97
391.70, 6.85, 246.92
391.31, 6.85, 246.87
390.88, 6.84, 246.82
390.41, 6.84, 246.75
389.88, 6.84, 246.68
389.30, 6.83, 246.61
388.64, 6.83, 246.52
387.89, 6.82, 246.42
387.03, 6.81, 246.31
386.09, 6.81, 246.19
385.05, 6.82, 246.05
384.24, 6.89, 245.95
383.56, 6.99, 245.87
382.79, 7.10, 245.78
379.59, 6.97, 245.35
377.24, 7.00, 245.05
377.24, 7.27, 245.07
377.24, 7.55, 245.08
377.24, 7.82, 245.10
377.24, 8.10, 245.12
394.08, 7.02, 247.31
393.88, 7.01, 247.28
393.65, 7.01, 247.26
393.40, 7.01, 247.23
393.14, 7.00, 247.20
392.39, 6.86, 247.10
392.06, 6.85, 247.06
391.71, 6.85, 247.02
391.32, 6.85, 246.97
390.89, 6.84, 246.92
390.42, 6.84, 246.87
389.90, 6.84, 246.80
389.31, 6.83, 246.74
388.66, 6.82, 246.66
387.91, 6.82, 246.57
387.06, 6.81, 246.47
386.13, 6.81, 246.36
385.05, 6.81, 246.23
384.28, 6.88, 246.15
383.61, 6.99, 246.07
382.86, 7.09, 245.99
379.76, 6.98, 245.62
377.24, 6.99, 245.32
377.24, 7.26, 245.34
377.24, 7.53, 245.36
377.24, 7.81, 245.37
377.24, 8.08, 245.39
378.67, 8.40, 245.58
378.67, 8.65, 245.60
¯378.67, 8.91, 245.61
378.67, 9.16, 245.63
394.09, 7.02, 247.38
393.88, 7.01, 247.35
393.65, 7.01, 247.33
393.41, 7.01, 247.30
393.14, 7.00, 247.28
392.85, 7.00, 247.24
392.07, 6.85, 247.15
391.71, 6.85, 247.12
391.33, 6.85, 247.07
390.90, 6.84, 247.03
390.43, 6.84, 246.98
389.91, 6.83, 246.92
389.33, 6.83, 246.86
388.68, 6.82, 246.79
387.94, 6.82, 246.72
387.10, 6.81, 246.63
386.17, 6.81, 246.53
385.10, 6.81, 246.42
384.31, 6.88, 246.34
383.64, 6.98, 246.27
383.25, 7.13, 246.24
380.20, 7.01, 245.91
380.20, 7.25, 245.93
380.20, 7.48, 245.94
380.20, 7.72, 245.96
383.30, 8.13, 246.31
383.36, 8.33, 246.33
383.37, 8.53, 246.34
380.19, 8.67, 246.01
380.19, 8.90, 246.03
380.19, 9.14, 246.04
394.09, 7.02, 247.44
393.88, 7.01, 247.42
393.66, 7.01, 247.40
393.41, 7.01, 247.38
393.15, 7.00, 247.35
392.86, 7.00, 247.33
392.08, 6.85, 247.24
391.72, 6.85, 247.21
391.34, 6.85, 247.18
390.91, 6.84, 247.14
390.45, 6.84, 247.09
389.93, 6.83, 247.04
389.35, 6.83, 246.99
388.70, 6.82, 246.93
387.96, 6.82, 246.86
387.13, 6.81, 246.78
386.22, 6.81, 246.70
385.14, 6.81, 246.60
¯384.33, 6.87, 246.53
383.66, 6.97, 246.47
383.35, 7.13, 246.45
383.07, 7.30, 246.43
380.17, 7.23, 246.16
380.17, 7.47, 246.18
383.04, 7.91, 246.47
383.05, 8.11, 246.48
383.28, 8.32, 246.52
383.22, 8.51, 246.52
380.16, 8.65, 246.25
380.16, 8.89, 246.26
380.16, 9.12, 246.28
394.09, 7.02, 247.51
393.89, 7.01, 247.49
393.66, 7.01, 247.47
393.42, 7.01, 247.45
393.15, 7.00, 247.43
392.87, 7.00, 247.41
392.56, 6.99, 247.38
391.73, 6.85, 247.31
391.35, 6.84, 247.28
390.93, 6.84, 247.24
390.46, 6.84, 247.20
389.94, 6.83, 247.16
389.37, 6.83, 247.12
388.72, 6.82, 247.06
387.99, 6.82, 247.00
387.17, 6.81, 246.94
386.26, 6.81, 246.86
385.19, 6.81, 246.78
384.36, 6.87, 246.71
383.69, 6.97, 246.67
383.29, 7.12, 246.64
380.33, 7.00, 246.40
380.14, 7.22, 246.40
380.14, 7.45, 246.41
380.14, 7.69, 246.42
380.14, 7.93, 246.44
382.75, 8.28, 246.67
382.95, 8.49, 246.70
380.13, 8.64, 246.48
380.13, 8.87, 246.50
380.13, 9.11, 246.51
394.10, 7.02, 247.57
393.89, 7.01, 247.56
393.67, 7.01, 247.54
393.42, 7.01, 247.53
393.16, 7.00, 247.51
392.88, 7.00, 247.49
392.57, 6.99, 247.47
¯391.74, 6.85, 247.40
391.36, 6.84, 247.38
390.94, 6.84, 247.35
390.48, 6.84, 247.32
389.96, 6.83, 247.28
389.39, 6.83, 247.24
388.74, 6.82, 247.20
388.02, 6.81, 247.15
387.21, 6.81, 247.09
386.31, 6.81, 247.03
385.24, 6.81, 246.96
384.38, 6.86, 246.90
383.72, 6.96, 246.86
383.04, 7.07, 246.82
380.55, 7.01, 246.65
380.11, 7.20, 246.63
380.11, 7.44, 246.64
380.11, 7.68, 246.66
380.11, 7.91, 246.67
380.10, 8.15, 246.69
380.10, 8.39, 246.70
380.10, 8.62, 246.72
380.10, 8.86, 246.73
380.10, 9.09, 246.74
394.11, 7.02, 247.64
393.90, 7.01, 247.63
393.67, 7.01, 247.62
393.43, 7.01, 247.60
393.17, 7.00, 247.59
392.88, 7.00, 247.57
392.58, 6.99, 247.55
392.25, 6.99, 247.53
391.37, 6.84, 247.48
390.95, 6.84, 247.45
390.49, 6.83, 247.43
389.98, 6.83, 247.40
389.41, 6.83, 247.37
388.77, 6.82, 247.33
388.05, 6.81, 247.29
387.25, 6.81, 247.24
386.35, 6.81, 247.19
385.29, 6.81, 247.13
384.41, 6.86, 247.09
383.73, 6.95, 247.05
382.77, 7.03, 247.01
380.76, 7.02, 246.89
388.60, 8.00, 247.39
388.61, 8.13, 247.40
388.61, 8.27, 247.41
380.08, 7.90, 246.91
380.08, 8.13, 246.92
¯380.07, 8.37, 246.94
380.07, 8.61, 246.95
380.07, 8.84, 246.97
380.07, 9.08, 246.98
394.11, 7.02, 247.71
393.91, 7.01, 247.70
393.68, 7.01, 247.69
393.44, 7.00, 247.68
393.18, 7.00, 247.66
392.89, 7.00, 247.65
392.59, 6.99, 247.64
392.26, 6.99, 247.62
391.39, 6.84, 247.58
390.97, 6.84, 247.56
390.51, 6.83, 247.54
390.00, 6.83, 247.51
389.43, 6.82, 247.49
388.80, 6.82, 247.46
388.43, 6.88, 247.45
387.29, 6.81, 247.39
386.40, 6.81, 247.36
385.34, 6.81, 247.31
384.44, 6.85, 247.27
383.64, 6.93, 247.24
382.40, 6.98, 247.19
388.53, 7.85, 247.51
388.52, 7.99, 247.52
388.71, 8.14, 247.54
388.50, 8.25, 247.54
382.40, 8.02, 247.25
382.40, 8.23, 247.27
382.40, 8.44, 247.28
382.40, 8.65, 247.29
382.40, 8.85, 247.30
380.08, 9.06, 247.22
394.12, 7.01, 247.77
393.91, 7.01, 247.76
393.69, 7.01, 247.76
393.45, 7.00, 247.75
393.19, 7.00, 247.74
392.91, 7.00, 247.73
392.60, 6.99, 247.72
392.28, 6.99, 247.71
391.92, 6.98, 247.70
390.99, 6.84, 247.66
390.53, 6.83, 247.65
390.02, 6.83, 247.63
389.46, 6.82, 247.61
388.82, 6.82, 247.59
388.52, 6.89, 247.59
388.33, 6.99, 247.59
¯386.45, 6.81, 247.52
388.32, 7.27, 247.60
388.33, 7.41, 247.61
388.34, 7.55, 247.62
388.34, 7.69, 247.63
388.35, 7.83, 247.64
388.34, 7.96, 247.65
388.64, 8.12, 247.67
388.32, 8.23, 247.66
382.41, 8.01, 247.46
382.41, 8.22, 247.47
382.41, 8.43, 247.49
382.41, 8.63, 247.50
382.41, 8.84, 247.51
380.11, 9.05, 247.45
394.13, 7.01, 247.84
393.92, 7.01, 247.83
393.70, 7.01, 247.83
393.46, 7.00, 247.82
393.20, 7.00, 247.82
392.92, 6.99, 247.81
392.62, 6.99, 247.81
392.29, 6.99, 247.80
391.94, 6.98, 247.79
391.00, 6.84, 247.77
390.55, 6.83, 247.76
390.05, 6.83, 247.75
389.48, 6.82, 247.74
388.85, 6.82, 247.72
388.56, 6.89, 247.72
388.30, 6.98, 247.72
386.50, 6.81, 247.68
385.44, 6.80, 247.66
384.49, 6.84, 247.64
383.47, 6.89, 247.62
382.41, 6.95, 247.61
382.41, 7.16, 247.62
388.16, 7.94, 247.78
388.28, 8.08, 247.79
388.28, 8.22, 247.80
382.42, 8.00, 247.67
382.42, 8.21, 247.68
382.42, 8.41, 247.70
382.42, 8.62, 247.71
382.42, 8.83, 247.72
380.14, 9.04, 247.69
394.14, 7.01, 247.90
393.93, 7.01, 247.90
393.71, 7.01, 247.90
393.47, 7.00, 247.90
393.21, 7.00, 247.89
¯392.93, 6.99, 247.89
392.63, 6.99, 247.89
392.31, 6.99, 247.89
391.95, 6.98, 247.88
391.57, 6.98, 247.88
390.57, 6.83, 247.87
390.07, 6.83, 247.86
389.51, 6.82, 247.86
388.88, 6.82, 247.85
388.46, 6.87, 247.85
387.43, 6.81, 247.84
386.56, 6.81, 247.84
385.50, 6.80, 247.83
384.51, 6.83, 247.82
383.39, 6.86, 247.82
382.42, 6.94, 247.81
382.42, 7.15, 247.83
382.42, 7.36, 247.84
388.28, 8.08, 247.92
388.21, 8.21, 247.93
382.42, 7.99, 247.88
382.42, 8.19, 247.89
382.42, 8.40, 247.90
382.42, 8.61, 247.91
382.42, 8.82, 247.93
380.16, 9.02, 247.92
394.15, 7.01, 247.97
393.94, 7.01, 247.97
393.72, 7.01, 247.97
393.48, 7.00, 247.97
393.22, 7.00, 247.97
392.94, 6.99, 247.97
392.65, 6.99, 247.97
392.33, 6.99, 247.97
391.97, 6.98, 247.98
391.59, 6.98, 247.98
390.59, 6.83, 247.97
390.09, 6.83, 247.98
389.54, 6.82, 247.98
388.92, 6.81, 247.98
388.36, 6.84, 247.99
387.48, 6.81, 247.99
386.61, 6.81, 247.99
385.55, 6.80, 248.00
384.44, 6.81, 248.00
383.30, 6.84, 248.01
382.43, 6.93, 248.02
382.43, 7.14, 248.03
382.43, 7.35, 248.05
382.43, 7.56, 248.06
382.43, 7.77, 248.07
¯382.43, 7.97, 248.08
382.43, 8.18, 248.10
382.43, 8.39, 248.11
382.43, 8.60, 248.12
382.43, 8.80, 248.13
380.19, 9.01, 248.16
394.16, 7.01, 248.03
393.95, 7.01, 248.03
393.73, 7.01, 248.04
393.49, 7.00, 248.04
393.24, 7.00, 248.05
392.96, 6.99, 248.05
392.66, 6.99, 248.06
392.34, 6.99, 248.06
391.99, 6.98, 248.07
391.61, 6.98, 248.07
390.62, 6.83, 248.08
390.12, 6.83, 248.09
389.57, 6.82, 248.10
388.95, 6.81, 248.11
388.28, 6.81, 248.12
387.52, 6.81, 248.13
386.66, 6.81, 248.15
385.61, 6.80, 248.17
384.47, 6.80, 248.19
383.35, 6.83, 248.21
382.35, 6.91, 248.23
382.43, 7.13, 248.24
382.44, 7.34, 248.25
382.44, 7.55, 248.27
382.44, 7.75, 248.28
382.44, 7.96, 248.29
382.44, 8.17, 248.30
382.44, 8.38, 248.32
382.44, 8.58, 248.33
382.44, 8.79, 248.34
380.22, 8.99, 248.39
394.17, 7.01, 248.09
393.96, 7.01, 248.10
393.74, 7.01, 248.11
393.50, 7.00, 248.11
393.25, 7.00, 248.12
392.97, 6.99, 248.13
392.68, 6.99, 248.14
392.36, 6.99, 248.15
392.01, 6.98, 248.16
391.63, 6.98, 248.17
391.22, 6.97, 248.18
390.15, 6.83, 248.20
389.61, 6.82, 248.22
388.99, 6.81, 248.24
¯388.32, 6.81, 248.26
387.57, 6.81, 248.28
386.71, 6.81, 248.30
385.67, 6.80, 248.33
384.53, 6.80, 248.37
383.42, 6.83, 248.40
382.38, 6.90, 248.44
382.44, 7.12, 248.45
382.44, 7.33, 248.46
382.44, 7.53, 248.47
382.44, 7.74, 248.49
382.44, 7.95, 248.50
382.44, 8.16, 248.51
382.44, 8.37, 248.52
382.44, 8.57, 248.54
382.45, 8.78, 248.55
378.59, 8.98, 248.67
394.18, 7.01, 248.16
393.97, 7.01, 248.17
393.75, 7.01, 248.18
393.52, 7.00, 248.19
393.26, 7.00, 248.20
392.99, 6.99, 248.21
392.70, 6.99, 248.22
392.38, 6.99, 248.23
392.03, 6.98, 248.25
391.66, 6.98, 248.26
391.24, 6.97, 248.28
390.19, 6.83, 248.32
389.64, 6.82, 248.34
389.04, 6.82, 248.36
388.36, 6.81, 248.39
387.62, 6.81, 248.42
386.76, 6.81, 248.46
385.73, 6.80, 248.50
384.60, 6.80, 248.55
383.50, 6.83, 248.60
382.40, 6.89, 248.65
382.45, 7.10, 248.66
382.45, 7.31, 248.67
382.45, 7.52, 248.68
382.45, 7.73, 248.69
382.45, 7.94, 248.71
382.45, 8.15, 248.72
382.45, 8.35, 248.73
382.45, 8.56, 248.74
382.45, 8.77, 248.75
380.03, 8.97, 248.87
394.19, 7.01, 248.22
393.99, 7.01, 248.23
393.77, 7.01, 248.25
¯393.53, 7.00, 248.26
393.28, 7.00, 248.27
393.01, 6.99, 248.29
392.72, 6.99, 248.30
392.40, 6.99, 248.32
392.06, 6.98, 248.34
391.68, 6.98, 248.36
391.27, 6.97, 248.38
390.82, 6.97, 248.40
389.68, 6.82, 248.46
389.08, 6.82, 248.49
388.41, 6.81, 248.52
387.68, 6.81, 248.56
386.82, 6.81, 248.61
385.79, 6.80, 248.67
384.67, 6.80, 248.73
383.57, 6.83, 248.79
382.43, 6.88, 248.85
382.46, 7.09, 248.86
382.46, 7.30, 248.88
382.46, 7.51, 248.89
382.46, 7.72, 248.90
382.46, 7.93, 248.91
382.46, 8.13, 248.92
382.46, 8.34, 248.94
382.46, 8.55, 248.95
382.46, 8.75, 248.96
380.03, 8.95, 249.10
394.20, 7.01, 248.29
394.00, 7.01, 248.30
393.78, 7.01, 248.31
393.55, 7.00, 248.33
393.30, 7.00, 248.35
393.03, 6.99, 248.36
392.74, 6.99, 248.38
392.42, 6.99, 248.40
392.08, 6.98, 248.43
391.71, 6.98, 248.45
391.30, 6.97, 248.48
390.85, 6.97, 248.51
389.72, 6.82, 248.57
389.12, 6.82, 248.61
388.46, 6.81, 248.66
387.73, 6.81, 248.70
386.87, 6.81, 248.76
385.86, 6.80, 248.83
384.73, 6.79, 248.90
383.63, 6.82, 248.98
382.46, 6.87, 249.06
382.46, 7.08, 249.07
382.46, 7.29, 249.08
¯382.46, 7.50, 249.10
382.46, 7.71, 249.11
382.47, 7.91, 249.12
382.47, 8.12, 249.13
382.47, 8.33, 249.14
382.47, 8.54, 249.16
382.47, 8.74, 249.17
382.03, 8.95, 249.21
394.22, 7.01, 248.35
394.01, 7.01, 248.37
393.80, 7.01, 248.38
393.57, 7.00, 248.40
393.31, 7.00, 248.42
393.05, 6.99, 248.44
392.76, 6.99, 248.46
392.45, 6.98, 248.49
392.10, 6.98, 248.51
391.73, 6.98, 248.54
391.33, 6.97, 248.57
390.88, 6.97, 248.61
390.39, 6.97, 248.65
389.17, 6.82, 248.74
388.51, 6.81, 248.79
387.78, 6.81, 248.84
386.93, 6.81, 248.91
385.92, 6.80, 248.99
384.81, 6.79, 249.08
383.69, 6.82, 249.17
382.49, 6.86, 249.26
382.47, 7.07, 249.28
382.47, 7.28, 249.29
382.47, 7.48, 249.30
382.47, 7.69, 249.31
382.47, 7.90, 249.33
382.47, 8.11, 249.34
382.47, 8.32, 249.35
382.47, 8.52, 249.36
382.47, 8.73, 249.38
382.47, 8.94, 249.39
394.23, 7.01, 248.41
394.03, 7.01, 248.43
393.81, 7.00, 248.45
393.58, 7.00, 248.47
393.33, 7.00, 248.49
393.07, 6.99, 248.52
392.78, 6.99, 248.54
392.47, 6.98, 248.57
392.13, 6.98, 248.60
391.76, 6.98, 248.64
391.36, 6.97, 248.67
390.91, 6.97, 248.71
¯390.42, 6.96, 248.76
389.21, 6.82, 248.86
388.55, 6.81, 248.92
387.84, 6.81, 248.98
386.99, 6.80, 249.06
385.99, 6.79, 249.15
384.89, 6.79, 249.25
383.74, 6.81, 249.36
382.53, 6.85, 249.47
382.48, 7.05, 249.49
382.48, 7.26, 249.50
382.48, 7.47, 249.51
382.48, 7.68, 249.52
382.48, 7.89, 249.53
382.48, 8.10, 249.55
382.48, 8.30, 249.56
382.48, 8.51, 249.57
382.48, 8.72, 249.58
382.48, 8.93, 249.59
394.25, 7.01, 248.48
394.05, 7.01, 248.50
393.83, 7.00, 248.52
393.60, 7.00, 248.54
393.35, 7.00, 248.57
393.09, 6.99, 248.59
392.80, 6.99, 248.62
392.49, 6.98, 248.65
392.15, 6.98, 248.69
391.79, 6.98, 248.73
391.39, 6.97, 248.77
390.95, 6.97, 248.81
390.46, 6.96, 248.86
389.92, 6.96, 248.92
388.60, 6.81, 249.05
387.89, 6.81, 249.12
387.04, 6.80, 249.21
386.06, 6.79, 249.31
384.98, 6.79, 249.42
383.80, 6.81, 249.54
382.56, 6.84, 249.67
382.48, 7.04, 249.69
382.49, 7.25, 249.71
382.49, 7.46, 249.72
382.49, 7.67, 249.73
382.49, 7.88, 249.74
382.49, 8.08, 249.75
382.49, 8.29, 249.77
382.49, 8.50, 249.78
382.49, 8.71, 249.79
382.49, 8.91, 249.80
394.26, 7.01, 248.54
¯394.06, 7.01, 248.56
393.85, 7.00, 248.58
393.62, 7.00, 248.61
393.37, 7.00, 248.64
393.11, 6.99, 248.67
392.83, 6.99, 248.70
392.52, 6.98, 248.74
392.18, 6.98, 248.78
391.82, 6.98, 248.82
391.42, 6.97, 248.86
390.98, 6.97, 248.92
390.50, 6.96, 248.97
389.96, 6.96, 249.03
388.66, 6.81, 249.18
387.95, 6.81, 249.26
387.11, 6.80, 249.35
386.13, 6.79, 249.47
385.06, 6.79, 249.59
383.87, 6.80, 249.73
382.53, 6.82, 249.89
382.49, 7.03, 249.90
382.49, 7.24, 249.91
382.49, 7.44, 249.93
382.49, 7.65, 249.94
382.49, 7.86, 249.95
382.49, 8.07, 249.96
382.49, 8.28, 249.97
382.49, 8.49, 249.99
382.50, 8.69, 250.00
382.50, 8.90, 250.01
394.28, 7.01, 248.60
394.08, 7.01, 248.62
393.87, 7.00, 248.65
393.64, 7.00, 248.68
393.39, 7.00, 248.71
393.13, 6.99, 248.75
392.85, 6.99, 248.78
392.54, 6.98, 248.82
392.21, 6.98, 248.86
391.85, 6.98, 248.91
391.45, 6.97, 248.96
391.02, 6.97, 249.02
390.54, 6.96, 249.08
390.00, 6.96, 249.15
389.40, 6.96, 249.22
388.01, 6.81, 249.39
387.17, 6.80, 249.50
386.20, 6.79, 249.62
385.15, 6.79, 249.76
383.93, 6.80, 249.91
382.53, 6.80, 250.09
¯382.50, 7.01, 250.11
382.50, 7.22, 250.12
382.50, 7.43, 250.13
382.50, 7.64, 250.15
382.50, 7.85, 250.16
382.50, 8.06, 250.17
382.50, 8.27, 250.18
382.50, 8.47, 250.19
382.50, 8.68, 250.21
382.50, 8.89, 250.22
394.29, 7.01, 248.66
394.10, 7.01, 248.69
393.89, 7.00, 248.72
393.66, 7.00, 248.75
393.41, 6.99, 248.78
393.16, 6.99, 248.82
392.88, 6.99, 248.86
392.57, 6.98, 248.90
392.24, 6.98, 248.95
391.88, 6.98, 249.00
391.48, 6.97, 249.05
391.05, 6.97, 249.12
390.58, 6.96, 249.18
390.04, 6.96, 249.26
389.45, 6.96, 249.34
388.06, 6.81, 249.53
387.23, 6.80, 249.64
386.28, 6.79, 249.78
385.23, 6.79, 249.92
384.01, 6.79, 250.10
382.64, 6.80, 250.29
382.51, 7.00, 250.32
382.51, 7.21, 250.33
380.12, 7.19, 250.67
380.12, 7.43, 250.68
380.12, 7.67, 250.69
380.12, 7.90, 250.71
380.12, 8.14, 250.72
378.72, 8.33, 250.93
378.72, 8.59, 250.94
378.72, 8.84, 250.96
394.31, 7.01, 248.72
394.12, 7.01, 248.75
393.91, 7.00, 248.78
393.68, 7.00, 248.82
393.44, 6.99, 248.86
393.18, 6.99, 248.90
392.90, 6.99, 248.94
392.60, 6.98, 248.98
392.27, 6.98, 249.03
391.91, 6.98, 249.09
¯391.52, 6.97, 249.15
391.09, 6.97, 249.21
390.62, 6.96, 249.29
390.09, 6.96, 249.37
389.50, 6.96, 249.46
388.84, 6.95, 249.56
387.29, 6.80, 249.79
386.36, 6.79, 249.93
385.32, 6.79, 250.09
384.11, 6.79, 250.27
382.74, 6.80, 250.48
381.41, 6.85, 250.69
380.11, 6.93, 250.89
380.11, 7.17, 250.91
380.11, 7.41, 250.92
380.11, 7.65, 250.94
380.11, 7.89, 250.95
380.11, 8.13, 250.96
394.33, 7.01, 248.78
394.14, 7.01, 248.82
393.93, 7.00, 248.85
393.70, 7.00, 248.89
393.46, 6.99, 248.93
393.20, 6.99, 248.97
392.93, 6.99, 249.02
392.63, 6.98, 249.07
392.30, 6.98, 249.12
391.94, 6.97, 249.18
391.55, 6.97, 249.24
391.13, 6.97, 249.31
390.66, 6.96, 249.39
390.14, 6.96, 249.48
389.55, 6.96, 249.57
388.90, 6.95, 249.68
387.36, 6.80, 249.93
386.44, 6.79, 250.08
385.41, 6.79, 250.25
384.22, 6.79, 250.45
382.85, 6.80, 250.68
381.49, 6.84, 250.90
380.11, 6.91, 251.14
380.11, 7.15, 251.15
380.11, 7.39, 251.16
380.11, 7.63, 251.18
380.11, 7.87, 251.19
380.11, 8.11, 251.20
394.35, 7.01, 248.85
394.16, 7.01, 248.88
393.95, 7.00, 248.92
393.72, 7.00, 248.96
393.48, 6.99, 249.00
¯393.23, 6.99, 249.04
392.96, 6.99, 249.09
392.65, 6.98, 249.15
392.33, 6.98, 249.20
391.98, 6.97, 249.27
391.59, 6.97, 249.33
391.17, 6.97, 249.41
390.70, 6.96, 249.49
390.18, 6.96, 249.59
389.60, 6.95, 249.69
388.95, 6.95, 249.80
387.43, 6.80, 250.07
386.51, 6.79, 250.23
385.50, 6.79, 250.41
384.32, 6.79, 250.62
382.97, 6.80, 250.86
381.58, 6.84, 251.11
379.80, 6.86, 251.43
380.10, 7.14, 251.39
380.10, 7.38, 251.41
380.10, 7.62, 251.42
380.10, 7.86, 251.43
380.10, 8.10, 251.45
394.37, 7.01, 248.91
394.18, 7.01, 248.94
393.97, 7.00, 248.98
393.75, 7.00, 249.02
393.51, 6.99, 249.07
393.26, 6.99, 249.12
392.98, 6.99, 249.17
392.68, 6.98, 249.23
392.36, 6.98, 249.29
392.01, 6.97, 249.35
391.63, 6.97, 249.43
391.21, 6.97, 249.51
390.75, 6.96, 249.59
390.23, 6.96, 249.69
389.65, 6.95, 249.80
389.01, 6.95, 249.93
388.27, 6.94, 250.07
386.59, 6.79, 250.38
385.59, 6.79, 250.57
384.42, 6.79, 250.79
383.09, 6.80, 251.05
381.68, 6.83, 251.32
379.84, 6.85, 251.67
378.58, 6.97, 251.92
378.58, 7.23, 251.93
378.58, 7.49, 251.95
378.58, 7.75, 251.96
378.58, 8.00, 251.98
¯376.34, 8.18, 252.42
394.39, 7.01, 248.97
394.20, 7.01, 249.00
393.99, 7.00, 249.05
393.77, 7.00, 249.09
393.53, 6.99, 249.14
393.28, 6.99, 249.19
393.01, 6.99, 249.24
392.71, 6.98, 249.31
392.39, 6.98, 249.37
392.05, 6.97, 249.44
391.67, 6.97, 249.52
391.25, 6.97, 249.60
390.79, 6.96, 249.70
390.28, 6.96, 249.80
389.71, 6.95, 249.92
389.07, 6.95, 250.05
388.34, 6.94, 250.20
386.68, 6.79, 250.52
385.68, 6.79, 250.73
384.53, 6.79, 250.96
383.22, 6.80, 251.23
381.77, 6.82, 251.53
379.88, 6.83, 251.91
378.58, 6.95, 252.18
378.58, 7.21, 252.20
378.58, 7.47, 252.21
378.58, 7.73, 252.23
378.58, 7.99, 252.24
394.41, 7.01, 249.03
394.22, 7.01, 249.07
394.02, 7.00, 249.11
393.80, 7.00, 249.16
393.56, 6.99, 249.21
393.31, 6.99, 249.26
393.04, 6.99, 249.32
392.75, 6.98, 249.38
392.43, 6.98, 249.45
392.08, 6.97, 249.53
391.70, 6.97, 249.61
391.29, 6.97, 249.70
390.84, 6.96, 249.80
390.33, 6.96, 249.91
389.76, 6.95, 250.03
389.13, 6.95, 250.16
388.40, 6.94, 250.32
387.56, 6.94, 250.50
385.77, 6.79, 250.88
384.63, 6.79, 251.13
383.34, 6.80, 251.41
381.87, 6.82, 251.73
¯380.02, 6.83, 252.13
379.37, 7.01, 252.28
379.39, 7.26, 252.29
379.41, 7.51, 252.30
379.42, 7.76, 252.31
379.44, 8.02, 252.32
394.43, 7.01, 249.09
394.24, 7.01, 249.13
394.04, 7.00, 249.17
393.82, 7.00, 249.22
393.59, 6.99, 249.28
393.34, 6.99, 249.33
393.07, 6.99, 249.40
392.78, 6.98, 249.46
392.46, 6.98, 249.53
392.12, 6.97, 249.61
391.74, 6.97, 249.70
391.34, 6.97, 249.79
390.88, 6.96, 249.90
390.38, 6.96, 250.01
389.82, 6.95, 250.14
389.19, 6.95, 250.28
388.47, 6.94, 250.45
387.64, 6.94, 250.64
385.87, 6.79, 251.04
384.74, 6.79, 251.30
383.47, 6.80, 251.59
381.96, 6.81, 251.93
380.18, 6.83, 252.34
379.70, 7.02, 252.46
379.71, 7.27, 252.47
379.73, 7.52, 252.48
379.75, 7.77, 252.49
379.77, 8.02, 252.50
394.46, 7.01, 249.14
394.27, 7.01, 249.19
394.07, 7.00, 249.24
393.85, 7.00, 249.29
393.62, 6.99, 249.35
393.37, 6.99, 249.41
393.10, 6.99, 249.47
392.81, 6.98, 249.54
392.50, 6.98, 249.62
392.16, 6.97, 249.70
391.79, 6.97, 249.79
391.38, 6.97, 249.89
390.93, 6.96, 250.00
390.43, 6.96, 250.12
389.88, 6.95, 250.25
389.26, 6.95, 250.40
388.54, 6.94, 250.57
¯387.72, 6.94, 250.77
385.96, 6.79, 251.19
384.85, 6.79, 251.46
383.59, 6.80, 251.76
382.10, 6.81, 252.13
380.34, 6.83, 252.55
380.01, 7.04, 252.64
380.03, 7.28, 252.65
380.05, 7.53, 252.66
380.06, 7.77, 252.67
380.08, 8.02, 252.68
394.48, 7.01, 249.20
394.29, 7.01, 249.25
394.09, 7.00, 249.30
393.87, 7.00, 249.36
393.64, 6.99, 249.41
393.40, 6.99, 249.48
393.14, 6.99, 249.54
392.84, 6.98, 249.62
392.53, 6.98, 249.70
392.20, 6.97, 249.78
391.83, 6.97, 249.88
391.43, 6.97, 249.98
390.98, 6.96, 250.09
390.48, 6.96, 250.22
389.93, 6.95, 250.36
389.32, 6.95, 250.52
388.61, 6.94, 250.70
387.80, 6.94, 250.90
386.88, 6.93, 251.14
384.95, 6.79, 251.62
383.72, 6.80, 251.94
382.24, 6.81, 252.31
380.50, 6.83, 252.76
380.32, 7.05, 252.82
380.34, 7.29, 252.83
380.36, 7.53, 252.84
380.37, 7.78, 252.85
380.39, 8.02, 252.85
394.50, 7.01, 249.26
394.32, 7.01, 249.31
394.12, 7.00, 249.36
393.90, 7.00, 249.42
393.67, 6.99, 249.48
393.43, 6.99, 249.55
393.17, 6.99, 249.62
392.88, 6.98, 249.70
392.57, 6.98, 249.78
392.24, 6.97, 249.87
391.87, 6.97, 249.97
391.47, 6.97, 250.07
¯391.03, 6.96, 250.19
390.54, 6.96, 250.32
389.99, 6.95, 250.47
389.38, 6.95, 250.63
388.68, 6.94, 250.82
387.88, 6.94, 251.03
386.97, 6.93, 251.28
385.06, 6.79, 251.78
383.85, 6.80, 252.11
382.39, 6.81, 252.50
380.66, 6.83, 252.97
380.33, 7.03, 253.07
380.32, 7.27, 253.08
380.31, 7.51, 253.10
380.30, 7.75, 253.11
380.29, 7.99, 253.13
378.96, 8.18, 253.49
394.53, 7.01, 249.32
394.34, 7.01, 249.37
394.14, 7.00, 249.43
393.93, 7.00, 249.49
393.70, 6.99, 249.55
393.46, 6.99, 249.62
393.20, 6.99, 249.69
392.91, 6.98, 249.77
392.61, 6.98, 249.86
392.28, 6.97, 249.95
391.91, 6.97, 250.05
391.52, 6.97, 250.16
391.08, 6.96, 250.29
390.59, 6.96, 250.42
390.05, 6.95, 250.58
389.45, 6.95, 250.75
388.75, 6.94, 250.94
387.96, 6.94, 251.16
387.06, 6.93, 251.42
385.17, 6.79, 251.94
383.97, 6.80, 252.28
382.53, 6.81, 252.68
380.82, 6.82, 253.17
380.16, 6.99, 253.36
380.15, 7.24, 253.38
380.14, 7.48, 253.39
380.13, 7.72, 253.41
380.12, 7.97, 253.42
379.35, 8.18, 253.65
394.55, 7.01, 249.38
394.37, 7.01, 249.43
394.17, 7.00, 249.49
393.96, 7.00, 249.55
393.73, 6.99, 249.62
¯393.50, 6.99, 249.69
393.24, 6.99, 249.76
392.95, 6.98, 249.85
392.65, 6.98, 249.94
392.32, 6.97, 250.03
391.96, 6.97, 250.14
391.57, 6.97, 250.25
391.13, 6.96, 250.38
390.65, 6.96, 250.52
390.11, 6.95, 250.68
389.51, 6.95, 250.86
388.83, 6.94, 251.06
388.04, 6.94, 251.29
387.15, 6.93, 251.55
386.15, 6.93, 251.85
384.10, 6.80, 252.44
382.67, 6.81, 252.87
380.98, 6.82, 253.36
379.99, 6.95, 253.66
379.98, 7.20, 253.68
379.97, 7.45, 253.70
379.96, 7.70, 253.71
379.95, 7.94, 253.73
379.73, 8.18, 253.81
394.58, 7.01, 249.43
394.39, 7.01, 249.49
394.20, 7.00, 249.55
393.99, 7.00, 249.61
393.77, 6.99, 249.68
393.53, 6.99, 249.76
393.27, 6.99, 249.84
392.99, 6.98, 249.92
392.69, 6.98, 250.01
392.36, 6.97, 250.11
392.00, 6.97, 250.22
391.61, 6.97, 250.34
391.18, 6.96, 250.48
390.70, 6.96, 250.62
390.17, 6.95, 250.79
389.58, 6.95, 250.97
388.90, 6.94, 251.18
388.13, 6.94, 251.42
387.24, 6.93, 251.69
386.25, 6.93, 251.99
384.23, 6.80, 252.61
382.82, 6.81, 253.04
381.15, 6.82, 253.56
379.81, 6.91, 253.98
377.65, 6.96, 254.65
394.60, 7.01, 249.49
394.42, 7.01, 249.55
¯394.23, 7.00, 249.61
394.02, 7.00, 249.68
393.80, 6.99, 249.75
393.56, 6.99, 249.82
393.31, 6.99, 249.91
393.03, 6.98, 250.00
392.73, 6.98, 250.09
392.40, 6.97, 250.20
392.05, 6.97, 250.31
391.66, 6.97, 250.43
391.23, 6.96, 250.57
390.76, 6.96, 250.72
390.23, 6.95, 250.89
389.65, 6.95, 251.08
388.97, 6.94, 251.30
388.21, 6.94, 251.54
387.34, 6.93, 251.82
386.35, 6.93, 252.14
384.36, 6.81, 252.77
382.96, 6.81, 253.22
381.32, 6.82, 253.75
379.41, 6.85, 254.37
377.71, 6.94, 254.92
375.74, 7.06, 255.56
394.63, 7.01, 249.55
394.45, 7.01, 249.61
394.26, 7.00, 249.67
394.05, 7.00, 249.74
393.83, 6.99, 249.81
393.60, 6.99, 249.89
393.34, 6.99, 249.98
393.06, 6.98, 250.07
392.77, 6.98, 250.17
392.45, 6.97, 250.28
392.09, 6.97, 250.39
391.71, 6.97, 250.52
391.29, 6.96, 250.67
390.82, 6.96, 250.82
390.29, 6.95, 251.00
389.72, 6.95, 251.19
389.05, 6.94, 251.41
388.29, 6.94, 251.67
387.43, 6.93, 251.95
386.46, 6.93, 252.28
385.35, 6.93, 252.65
383.11, 6.81, 253.40
381.49, 6.82, 253.94
379.61, 6.85, 254.57
377.77, 6.93, 255.19
375.99, 7.05, 255.79
394.66, 7.01, 249.60
¯394.48, 7.01, 249.67
394.29, 7.00, 249.73
394.08, 7.00, 249.80
393.86, 6.99, 249.88
393.63, 6.99, 249.96
393.38, 6.99, 250.05
393.10, 6.98, 250.14
392.81, 6.98, 250.25
392.49, 6.97, 250.36
392.14, 6.97, 250.48
391.76, 6.97, 250.61
391.34, 6.96, 250.76
390.88, 6.96, 250.92
390.36, 6.95, 251.10
389.79, 6.95, 251.30
389.13, 6.94, 251.53
388.38, 6.94, 251.79
387.53, 6.93, 252.08
386.57, 6.93, 252.42
385.47, 6.93, 252.80
383.25, 6.81, 253.57
381.66, 6.82, 254.12
379.80, 6.85, 254.77
377.84, 6.91, 255.46
376.14, 7.04, 256.06
394.68, 7.01, 249.66
394.51, 7.01, 249.72
394.32, 7.00, 249.79
394.11, 7.00, 249.87
393.90, 6.99, 249.94
393.67, 6.99, 250.03
393.42, 6.99, 250.12
393.14, 6.98, 250.22
392.85, 6.98, 250.32
392.54, 6.97, 250.44
392.19, 6.97, 250.56
391.81, 6.97, 250.70
391.39, 6.96, 250.85
390.94, 6.96, 251.01
390.42, 6.95, 251.20
389.86, 6.95, 251.41
389.20, 6.94, 251.64
388.47, 6.94, 251.91
387.62, 6.93, 252.21
386.67, 6.93, 252.56
385.59, 6.93, 252.95
383.40, 6.81, 253.74
381.83, 6.82, 254.31
380.00, 6.85, 254.97
377.91, 6.89, 255.73
376.24, 7.03, 256.34
¯394.71, 7.01, 249.71
394.54, 7.01, 249.78
394.35, 7.00, 249.85
394.15, 7.00, 249.93
393.93, 6.99, 250.01
393.70, 6.99, 250.09
393.45, 6.99, 250.19
393.18, 6.98, 250.29
392.90, 6.98, 250.40
392.58, 6.97, 250.51
392.24, 6.97, 250.64
391.87, 6.97, 250.78
391.45, 6.96, 250.94
391.00, 6.96, 251.11
390.49, 6.95, 251.30
389.93, 6.95, 251.51
389.28, 6.94, 251.75
388.55, 6.94, 252.03
387.72, 6.93, 252.34
386.78, 6.93, 252.70
385.71, 6.94, 253.10
384.51, 6.95, 253.55
382.00, 6.82, 254.49
380.20, 6.85, 255.17
378.06, 6.88, 255.97
376.34, 7.01, 256.63
394.74, 7.01, 249.77
394.57, 7.01, 249.84
394.38, 7.00, 249.91
394.18, 7.00, 249.99
393.97, 6.99, 250.07
393.74, 6.99, 250.16
393.49, 6.99, 250.26
393.22, 6.98, 250.36
392.94, 6.98, 250.47
392.63, 6.97, 250.59
392.29, 6.97, 250.73
391.92, 6.97, 250.87
391.51, 6.96, 251.03
391.06, 6.96, 251.20
390.55, 6.95, 251.40
390.00, 6.95, 251.62
389.36, 6.94, 251.87
388.64, 6.94, 252.15
387.82, 6.93, 252.47
386.89, 6.93, 252.83
385.84, 6.94, 253.24
384.65, 6.95, 253.70
382.17, 6.83, 254.67
380.40, 6.85, 255.36
378.29, 6.88, 256.18
¯376.45, 7.00, 256.91
394.77, 7.01, 249.82
394.60, 7.01, 249.89
394.41, 7.00, 249.97
394.21, 7.00, 250.05
394.00, 6.99, 250.13
393.78, 6.99, 250.22
393.53, 6.99, 250.32
393.27, 6.98, 250.43
392.98, 6.98, 250.55
392.68, 6.97, 250.67
392.34, 6.97, 250.81
391.97, 6.97, 250.95
391.56, 6.96, 251.12
391.12, 6.96, 251.30
390.62, 6.95, 251.50
390.07, 6.95, 251.72
389.44, 6.94, 251.98
388.73, 6.94, 252.26
387.91, 6.93, 252.59
386.99, 6.93, 252.97
385.96, 6.94, 253.38
384.79, 6.95, 253.86
382.34, 6.83, 254.84
380.59, 6.85, 255.55
378.52, 6.88, 256.39
376.55, 6.98, 257.19
394.80, 7.01, 249.88
394.63, 7.01, 249.95
394.45, 7.00, 250.03
394.25, 7.00, 250.11
394.04, 6.99, 250.20
393.82, 6.99, 250.29
393.57, 6.99, 250.39
393.31, 6.98, 250.50
393.03, 6.98, 250.62
392.72, 6.97, 250.75
392.39, 6.97, 250.89
392.03, 6.97, 251.04
391.62, 6.96, 251.21
391.18, 6.96, 251.39
390.69, 6.95, 251.60
390.15, 6.95, 251.82
389.52, 6.94, 252.09
388.82, 6.94, 252.38
388.01, 6.93, 252.72
387.10, 6.93, 253.10
386.08, 6.94, 253.53
384.93, 6.95, 254.01
383.49, 6.95, 254.61
380.79, 6.85, 255.74
¯378.75, 6.88, 256.59
376.66, 6.97, 257.47
394.83, 7.01, 249.93
394.66, 7.01, 250.00
394.48, 7.00, 250.08
394.28, 7.00, 250.17
394.08, 6.99, 250.26
393.86, 6.99, 250.35
393.61, 6.99, 250.46
393.35, 6.98, 250.57
393.07, 6.98, 250.69
392.77, 6.97, 250.82
392.44, 6.97, 250.97
392.08, 6.97, 251.12
391.68, 6.96, 251.29
391.24, 6.96, 251.48
390.75, 6.95, 251.70
390.22, 6.95, 251.93
389.60, 6.94, 252.19
388.91, 6.94, 252.49
388.11, 6.93, 252.84
387.21, 6.93, 253.23
386.20, 6.94, 253.67
385.07, 6.95, 254.16
383.65, 6.95, 254.77
380.99, 6.85, 255.92
378.98, 6.88, 256.79
376.70, 6.95, 257.78
394.86, 7.01, 249.98
394.70, 7.01, 250.06
394.51, 7.00, 250.14
394.32, 7.00, 250.23
394.11, 6.99, 250.32
393.90, 6.99, 250.42
393.66, 6.99, 250.52
393.40, 6.98, 250.64
393.12, 6.98, 250.76
392.82, 6.97, 250.90
392.49, 6.97, 251.04
392.14, 6.97, 251.20
391.74, 6.96, 251.38
391.31, 6.96, 251.57
390.82, 6.95, 251.79
390.30, 6.95, 252.03
389.68, 6.94, 252.30
389.00, 6.94, 252.61
388.21, 6.93, 252.96
387.32, 6.93, 253.36
386.33, 6.94, 253.80
385.21, 6.95, 254.30
383.81, 6.95, 254.93
¯381.20, 6.85, 256.10
379.23, 6.88, 256.98
376.86, 6.94, 258.04
394.90, 7.01, 250.04
394.73, 7.01, 250.11
394.55, 7.00, 250.20
394.36, 7.00, 250.29
394.15, 6.99, 250.38
393.94, 6.99, 250.48
393.70, 6.99, 250.59
393.44, 6.98, 250.71
393.17, 6.98, 250.83
392.87, 6.97, 250.97
392.55, 6.97, 251.12
392.19, 6.97, 251.28
391.80, 6.96, 251.47
391.37, 6.96, 251.66
390.89, 6.95, 251.89
390.37, 6.95, 252.13
389.77, 6.94, 252.41
389.09, 6.94, 252.72
388.31, 6.93, 253.08
387.43, 6.93, 253.49
386.45, 6.94, 253.94
385.35, 6.95, 254.45
383.98, 6.95, 255.09
381.40, 6.85, 256.27
379.47, 6.89, 257.17
377.11, 6.93, 258.26
394.93, 7.01, 250.09
394.76, 7.01, 250.17
394.59, 7.00, 250.25
394.39, 7.00, 250.34
394.19, 6.99, 250.44
393.98, 6.99, 250.54
393.74, 6.99, 250.65
393.49, 6.98, 250.78
393.22, 6.98, 250.91
392.92, 6.97, 251.05
392.60, 6.97, 251.20
392.25, 6.97, 251.37
391.86, 6.96, 251.55
391.44, 6.96, 251.75
390.96, 6.95, 251.98
390.45, 6.95, 252.23
389.85, 6.94, 252.51
389.18, 6.94, 252.83
388.41, 6.93, 253.20
387.54, 6.93, 253.61
386.57, 6.94, 254.07
385.49, 6.95, 254.59
¯384.14, 6.95, 255.24
382.59, 6.97, 255.98
379.71, 6.89, 257.35
377.41, 6.94, 258.45
394.96, 7.01, 250.14
394.80, 7.01, 250.22
394.62, 7.00, 250.31
394.43, 7.00, 250.40
394.23, 6.99, 250.50
394.02, 6.99, 250.60
393.79, 6.99, 250.72
393.53, 6.98, 250.84
393.26, 6.98, 250.98
392.97, 6.97, 251.12
392.65, 6.97, 251.28
392.31, 6.97, 251.45
391.92, 6.96, 251.64
391.50, 6.96, 251.84
391.03, 6.95, 252.07
390.52, 6.95, 252.32
389.94, 6.94, 252.61
389.28, 6.94, 252.94
388.51, 6.93, 253.31
387.65, 6.93, 253.74
386.70, 6.94, 254.21
385.63, 6.95, 254.74
384.30, 6.95, 255.39
382.77, 6.97, 256.14
379.95, 6.89, 257.53
377.71, 6.94, 258.64
395.00, 7.01, 250.19
394.83, 7.01, 250.27
394.66, 7.00, 250.36
394.47, 7.00, 250.46
394.27, 6.99, 250.56
394.06, 6.99, 250.67
393.83, 6.99, 250.78
393.58, 6.98, 250.91
393.31, 6.98, 251.05
393.02, 6.97, 251.19
392.71, 6.97, 251.35
392.37, 6.97, 251.52
391.99, 6.96, 251.72
391.57, 6.96, 251.93
391.10, 6.95, 252.16
390.60, 6.95, 252.42
390.02, 6.94, 252.71
389.37, 6.94, 253.05
388.61, 6.93, 253.43
387.77, 6.93, 253.86
386.82, 6.94, 254.34
¯385.77, 6.95, 254.88
384.46, 6.96, 255.54
382.96, 6.97, 256.30
380.18, 6.89, 257.71
378.00, 6.94, 258.82
395.03, 7.01, 250.24
394.87, 7.01, 250.33
394.69, 7.00, 250.42
394.51, 7.00, 250.51
394.31, 6.99, 250.62
394.10, 6.99, 250.73
393.87, 6.99, 250.85
393.63, 6.98, 250.98
393.36, 6.98, 251.11
393.08, 6.97, 251.26
392.76, 6.97, 251.43
392.43, 6.97, 251.60
392.05, 6.96, 251.80
391.64, 6.96, 252.02
391.18, 6.95, 252.26
390.68, 6.95, 252.52
390.11, 6.94, 252.82
389.46, 6.94, 253.15
388.72, 6.93, 253.54
387.88, 6.93, 253.98
386.95, 6.94, 254.47
385.91, 6.95, 255.01
384.62, 6.96, 255.69
383.15, 6.97, 256.46
381.46, 7.01, 257.35
378.29, 6.94, 259.00
395.06, 7.01, 250.29
394.90, 7.01, 250.38
394.73, 7.00, 250.47
394.55, 7.00, 250.57
394.35, 6.99, 250.68
394.15, 6.99, 250.79
393.92, 6.99, 250.91
393.67, 6.98, 251.04
393.41, 6.98, 251.18
393.13, 6.97, 251.33
392.82, 6.97, 251.50
392.49, 6.97, 251.68
392.11, 6.96, 251.88
391.70, 6.96, 252.10
391.25, 6.95, 252.35
390.76, 6.95, 252.61
390.19, 6.94, 252.92
389.56, 6.94, 253.26
388.82, 6.93, 253.65
387.99, 6.93, 254.10
¯387.07, 6.94, 254.60
386.05, 6.95, 255.15
384.78, 6.96, 255.83
383.34, 6.97, 256.61
381.67, 7.01, 257.51
378.58, 6.94, 259.17
395.10, 7.01, 250.34
394.94, 7.01, 250.43
394.77, 7.00, 250.53
394.59, 7.00, 250.63
394.39, 7.00, 250.73
394.19, 6.99, 250.85
393.97, 6.99, 250.97
393.72, 6.98, 251.11
393.46, 6.98, 251.25
393.18, 6.97, 251.40
392.88, 6.97, 251.57
392.55, 6.97, 251.76
392.18, 6.96, 251.96
391.77, 6.96, 252.19
391.32, 6.95, 252.44
390.84, 6.95, 252.70
390.28, 6.95, 253.01
389.65, 6.94, 253.36
388.92, 6.93, 253.77
388.10, 6.93, 254.22
387.20, 6.94, 254.72
386.18, 6.95, 255.29
384.95, 6.96, 255.97
383.53, 6.98, 256.76
381.88, 7.01, 257.67
378.86, 6.95, 259.35
395.13, 7.01, 250.39
394.98, 7.01, 250.48
394.81, 7.00, 250.58
394.63, 7.00, 250.68
394.44, 7.00, 250.79
394.23, 6.99, 250.91
394.01, 6.99, 251.03
393.77, 6.98, 251.17
393.51, 6.98, 251.32
393.24, 6.97, 251.47
392.93, 6.97, 251.65
392.61, 6.97, 251.83
392.24, 6.96, 252.04
391.84, 6.96, 252.27
391.40, 6.95, 252.52
390.92, 6.95, 252.80
390.37, 6.95, 253.11
389.75, 6.94, 253.47
389.03, 6.93, 253.88
¯388.22, 6.93, 254.34
387.32, 6.94, 254.85
386.33, 6.95, 255.42
385.11, 6.96, 256.11
383.71, 6.98, 256.91
382.10, 7.01, 257.84
379.13, 6.95, 259.53
395.17, 7.01, 250.44
395.02, 7.01, 250.53
394.85, 7.00, 250.63
394.67, 7.00, 250.73
394.48, 7.00, 250.85
394.28, 6.99, 250.96
394.06, 6.99, 251.09
393.82, 6.98, 251.23
393.57, 6.98, 251.38
393.29, 6.97, 251.54
392.99, 6.97, 251.72
392.67, 6.97, 251.91
392.31, 6.96, 252.12
391.91, 6.96, 252.35
391.47, 6.95, 252.61
391.00, 6.95, 252.89
390.46, 6.95, 253.21
389.84, 6.94, 253.57
389.13, 6.93, 253.98
388.33, 6.93, 254.45
387.45, 6.94, 254.97
