žVERSION 0.7
FIELDS x y z
SIZE 8 8 8
TYPE F F F
COUNT 1 1 1
WIDTH 2271
HEIGHT 1
VIEWPOINT 327.62, 7.67, 368.38 1 337.59, 1.87, 385.47
POINTS 2271
DATA ascii
330.72, 0.92, 397.38
330.72, 1.12, 397.38
330.72, 1.33, 397.38
330.73, 1.53, 397.38
330.73, 1.73, 397.38
334.47, 0.16, 386.08
334.42, 0.16, 386.24
334.37, 0.16, 386.42
334.31, 0.16, 386.60
334.25, 0.16, 386.79
334.18, 0.16, 387.00
334.11, 0.16, 387.23
334.03, 0.16, 387.47
333.95, 0.16, 387.73
333.86, 0.16, 388.02
333.76, 0.16, 388.33
333.66, 0.16, 388.67
333.54, 0.16, 389.05
333.41, 0.16, 389.46
333.26, 0.16, 389.93
333.10, 0.16, 390.44
332.91, 0.15, 391.04
¯332.71, 0.15, 391.70
332.47, 0.15, 392.45
332.19, 0.15, 393.34
331.86, 0.14, 394.40
331.15, 0.00, 396.64
330.66, 0.00, 398.21
330.92, 0.31, 397.38
330.93, 0.51, 397.38
330.93, 0.72, 397.38
330.93, 0.92, 397.38
330.93, 1.12, 397.38
330.94, 1.33, 397.38
330.94, 1.53, 397.38
330.94, 1.73, 397.38
334.53, 0.15, 386.10
334.48, 0.15, 386.26
334.43, 0.15, 386.43
334.37, 0.15, 386.62
334.31, 0.16, 386.81
334.25, 0.16, 387.02
334.18, 0.16, 387.25
334.11, 0.16, 387.49
334.03, 0.16, 387.75
333.94, 0.16, 388.04
333.85, 0.16, 388.35
333.75, 0.16, 388.70
333.63, 0.16, 389.07
333.51, 0.16, 389.49
333.37, 0.16, 389.96
333.21, 0.16, 390.47
333.03, 0.15, 391.07
332.83, 0.15, 391.73
332.61, 0.15, 392.48
332.34, 0.15, 393.37
332.02, 0.14, 394.44
331.34, 0.00, 396.68
330.87, 0.00, 398.25
331.13, 0.31, 397.38
331.14, 0.52, 397.38
331.14, 0.72, 397.38
331.14, 0.92, 397.38
331.15, 1.13, 397.38
331.15, 1.33, 397.38
331.15, 1.53, 397.38
331.15, 1.73, 397.38
334.58, 0.15, 386.11
334.54, 0.15, 386.28
334.49, 0.15, 386.45
334.43, 0.15, 386.63
334.38, 0.15, 386.83
334.32, 0.15, 387.04
¯334.25, 0.15, 387.27
334.18, 0.16, 387.51
334.11, 0.16, 387.78
334.02, 0.16, 388.06
333.93, 0.16, 388.38
333.83, 0.16, 388.72
333.73, 0.16, 389.10
333.61, 0.16, 389.52
333.47, 0.15, 389.98
333.32, 0.15, 390.50
333.15, 0.15, 391.10
332.96, 0.15, 391.76
332.74, 0.15, 392.52
332.48, 0.15, 393.41
332.18, 0.14, 394.47
331.53, 0.00, 396.72
331.08, 0.00, 398.28
331.34, 0.32, 397.38
331.35, 0.52, 397.38
331.35, 0.72, 397.38
331.35, 0.92, 397.38
331.36, 1.13, 397.38
331.36, 1.33, 397.38
331.36, 1.53, 397.38
331.36, 1.73, 397.38
334.64, 0.15, 386.13
334.60, 0.15, 386.29
334.55, 0.15, 386.47
334.50, 0.15, 386.65
334.44, 0.15, 386.85
334.38, 0.15, 387.06
334.32, 0.15, 387.29
334.25, 0.15, 387.53
334.18, 0.16, 387.80
334.10, 0.16, 388.08
334.02, 0.16, 388.40
333.92, 0.16, 388.74
333.82, 0.16, 389.12
333.70, 0.16, 389.54
333.57, 0.15, 390.01
333.43, 0.15, 390.53
333.27, 0.15, 391.13
333.08, 0.15, 391.79
332.88, 0.15, 392.55
332.63, 0.15, 393.44
332.34, 0.14, 394.51
331.72, 0.00, 396.75
331.29, 0.00, 398.32
331.55, 0.32, 397.38
331.56, 0.52, 397.38
331.56, 0.72, 397.38
¯331.56, 0.93, 397.38
331.56, 1.13, 397.38
331.57, 1.33, 397.38
331.57, 1.53, 397.38
331.57, 1.73, 397.38
334.70, 0.15, 386.14
334.65, 0.15, 386.31
334.61, 0.15, 386.48
334.56, 0.15, 386.67
334.51, 0.15, 386.87
334.45, 0.15, 387.08
334.39, 0.15, 387.31
334.33, 0.15, 387.55
334.26, 0.16, 387.82
334.18, 0.16, 388.11
334.10, 0.15, 388.42
334.01, 0.15, 388.77
333.91, 0.15, 389.15
333.80, 0.15, 389.57
333.68, 0.15, 390.04
333.54, 0.15, 390.56
333.39, 0.15, 391.16
333.21, 0.15, 391.82
333.01, 0.15, 392.58
332.78, 0.15, 393.48
332.50, 0.14, 394.54
331.91, 0.00, 396.78
331.50, 0.00, 398.36
331.76, 0.32, 397.38
331.76, 0.53, 397.38
331.77, 0.73, 397.38
331.77, 0.93, 397.38
331.77, 1.13, 397.38
331.77, 1.33, 397.38
331.78, 1.53, 397.38
331.78, 1.73, 397.38
334.75, 0.15, 386.16
334.71, 0.15, 386.32
334.67, 0.15, 386.50
334.62, 0.15, 386.68
334.57, 0.15, 386.88
334.52, 0.15, 387.10
334.46, 0.15, 387.33
334.40, 0.15, 387.57
334.34, 0.15, 387.84
334.26, 0.15, 388.13
334.19, 0.15, 388.44
334.10, 0.15, 388.79
334.01, 0.15, 389.17
333.90, 0.15, 389.59
333.78, 0.15, 390.06
¯333.65, 0.15, 390.59
333.50, 0.15, 391.18
333.34, 0.15, 391.85
333.15, 0.15, 392.61
332.93, 0.15, 393.51
332.66, 0.14, 394.57
332.10, 0.00, 396.82
331.71, 0.00, 398.39
331.97, 0.33, 397.38
331.97, 0.53, 397.38
331.97, 0.73, 397.38
331.97, 0.93, 397.38
331.98, 1.13, 397.38
331.98, 1.33, 397.38
331.98, 1.53, 397.38
331.98, 1.73, 397.38
334.81, 0.15, 386.17
334.77, 0.15, 386.34
334.73, 0.15, 386.51
334.69, 0.15, 386.70
334.64, 0.15, 386.90
334.59, 0.15, 387.11
334.53, 0.15, 387.34
334.48, 0.15, 387.59
334.41, 0.15, 387.85
334.35, 0.15, 388.15
334.27, 0.15, 388.46
334.19, 0.15, 388.81
334.10, 0.15, 389.19
334.00, 0.15, 389.61
333.89, 0.15, 390.09
333.76, 0.15, 390.61
333.62, 0.15, 391.21
333.47, 0.15, 391.88
333.29, 0.15, 392.64
333.08, 0.14, 393.54
332.83, 0.14, 394.60
332.29, 0.00, 396.84
331.92, 0.00, 398.42
332.17, 0.33, 397.38
332.18, 0.53, 397.38
332.18, 0.73, 397.38
332.18, 0.93, 397.38
332.18, 1.13, 397.38
332.18, 1.33, 397.38
332.19, 1.53, 397.38
332.19, 1.72, 397.38
334.87, 0.15, 386.18
334.83, 0.15, 386.35
334.79, 0.15, 386.53
334.75, 0.15, 386.71
¯334.71, 0.15, 386.91
334.66, 0.15, 387.13
334.61, 0.15, 387.36
334.55, 0.15, 387.61
334.49, 0.15, 387.87
334.43, 0.15, 388.16
334.36, 0.15, 388.48
334.28, 0.15, 388.83
334.19, 0.15, 389.21
334.10, 0.15, 389.64
333.99, 0.15, 390.11
333.88, 0.15, 390.64
333.74, 0.15, 391.24
333.59, 0.15, 391.91
333.42, 0.15, 392.67
333.22, 0.14, 393.57
332.99, 0.14, 394.62
332.49, 0.00, 396.87
332.14, 0.00, 398.44
332.38, 0.33, 397.38
332.38, 0.53, 397.38
332.38, 0.73, 397.38
332.38, 0.93, 397.38
332.39, 1.13, 397.38
332.39, 1.33, 397.38
332.39, 1.53, 397.38
332.39, 1.72, 397.38
334.93, 0.15, 386.20
334.89, 0.15, 386.36
334.85, 0.15, 386.54
334.81, 0.15, 386.73
334.77, 0.15, 386.93
334.73, 0.15, 387.14
334.68, 0.15, 387.37
334.63, 0.15, 387.62
334.57, 0.15, 387.89
334.51, 0.15, 388.18
334.44, 0.15, 388.50
334.37, 0.15, 388.85
334.29, 0.15, 389.23
334.20, 0.15, 389.66
334.10, 0.15, 390.13
333.99, 0.15, 390.66
333.86, 0.15, 391.26
333.72, 0.15, 391.93
333.56, 0.15, 392.70
333.37, 0.14, 393.59
333.15, 0.14, 394.65
332.68, 0.00, 396.90
332.35, 0.00, 398.46
332.58, 0.34, 397.38
¯332.58, 0.53, 397.38
332.58, 0.73, 397.38
332.59, 0.93, 397.38
332.59, 1.13, 397.38
332.59, 1.33, 397.38
332.59, 1.52, 397.38
332.59, 1.72, 397.38
334.98, 0.15, 386.21
334.95, 0.15, 386.37
334.91, 0.15, 386.55
334.88, 0.15, 386.74
334.84, 0.15, 386.94
334.80, 0.15, 387.16
334.75, 0.15, 387.39
334.70, 0.15, 387.64
334.65, 0.15, 387.90
334.59, 0.15, 388.20
334.53, 0.15, 388.52
334.46, 0.15, 388.87
334.38, 0.15, 389.25
334.30, 0.15, 389.68
334.20, 0.15, 390.16
334.10, 0.15, 390.68
333.98, 0.15, 391.28
333.85, 0.14, 391.96
333.70, 0.14, 392.72
333.52, 0.14, 393.62
333.31, 0.14, 394.67
332.87, 0.00, 396.92
332.56, 0.00, 398.47
332.78, 0.34, 397.38
332.78, 0.54, 397.38
332.79, 0.73, 397.38
332.79, 0.93, 397.38
332.79, 1.13, 397.38
332.79, 1.33, 397.38
332.79, 1.52, 397.38
332.79, 1.72, 397.38
335.04, 0.15, 386.22
335.01, 0.15, 386.38
334.98, 0.15, 386.56
334.94, 0.15, 386.75
334.90, 0.15, 386.95
334.86, 0.15, 387.17
334.82, 0.15, 387.40
334.78, 0.15, 387.65
334.73, 0.15, 387.92
334.67, 0.15, 388.21
334.61, 0.15, 388.54
334.55, 0.15, 388.89
334.48, 0.15, 389.27
¯334.40, 0.15, 389.70
334.31, 0.15, 390.18
334.21, 0.15, 390.70
334.10, 0.14, 391.30
333.98, 0.14, 391.98
333.83, 0.14, 392.75
333.67, 0.14, 393.64
333.48, 0.14, 394.70
333.25, 0.14, 395.93
332.77, 0.01, 398.48
332.98, 0.34, 397.38
332.98, 0.54, 397.38
332.99, 0.74, 397.38
332.99, 0.93, 397.38
332.99, 1.13, 397.38
332.99, 1.33, 397.38
332.99, 1.52, 397.38
332.99, 1.72, 397.38
335.10, 0.15, 386.23
335.07, 0.15, 386.40
335.04, 0.15, 386.57
335.01, 0.15, 386.76
334.97, 0.15, 386.96
334.93, 0.15, 387.18
334.89, 0.15, 387.41
334.85, 0.15, 387.66
334.80, 0.15, 387.93
334.75, 0.15, 388.23
334.70, 0.15, 388.55
334.64, 0.15, 388.90
334.57, 0.15, 389.29
334.50, 0.15, 389.72
334.42, 0.15, 390.19
334.32, 0.15, 390.72
334.22, 0.14, 391.32
334.10, 0.14, 392.00
333.97, 0.14, 392.77
333.82, 0.14, 393.67
333.64, 0.14, 394.72
333.43, 0.14, 395.95
332.99, 0.01, 398.49
333.18, 0.34, 397.38
333.18, 0.54, 397.38
333.19, 0.74, 397.38
333.19, 0.93, 397.38
333.19, 1.13, 397.38
333.19, 1.33, 397.38
333.19, 1.52, 397.38
333.19, 1.72, 397.38
335.16, 0.15, 386.24
335.13, 0.15, 386.41
¯335.10, 0.15, 386.58
335.07, 0.15, 386.77
335.04, 0.15, 386.98
335.00, 0.15, 387.19
334.97, 0.15, 387.43
334.93, 0.15, 387.68
334.88, 0.15, 387.95
334.84, 0.15, 388.24
334.78, 0.15, 388.57
334.73, 0.15, 388.92
334.67, 0.15, 389.31
334.60, 0.15, 389.73
334.52, 0.14, 390.21
334.44, 0.14, 390.74
334.34, 0.14, 391.34
334.23, 0.14, 392.02
334.11, 0.14, 392.79
333.97, 0.14, 393.69
333.80, 0.14, 394.74
333.60, 0.14, 395.97
333.20, 0.01, 398.51
333.38, 0.34, 397.38
333.38, 0.54, 397.38
333.38, 0.74, 397.38
333.39, 0.94, 397.38
333.39, 1.13, 397.38
333.39, 1.33, 397.38
333.39, 1.52, 397.38
333.39, 1.72, 397.38
335.21, 0.15, 386.25
335.19, 0.15, 386.41
335.16, 0.15, 386.59
335.13, 0.15, 386.78
335.10, 0.15, 386.99
335.07, 0.15, 387.20
335.04, 0.15, 387.44
335.00, 0.15, 387.69
334.96, 0.15, 387.96
334.92, 0.15, 388.26
334.87, 0.15, 388.58
334.82, 0.15, 388.93
334.76, 0.15, 389.32
334.70, 0.15, 389.75
334.63, 0.14, 390.23
334.55, 0.14, 390.76
334.46, 0.14, 391.36
334.36, 0.14, 392.04
334.25, 0.14, 392.81
334.12, 0.14, 393.71
333.96, 0.14, 394.76
333.78, 0.14, 395.99
¯333.41, 0.01, 398.51
333.58, 0.35, 397.38
333.58, 0.54, 397.38
333.58, 0.74, 397.38
333.58, 0.94, 397.38
333.59, 1.13, 397.38
333.59, 1.33, 397.38
333.59, 1.52, 397.38
333.59, 1.72, 397.38
335.27, 0.15, 386.26
335.25, 0.15, 386.42
335.22, 0.15, 386.60
335.20, 0.15, 386.79
335.17, 0.15, 387.00
335.14, 0.15, 387.21
335.11, 0.15, 387.45
335.08, 0.15, 387.70
335.04, 0.15, 387.97
335.00, 0.15, 388.27
334.96, 0.15, 388.59
334.91, 0.15, 388.95
334.86, 0.14, 389.34
334.80, 0.14, 389.76
334.73, 0.14, 390.24
334.66, 0.14, 390.78
334.58, 0.14, 391.38
334.49, 0.14, 392.06
334.39, 0.14, 392.83
334.27, 0.14, 393.73
334.13, 0.14, 394.77
333.82, 0.00, 397.02
333.62, 0.01, 398.52
333.78, 0.35, 397.38
333.78, 0.54, 397.38
333.78, 0.74, 397.38
333.78, 0.94, 397.38
333.78, 1.13, 397.38
333.78, 1.33, 397.38
333.78, 1.52, 397.38
333.79, 1.72, 397.38
335.33, 0.15, 386.26
335.31, 0.15, 386.43
335.29, 0.15, 386.61
335.26, 0.15, 386.80
335.24, 0.15, 387.00
335.21, 0.15, 387.22
335.18, 0.15, 387.46
335.15, 0.15, 387.71
335.12, 0.15, 387.98
335.08, 0.15, 388.28
335.04, 0.15, 388.60
¯335.00, 0.14, 388.96
334.95, 0.14, 389.35
334.90, 0.14, 389.78
334.84, 0.14, 390.26
334.78, 0.14, 390.79
334.70, 0.14, 391.39
334.62, 0.14, 392.07
334.52, 0.14, 392.85
334.42, 0.14, 393.75
334.17, 0.00, 395.72
334.01, 0.00, 397.04
333.83, 0.01, 398.53
333.97, 0.35, 397.38
333.97, 0.55, 397.38
333.98, 0.74, 397.38
333.98, 0.94, 397.38
333.98, 1.13, 397.38
333.98, 1.33, 397.38
333.98, 1.52, 397.38
333.98, 1.72, 397.38
335.39, 0.15, 386.27
335.37, 0.15, 386.44
335.35, 0.15, 386.62
335.33, 0.15, 386.81
335.31, 0.15, 387.01
335.28, 0.15, 387.23
335.26, 0.15, 387.47
335.23, 0.15, 387.72
335.20, 0.15, 387.99
335.17, 0.15, 388.29
335.13, 0.14, 388.62
335.09, 0.14, 388.97
335.05, 0.14, 389.36
335.00, 0.14, 389.79
334.95, 0.14, 390.27
334.89, 0.14, 390.81
334.82, 0.14, 391.41
334.75, 0.14, 392.09
334.66, 0.14, 392.87
334.47, 0.00, 394.62
334.35, 0.00, 395.73
334.20, 0.00, 397.05
334.04, 0.01, 398.56
334.17, 0.35, 397.38
334.17, 0.55, 397.38
334.17, 0.74, 397.38
334.17, 0.94, 397.38
334.17, 1.13, 397.38
334.18, 1.33, 397.38
334.18, 1.52, 397.38
334.18, 1.72, 397.38
¯335.45, 0.15, 386.28
335.43, 0.15, 386.45
335.41, 0.15, 386.63
335.39, 0.15, 386.82
335.37, 0.15, 387.02
335.35, 0.15, 387.24
335.33, 0.14, 387.48
335.30, 0.14, 387.73
335.28, 0.14, 388.00
335.25, 0.14, 388.30
335.22, 0.14, 388.63
335.18, 0.14, 388.98
335.14, 0.14, 389.37
335.10, 0.14, 389.80
335.06, 0.14, 390.28
335.00, 0.14, 390.82
334.94, 0.14, 391.42
334.88, 0.14, 392.10
334.72, 0.00, 393.68
334.63, 0.00, 394.63
334.52, 0.00, 395.74
334.39, 0.00, 397.06
334.24, 0.00, 398.64
334.37, 0.35, 397.38
334.37, 0.55, 397.38
334.37, 0.74, 397.38
334.37, 0.94, 397.38
334.37, 1.13, 397.38
334.37, 1.33, 397.38
334.37, 1.52, 397.38
334.37, 1.71, 397.38
335.50, 0.15, 386.28
335.49, 0.15, 386.45
335.47, 0.15, 386.63
335.46, 0.15, 386.82
335.44, 0.14, 387.03
335.42, 0.14, 387.25
335.40, 0.14, 387.48
335.38, 0.14, 387.74
335.36, 0.14, 388.01
335.33, 0.14, 388.31
335.30, 0.14, 388.64
335.27, 0.14, 388.99
335.24, 0.14, 389.38
335.20, 0.14, 389.82
335.16, 0.14, 390.30
335.12, 0.14, 390.83
335.07, 0.14, 391.43
334.94, 0.00, 392.86
334.87, 0.00, 393.68
334.79, 0.00, 394.64
¯334.70, 0.00, 395.75
334.59, 0.00, 397.07
334.45, 0.00, 398.65
334.56, 0.35, 397.38
334.56, 0.55, 397.38
334.56, 0.74, 397.38
334.56, 0.94, 397.38
334.56, 1.13, 397.38
334.57, 1.33, 397.38
334.57, 1.52, 397.38
334.57, 1.71, 397.38
335.56, 0.15, 386.29
335.55, 0.15, 386.46
335.54, 0.14, 386.64
335.52, 0.14, 386.83
335.51, 0.14, 387.03
335.49, 0.14, 387.25
335.47, 0.14, 387.49
335.46, 0.14, 387.74
335.44, 0.14, 388.02
335.41, 0.14, 388.32
335.39, 0.14, 388.64
335.36, 0.14, 389.00
335.34, 0.14, 389.39
335.30, 0.14, 389.83
335.27, 0.14, 390.31
335.23, 0.14, 390.84
335.14, 0.00, 392.14
335.08, 0.00, 392.86
335.02, 0.00, 393.69
334.95, 0.00, 394.65
334.87, 0.00, 395.76
334.78, 0.00, 397.08
334.66, 0.00, 398.66
334.76, 0.35, 397.38
334.76, 0.55, 397.38
334.76, 0.74, 397.38
334.76, 0.94, 397.38
334.76, 1.13, 397.38
334.76, 1.33, 397.38
334.76, 1.52, 397.38
334.76, 1.71, 397.38
335.62, 0.14, 386.29
335.61, 0.14, 386.46
335.60, 0.14, 386.64
335.59, 0.14, 386.83
335.58, 0.14, 387.04
335.56, 0.14, 387.26
335.55, 0.14, 387.50
335.53, 0.14, 387.75
335.52, 0.14, 388.03
¯335.50, 0.14, 388.32
335.48, 0.14, 388.65
335.46, 0.14, 389.01
335.43, 0.14, 389.40
335.41, 0.14, 389.83
335.38, 0.14, 390.32
335.30, 0.00, 391.50
335.27, 0.00, 392.14
335.22, 0.00, 392.87
335.17, 0.00, 393.70
335.11, 0.00, 394.65
335.05, 0.00, 395.77
334.97, 0.00, 397.09
334.87, 0.00, 398.67
334.95, 0.35, 397.38
334.95, 0.55, 397.38
334.95, 0.74, 397.38
334.95, 0.94, 397.38
334.95, 1.13, 397.38
334.95, 1.33, 397.38
334.95, 1.52, 397.38
334.96, 1.71, 397.38
335.68, 0.14, 386.30
335.67, 0.14, 386.47
335.66, 0.14, 386.65
335.65, 0.14, 386.84
335.64, 0.14, 387.04
335.63, 0.14, 387.26
335.62, 0.14, 387.50
335.61, 0.14, 387.76
335.59, 0.14, 388.03
335.58, 0.14, 388.33
335.56, 0.14, 388.66
335.55, 0.14, 389.02
335.53, 0.14, 389.41
335.51, 0.14, 389.84
335.45, 0.00, 390.94
335.43, 0.00, 391.51
335.40, 0.00, 392.15
335.36, 0.00, 392.87
335.32, 0.00, 393.70
335.27, 0.00, 394.66
335.22, 0.00, 395.77
335.16, 0.00, 397.09
335.08, 0.00, 398.67
335.14, 0.35, 397.38
335.15, 0.55, 397.38
335.15, 0.74, 397.38
335.15, 0.94, 397.38
335.15, 1.13, 397.38
335.15, 1.33, 397.38
¯335.15, 1.52, 397.38
335.15, 1.71, 397.38
335.74, 0.14, 386.30
335.73, 0.14, 386.47
335.72, 0.14, 386.65
335.72, 0.14, 386.84
335.71, 0.14, 387.05
335.70, 0.14, 387.27
335.69, 0.14, 387.51
335.68, 0.14, 387.76
335.67, 0.14, 388.04
335.66, 0.14, 388.34
335.65, 0.14, 388.66
335.64, 0.14, 389.02
335.62, 0.14, 389.41
335.59, 0.00, 390.43
335.57, 0.00, 390.94
335.55, 0.00, 391.51
335.53, 0.00, 392.15
335.50, 0.00, 392.88
335.47, 0.00, 393.71
335.44, 0.00, 394.66
335.40, 0.00, 395.78
335.35, 0.00, 397.10
335.29, 0.00, 398.68
335.34, 0.35, 397.38
335.34, 0.55, 397.38
335.34, 0.74, 397.38
335.34, 0.94, 397.38
335.34, 1.13, 397.38
335.34, 1.33, 397.38
335.34, 1.52, 397.38
335.34, 1.71, 397.38
335.80, 0.14, 386.30
335.79, 0.14, 386.47
335.79, 0.14, 386.65
335.78, 0.14, 386.85
335.78, 0.14, 387.05
335.77, 0.14, 387.27
335.77, 0.14, 387.51
335.76, 0.14, 387.76
335.75, 0.14, 388.04
335.75, 0.14, 388.34
335.74, 0.14, 388.67
335.73, 0.14, 389.03
335.71, 0.00, 389.97
335.70, 0.00, 390.43
335.68, 0.00, 390.94
335.67, 0.00, 391.51
335.66, 0.00, 392.15
335.64, 0.00, 392.88
¯335.62, 0.00, 393.71
335.60, 0.00, 394.66
335.57, 0.00, 395.78
335.54, 0.00, 397.10
335.50, 0.00, 398.68
335.53, 0.35, 397.38
335.53, 0.55, 397.38
335.53, 0.74, 397.38
335.53, 0.94, 397.38
335.53, 1.13, 397.38
335.53, 1.33, 397.38
335.54, 1.52, 397.38
335.54, 1.71, 397.38
335.85, 0.14, 386.30
335.85, 0.14, 386.47
335.85, 0.14, 386.65
335.85, 0.14, 386.85
335.85, 0.14, 387.05
335.84, 0.14, 387.27
335.84, 0.14, 387.51
335.84, 0.14, 387.77
335.83, 0.14, 388.04
335.83, 0.14, 388.34
335.83, 0.14, 388.67
335.82, 0.00, 389.55
335.81, 0.00, 389.97
335.81, 0.00, 390.43
335.80, 0.00, 390.94
335.79, 0.00, 391.51
335.79, 0.00, 392.15
335.78, 0.00, 392.88
335.77, 0.00, 393.71
335.76, 0.00, 394.67
335.74, 0.00, 395.78
335.73, 0.00, 397.10
335.71, 0.00, 398.68
335.73, 0.35, 397.38
335.73, 0.55, 397.38
335.73, 0.74, 397.38
335.73, 0.94, 397.38
335.73, 1.13, 397.38
335.73, 1.33, 397.38
335.73, 1.52, 397.38
335.73, 1.71, 397.38
335.91, 0.14, 386.30
335.91, 0.14, 386.47
335.91, 0.14, 386.66
335.91, 0.14, 386.85
335.91, 0.14, 387.05
335.91, 0.14, 387.28
335.91, 0.14, 387.51
¯335.91, 0.14, 387.77
335.91, 0.14, 388.05
335.91, 0.14, 388.35
335.91, 0.00, 389.17
335.91, 0.00, 389.55
335.91, 0.00, 389.97
335.91, 0.00, 390.43
335.92, 0.00, 390.94
335.92, 0.00, 391.51
335.92, 0.00, 392.15
335.92, 0.00, 392.88
335.92, 0.00, 393.71
335.92, 0.00, 394.66
335.92, 0.00, 395.78
335.92, 0.00, 397.10
335.92, 0.00, 398.68
335.92, 0.35, 397.38
335.92, 0.55, 397.38
335.92, 0.74, 397.38
335.92, 0.94, 397.38
335.92, 1.13, 397.38
335.92, 1.32, 397.38
335.92, 1.52, 397.38
335.92, 1.71, 397.38
335.97, 0.14, 386.31
335.97, 0.14, 386.48
335.98, 0.14, 386.66
335.98, 0.14, 386.85
335.98, 0.14, 387.06
335.98, 0.14, 387.28
335.99, 0.14, 387.51
335.99, 0.14, 387.77
335.99, 0.14, 388.05
336.00, 0.00, 388.82
336.01, 0.00, 389.17
336.01, 0.00, 389.55
336.02, 0.00, 389.97
336.02, 0.00, 390.43
336.03, 0.00, 390.94
336.04, 0.00, 391.51
336.05, 0.00, 392.15
336.06, 0.00, 392.88
336.07, 0.00, 393.71
336.08, 0.00, 394.66
336.09, 0.00, 395.78
336.11, 0.00, 397.09
336.13, 0.00, 398.66
336.11, 0.35, 397.38
336.11, 0.55, 397.38
336.11, 0.74, 397.38
336.11, 0.94, 397.38
¯336.11, 1.13, 397.38
336.11, 1.32, 397.38
336.11, 1.52, 397.38
336.11, 1.71, 397.38
336.03, 0.14, 386.31
336.03, 0.14, 386.48
336.04, 0.14, 386.66
336.04, 0.14, 386.85
336.05, 0.14, 387.06
336.05, 0.14, 387.28
336.06, 0.14, 387.52
336.07, 0.14, 387.77
336.08, 0.00, 388.50
336.09, 0.00, 388.82
336.10, 0.00, 389.17
336.11, 0.00, 389.55
336.12, 0.00, 389.97
336.13, 0.00, 390.43
336.15, 0.00, 390.94
336.16, 0.00, 391.51
336.18, 0.00, 392.15
336.19, 0.00, 392.88
336.21, 0.00, 393.70
336.24, 0.00, 394.66
336.27, 0.00, 395.77
336.30, 0.00, 397.09
336.34, 0.00, 398.65
336.31, 0.35, 397.38
336.31, 0.55, 397.38
336.31, 0.74, 397.38
336.31, 0.94, 397.38
336.31, 1.13, 397.38
336.31, 1.32, 397.38
336.31, 1.52, 397.38
336.31, 1.71, 397.38
336.09, 0.14, 386.30
336.09, 0.14, 386.48
336.10, 0.14, 386.66
336.11, 0.14, 386.85
336.12, 0.14, 387.06
336.12, 0.14, 387.28
336.13, 0.14, 387.51
336.16, 0.00, 388.21
336.17, 0.00, 388.50
336.18, 0.00, 388.82
336.20, 0.00, 389.17
336.21, 0.00, 389.55
336.22, 0.00, 389.96
336.24, 0.00, 390.42
336.26, 0.00, 390.94
336.28, 0.00, 391.51
¯336.31, 0.00, 392.15
336.33, 0.00, 392.87
336.36, 0.00, 393.70
336.40, 0.00, 394.65
336.44, 0.00, 395.77
336.49, 0.00, 397.08
336.55, 0.00, 398.64
336.50, 0.35, 397.38
336.50, 0.55, 397.38
336.50, 0.74, 397.38
336.50, 0.94, 397.38
336.50, 1.13, 397.38
336.50, 1.32, 397.38
336.50, 1.52, 397.38
336.50, 1.71, 397.38
336.15, 0.14, 386.30
336.16, 0.14, 386.47
336.16, 0.14, 386.65
336.17, 0.14, 386.85
336.18, 0.14, 387.05
336.20, 0.14, 387.28
336.23, 0.00, 387.93
336.24, 0.00, 388.20
336.26, 0.00, 388.50
336.27, 0.00, 388.82
336.29, 0.00, 389.16
336.31, 0.00, 389.54
336.33, 0.00, 389.96
336.35, 0.00, 390.42
336.38, 0.00, 390.93
336.40, 0.00, 391.50
336.44, 0.00, 392.14
336.47, 0.00, 392.86
336.51, 0.00, 393.69
336.56, 0.00, 394.65
336.61, 0.00, 395.76
336.68, 0.00, 397.07
336.76, 0.00, 398.64
336.69, 0.35, 397.38
336.69, 0.55, 397.38
336.69, 0.74, 397.38
336.69, 0.94, 397.38
336.69, 1.13, 397.38
336.69, 1.32, 397.38
336.69, 1.52, 397.38
336.69, 1.71, 397.38
336.21, 0.14, 386.30
336.22, 0.14, 386.47
336.23, 0.14, 386.65
336.24, 0.14, 386.85
336.25, 0.14, 387.05
¯336.29, 0.00, 387.67
336.31, 0.00, 387.93
336.32, 0.00, 388.20
336.34, 0.00, 388.49
336.36, 0.00, 388.81
336.38, 0.00, 389.16
336.41, 0.00, 389.54
336.43, 0.00, 389.95
336.46, 0.00, 390.41
336.49, 0.00, 390.92
336.53, 0.00, 391.49
336.57, 0.00, 392.13
336.61, 0.00, 392.86
336.66, 0.00, 393.68
336.72, 0.00, 394.64
336.79, 0.00, 395.75
336.87, 0.00, 397.06
336.97, 0.00, 398.63
336.89, 0.35, 397.38
336.89, 0.55, 397.38
336.89, 0.74, 397.38
336.89, 0.94, 397.38
336.89, 1.13, 397.38
336.89, 1.32, 397.38
336.89, 1.52, 397.38
336.89, 1.71, 397.38
336.26, 0.14, 386.30
336.28, 0.14, 386.47
336.29, 0.14, 386.65
336.30, 0.14, 386.84
336.35, 0.00, 387.43
336.37, 0.00, 387.67
336.38, 0.00, 387.92
336.40, 0.00, 388.19
336.43, 0.00, 388.49
336.45, 0.00, 388.81
336.48, 0.00, 389.15
336.50, 0.00, 389.53
336.53, 0.00, 389.95
336.57, 0.00, 390.41
336.61, 0.00, 390.92
336.65, 0.00, 391.49
336.70, 0.00, 392.13
336.75, 0.00, 392.85
336.81, 0.00, 393.68
336.88, 0.00, 394.63
336.96, 0.00, 395.74
337.06, 0.00, 397.05
337.18, 0.00, 398.62
337.08, 0.35, 397.38
337.08, 0.54, 397.38
¯337.08, 0.74, 397.38
337.08, 0.93, 397.38
337.08, 1.13, 397.38
337.08, 1.32, 397.38
337.08, 1.52, 397.38
337.08, 1.71, 397.38
336.32, 0.14, 386.30
336.34, 0.14, 386.47
336.35, 0.14, 386.65
336.40, 0.00, 387.21
336.42, 0.00, 387.43
336.44, 0.00, 387.66
336.46, 0.00, 387.92
336.49, 0.00, 388.19
336.51, 0.00, 388.48
336.54, 0.00, 388.80
336.57, 0.00, 389.15
336.60, 0.00, 389.52
336.64, 0.00, 389.94
336.68, 0.00, 390.40
336.72, 0.00, 390.91
336.77, 0.00, 391.48
336.83, 0.00, 392.12
336.89, 0.00, 392.84
336.96, 0.00, 393.67
337.04, 0.00, 394.62
337.14, 0.00, 395.73
337.25, 0.00, 397.04
337.38, 0.00, 398.60
337.28, 0.35, 397.38
337.28, 0.54, 397.38
337.28, 0.74, 397.38
337.28, 0.93, 397.38
337.28, 1.13, 397.38
337.28, 1.32, 397.38
337.28, 1.52, 397.38
337.28, 1.71, 397.38
336.38, 0.14, 386.29
336.40, 0.14, 386.46
336.45, 0.00, 387.00
336.47, 0.00, 387.20
336.49, 0.00, 387.42
336.52, 0.00, 387.66
336.54, 0.00, 387.91
336.57, 0.00, 388.18
336.60, 0.00, 388.47
336.63, 0.00, 388.79
336.66, 0.00, 389.14
336.70, 0.00, 389.52
336.74, 0.00, 389.93
336.79, 0.00, 390.39
¯336.84, 0.00, 390.90
336.89, 0.00, 391.47
336.96, 0.00, 392.11
337.03, 0.00, 392.83
337.11, 0.00, 393.65
337.20, 0.00, 394.61
337.31, 0.00, 395.71
337.44, 0.00, 397.03
337.59, 0.00, 398.59
337.47, 0.35, 397.38
337.47, 0.54, 397.38
337.47, 0.74, 397.38
337.47, 0.93, 397.38
337.47, 1.13, 397.38
337.47, 1.32, 397.38
337.47, 1.52, 397.38
337.47, 1.71, 397.38
336.44, 0.14, 386.29
336.46, 0.14, 386.46
336.52, 0.00, 386.99
336.54, 0.00, 387.20
336.57, 0.00, 387.42
336.59, 0.00, 387.65
336.62, 0.00, 387.90
336.65, 0.00, 388.17
336.68, 0.00, 388.47
336.72, 0.00, 388.78
336.76, 0.00, 389.13
336.80, 0.00, 389.51
336.84, 0.00, 389.92
336.89, 0.00, 390.38
336.95, 0.00, 390.89
337.01, 0.00, 391.46
337.08, 0.00, 392.09
337.16, 0.00, 392.82
337.26, 0.00, 393.64
337.36, 0.00, 394.59
337.48, 0.00, 395.70
337.63, 0.00, 397.01
337.80, 0.00, 398.57
337.67, 0.34, 397.38
337.67, 0.54, 397.38
337.67, 0.74, 397.38
337.67, 0.93, 397.38
337.67, 1.13, 397.38
337.67, 1.32, 397.38
337.67, 1.52, 397.38
337.67, 1.71, 397.38
336.50, 0.14, 386.28
336.56, 0.00, 386.79
336.59, 0.00, 386.99
¯336.61, 0.00, 387.19
336.64, 0.00, 387.41
336.67, 0.00, 387.64
336.70, 0.00, 387.89
336.73, 0.00, 388.16
336.77, 0.00, 388.46
336.81, 0.00, 388.77
336.85, 0.00, 389.12
336.90, 0.00, 389.50
336.95, 0.00, 389.91
337.00, 0.00, 390.37
337.07, 0.00, 390.88
337.14, 0.00, 391.44
337.21, 0.00, 392.08
337.30, 0.00, 392.80
337.40, 0.00, 393.63
337.52, 0.00, 394.58
337.66, 0.00, 395.68
337.82, 0.00, 396.99
338.01, 0.01, 398.51
337.87, 0.34, 397.38
337.87, 0.54, 397.38
337.86, 0.74, 397.38
337.86, 0.93, 397.38
337.86, 1.13, 397.38
337.86, 1.32, 397.38
337.86, 1.52, 397.38
337.86, 1.71, 397.38
336.60, 0.00, 386.61
336.63, 0.00, 386.79
336.65, 0.00, 386.98
336.68, 0.00, 387.18
336.71, 0.00, 387.40
336.74, 0.00, 387.63
336.78, 0.00, 387.88
336.81, 0.00, 388.15
336.85, 0.00, 388.45
336.90, 0.00, 388.76
336.94, 0.00, 389.11
336.99, 0.00, 389.49
337.05, 0.00, 389.90
337.11, 0.00, 390.36
337.18, 0.00, 390.86
337.26, 0.00, 391.43
337.34, 0.00, 392.07
337.44, 0.00, 392.79
337.55, 0.00, 393.61
337.68, 0.00, 394.56
337.83, 0.00, 395.67
338.01, 0.00, 396.96
338.21, 0.01, 398.47
¯338.06, 0.34, 397.38
338.06, 0.54, 397.38
338.06, 0.73, 397.38
338.06, 0.93, 397.38
338.06, 1.13, 397.38
338.06, 1.32, 397.38
338.06, 1.52, 397.38
338.06, 1.71, 397.38
336.67, 0.00, 386.60
336.69, 0.00, 386.78
336.72, 0.00, 386.97
336.75, 0.00, 387.17
336.78, 0.00, 387.39
336.82, 0.00, 387.62
336.85, 0.00, 387.87
336.89, 0.00, 388.14
336.94, 0.00, 388.44
336.98, 0.00, 388.75
337.04, 0.00, 389.10
337.09, 0.00, 389.47
337.15, 0.00, 389.89
337.22, 0.00, 390.34
337.30, 0.00, 390.85
337.38, 0.00, 391.42
337.47, 0.00, 392.05
337.58, 0.00, 392.77
337.70, 0.00, 393.59
337.84, 0.00, 394.54
338.01, 0.00, 395.65
338.19, 0.01, 396.91
338.42, 0.01, 398.44
338.26, 0.34, 397.38
338.26, 0.54, 397.38
338.26, 0.73, 397.38
338.26, 0.93, 397.38
338.26, 1.12, 397.38
338.26, 1.32, 397.38
338.26, 1.52, 397.38
338.25, 1.71, 397.38
336.73, 0.00, 386.59
336.76, 0.00, 386.77
336.79, 0.00, 386.96
336.82, 0.00, 387.16
336.85, 0.00, 387.38
336.89, 0.00, 387.61
336.93, 0.00, 387.86
336.98, 0.00, 388.13
337.02, 0.00, 388.42
337.07, 0.00, 388.74
337.13, 0.00, 389.08
337.19, 0.00, 389.46
¯337.25, 0.00, 389.87
337.33, 0.00, 390.33
337.41, 0.00, 390.84
337.50, 0.00, 391.40
337.60, 0.00, 392.03
337.72, 0.00, 392.75
337.85, 0.00, 393.57
338.00, 0.00, 394.52
338.18, 0.00, 395.63
338.38, 0.01, 396.88
338.62, 0.01, 398.39
338.46, 0.34, 397.38
338.46, 0.53, 397.38
338.46, 0.73, 397.38
338.46, 0.93, 397.38
338.45, 1.12, 397.38
338.45, 1.32, 397.38
338.45, 1.52, 397.38
338.45, 1.71, 397.38
336.79, 0.00, 386.58
336.82, 0.00, 386.76
336.85, 0.00, 386.95
336.89, 0.00, 387.15
336.93, 0.00, 387.37
336.97, 0.00, 387.60
337.01, 0.00, 387.85
337.06, 0.00, 388.12
337.11, 0.00, 388.41
337.16, 0.00, 388.73
337.22, 0.00, 389.07
337.29, 0.00, 389.45
337.36, 0.00, 389.86
337.44, 0.00, 390.31
337.52, 0.00, 390.82
337.62, 0.00, 391.38
337.73, 0.00, 392.02
337.86, 0.00, 392.73
338.00, 0.00, 393.55
338.16, 0.00, 394.50
338.35, 0.00, 395.60
338.57, 0.01, 396.86
338.82, 0.02, 398.33
338.66, 0.33, 397.38
338.66, 0.53, 397.38
338.66, 0.73, 397.38
338.65, 0.93, 397.38
338.65, 1.12, 397.38
338.65, 1.32, 397.38
338.65, 1.52, 397.38
338.65, 1.71, 397.38
336.85, 0.00, 386.57
¯336.88, 0.00, 386.75
336.92, 0.00, 386.94
336.96, 0.00, 387.14
337.00, 0.00, 387.36
337.04, 0.00, 387.59
337.09, 0.00, 387.84
337.14, 0.00, 388.11
337.19, 0.00, 388.40
337.25, 0.00, 388.71
337.31, 0.00, 389.06
337.38, 0.00, 389.43
337.46, 0.00, 389.84
337.54, 0.00, 390.30
337.64, 0.00, 390.80
337.74, 0.00, 391.36
337.86, 0.00, 392.00
337.99, 0.00, 392.71
338.15, 0.00, 393.53
338.32, 0.00, 394.48
338.53, 0.00, 395.58
338.76, 0.01, 396.83
339.03, 0.02, 398.27
338.86, 0.33, 397.38
338.86, 0.53, 397.38
338.86, 0.73, 397.38
338.85, 0.92, 397.38
338.85, 1.12, 397.38
338.85, 1.32, 397.38
338.85, 1.52, 397.38
338.85, 1.71, 397.38
336.91, 0.00, 386.56
336.95, 0.00, 386.74
336.99, 0.00, 386.93
337.03, 0.00, 387.13
337.07, 0.00, 387.35
337.12, 0.00, 387.58
337.17, 0.00, 387.83
337.22, 0.00, 388.09
337.28, 0.00, 388.38
337.34, 0.00, 388.70
337.41, 0.00, 389.04
337.48, 0.00, 389.41
337.56, 0.00, 389.83
337.65, 0.00, 390.28
337.75, 0.00, 390.78
337.86, 0.00, 391.34
337.99, 0.00, 391.98
338.13, 0.00, 392.69
338.29, 0.00, 393.51
338.48, 0.00, 394.45
338.70, 0.00, 395.55
¯338.95, 0.01, 396.81
339.23, 0.03, 398.21
339.06, 0.33, 397.38
339.06, 0.53, 397.38
339.06, 0.73, 397.38
339.05, 0.92, 397.38
339.05, 1.12, 397.38
339.05, 1.32, 397.38
339.05, 1.51, 397.38
339.05, 1.71, 397.38
336.98, 0.00, 386.55
337.01, 0.00, 386.73
337.05, 0.00, 386.91
337.10, 0.00, 387.12
337.14, 0.00, 387.33
337.19, 0.00, 387.56
337.24, 0.00, 387.81
337.30, 0.00, 388.08
337.36, 0.00, 388.37
337.43, 0.00, 388.68
337.50, 0.00, 389.02
337.58, 0.00, 389.40
337.66, 0.00, 389.81
337.76, 0.00, 390.26
337.87, 0.00, 390.76
337.98, 0.00, 391.32
338.12, 0.00, 391.95
338.27, 0.00, 392.67
338.44, 0.00, 393.49
338.64, 0.00, 394.43
338.87, 0.00, 395.53
339.14, 0.01, 396.78
339.14, 0.20, 396.81
339.14, 0.39, 396.81
339.14, 0.58, 396.81
339.14, 0.77, 396.81
339.14, 0.96, 396.81
339.13, 1.15, 396.81
339.13, 1.34, 396.81
339.13, 1.54, 396.81
339.13, 1.73, 396.81
337.04, 0.00, 386.53
337.08, 0.00, 386.71
337.12, 0.00, 386.90
337.16, 0.00, 387.10
337.21, 0.00, 387.32
337.26, 0.00, 387.55
337.32, 0.00, 387.80
337.38, 0.00, 388.06
337.44, 0.00, 388.35
337.51, 0.00, 388.67
¯337.59, 0.00, 389.01
337.67, 0.00, 389.38
337.77, 0.00, 389.79
337.87, 0.00, 390.24
337.98, 0.00, 390.74
338.11, 0.00, 391.30
338.25, 0.00, 391.93
338.41, 0.00, 392.65
338.59, 0.00, 393.46
338.80, 0.00, 394.40
339.04, 0.00, 395.50
339.15, 0.11, 395.97
339.15, 0.30, 395.98
339.15, 0.48, 395.98
339.15, 0.66, 395.99
339.15, 0.84, 395.99
339.15, 1.02, 396.00
339.15, 1.20, 396.01
339.15, 1.38, 396.01
339.15, 1.56, 396.02
339.15, 1.74, 396.03
337.10, 0.00, 386.52
337.14, 0.00, 386.70
337.19, 0.00, 386.89
337.23, 0.00, 387.09
337.28, 0.00, 387.30
337.34, 0.00, 387.53
337.40, 0.00, 387.78
337.46, 0.00, 388.05
337.53, 0.00, 388.34
337.60, 0.00, 388.65
337.68, 0.00, 388.99
337.77, 0.00, 389.36
337.87, 0.00, 389.77
337.97, 0.00, 390.22
338.09, 0.00, 390.72
338.23, 0.00, 391.28
338.37, 0.00, 391.91
338.54, 0.00, 392.62
338.74, 0.00, 393.43
338.96, 0.00, 394.37
339.22, 0.00, 395.47
339.26, 0.15, 395.65
339.26, 0.33, 395.65
339.26, 0.51, 395.65
339.26, 0.69, 395.65
339.25, 0.87, 395.65
339.25, 1.05, 395.65
339.25, 1.22, 395.65
339.25, 1.40, 395.65
339.25, 1.58, 395.65
¯339.27, 1.75, 395.75
337.16, 0.00, 386.51
337.20, 0.00, 386.69
337.25, 0.00, 386.87
337.30, 0.00, 387.07
337.36, 0.00, 387.29
337.41, 0.00, 387.52
337.47, 0.00, 387.76
337.54, 0.00, 388.03
337.61, 0.00, 388.32
337.69, 0.00, 388.63
337.78, 0.00, 388.97
337.87, 0.00, 389.34
337.97, 0.00, 389.75
338.08, 0.00, 390.20
338.21, 0.00, 390.70
338.35, 0.00, 391.25
338.50, 0.00, 391.88
338.68, 0.00, 392.59
338.88, 0.00, 393.40
339.12, 0.00, 394.34
339.39, 0.00, 395.43
339.71, 0.00, 396.70
339.73, 0.18, 396.81
339.73, 0.38, 396.81
339.73, 0.57, 396.81
339.73, 0.77, 396.81
339.73, 0.96, 396.81
339.72, 1.15, 396.81
339.72, 1.34, 396.81
339.72, 1.54, 396.81
339.72, 1.73, 396.81
337.22, 0.00, 386.49
337.27, 0.00, 386.67
337.32, 0.00, 386.86
337.37, 0.00, 387.06
337.43, 0.00, 387.27
337.49, 0.00, 387.50
337.55, 0.00, 387.75
337.62, 0.00, 388.01
337.70, 0.00, 388.30
337.78, 0.00, 388.61
337.87, 0.00, 388.95
337.96, 0.00, 389.32
338.07, 0.00, 389.72
338.19, 0.00, 390.17
338.32, 0.00, 390.67
338.47, 0.00, 391.23
338.63, 0.00, 391.86
338.82, 0.00, 392.56
339.03, 0.00, 393.37
¯339.28, 0.00, 394.31
339.56, 0.00, 395.40
339.89, 0.01, 396.63
339.93, 0.18, 396.81
339.93, 0.37, 396.81
339.93, 0.57, 396.81
339.93, 0.76, 396.81
339.92, 0.96, 396.81
339.92, 1.15, 396.81
339.92, 1.34, 396.81
339.92, 1.54, 396.81
339.92, 1.73, 396.81
337.28, 0.00, 386.48
337.33, 0.00, 386.65
337.38, 0.00, 386.84
337.44, 0.00, 387.04
337.50, 0.00, 387.25
337.56, 0.00, 387.48
337.63, 0.00, 387.73
337.70, 0.00, 387.99
337.78, 0.00, 388.28
337.87, 0.00, 388.59
337.96, 0.00, 388.93
338.06, 0.00, 389.30
338.17, 0.00, 389.70
338.30, 0.00, 390.15
338.43, 0.00, 390.65
338.59, 0.00, 391.20
338.76, 0.00, 391.83
338.95, 0.00, 392.53
339.18, 0.00, 393.34
339.43, 0.00, 394.28
339.73, 0.00, 395.37
340.06, 0.01, 396.55
340.13, 0.17, 396.81
340.13, 0.37, 396.81
340.13, 0.57, 396.81
340.13, 0.76, 396.81
340.12, 0.95, 396.81
340.12, 1.15, 396.81
340.12, 1.34, 396.81
340.12, 1.53, 396.81
340.12, 1.73, 396.81
337.34, 0.00, 386.46
337.40, 0.00, 386.64
337.45, 0.00, 386.83
337.51, 0.00, 387.02
337.57, 0.00, 387.24
337.63, 0.00, 387.46
337.70, 0.00, 387.71
337.78, 0.00, 387.97
¯337.86, 0.00, 388.26
337.95, 0.00, 388.57
338.05, 0.00, 388.90
338.16, 0.00, 389.27
338.27, 0.00, 389.68
338.40, 0.00, 390.12
338.55, 0.00, 390.62
338.71, 0.00, 391.17
338.89, 0.00, 391.80
339.09, 0.00, 392.50
339.32, 0.00, 393.31
339.59, 0.00, 394.24
339.90, 0.00, 395.32
340.24, 0.02, 396.50
340.33, 0.17, 396.81
340.33, 0.37, 396.81
340.33, 0.56, 396.81
340.33, 0.76, 396.81
340.33, 0.95, 396.81
340.32, 1.15, 396.81
340.32, 1.34, 396.81
340.32, 1.53, 396.81
340.32, 1.73, 396.81
337.41, 0.00, 386.45
337.46, 0.00, 386.62
337.51, 0.00, 386.81
337.57, 0.00, 387.01
337.64, 0.00, 387.22
337.71, 0.00, 387.44
337.78, 0.00, 387.69
337.86, 0.00, 387.95
337.95, 0.00, 388.24
338.04, 0.00, 388.54
338.14, 0.00, 388.88
338.25, 0.00, 389.25
338.37, 0.00, 389.65
338.51, 0.00, 390.10
338.66, 0.00, 390.59
338.83, 0.00, 391.15
339.01, 0.00, 391.77
339.23, 0.00, 392.47
339.47, 0.00, 393.28
339.75, 0.00, 394.21
340.06, 0.01, 395.24
340.42, 0.02, 396.42
340.54, 0.17, 396.81
340.53, 0.36, 396.81
340.53, 0.56, 396.81
340.53, 0.75, 396.81
340.53, 0.95, 396.81
340.53, 1.15, 396.81
¯340.52, 1.34, 396.81
340.52, 1.53, 396.81
340.52, 1.73, 396.81
337.47, 0.00, 386.43
337.52, 0.00, 386.60
337.58, 0.00, 386.79
337.64, 0.00, 386.99
337.71, 0.00, 387.20
337.78, 0.00, 387.42
337.86, 0.00, 387.67
337.94, 0.00, 387.93
338.03, 0.00, 388.21
338.13, 0.00, 388.52
338.23, 0.00, 388.86
338.35, 0.00, 389.22
338.47, 0.00, 389.63
338.62, 0.00, 390.07
338.77, 0.00, 390.56
338.95, 0.00, 391.12
339.14, 0.00, 391.74
339.36, 0.00, 392.44
339.62, 0.00, 393.24
339.91, 0.00, 394.16
340.22, 0.01, 395.16
340.59, 0.03, 396.33
340.74, 0.16, 396.81
340.74, 0.36, 396.81
340.74, 0.55, 396.81
340.73, 0.75, 396.81
340.73, 0.95, 396.81
340.73, 1.14, 396.81
340.73, 1.34, 396.81
340.73, 1.53, 396.81
340.72, 1.73, 396.81
337.53, 0.00, 386.41
337.58, 0.00, 386.59
337.64, 0.00, 386.77
337.71, 0.00, 386.97
337.78, 0.00, 387.18
337.85, 0.00, 387.40
337.93, 0.00, 387.65
338.02, 0.00, 387.91
338.11, 0.00, 388.19
338.21, 0.00, 388.50
338.32, 0.00, 388.83
338.44, 0.00, 389.20
338.58, 0.00, 389.60
338.72, 0.00, 390.04
338.88, 0.00, 390.53
339.06, 0.00, 391.08
339.27, 0.00, 391.70
¯339.50, 0.00, 392.40
339.76, 0.00, 393.20
340.06, 0.01, 394.09
340.38, 0.02, 395.08
340.76, 0.03, 396.24
340.95, 0.15, 396.81
340.95, 0.35, 396.81
340.94, 0.55, 396.81
340.94, 0.75, 396.81
340.94, 0.95, 396.81
340.94, 1.14, 396.81
340.93, 1.34, 396.81
340.93, 1.53, 396.81
340.93, 1.73, 396.81
337.59, 0.00, 386.39
337.65, 0.00, 386.57
337.71, 0.00, 386.75
337.78, 0.00, 386.95
337.85, 0.00, 387.16
337.93, 0.00, 387.38
338.01, 0.00, 387.62
338.10, 0.00, 387.88
338.19, 0.00, 388.17
338.30, 0.00, 388.47
338.41, 0.00, 388.80
338.54, 0.00, 389.17
338.68, 0.00, 389.57
338.83, 0.00, 390.01
339.00, 0.00, 390.50
339.18, 0.00, 391.05
339.39, 0.00, 391.67
339.63, 0.00, 392.37
339.91, 0.00, 393.16
340.20, 0.01, 394.03
340.54, 0.02, 395.01
340.93, 0.04, 396.15
341.16, 0.15, 396.81
341.15, 0.35, 396.81
341.15, 0.55, 396.81
341.15, 0.75, 396.81
341.15, 0.94, 396.81
341.14, 1.14, 396.81
341.14, 1.34, 396.81
341.14, 1.54, 396.81
341.14, 1.73, 396.81
337.65, 0.00, 386.37
337.71, 0.00, 386.55
337.77, 0.00, 386.73
337.84, 0.00, 386.93
337.92, 0.00, 387.14
338.00, 0.00, 387.36
¯338.08, 0.00, 387.60
338.18, 0.00, 387.86
338.28, 0.00, 388.14
338.39, 0.00, 388.45
338.50, 0.00, 388.78
338.63, 0.00, 389.14
338.78, 0.00, 389.54
338.93, 0.00, 389.98
339.11, 0.00, 390.47
339.30, 0.00, 391.02
339.52, 0.00, 391.63
339.77, 0.00, 392.33
340.04, 0.01, 393.10
340.35, 0.01, 393.96
340.70, 0.03, 394.94
341.10, 0.05, 396.06
341.37, 0.14, 396.81
341.36, 0.34, 396.81
341.36, 0.54, 396.81
341.36, 0.74, 396.81
341.35, 0.94, 396.81
341.35, 1.14, 396.81
341.35, 1.34, 396.81
341.35, 1.54, 396.81
341.34, 1.73, 396.81
337.71, 0.00, 386.35
337.77, 0.00, 386.53
337.84, 0.00, 386.71
337.91, 0.00, 386.90
337.99, 0.00, 387.11
338.07, 0.00, 387.34
338.16, 0.00, 387.58
338.26, 0.00, 387.84
338.36, 0.00, 388.12
338.47, 0.00, 388.42
338.59, 0.00, 388.75
338.73, 0.00, 389.11
338.88, 0.00, 389.51
339.04, 0.00, 389.95
339.22, 0.00, 390.44
339.42, 0.00, 390.98
339.65, 0.00, 391.60
339.90, 0.00, 392.29
340.18, 0.01, 393.03
340.50, 0.02, 393.89
340.86, 0.03, 394.87
341.27, 0.05, 395.97
341.58, 0.14, 396.81
341.57, 0.34, 396.81
341.57, 0.54, 396.81
341.57, 0.74, 396.81
¯341.57, 0.94, 396.81
341.56, 1.14, 396.81
341.56, 1.34, 396.81
341.56, 1.54, 396.81
341.56, 1.73, 396.81
337.77, 0.00, 386.33
337.83, 0.00, 386.51
337.90, 0.00, 386.69
337.98, 0.00, 386.88
338.06, 0.00, 387.09
338.14, 0.00, 387.31
338.23, 0.00, 387.55
338.33, 0.00, 387.81
338.44, 0.00, 388.09
338.56, 0.00, 388.39
338.68, 0.00, 388.72
338.82, 0.00, 389.08
338.98, 0.00, 389.48
339.14, 0.00, 389.92
339.33, 0.00, 390.40
339.54, 0.00, 390.95
339.77, 0.00, 391.56
340.04, 0.00, 392.24
340.32, 0.01, 392.98
340.65, 0.02, 393.83
341.02, 0.04, 394.80
341.44, 0.06, 395.89
341.79, 0.13, 396.81
341.79, 0.33, 396.81
341.78, 0.53, 396.81
341.78, 0.73, 396.81
341.78, 0.94, 396.81
341.78, 1.14, 396.81
341.77, 1.34, 396.81
341.77, 1.54, 396.81
341.77, 1.73, 396.81
337.83, 0.00, 386.31
337.89, 0.00, 386.48
337.97, 0.00, 386.67
338.04, 0.00, 386.86
338.13, 0.00, 387.07
338.21, 0.00, 387.29
338.31, 0.00, 387.53
338.41, 0.00, 387.78
338.52, 0.00, 388.06
338.64, 0.00, 388.36
338.77, 0.00, 388.69
338.92, 0.00, 389.05
339.07, 0.00, 389.45
339.25, 0.00, 389.88
339.44, 0.00, 390.37
¯339.66, 0.00, 390.91
339.90, 0.00, 391.52
340.17, 0.00, 392.19
340.46, 0.01, 392.93
340.79, 0.03, 393.76
341.18, 0.04, 394.73
341.61, 0.06, 395.81
342.01, 0.12, 396.81
342.00, 0.33, 396.81
342.00, 0.53, 396.81
342.00, 0.73, 396.81
341.99, 0.93, 396.81
341.99, 1.13, 396.81
341.99, 1.33, 396.81
341.99, 1.54, 396.81
341.98, 1.74, 396.81
337.89, 0.00, 386.29
337.96, 0.00, 386.46
338.03, 0.00, 386.64
338.11, 0.00, 386.83
338.20, 0.00, 387.04
338.29, 0.00, 387.26
338.38, 0.00, 387.50
338.49, 0.00, 387.75
338.60, 0.00, 388.03
338.73, 0.00, 388.33
338.86, 0.00, 388.66
339.01, 0.00, 389.02
339.17, 0.00, 389.41
339.35, 0.00, 389.85
339.55, 0.00, 390.33
339.77, 0.00, 390.87
340.02, 0.00, 391.47
340.30, 0.00, 392.14
340.61, 0.01, 392.88
340.94, 0.03, 393.68
341.34, 0.04, 394.65
341.78, 0.07, 395.73
342.21, 0.12, 396.77
342.22, 0.32, 396.81
342.22, 0.52, 396.81
342.21, 0.73, 396.81
342.21, 0.93, 396.81
342.21, 1.13, 396.81
342.21, 1.33, 396.81
342.20, 1.54, 396.81
342.20, 1.74, 396.81
337.95, 0.00, 386.27
338.02, 0.00, 386.44
338.09, 0.00, 386.62
338.18, 0.00, 386.81
¯338.26, 0.00, 387.02
338.36, 0.00, 387.24
338.46, 0.00, 387.47
338.57, 0.00, 387.73
338.69, 0.00, 388.00
338.81, 0.00, 388.30
338.95, 0.00, 388.63
339.10, 0.00, 388.98
339.27, 0.00, 389.38
339.46, 0.00, 389.81
339.66, 0.00, 390.29
339.89, 0.00, 390.83
340.15, 0.00, 391.42
340.43, 0.01, 392.09
340.75, 0.01, 392.84
341.09, 0.03, 393.63
341.49, 0.05, 394.58
341.94, 0.07, 395.63
342.40, 0.12, 396.70
342.44, 0.31, 396.81
342.44, 0.52, 396.81
342.43, 0.72, 396.81
342.43, 0.93, 396.81
342.43, 1.13, 396.81
342.42, 1.33, 396.81
342.42, 1.54, 396.81
342.42, 1.74, 396.81
338.00, 0.00, 386.25
338.08, 0.00, 386.41
338.16, 0.00, 386.59
338.24, 0.00, 386.78
338.33, 0.00, 386.99
338.43, 0.00, 387.21
338.53, 0.00, 387.44
338.65, 0.00, 387.70
338.77, 0.00, 387.97
338.90, 0.00, 388.27
339.04, 0.00, 388.59
339.20, 0.00, 388.95
339.37, 0.00, 389.34
339.56, 0.00, 389.77
339.77, 0.00, 390.25
340.01, 0.00, 390.78
340.27, 0.00, 391.37
340.56, 0.01, 392.04
340.89, 0.01, 392.79
341.24, 0.03, 393.58
341.65, 0.05, 394.50
342.10, 0.08, 395.53
342.59, 0.13, 396.63
342.66, 0.31, 396.81
¯342.66, 0.51, 396.81
342.66, 0.72, 396.81
342.65, 0.92, 396.81
342.65, 1.13, 396.81
342.65, 1.33, 396.81
342.64, 1.54, 396.81
342.64, 1.74, 396.81
338.06, 0.00, 386.22
338.14, 0.00, 386.39
338.22, 0.00, 386.57
338.31, 0.00, 386.76
338.40, 0.00, 386.96
338.50, 0.00, 387.18
338.61, 0.00, 387.41
338.72, 0.00, 387.67
338.85, 0.00, 387.94
338.98, 0.00, 388.24
339.13, 0.00, 388.56
339.29, 0.00, 388.91
339.47, 0.00, 389.30
339.67, 0.00, 389.73
339.88, 0.00, 390.21
340.12, 0.00, 390.73
340.39, 0.01, 391.32
340.69, 0.01, 391.99
341.03, 0.01, 392.73
341.39, 0.03, 393.53
341.81, 0.05, 394.43
342.26, 0.09, 395.43
342.78, 0.13, 396.56
342.89, 0.30, 396.81
342.88, 0.51, 396.81
342.88, 0.71, 396.81
342.88, 0.92, 396.81
342.87, 1.13, 396.81
342.87, 1.33, 396.81
342.87, 1.54, 396.81
342.86, 1.74, 396.81
338.12, 0.00, 386.20
338.20, 0.00, 386.36
338.28, 0.00, 386.54
338.37, 0.00, 386.73
338.47, 0.00, 386.93
338.57, 0.00, 387.15
338.68, 0.00, 387.38
338.80, 0.00, 387.64
338.93, 0.00, 387.91
339.07, 0.00, 388.20
339.22, 0.00, 388.53
339.38, 0.00, 388.88
339.57, 0.00, 389.27
¯339.77, 0.00, 389.69
339.99, 0.00, 390.16
340.24, 0.00, 390.69
340.51, 0.01, 391.27
340.82, 0.01, 391.94
341.18, 0.01, 392.68
341.55, 0.03, 393.47
341.94, 0.06, 394.31
342.42, 0.09, 395.33
342.97, 0.13, 396.49
343.11, 0.29, 396.81
343.11, 0.50, 396.81
343.11, 0.71, 396.81
343.10, 0.92, 396.81
343.10, 1.12, 396.81
343.10, 1.33, 396.81
343.09, 1.54, 396.81
343.09, 1.74, 396.81
338.18, 0.00, 386.17
338.26, 0.00, 386.34
338.35, 0.00, 386.52
338.44, 0.00, 386.70
338.54, 0.00, 386.91
338.64, 0.00, 387.12
338.75, 0.00, 387.35
338.88, 0.00, 387.60
339.01, 0.00, 387.88
339.15, 0.00, 388.17
339.31, 0.00, 388.49
339.48, 0.00, 388.84
339.66, 0.00, 389.23
339.87, 0.00, 389.65
340.10, 0.00, 390.12
340.35, 0.00, 390.64
340.63, 0.01, 391.22
340.95, 0.01, 391.88
341.32, 0.01, 392.63
341.70, 0.03, 393.41
342.08, 0.07, 394.20
342.57, 0.10, 395.20
343.14, 0.13, 396.38
343.34, 0.29, 396.81
343.34, 0.50, 396.81
343.34, 0.71, 396.81
343.33, 0.91, 396.81
343.33, 1.12, 396.81
343.32, 1.33, 396.81
343.32, 1.54, 396.81
343.32, 1.74, 396.81
338.24, 0.00, 386.15
338.32, 0.00, 386.31
¯338.41, 0.00, 386.49
338.50, 0.00, 386.68
338.60, 0.00, 386.88
338.71, 0.00, 387.09
338.83, 0.00, 387.32
338.95, 0.00, 387.57
339.09, 0.00, 387.84
339.23, 0.00, 388.13
339.39, 0.00, 388.45
339.57, 0.00, 388.80
339.76, 0.00, 389.19
339.97, 0.00, 389.61
340.20, 0.00, 390.07
340.46, 0.01, 390.59
340.75, 0.01, 391.17
341.08, 0.01, 391.82
341.46, 0.02, 392.57
341.84, 0.04, 393.34
342.21, 0.08, 394.08
342.69, 0.12, 395.04
343.30, 0.14, 396.26
343.58, 0.28, 396.81
343.57, 0.49, 396.81
343.57, 0.70, 396.81
343.56, 0.91, 396.81
343.56, 1.12, 396.81
343.56, 1.33, 396.81
343.55, 1.54, 396.81
343.55, 1.74, 396.81
338.30, 0.00, 386.12
338.38, 0.00, 386.28
338.47, 0.00, 386.46
338.57, 0.00, 386.65
338.67, 0.00, 386.85
338.78, 0.00, 387.06
338.90, 0.00, 387.29
339.03, 0.00, 387.54
339.17, 0.00, 387.81
339.32, 0.00, 388.10
339.48, 0.00, 388.42
339.66, 0.00, 388.76
339.86, 0.00, 389.15
340.07, 0.00, 389.56
340.31, 0.00, 390.02
340.58, 0.01, 390.53
340.87, 0.01, 391.11
341.21, 0.01, 391.77
341.60, 0.02, 392.51
341.97, 0.04, 393.23
342.35, 0.09, 393.97
342.82, 0.13, 394.88
¯343.46, 0.15, 396.13
343.81, 0.27, 396.81
343.81, 0.48, 396.81
343.80, 0.70, 396.81
343.80, 0.91, 396.81
343.79, 1.12, 396.81
343.79, 1.33, 396.81
343.79, 1.54, 396.81
343.78, 1.75, 396.81
338.35, 0.00, 386.09
338.44, 0.00, 386.26
338.53, 0.00, 386.43
338.63, 0.00, 386.62
338.74, 0.00, 386.82
338.85, 0.00, 387.03
338.97, 0.00, 387.26
339.10, 0.00, 387.50
339.25, 0.00, 387.77
339.40, 0.00, 388.06
339.57, 0.00, 388.38
339.75, 0.00, 388.72
339.95, 0.00, 389.10
340.17, 0.00, 389.51
340.42, 0.01, 389.97
340.69, 0.01, 390.48
340.99, 0.01, 391.06
341.34, 0.01, 391.71
341.73, 0.02, 392.45
342.09, 0.05, 393.12
342.48, 0.10, 393.85
342.94, 0.15, 394.71
343.59, 0.17, 395.94
344.05, 0.26, 396.81
344.05, 0.48, 396.81
344.04, 0.69, 396.81
344.04, 0.90, 396.81
344.03, 1.11, 396.81
344.03, 1.33, 396.81
344.02, 1.54, 396.81
344.02, 1.75, 396.81
338.41, 0.00, 386.07
338.50, 0.00, 386.23
338.59, 0.00, 386.40
338.70, 0.00, 386.59
338.80, 0.00, 386.78
338.92, 0.00, 387.00
339.04, 0.00, 387.22
339.18, 0.00, 387.47
339.33, 0.00, 387.73
339.48, 0.00, 388.02
339.66, 0.00, 388.34
¯339.84, 0.00, 388.68
340.05, 0.00, 389.05
340.27, 0.00, 389.46
340.52, 0.01, 389.92
340.80, 0.01, 390.43
341.11, 0.01, 391.00
341.47, 0.02, 391.65
341.87, 0.02, 392.38
342.22, 0.06, 393.02
342.61, 0.11, 393.73
343.05, 0.16, 394.55
343.72, 0.18, 395.76
344.29, 0.26, 396.81
344.29, 0.47, 396.81
344.28, 0.68, 396.81
344.28, 0.90, 396.81
344.27, 1.11, 396.81
344.27, 1.32, 396.81
344.26, 1.54, 396.81
344.26, 1.75, 396.81
338.47, 0.00, 386.04
338.56, 0.00, 386.20
338.66, 0.00, 386.37
338.76, 0.00, 386.55
338.87, 0.00, 386.75
338.99, 0.00, 386.96
339.12, 0.00, 387.19
339.25, 0.00, 387.43
339.40, 0.00, 387.70
339.57, 0.00, 387.98
339.74, 0.00, 388.30
339.94, 0.00, 388.64
340.14, 0.00, 389.01
340.37, 0.00, 389.42
340.63, 0.01, 389.87
340.91, 0.01, 390.37
341.23, 0.01, 390.94
341.59, 0.02, 391.58
342.00, 0.02, 392.30
342.37, 0.06, 392.95
342.74, 0.12, 393.62
343.19, 0.17, 394.42
343.93, 0.18, 395.74
344.54, 0.25, 396.81
344.53, 0.46, 396.81
344.53, 0.68, 396.81
344.52, 0.89, 396.81
344.52, 1.11, 396.81
344.51, 1.32, 396.81
344.51, 1.54, 396.81
344.50, 1.75, 396.81
¯338.52, 0.00, 386.01
338.62, 0.00, 386.17
338.72, 0.00, 386.34
338.82, 0.00, 386.52
338.94, 0.00, 386.72
339.06, 0.00, 386.93
339.19, 0.00, 387.15
339.33, 0.00, 387.40
339.48, 0.00, 387.66
339.65, 0.00, 387.94
339.83, 0.00, 388.26
340.03, 0.00, 388.60
340.24, 0.00, 388.96
340.47, 0.01, 389.36
340.73, 0.01, 389.81
341.02, 0.01, 390.32
341.35, 0.01, 390.88
341.72, 0.02, 391.52
342.13, 0.03, 392.22
342.52, 0.06, 392.89
342.89, 0.12, 393.53
343.32, 0.18, 394.29
344.19, 0.16, 395.79
344.78, 0.24, 396.81
344.78, 0.46, 396.81
344.77, 0.67, 396.81
344.77, 0.89, 396.81
344.76, 1.11, 396.81
344.76, 1.32, 396.81
344.76, 1.54, 396.81
344.75, 1.75, 396.81
338.58, 0.00, 385.98
338.68, 0.00, 386.14
338.78, 0.00, 386.31
338.89, 0.00, 386.49
339.00, 0.00, 386.68
339.13, 0.00, 386.89
339.26, 0.00, 387.12
339.40, 0.00, 387.36
339.56, 0.00, 387.62
339.73, 0.00, 387.90
339.91, 0.00, 388.21
340.12, 0.00, 388.55
340.33, 0.00, 388.92
340.57, 0.01, 389.32
340.84, 0.01, 389.76
341.13, 0.01, 390.26
341.47, 0.02, 390.82
341.85, 0.02, 391.45
342.26, 0.03, 392.14
342.67, 0.06, 392.83
¯343.05, 0.12, 393.47
343.47, 0.19, 394.18
344.45, 0.14, 395.83
345.04, 0.23, 396.81
345.03, 0.45, 396.81
345.03, 0.67, 396.81
345.02, 0.89, 396.81
345.02, 1.10, 396.81
345.01, 1.32, 396.81
345.01, 1.54, 396.81
345.00, 1.75, 396.81
338.64, 0.00, 385.95
338.73, 0.00, 386.11
338.84, 0.00, 386.28
338.95, 0.00, 386.46
339.07, 0.00, 386.65
339.19, 0.00, 386.86
339.33, 0.00, 387.08
339.48, 0.00, 387.32
339.64, 0.00, 387.58
339.81, 0.00, 387.86
340.00, 0.00, 388.17
340.21, 0.00, 388.51
340.43, 0.00, 388.87
340.67, 0.01, 389.27
340.94, 0.01, 389.71
341.24, 0.01, 390.20
341.59, 0.02, 390.76
341.96, 0.02, 391.38
342.38, 0.03, 392.06
342.82, 0.06, 392.77
343.21, 0.12, 393.40
343.64, 0.19, 394.11
344.72, 0.13, 395.87
345.29, 0.22, 396.81
345.29, 0.44, 396.81
345.28, 0.66, 396.81
345.28, 0.88, 396.81
345.27, 1.10, 396.81
345.27, 1.32, 396.81
345.26, 1.54, 396.81
345.26, 1.76, 396.81
338.69, 0.00, 385.92
338.79, 0.00, 386.08
338.90, 0.00, 386.24
339.01, 0.00, 386.42
339.13, 0.00, 386.61
339.26, 0.00, 386.82
339.40, 0.00, 387.04
339.55, 0.00, 387.28
339.71, 0.00, 387.54
¯339.89, 0.00, 387.82
340.08, 0.00, 388.13
340.30, 0.00, 388.46
340.52, 0.00, 388.82
340.77, 0.01, 389.22
341.05, 0.01, 389.66
341.36, 0.01, 390.14
341.70, 0.02, 390.70
342.08, 0.03, 391.30
342.51, 0.04, 391.98
342.97, 0.06, 392.70
343.36, 0.12, 393.34
343.83, 0.18, 394.07
344.99, 0.11, 395.91
345.55, 0.21, 396.81
345.55, 0.43, 396.81
345.54, 0.66, 396.81
345.53, 0.88, 396.81
345.53, 1.10, 396.81
345.52, 1.32, 396.81
345.52, 1.54, 396.81
345.51, 1.76, 396.81
338.75, 0.00, 385.89
338.85, 0.00, 386.04
338.96, 0.00, 386.21
339.07, 0.00, 386.39
339.20, 0.00, 386.58
339.33, 0.00, 386.78
339.47, 0.00, 387.00
339.62, 0.00, 387.24
339.79, 0.00, 387.50
339.97, 0.00, 387.78
340.17, 0.00, 388.08
340.38, 0.00, 388.41
340.62, 0.00, 388.78
340.87, 0.00, 389.17
341.15, 0.01, 389.60
341.47, 0.01, 390.09
341.82, 0.02, 390.63
342.20, 0.03, 391.22
342.64, 0.04, 391.89
343.12, 0.06, 392.64
343.52, 0.12, 393.27
344.05, 0.17, 394.08
345.26, 0.10, 395.95
345.81, 0.20, 396.81
345.81, 0.42, 396.81
345.80, 0.65, 396.81
345.80, 0.87, 396.81
345.79, 1.09, 396.81
345.79, 1.32, 396.81
¯345.78, 1.54, 396.81
345.77, 1.76, 396.81
338.80, 0.00, 385.85
338.91, 0.00, 386.01
339.02, 0.00, 386.18
