žVERSION 0.7
FIELDS x y z
SIZE 8 8 8
TYPE F F F
COUNT 1 1 1
WIDTH 2271
HEIGHT 1
VIEWPOINT 381.84, 7.20, 354.90 1 400.15, 2.25, 362.97
POINTS 2271
DATA ascii
403.41, 0.24, 375.70
403.74, 0.30, 376.60
404.38, 0.27, 378.38
404.79, 0.36, 379.49
405.08, 0.51, 380.26
405.82, 0.59, 382.27
406.24, 0.77, 383.41
406.52, 1.00, 384.13
406.80, 1.25, 384.86
407.01, 1.53, 385.39
407.21, 1.81, 385.90
400.52, 0.26, 367.62
400.59, 0.27, 367.80
400.67, 0.27, 368.00
400.75, 0.27, 368.22
400.84, 0.27, 368.45
401.10, 0.13, 369.15
401.21, 0.14, 369.44
401.33, 0.14, 369.75
401.46, 0.15, 370.10
401.60, 0.15, 370.47
401.76, 0.16, 370.89
401.94, 0.16, 371.36
402.14, 0.16, 371.90
402.37, 0.17, 372.51
402.64, 0.17, 373.21
402.93, 0.17, 373.99
403.27, 0.18, 374.89
403.56, 0.24, 375.63
403.86, 0.30, 376.42
404.37, 0.33, 377.76
404.57, 0.47, 378.27
404.78, 0.62, 378.81
405.47, 0.69, 380.63
406.39, 0.77, 383.04
406.67, 1.00, 383.74
406.97, 1.25, 384.49
407.21, 1.52, 385.11
407.44, 1.80, 385.66
407.67, 2.10, 386.22
400.58, 0.26, 367.59
400.65, 0.27, 367.77
400.73, 0.27, 367.97
400.81, 0.27, 368.18
400.90, 0.27, 368.41
401.17, 0.14, 369.11
401.28, 0.14, 369.39
401.40, 0.14, 369.70
401.54, 0.15, 370.04
401.68, 0.15, 370.42
¯401.84, 0.16, 370.83
402.03, 0.16, 371.30
402.24, 0.16, 371.83
402.47, 0.17, 372.43
402.74, 0.17, 373.12
403.05, 0.17, 373.90
403.40, 0.18, 374.79
403.70, 0.23, 375.56
404.02, 0.30, 376.34
404.35, 0.38, 377.18
404.54, 0.52, 377.65
404.75, 0.67, 378.15
404.97, 0.83, 378.69
406.14, 0.84, 381.67
406.81, 1.00, 383.36
407.11, 1.24, 384.09
407.42, 1.50, 384.83
407.64, 1.79, 385.37
407.88, 2.08, 385.93
400.63, 0.26, 367.56
400.70, 0.27, 367.74
400.78, 0.27, 367.93
400.87, 0.27, 368.15
400.96, 0.27, 368.37
401.24, 0.14, 369.06
401.35, 0.14, 369.35
401.48, 0.14, 369.65
401.61, 0.15, 369.99
401.77, 0.15, 370.36
401.93, 0.16, 370.77
402.12, 0.16, 371.23
402.33, 0.16, 371.75
402.58, 0.17, 372.35
402.85, 0.17, 373.03
403.17, 0.17, 373.81
403.53, 0.18, 374.69
403.85, 0.22, 375.48
404.17, 0.29, 376.26
404.39, 0.41, 376.78
404.54, 0.55, 377.12
404.72, 0.70, 377.54
404.93, 0.86, 378.04
405.15, 1.03, 378.57
406.94, 1.01, 382.96
407.25, 1.24, 383.69
407.57, 1.50, 384.45
407.85, 1.77, 385.08
408.09, 2.07, 385.64
400.68, 0.27, 367.52
400.76, 0.27, 367.70
400.84, 0.27, 367.90
¯400.93, 0.27, 368.11
401.02, 0.27, 368.33
401.30, 0.14, 369.02
401.42, 0.14, 369.30
401.55, 0.14, 369.60
401.69, 0.15, 369.94
401.85, 0.15, 370.30
402.02, 0.16, 370.71
402.21, 0.16, 371.16
402.43, 0.17, 371.68
402.67, 0.17, 372.26
402.96, 0.17, 372.93
403.28, 0.17, 373.70
403.65, 0.18, 374.58
404.00, 0.22, 375.40
404.31, 0.29, 376.13
404.46, 0.43, 376.46
404.61, 0.57, 376.81
404.76, 0.72, 377.15
404.92, 0.89, 377.49
405.11, 1.05, 377.92
405.34, 1.22, 378.45
407.37, 1.24, 383.27
407.70, 1.49, 384.02
408.05, 1.76, 384.80
408.40, 2.05, 385.61
400.74, 0.27, 367.49
400.81, 0.27, 367.67
400.90, 0.27, 367.86
400.99, 0.27, 368.07
401.08, 0.27, 368.29
401.19, 0.27, 368.53
401.49, 0.14, 369.25
401.63, 0.14, 369.55
401.77, 0.15, 369.88
401.93, 0.15, 370.24
402.10, 0.16, 370.64
402.30, 0.16, 371.08
402.52, 0.17, 371.60
402.77, 0.17, 372.18
403.06, 0.17, 372.84
403.39, 0.17, 373.60
403.78, 0.18, 374.48
404.15, 0.21, 375.32
404.37, 0.31, 375.83
404.52, 0.45, 376.15
404.67, 0.59, 376.48
404.83, 0.74, 376.83
404.99, 0.90, 377.17
405.15, 1.06, 377.51
405.31, 1.24, 377.87
¯405.52, 1.42, 378.32
405.77, 1.61, 378.88
408.18, 1.75, 384.38
400.79, 0.27, 367.46
400.87, 0.27, 367.63
400.95, 0.27, 367.82
401.05, 0.27, 368.03
401.14, 0.27, 368.25
401.25, 0.27, 368.49
401.57, 0.14, 369.20
401.70, 0.14, 369.50
401.85, 0.15, 369.83
402.01, 0.15, 370.18
402.19, 0.16, 370.58
402.38, 0.16, 371.02
402.61, 0.17, 371.52
402.87, 0.17, 372.09
403.16, 0.17, 372.75
403.50, 0.18, 373.49
403.89, 0.18, 374.36
404.29, 0.20, 375.24
404.43, 0.33, 375.54
404.58, 0.46, 375.85
404.73, 0.60, 376.17
404.89, 0.75, 376.50
405.05, 0.91, 376.85
405.22, 1.07, 377.19
405.38, 1.24, 377.54
405.55, 1.42, 377.90
405.74, 1.61, 378.28
405.96, 1.81, 378.75
400.84, 0.27, 367.42
400.92, 0.27, 367.60
401.01, 0.27, 367.79
401.10, 0.27, 367.99
401.20, 0.27, 368.21
401.31, 0.27, 368.45
401.63, 0.14, 369.15
401.77, 0.14, 369.45
401.92, 0.15, 369.77
402.09, 0.15, 370.12
402.27, 0.16, 370.51
402.47, 0.16, 370.95
402.70, 0.17, 371.44
402.97, 0.17, 372.01
403.26, 0.17, 372.65
403.61, 0.18, 373.39
404.01, 0.18, 374.24
404.37, 0.22, 375.01
404.49, 0.35, 375.26
404.63, 0.48, 375.56
¯404.78, 0.62, 375.86
404.94, 0.77, 376.18
405.11, 0.92, 376.52
405.28, 1.08, 376.87
405.45, 1.25, 377.21
405.62, 1.42, 377.56
405.80, 1.61, 377.92
405.99, 1.81, 378.31
406.19, 2.01, 378.71
400.89, 0.27, 367.39
400.97, 0.27, 367.56
401.06, 0.27, 367.75
401.16, 0.27, 367.95
401.26, 0.27, 368.17
401.38, 0.27, 368.40
401.70, 0.14, 369.10
401.84, 0.14, 369.39
402.00, 0.15, 369.71
402.17, 0.15, 370.06
402.35, 0.16, 370.45
402.56, 0.16, 370.88
402.79, 0.17, 371.36
403.06, 0.17, 371.92
403.36, 0.17, 372.55
403.71, 0.18, 373.28
404.12, 0.18, 374.12
404.42, 0.24, 374.75
404.59, 0.36, 375.10
404.71, 0.49, 375.32
404.84, 0.64, 375.57
404.99, 0.78, 375.87
405.16, 0.93, 376.20
405.33, 1.09, 376.53
405.51, 1.25, 376.89
405.68, 1.42, 377.23
405.86, 1.61, 377.58
406.05, 1.80, 377.95
406.25, 2.00, 378.34
400.94, 0.27, 367.35
401.02, 0.27, 367.53
401.12, 0.27, 367.71
401.21, 0.27, 367.91
401.32, 0.27, 368.12
401.44, 0.27, 368.36
401.56, 0.28, 368.61
401.92, 0.14, 369.34
402.07, 0.15, 369.65
402.24, 0.15, 370.00
402.43, 0.16, 370.38
402.64, 0.16, 370.80
402.88, 0.17, 371.28
¯403.15, 0.17, 371.83
403.46, 0.18, 372.46
403.82, 0.18, 373.17
404.23, 0.18, 374.00
404.47, 0.26, 374.48
404.69, 0.36, 374.91
404.83, 0.49, 375.18
404.95, 0.64, 375.41
405.08, 0.78, 375.65
405.21, 0.94, 375.90
405.37, 1.09, 376.21
405.55, 1.25, 376.55
405.74, 1.43, 376.91
405.92, 1.61, 377.25
406.10, 1.80, 377.60
406.32, 1.99, 378.02
406.61, 2.21, 378.58
400.99, 0.27, 367.32
401.08, 0.27, 367.49
401.17, 0.27, 367.67
401.27, 0.27, 367.87
401.38, 0.27, 368.08
401.50, 0.28, 368.31
401.62, 0.28, 368.56
401.99, 0.14, 369.28
402.15, 0.15, 369.60
402.32, 0.15, 369.94
402.51, 0.16, 370.31
402.73, 0.16, 370.73
402.97, 0.17, 371.20
403.24, 0.17, 371.74
403.56, 0.18, 372.36
403.92, 0.18, 373.07
404.31, 0.19, 373.84
404.52, 0.28, 374.22
404.73, 0.38, 374.63
404.94, 0.49, 375.04
405.07, 0.64, 375.26
405.20, 0.78, 375.50
405.33, 0.93, 375.74
405.47, 1.09, 375.99
405.61, 1.26, 376.26
405.78, 1.43, 376.57
405.97, 1.60, 376.93
406.16, 1.79, 377.27
406.39, 1.98, 377.71
406.68, 2.19, 378.25
406.99, 2.42, 378.83
401.04, 0.27, 367.28
401.13, 0.27, 367.45
401.22, 0.27, 367.63
¯401.32, 0.27, 367.83
401.44, 0.27, 368.04
401.55, 0.28, 368.26
401.68, 0.28, 368.51
402.05, 0.14, 369.23
402.22, 0.15, 369.54
402.40, 0.15, 369.87
402.59, 0.16, 370.25
402.81, 0.17, 370.66
403.05, 0.17, 371.12
403.33, 0.17, 371.65
403.65, 0.18, 372.26
404.02, 0.18, 372.96
404.36, 0.21, 373.60
404.56, 0.30, 373.97
404.77, 0.40, 374.37
405.00, 0.51, 374.79
405.18, 0.63, 375.12
405.31, 0.78, 375.35
405.45, 0.93, 375.59
405.59, 1.09, 375.84
405.73, 1.25, 376.09
405.88, 1.42, 376.36
406.04, 1.60, 376.64
406.21, 1.78, 376.95
406.46, 1.97, 377.41
406.75, 2.18, 377.93
407.06, 2.40, 378.49
401.09, 0.27, 367.24
401.18, 0.27, 367.41
401.27, 0.27, 367.59
401.38, 0.27, 367.78
401.49, 0.27, 367.99
401.61, 0.28, 368.22
401.74, 0.28, 368.46
402.12, 0.14, 369.17
402.29, 0.15, 369.48
402.47, 0.15, 369.81
402.67, 0.16, 370.18
402.89, 0.17, 370.59
403.14, 0.17, 371.04
403.42, 0.17, 371.57
403.75, 0.18, 372.16
404.12, 0.18, 372.85
404.40, 0.23, 373.37
404.60, 0.32, 373.73
404.81, 0.42, 374.11
405.04, 0.52, 374.51
405.28, 0.64, 374.95
405.43, 0.78, 375.20
405.56, 0.93, 375.44
¯405.71, 1.09, 375.68
405.85, 1.25, 375.93
406.00, 1.42, 376.20
406.16, 1.59, 376.47
406.32, 1.78, 376.75
406.52, 1.97, 377.09
406.82, 2.17, 377.62
407.13, 2.38, 378.16
401.13, 0.27, 367.21
401.23, 0.27, 367.37
401.33, 0.27, 367.55
401.43, 0.27, 367.74
401.55, 0.27, 367.95
401.67, 0.28, 368.17
401.80, 0.28, 368.41
401.95, 0.28, 368.67
402.36, 0.15, 369.42
402.54, 0.15, 369.75
402.75, 0.16, 370.11
402.97, 0.17, 370.51
403.22, 0.17, 370.96
403.51, 0.18, 371.47
403.84, 0.18, 372.07
404.22, 0.18, 372.74
404.47, 0.25, 373.18
404.64, 0.34, 373.49
404.85, 0.44, 373.85
405.08, 0.54, 374.25
405.32, 0.65, 374.66
405.54, 0.78, 375.06
405.68, 0.93, 375.29
405.82, 1.08, 375.53
405.97, 1.24, 375.77
406.13, 1.41, 376.03
406.28, 1.58, 376.30
406.44, 1.77, 376.56
406.60, 1.96, 376.83
406.85, 2.15, 377.26
407.18, 2.37, 377.83
401.18, 0.27, 367.17
401.28, 0.27, 367.33
401.38, 0.27, 367.51
401.48, 0.27, 367.70
401.60, 0.27, 367.90
401.73, 0.28, 368.12
401.86, 0.28, 368.36
402.01, 0.28, 368.62
402.43, 0.15, 369.35
402.62, 0.15, 369.68
402.82, 0.16, 370.04
403.05, 0.17, 370.44
¯403.30, 0.17, 370.88
403.60, 0.18, 371.38
403.93, 0.18, 371.97
404.31, 0.18, 372.63
404.61, 0.23, 373.14
404.75, 0.34, 373.38
404.90, 0.45, 373.63
405.11, 0.56, 373.99
405.35, 0.67, 374.39
405.60, 0.78, 374.82
405.79, 0.92, 375.14
405.94, 1.08, 375.37
406.09, 1.24, 375.62
406.24, 1.40, 375.87
406.40, 1.58, 376.12
406.55, 1.76, 376.38
406.72, 1.95, 376.64
406.89, 2.14, 376.92
407.20, 2.35, 377.43
401.23, 0.27, 367.13
401.32, 0.27, 367.29
401.43, 0.27, 367.47
401.54, 0.27, 367.65
401.66, 0.27, 367.85
401.78, 0.28, 368.07
401.92, 0.28, 368.30
402.07, 0.28, 368.56
402.50, 0.15, 369.29
402.69, 0.15, 369.62
402.90, 0.16, 369.97
403.13, 0.17, 370.36
403.39, 0.17, 370.80
403.68, 0.18, 371.29
404.02, 0.18, 371.87
404.40, 0.19, 372.51
404.75, 0.22, 373.10
404.90, 0.33, 373.34
405.05, 0.44, 373.59
405.21, 0.56, 373.85
405.38, 0.68, 374.13
405.63, 0.80, 374.53
405.90, 0.92, 374.98
406.05, 1.07, 375.22
406.20, 1.23, 375.46
406.36, 1.40, 375.70
406.51, 1.57, 375.94
406.67, 1.75, 376.19
406.83, 1.94, 376.45
407.01, 2.13, 376.73
407.21, 2.33, 377.06
401.28, 0.27, 367.09
¯401.37, 0.27, 367.25
401.48, 0.27, 367.42
401.59, 0.27, 367.61
401.71, 0.28, 367.81
401.84, 0.28, 368.02
401.98, 0.28, 368.25
402.13, 0.28, 368.51
402.30, 0.28, 368.78
402.76, 0.15, 369.55
402.97, 0.16, 369.90
403.21, 0.17, 370.29
403.47, 0.17, 370.72
403.76, 0.18, 371.20
404.11, 0.18, 371.77
404.49, 0.19, 372.39
404.89, 0.21, 373.06
405.05, 0.31, 373.30
405.20, 0.43, 373.55
405.37, 0.54, 373.81
405.54, 0.67, 374.09
405.73, 0.80, 374.37
405.92, 0.93, 374.69
406.17, 1.07, 375.07
406.32, 1.23, 375.30
406.46, 1.39, 375.53
406.62, 1.56, 375.77
406.78, 1.74, 376.01
406.95, 1.93, 376.27
407.12, 2.12, 376.54
407.30, 2.32, 376.81
401.32, 0.27, 367.05
401.42, 0.27, 367.21
401.53, 0.27, 367.38
401.64, 0.27, 367.56
401.76, 0.28, 367.76
401.89, 0.28, 367.97
402.04, 0.28, 368.20
402.19, 0.28, 368.45
402.36, 0.28, 368.72
402.83, 0.16, 369.48
403.05, 0.16, 369.83
403.28, 0.17, 370.21
403.55, 0.17, 370.63
403.84, 0.18, 371.11
404.19, 0.18, 371.66
404.57, 0.19, 372.27
405.00, 0.20, 372.96
405.19, 0.30, 373.26
405.36, 0.41, 373.51
405.53, 0.53, 373.77
405.71, 0.65, 374.04
¯405.89, 0.78, 374.33
406.09, 0.92, 374.64
406.29, 1.06, 374.93
406.43, 1.22, 375.15
406.57, 1.39, 375.36
406.73, 1.56, 375.59
406.89, 1.74, 375.84
407.06, 1.92, 376.09
407.23, 2.11, 376.35
407.41, 2.31, 376.62
401.37, 0.27, 367.01
401.47, 0.27, 367.17
401.57, 0.27, 367.34
401.69, 0.27, 367.52
401.81, 0.28, 367.71
401.95, 0.28, 367.92
402.09, 0.28, 368.15
402.25, 0.28, 368.39
402.42, 0.28, 368.66
402.89, 0.16, 369.41
403.11, 0.16, 369.75
403.36, 0.17, 370.13
403.63, 0.17, 370.55
403.93, 0.18, 371.02
404.28, 0.18, 371.56
404.66, 0.19, 372.15
405.09, 0.21, 372.83
405.34, 0.29, 373.22
405.51, 0.40, 373.47
405.68, 0.52, 373.73
405.87, 0.64, 374.00
406.06, 0.77, 374.29
406.26, 0.91, 374.59
406.42, 1.06, 374.82
406.58, 1.21, 375.05
406.72, 1.38, 375.25
406.86, 1.55, 375.46
407.01, 1.73, 375.68
407.17, 1.91, 375.91
407.34, 2.10, 376.16
407.53, 2.30, 376.43
401.41, 0.27, 366.97
401.51, 0.27, 367.13
401.62, 0.27, 367.29
401.74, 0.27, 367.47
401.87, 0.28, 367.66
402.00, 0.28, 367.87
402.15, 0.28, 368.09
402.31, 0.28, 368.34
402.48, 0.29, 368.60
402.96, 0.16, 369.33
¯403.18, 0.16, 369.67
403.43, 0.17, 370.05
403.70, 0.17, 370.47
404.01, 0.18, 370.93
404.36, 0.18, 371.46
404.74, 0.20, 372.04
405.18, 0.21, 372.70
405.49, 0.27, 373.17
405.66, 0.38, 373.42
405.84, 0.50, 373.68
406.03, 0.63, 373.96
406.23, 0.75, 374.25
406.39, 0.90, 374.48
406.55, 1.05, 374.71
406.72, 1.21, 374.94
406.87, 1.37, 375.16
407.02, 1.54, 375.37
407.17, 1.72, 375.58
407.33, 1.90, 375.81
407.49, 2.09, 376.04
407.66, 2.29, 376.28
401.46, 0.27, 366.93
401.56, 0.27, 367.09
401.67, 0.27, 367.25
401.79, 0.27, 367.42
401.92, 0.28, 367.61
402.05, 0.28, 367.82
402.20, 0.28, 368.04
402.37, 0.28, 368.28
402.54, 0.29, 368.54
402.73, 0.29, 368.81
403.25, 0.16, 369.60
403.50, 0.17, 369.97
403.78, 0.17, 370.38
404.09, 0.18, 370.84
404.43, 0.19, 371.35
404.82, 0.20, 371.92
405.26, 0.21, 372.57
405.64, 0.26, 373.13
405.82, 0.37, 373.38
406.00, 0.49, 373.64
406.20, 0.61, 373.91
406.36, 0.75, 374.15
406.52, 0.89, 374.36
406.68, 1.04, 374.59
406.85, 1.20, 374.83
407.02, 1.36, 375.06
407.17, 1.53, 375.27
407.32, 1.71, 375.48
407.49, 1.89, 375.70
407.65, 2.08, 375.93
¯407.83, 2.28, 376.17
401.50, 0.27, 366.89
401.60, 0.27, 367.04
401.72, 0.27, 367.20
401.84, 0.27, 367.38
401.97, 0.28, 367.56
402.11, 0.28, 367.77
402.26, 0.28, 367.98
402.42, 0.28, 368.22
402.60, 0.29, 368.47
402.79, 0.29, 368.75
403.31, 0.16, 369.52
403.57, 0.17, 369.88
403.85, 0.17, 370.29
404.16, 0.18, 370.74
404.51, 0.19, 371.24
404.90, 0.20, 371.80
405.34, 0.21, 372.43
405.79, 0.24, 373.08
405.98, 0.35, 373.33
406.16, 0.47, 373.60
406.33, 0.60, 373.83
406.49, 0.74, 374.04
406.65, 0.88, 374.25
406.81, 1.03, 374.48
406.98, 1.19, 374.71
407.16, 1.35, 374.95
407.32, 1.52, 375.17
407.48, 1.70, 375.38
407.65, 1.88, 375.60
407.82, 2.07, 375.83
407.99, 2.27, 376.07
401.54, 0.27, 366.85
401.65, 0.27, 367.00
401.76, 0.27, 367.16
401.88, 0.28, 367.33
402.02, 0.28, 367.51
402.16, 0.28, 367.71
402.31, 0.28, 367.93
402.48, 0.28, 368.16
402.65, 0.29, 368.41
402.85, 0.29, 368.68
403.38, 0.17, 369.44
403.64, 0.17, 369.80
403.92, 0.18, 370.20
404.24, 0.18, 370.64
404.58, 0.19, 371.13
404.98, 0.20, 371.68
405.42, 0.21, 372.30
405.94, 0.23, 373.02
406.13, 0.34, 373.29
¯406.31, 0.46, 373.52
406.46, 0.60, 373.72
406.61, 0.73, 373.93
406.77, 0.88, 374.14
406.94, 1.03, 374.36
407.12, 1.18, 374.59
407.30, 1.34, 374.83
407.47, 1.51, 375.07
407.64, 1.69, 375.28
407.80, 1.87, 375.50
407.98, 2.06, 375.73
408.16, 2.26, 375.96
401.58, 0.27, 366.81
401.69, 0.27, 366.96
401.81, 0.27, 367.11
401.93, 0.28, 367.28
402.06, 0.28, 367.46
402.21, 0.28, 367.66
402.36, 0.28, 367.87
402.53, 0.28, 368.10
402.71, 0.29, 368.35
402.91, 0.29, 368.61
403.12, 0.30, 368.91
403.70, 0.17, 369.71
403.99, 0.18, 370.11
404.31, 0.18, 370.54
404.66, 0.19, 371.02
405.05, 0.20, 371.56
405.50, 0.22, 372.17
406.02, 0.23, 372.88
406.28, 0.33, 373.23
406.43, 0.45, 373.42
406.58, 0.59, 373.62
406.74, 0.73, 373.82
406.90, 0.87, 374.03
407.07, 1.02, 374.25
407.25, 1.17, 374.48
407.43, 1.33, 374.72
407.62, 1.50, 374.96
407.79, 1.68, 375.18
407.96, 1.86, 375.40
408.14, 2.05, 375.62
408.35, 2.25, 375.90
401.63, 0.27, 366.77
401.74, 0.27, 366.91
401.85, 0.27, 367.07
401.98, 0.28, 367.23
402.11, 0.28, 367.41
402.26, 0.28, 367.61
402.41, 0.28, 367.82
402.58, 0.28, 368.04
¯402.76, 0.29, 368.28
402.96, 0.29, 368.55
403.18, 0.30, 368.83
403.77, 0.17, 369.63
404.06, 0.18, 370.01
404.38, 0.19, 370.44
404.73, 0.20, 370.91
405.13, 0.21, 371.44
405.58, 0.22, 372.04
406.10, 0.23, 372.73
406.41, 0.32, 373.14
406.55, 0.45, 373.32
406.70, 0.58, 373.51
406.86, 0.72, 373.71
407.03, 0.86, 373.92
407.20, 1.01, 374.14
407.38, 1.17, 374.36
407.57, 1.33, 374.60
407.76, 1.49, 374.84
407.95, 1.67, 375.08
408.12, 1.85, 375.29
408.33, 2.04, 375.55
408.56, 2.24, 375.85
401.67, 0.27, 366.72
401.78, 0.27, 366.87
401.90, 0.27, 367.02
402.02, 0.28, 367.19
402.16, 0.28, 367.36
402.31, 0.28, 367.55
402.47, 0.28, 367.76
402.64, 0.29, 367.98
402.82, 0.29, 368.22
403.02, 0.29, 368.48
403.24, 0.30, 368.76
403.83, 0.17, 369.54
404.12, 0.18, 369.92
404.44, 0.19, 370.34
404.80, 0.20, 370.80
405.20, 0.21, 371.32
405.65, 0.22, 371.91
406.18, 0.24, 372.59
406.57, 0.30, 373.09
406.71, 0.43, 373.27
406.87, 0.57, 373.46
407.02, 0.71, 373.65
407.18, 0.85, 373.85
407.35, 1.00, 374.05
407.52, 1.16, 374.26
407.70, 1.32, 374.48
407.90, 1.48, 374.72
408.10, 1.66, 374.97
¯408.30, 1.84, 375.22
408.53, 2.03, 375.50
408.77, 2.23, 375.80
401.71, 0.27, 366.68
401.82, 0.27, 366.82
401.94, 0.27, 366.97
402.07, 0.28, 367.14
402.21, 0.28, 367.31
402.36, 0.28, 367.50
402.52, 0.28, 367.70
402.69, 0.29, 367.92
402.87, 0.29, 368.15
403.07, 0.29, 368.41
403.29, 0.30, 368.69
403.54, 0.31, 369.00
404.19, 0.18, 369.83
404.51, 0.19, 370.24
404.87, 0.20, 370.69
405.27, 0.21, 371.20
405.73, 0.22, 371.78
406.25, 0.24, 372.45
406.72, 0.29, 373.03
406.88, 0.42, 373.22
407.03, 0.55, 373.41
407.19, 0.69, 373.60
407.36, 0.84, 373.79
407.53, 0.99, 374.00
407.71, 1.14, 374.21
407.89, 1.30, 374.43
408.08, 1.47, 374.66
408.28, 1.65, 374.90
408.49, 1.83, 375.15
408.73, 2.02, 375.44
408.99, 2.22, 375.74
401.75, 0.27, 366.64
401.86, 0.27, 366.78
401.98, 0.27, 366.93
402.11, 0.28, 367.09
402.25, 0.28, 367.26
402.40, 0.28, 367.45
402.57, 0.28, 367.65
402.74, 0.29, 367.86
402.92, 0.29, 368.09
403.13, 0.30, 368.34
403.35, 0.30, 368.62
403.60, 0.31, 368.92
404.25, 0.18, 369.74
404.58, 0.19, 370.14
404.94, 0.20, 370.58
405.34, 0.21, 371.08
405.80, 0.23, 371.65
¯406.31, 0.24, 372.28
406.78, 0.29, 372.85
407.04, 0.40, 373.17
407.20, 0.54, 373.36
407.36, 0.68, 373.55
407.53, 0.82, 373.74
407.71, 0.97, 373.95
407.89, 1.13, 374.16
408.08, 1.29, 374.38
408.27, 1.46, 374.61
408.47, 1.64, 374.83
408.68, 1.82, 375.08
408.92, 2.01, 375.36
409.18, 2.21, 375.67
401.79, 0.27, 366.59
401.90, 0.27, 366.73
402.03, 0.27, 366.88
402.16, 0.28, 367.04
402.30, 0.28, 367.21
402.45, 0.28, 367.39
402.61, 0.28, 367.59
402.79, 0.29, 367.80
402.98, 0.29, 368.02
403.18, 0.30, 368.27
403.41, 0.30, 368.54
403.66, 0.31, 368.84
404.31, 0.18, 369.65
404.64, 0.19, 370.04
405.00, 0.20, 370.47
405.41, 0.21, 370.96
405.87, 0.23, 371.52
406.37, 0.25, 372.12
406.84, 0.30, 372.68
407.21, 0.38, 373.12
407.37, 0.52, 373.30
407.54, 0.66, 373.49
407.71, 0.81, 373.69
407.89, 0.96, 373.90
408.08, 1.11, 374.11
408.27, 1.28, 374.33
408.46, 1.45, 374.54
408.66, 1.62, 374.77
408.86, 1.81, 375.00
409.11, 2.00, 375.29
409.38, 2.20, 375.59
401.83, 0.27, 366.55
401.94, 0.27, 366.69
402.07, 0.28, 366.83
402.20, 0.28, 366.99
402.34, 0.28, 367.15
402.50, 0.28, 367.33
¯402.66, 0.28, 367.53
402.84, 0.29, 367.73
403.03, 0.29, 367.96
403.23, 0.30, 368.20
403.46, 0.30, 368.47
403.71, 0.31, 368.76
404.37, 0.19, 369.55
404.70, 0.19, 369.94
405.07, 0.20, 370.36
405.48, 0.22, 370.85
405.94, 0.23, 371.39
406.42, 0.26, 371.96
406.89, 0.30, 372.50
407.37, 0.37, 373.07
407.54, 0.50, 373.25
407.71, 0.64, 373.44
407.89, 0.79, 373.64
408.07, 0.94, 373.84
408.26, 1.10, 374.05
408.45, 1.26, 374.26
408.64, 1.44, 374.48
408.85, 1.61, 374.70
409.06, 1.80, 374.93
409.30, 1.99, 375.21
409.57, 2.19, 375.51
401.87, 0.27, 366.51
401.98, 0.27, 366.64
402.11, 0.28, 366.78
402.24, 0.28, 366.94
402.39, 0.28, 367.10
402.54, 0.28, 367.28
402.71, 0.28, 367.47
402.88, 0.29, 367.67
403.08, 0.29, 367.89
403.29, 0.30, 368.13
403.51, 0.30, 368.39
403.77, 0.31, 368.69
404.05, 0.32, 369.00
404.76, 0.20, 369.83
405.13, 0.21, 370.25
405.54, 0.22, 370.73
406.01, 0.23, 371.26
406.48, 0.26, 371.80
406.94, 0.31, 372.33
407.47, 0.36, 372.93
407.71, 0.49, 373.20
407.89, 0.63, 373.39
408.07, 0.77, 373.59
408.26, 0.93, 373.79
408.44, 1.09, 373.99
408.63, 1.25, 374.20
¯408.83, 1.42, 374.41
409.04, 1.60, 374.64
409.26, 1.79, 374.87
409.50, 1.98, 375.13
409.77, 2.18, 375.43
401.90, 0.27, 366.46
402.02, 0.27, 366.59
402.15, 0.28, 366.73
402.28, 0.28, 366.89
402.43, 0.28, 367.05
402.59, 0.28, 367.22
402.75, 0.28, 367.41
402.93, 0.29, 367.61
403.12, 0.29, 367.83
403.34, 0.30, 368.06
403.57, 0.30, 368.32
403.82, 0.31, 368.61
404.10, 0.32, 368.92
404.82, 0.20, 369.73
405.19, 0.21, 370.15
405.61, 0.22, 370.61
406.07, 0.23, 371.13
406.53, 0.27, 371.64
407.00, 0.31, 372.16
407.52, 0.37, 372.74
407.89, 0.47, 373.14
408.07, 0.61, 373.33
408.25, 0.76, 373.53
408.43, 0.91, 373.72
408.62, 1.07, 373.92
408.82, 1.24, 374.13
409.02, 1.41, 374.34
409.24, 1.59, 374.57
409.46, 1.77, 374.80
409.69, 1.97, 375.05
409.97, 2.17, 375.35
401.94, 0.27, 366.42
402.06, 0.27, 366.55
402.19, 0.28, 366.69
402.33, 0.28, 366.83
402.47, 0.28, 366.99
402.63, 0.28, 367.17
402.80, 0.28, 367.35
402.98, 0.29, 367.55
403.17, 0.29, 367.76
403.39, 0.30, 367.99
403.62, 0.30, 368.25
403.88, 0.31, 368.53
404.16, 0.32, 368.83
404.88, 0.20, 369.63
405.25, 0.21, 370.04
¯405.67, 0.22, 370.49
406.14, 0.23, 371.00
406.58, 0.27, 371.48
407.05, 0.32, 371.99
407.57, 0.37, 372.56
408.06, 0.45, 373.09
408.24, 0.59, 373.28
408.42, 0.74, 373.46
408.61, 0.90, 373.66
408.81, 1.06, 373.86
409.01, 1.22, 374.06
409.22, 1.40, 374.28
409.43, 1.58, 374.50
409.66, 1.76, 374.73
409.89, 1.96, 374.98
410.18, 2.16, 375.27
401.98, 0.27, 366.37
402.10, 0.27, 366.50
402.23, 0.28, 366.64
402.37, 0.28, 366.78
402.51, 0.28, 366.94
402.67, 0.28, 367.11
402.84, 0.29, 367.29
403.02, 0.29, 367.48
403.22, 0.29, 367.69
403.43, 0.30, 367.92
403.67, 0.30, 368.17
403.93, 0.31, 368.45
404.21, 0.32, 368.75
404.53, 0.32, 369.08
405.32, 0.21, 369.93
405.74, 0.22, 370.38
406.21, 0.24, 370.88
406.65, 0.27, 371.35
407.11, 0.32, 371.84
407.63, 0.38, 372.38
408.21, 0.44, 373.00
408.40, 0.58, 373.20
408.59, 0.73, 373.38
408.78, 0.88, 373.57
408.98, 1.05, 373.77
409.18, 1.21, 373.98
409.40, 1.38, 374.20
409.62, 1.56, 374.42
409.85, 1.75, 374.65
410.09, 1.95, 374.89
410.37, 2.15, 375.18
402.02, 0.27, 366.32
402.14, 0.27, 366.45
402.27, 0.28, 366.59
402.41, 0.28, 366.73
¯402.55, 0.28, 366.89
402.71, 0.28, 367.05
402.88, 0.29, 367.23
403.07, 0.29, 367.42
403.27, 0.29, 367.62
403.48, 0.30, 367.85
403.72, 0.30, 368.10
403.98, 0.31, 368.37
404.27, 0.32, 368.66
404.58, 0.33, 368.99
405.38, 0.21, 369.83
405.80, 0.22, 370.27
406.27, 0.24, 370.76
406.72, 0.27, 371.22
407.18, 0.32, 371.70
407.70, 0.38, 372.23
408.24, 0.45, 372.79
408.51, 0.57, 373.06
408.70, 0.72, 373.25
408.89, 0.88, 373.44
409.09, 1.04, 373.63
409.30, 1.20, 373.84
409.52, 1.38, 374.05
409.74, 1.56, 374.27
409.98, 1.74, 374.50
410.23, 1.94, 374.75
410.53, 2.14, 375.05
402.05, 0.27, 366.28
402.17, 0.27, 366.40
402.30, 0.28, 366.54
402.44, 0.28, 366.68
402.60, 0.28, 366.83
402.76, 0.28, 366.99
402.93, 0.29, 367.17
403.11, 0.29, 367.35
403.31, 0.29, 367.56
403.53, 0.30, 367.78
403.77, 0.30, 368.02
404.03, 0.31, 368.29
404.32, 0.32, 368.58
404.64, 0.33, 368.90
405.44, 0.21, 369.73
405.86, 0.22, 370.15
406.33, 0.24, 370.62
406.79, 0.27, 371.09
407.25, 0.32, 371.56
407.78, 0.38, 372.08
408.27, 0.45, 372.58
408.56, 0.58, 372.86
408.81, 0.72, 373.11
409.01, 0.87, 373.30
¯409.21, 1.03, 373.49
409.42, 1.20, 373.69
409.64, 1.37, 373.90
409.86, 1.55, 374.12
410.10, 1.73, 374.34
410.38, 1.93, 374.62
410.69, 2.13, 374.91
402.09, 0.27, 366.23
402.21, 0.27, 366.35
402.34, 0.28, 366.49
402.48, 0.28, 366.63
402.64, 0.28, 366.78
402.80, 0.28, 366.94
402.97, 0.29, 367.11
403.15, 0.29, 367.29
403.36, 0.30, 367.49
403.58, 0.30, 367.71
403.82, 0.30, 367.95
404.08, 0.31, 368.21
404.37, 0.32, 368.49
404.69, 0.33, 368.81
405.05, 0.33, 369.16
405.93, 0.22, 370.04
406.38, 0.24, 370.49
406.84, 0.28, 370.94
407.32, 0.32, 371.42
407.85, 0.37, 371.93
408.31, 0.46, 372.38
408.59, 0.58, 372.65
408.88, 0.71, 372.93
409.12, 0.86, 373.16
409.33, 1.02, 373.35
409.54, 1.19, 373.55
409.76, 1.36, 373.75
409.99, 1.54, 373.97
410.24, 1.72, 374.20
410.53, 1.92, 374.48
410.84, 2.12, 374.78
402.12, 0.27, 366.19
402.25, 0.27, 366.31
402.38, 0.28, 366.44
402.52, 0.28, 366.57
402.67, 0.28, 366.72
402.84, 0.28, 366.88
403.01, 0.29, 367.04
403.20, 0.29, 367.23
403.40, 0.30, 367.42
403.62, 0.30, 367.64
403.87, 0.30, 367.87
404.13, 0.31, 368.13
404.42, 0.32, 368.41
¯404.74, 0.33, 368.72
405.10, 0.34, 369.06
405.99, 0.22, 369.93
406.44, 0.24, 370.36
406.90, 0.28, 370.80
407.39, 0.32, 371.28
407.92, 0.37, 371.79
408.34, 0.46, 372.18
408.62, 0.59, 372.44
408.91, 0.72, 372.72
409.22, 0.86, 373.01
409.44, 1.01, 373.21
409.65, 1.18, 373.40
409.88, 1.35, 373.61
410.11, 1.53, 373.82
410.38, 1.71, 374.07
410.68, 1.91, 374.35
411.00, 2.11, 374.64
402.15, 0.27, 366.14
402.28, 0.27, 366.26
402.41, 0.28, 366.38
402.56, 0.28, 366.52
402.71, 0.28, 366.66
402.88, 0.28, 366.82
403.05, 0.29, 366.98
403.24, 0.29, 367.16
403.44, 0.30, 367.35
403.67, 0.30, 367.57
403.91, 0.30, 367.80
404.18, 0.31, 368.05
404.47, 0.32, 368.32
404.79, 0.33, 368.63
405.15, 0.34, 368.96
406.05, 0.22, 369.82
406.49, 0.25, 370.23
406.95, 0.28, 370.66
407.46, 0.32, 371.14
407.99, 0.37, 371.64
408.37, 0.47, 371.99
408.64, 0.59, 372.24
408.94, 0.72, 372.50
409.24, 0.86, 372.79
409.55, 1.01, 373.07
409.77, 1.17, 373.26
409.99, 1.34, 373.46
410.24, 1.52, 373.68
410.53, 1.70, 373.94
410.83, 1.90, 374.21
411.15, 2.10, 374.50
402.19, 0.27, 366.09
402.31, 0.28, 366.21
¯402.45, 0.28, 366.33
402.59, 0.28, 366.47
402.75, 0.28, 366.61
402.91, 0.28, 366.76
403.09, 0.29, 366.92
403.28, 0.29, 367.10
403.48, 0.30, 367.28
403.71, 0.30, 367.49
403.96, 0.31, 367.72
404.23, 0.31, 367.96
404.52, 0.32, 368.23
404.84, 0.33, 368.53
405.21, 0.34, 368.87
405.61, 0.35, 369.24
406.54, 0.25, 370.10
407.00, 0.28, 370.52
407.52, 0.32, 371.00
408.06, 0.37, 371.49
408.40, 0.47, 371.80
408.67, 0.60, 372.04
408.96, 0.72, 372.30
409.27, 0.86, 372.57
409.59, 1.01, 372.86
409.89, 1.16, 373.12
410.11, 1.33, 373.31
410.38, 1.51, 373.55
410.68, 1.69, 373.81
410.98, 1.88, 374.08
411.31, 2.09, 374.36
402.22, 0.27, 366.04
402.35, 0.28, 366.16
402.48, 0.28, 366.28
402.63, 0.28, 366.41
402.79, 0.28, 366.55
402.95, 0.28, 366.70
403.13, 0.29, 366.86
403.32, 0.29, 367.03
403.53, 0.30, 367.22
403.76, 0.30, 367.42
404.00, 0.31, 367.64
404.27, 0.31, 367.88
404.57, 0.32, 368.15
404.89, 0.33, 368.44
405.26, 0.34, 368.77
405.66, 0.35, 369.13
406.59, 0.25, 369.97
407.05, 0.28, 370.38
407.57, 0.32, 370.85
408.13, 0.37, 371.34
408.43, 0.48, 371.61
408.70, 0.60, 371.84
¯408.99, 0.73, 372.09
409.29, 0.86, 372.36
409.61, 1.01, 372.63
409.95, 1.16, 372.93
410.25, 1.32, 373.18
410.53, 1.50, 373.42
410.83, 1.68, 373.68
411.15, 1.87, 373.96
411.49, 2.08, 374.24
402.25, 0.27, 366.00
402.38, 0.28, 366.11
402.52, 0.28, 366.23
402.67, 0.28, 366.36
402.82, 0.28, 366.50
402.99, 0.28, 366.64
403.17, 0.29, 366.80
403.36, 0.29, 366.96
403.57, 0.30, 367.15
403.80, 0.30, 367.35
404.05, 0.31, 367.57
404.32, 0.31, 367.80
404.61, 0.32, 368.06
404.94, 0.33, 368.35
405.31, 0.34, 368.67
405.72, 0.35, 369.03
406.64, 0.25, 369.84
407.10, 0.29, 370.25
407.62, 0.32, 370.70
408.19, 0.37, 371.19
408.46, 0.48, 371.42
408.73, 0.60, 371.65
409.02, 0.73, 371.90
409.35, 0.86, 372.18
409.70, 1.00, 372.47
410.07, 1.15, 372.79
410.42, 1.31, 373.08
410.71, 1.49, 373.33
411.02, 1.67, 373.59
411.35, 1.86, 373.86
411.69, 2.07, 374.15
402.28, 0.27, 365.95
402.41, 0.28, 366.06
402.55, 0.28, 366.18
402.70, 0.28, 366.30
402.86, 0.28, 366.44
403.02, 0.28, 366.58
403.20, 0.29, 366.73
403.40, 0.29, 366.90
403.61, 0.30, 367.08
403.84, 0.30, 367.28
404.09, 0.31, 367.49
¯404.36, 0.31, 367.72
404.66, 0.32, 367.98
404.99, 0.33, 368.26
405.36, 0.34, 368.57
405.77, 0.35, 368.92
406.18, 0.37, 369.27
407.15, 0.29, 370.11
407.67, 0.33, 370.55
408.24, 0.37, 371.04
408.56, 0.47, 371.30
408.86, 0.59, 371.55
409.18, 0.72, 371.81
409.51, 0.85, 372.09
409.87, 0.99, 372.39
410.24, 1.14, 372.69
410.59, 1.30, 372.98
410.90, 1.47, 373.24
411.22, 1.66, 373.50
411.55, 1.85, 373.77
411.90, 2.06, 374.05
402.31, 0.27, 365.90
402.45, 0.28, 366.01
402.58, 0.28, 366.12
402.73, 0.28, 366.25
402.89, 0.28, 366.38
403.06, 0.29, 366.52
403.24, 0.29, 366.67
403.43, 0.29, 366.83
403.65, 0.30, 367.01
403.88, 0.30, 367.20
404.13, 0.31, 367.41
404.40, 0.31, 367.64
404.70, 0.32, 367.89
405.03, 0.33, 368.16
405.40, 0.34, 368.47
405.81, 0.35, 368.81
406.22, 0.37, 369.15
407.19, 0.29, 369.97
407.71, 0.33, 370.39
408.28, 0.37, 370.87
408.70, 0.46, 371.22
409.01, 0.58, 371.46
409.33, 0.70, 371.72
409.67, 0.83, 372.00
410.04, 0.97, 372.29
410.39, 1.12, 372.58
410.74, 1.29, 372.86
411.09, 1.46, 373.14
411.42, 1.65, 373.40
411.76, 1.84, 373.67
412.12, 2.05, 373.96
¯402.34, 0.27, 365.85
402.48, 0.28, 365.96
402.62, 0.28, 366.07
402.77, 0.28, 366.19
402.93, 0.28, 366.32
403.09, 0.29, 366.46
403.28, 0.29, 366.61
403.47, 0.29, 366.77
403.69, 0.30, 366.94
403.92, 0.30, 367.13
404.17, 0.31, 367.33
404.45, 0.31, 367.56
404.75, 0.32, 367.80
405.08, 0.33, 368.07
405.45, 0.34, 368.37
405.85, 0.35, 368.70
406.27, 0.37, 369.03
407.23, 0.29, 369.83
407.75, 0.33, 370.24
408.31, 0.38, 370.70
408.85, 0.45, 371.13
409.16, 0.56, 371.37
409.49, 0.69, 371.63
409.84, 0.82, 371.91
410.20, 0.96, 372.20
410.54, 1.11, 372.47
410.90, 1.27, 372.75
411.29, 1.45, 373.05
411.62, 1.63, 373.31
411.96, 1.83, 373.58
412.43, 2.04, 373.94
402.37, 0.27, 365.80
402.51, 0.28, 365.91
402.65, 0.28, 366.02
402.80, 0.28, 366.14
402.96, 0.28, 366.26
403.13, 0.29, 366.40
403.31, 0.29, 366.54
403.51, 0.29, 366.70
403.73, 0.30, 366.87
403.96, 0.30, 367.06
404.21, 0.31, 367.26
404.49, 0.31, 367.47
404.79, 0.32, 367.71
405.12, 0.33, 367.98
405.49, 0.34, 368.27
405.90, 0.35, 368.59
406.31, 0.37, 368.92
406.77, 0.40, 369.28
407.78, 0.33, 370.09
408.35, 0.38, 370.53
¯408.93, 0.44, 370.99
409.31, 0.55, 371.29
409.65, 0.67, 371.54
410.00, 0.80, 371.82
410.35, 0.95, 372.09
410.70, 1.10, 372.35
411.06, 1.26, 372.63
411.45, 1.44, 372.93
411.82, 1.62, 373.21
412.20, 1.82, 373.50
412.76, 2.03, 373.93
402.40, 0.27, 365.75
402.54, 0.28, 365.86
402.68, 0.28, 365.97
402.83, 0.28, 366.08
402.99, 0.28, 366.21
403.16, 0.29, 366.34
403.34, 0.29, 366.48
403.54, 0.29, 366.63
403.76, 0.30, 366.80
404.00, 0.30, 366.98
404.25, 0.31, 367.18
404.53, 0.31, 367.39
404.83, 0.32, 367.63
405.17, 0.33, 367.89
405.54, 0.34, 368.17
405.94, 0.35, 368.48
406.35, 0.37, 368.80
406.81, 0.40, 369.16
407.82, 0.34, 369.94
408.38, 0.38, 370.37
408.96, 0.44, 370.81
409.46, 0.53, 371.20
409.80, 0.66, 371.45
410.17, 0.79, 371.73
410.50, 0.93, 371.97
410.85, 1.09, 372.24
411.22, 1.25, 372.52
411.62, 1.42, 372.81
412.02, 1.61, 373.11
412.51, 1.80, 373.48
413.21, 2.01, 374.00
402.43, 0.27, 365.70
402.57, 0.28, 365.80
402.71, 0.28, 365.91
402.86, 0.28, 366.03
403.02, 0.28, 366.15
403.19, 0.29, 366.28
403.38, 0.29, 366.42
403.58, 0.29, 366.57
403.80, 0.30, 366.73
¯404.03, 0.30, 366.91
404.29, 0.31, 367.10
404.57, 0.31, 367.31
404.87, 0.32, 367.54
405.21, 0.33, 367.79
405.58, 0.34, 368.07
405.98, 0.35, 368.37
406.39, 0.38, 368.68
406.85, 0.40, 369.03
407.86, 0.34, 369.79
408.41, 0.39, 370.20
408.99, 0.45, 370.64
409.62, 0.52, 371.11
409.96, 0.64, 371.36
410.31, 0.78, 371.61
410.65, 0.92, 371.86
411.01, 1.08, 372.12
411.39, 1.24, 372.40
411.80, 1.41, 372.70
412.44, 1.59, 373.17
413.15, 1.78, 373.70
413.94, 2.00, 374.28
402.46, 0.27, 365.65
402.59, 0.28, 365.75
402.74, 0.28, 365.86
402.89, 0.28, 365.97
403.05, 0.28, 366.09
403.23, 0.29, 366.22
403.41, 0.29, 366.35
403.61, 0.29, 366.50
403.83, 0.30, 366.66
404.07, 0.30, 366.84
404.33, 0.31, 367.02
404.60, 0.31, 367.23
404.91, 0.32, 367.45
405.25, 0.33, 367.70
405.62, 0.34, 367.98
406.02, 0.35, 368.27
406.43, 0.38, 368.57
406.89, 0.40, 368.91
407.37, 0.44, 369.25
408.44, 0.39, 370.04
409.01, 0.45, 370.46
409.66, 0.52, 370.93
410.13, 0.63, 371.27
410.46, 0.76, 371.50
410.80, 0.91, 371.75
411.19, 1.06, 372.02
411.61, 1.22, 372.32
412.05, 1.40, 372.64
413.10, 1.56, 373.40
¯413.87, 1.76, 373.96
414.34, 1.99, 374.29
402.49, 0.27, 365.60
402.62, 0.28, 365.70
402.77, 0.28, 365.80
402.92, 0.28, 365.92
403.08, 0.28, 366.03
403.26, 0.29, 366.15
403.44, 0.29, 366.29
403.65, 0.29, 366.43
403.87, 0.30, 366.59
404.11, 0.30, 366.76
404.36, 0.31, 366.95
404.64, 0.31, 367.15
404.95, 0.32, 367.37
405.29, 0.33, 367.61
405.66, 0.34, 367.88
406.06, 0.35, 368.16
406.47, 0.38, 368.45
406.93, 0.40, 368.78
407.40, 0.44, 369.12
408.46, 0.39, 369.88
409.04, 0.45, 370.29
409.68, 0.52, 370.75
410.28, 0.61, 371.17
410.64, 0.75, 371.42
411.02, 0.89, 371.68
411.42, 1.04, 371.96
411.85, 1.20, 372.26
413.05, 1.34, 373.11
413.81, 1.53, 373.64
414.31, 1.75, 373.99
414.68, 1.98, 374.24
402.51, 0.27, 365.55
402.65, 0.28, 365.65
402.80, 0.28, 365.75
402.95, 0.28, 365.86
403.11, 0.28, 365.97
403.29, 0.29, 366.09
403.47, 0.29, 366.22
403.68, 0.29, 366.37
403.90, 0.30, 366.52
404.14, 0.30, 366.69
404.40, 0.31, 366.87
404.68, 0.31, 367.06
404.99, 0.32, 367.28
405.33, 0.33, 367.51
405.70, 0.34, 367.78
406.09, 0.35, 368.05
406.51, 0.38, 368.34
406.96, 0.41, 368.65
¯407.44, 0.44, 368.98
407.97, 0.49, 369.35
409.06, 0.45, 370.12
409.72, 0.52, 370.57
410.49, 0.59, 371.10
410.86, 0.72, 371.35
411.25, 0.87, 371.62
411.66, 1.02, 371.90
412.10, 1.19, 372.20
413.74, 1.30, 373.33
414.28, 1.51, 373.69
414.64, 1.73, 373.94
415.03, 1.97, 374.19
402.54, 0.27, 365.50
402.68, 0.28, 365.60
402.82, 0.28, 365.70
402.98, 0.28, 365.80
403.14, 0.28, 365.91
403.32, 0.29, 366.03
403.50, 0.29, 366.16
403.71, 0.29, 366.30
403.94, 0.30, 366.45
404.17, 0.30, 366.61
404.43, 0.31, 366.79
404.71, 0.31, 366.98
405.02, 0.32, 367.19
405.36, 0.33, 367.42
405.74, 0.34, 367.68
406.13, 0.36, 367.94
406.55, 0.38, 368.22
407.00, 0.41, 368.53
407.47, 0.45, 368.85
408.00, 0.49, 369.20
409.10, 0.46, 369.95
409.77, 0.52, 370.41
410.57, 0.58, 370.95
411.08, 0.70, 371.29
411.48, 0.85, 371.55
411.91, 1.00, 371.83
413.63, 1.09, 373.00
414.25, 1.27, 373.41
414.61, 1.49, 373.64
415.00, 1.72, 373.89
415.41, 1.95, 374.16
402.57, 0.27, 365.45
402.70, 0.28, 365.54
402.85, 0.28, 365.64
403.01, 0.28, 365.75
403.17, 0.28, 365.85
403.35, 0.29, 365.97
403.54, 0.29, 366.10
¯403.74, 0.29, 366.23
403.97, 0.30, 366.38
404.21, 0.30, 366.54
404.46, 0.31, 366.71
404.75, 0.31, 366.90
405.06, 0.32, 367.10
405.40, 0.33, 367.33
405.78, 0.34, 367.58
406.17, 0.36, 367.83
406.58, 0.38, 368.11
407.03, 0.41, 368.40
407.50, 0.45, 368.71
408.03, 0.49, 369.06
409.15, 0.45, 369.81
409.83, 0.51, 370.25
410.63, 0.58, 370.78
411.30, 0.68, 371.22
411.72, 0.83, 371.48
412.36, 0.97, 371.90
414.22, 1.04, 373.13
414.60, 1.25, 373.37
414.99, 1.47, 373.62
415.41, 1.70, 373.88
415.84, 1.94, 374.15
402.59, 0.27, 365.40
402.73, 0.28, 365.49
402.88, 0.28, 365.59
403.03, 0.28, 365.69
403.20, 0.28, 365.79
403.37, 0.29, 365.91
403.56, 0.29, 366.03
403.77, 0.29, 366.17
404.00, 0.30, 366.31
404.24, 0.30, 366.46
404.50, 0.31, 366.63
404.78, 0.31, 366.81
405.09, 0.32, 367.01
405.44, 0.33, 367.24
405.82, 0.34, 367.48
406.20, 0.36, 367.73
406.62, 0.38, 367.99
407.06, 0.41, 368.28
407.53, 0.45, 368.58
408.06, 0.49, 368.92
408.64, 0.54, 369.29
409.88, 0.51, 370.09
410.69, 0.57, 370.61
411.53, 0.66, 371.15
411.96, 0.80, 371.41
413.50, 0.87, 372.41
414.60, 1.02, 373.11
¯414.99, 1.23, 373.35
415.40, 1.45, 373.60
415.83, 1.68, 373.86
417.19, 1.92, 374.73
402.61, 0.27, 365.35
402.75, 0.28, 365.44
402.90, 0.28, 365.53
403.06, 0.28, 365.63
403.22, 0.28, 365.73
403.40, 0.29, 365.85
403.59, 0.29, 365.97
403.80, 0.29, 366.10
404.03, 0.30, 366.24
404.27, 0.30, 366.39
404.53, 0.31, 366.55
404.81, 0.31, 366.73
405.13, 0.32, 366.93
405.47, 0.33, 367.14
405.85, 0.34, 367.38
406.23, 0.36, 367.62
406.65, 0.38, 367.88
407.09, 0.41, 368.15
407.56, 0.45, 368.45
408.08, 0.49, 368.77
408.67, 0.54, 369.14
409.93, 0.51, 369.93
410.75, 0.57, 370.44
411.72, 0.64, 371.05
412.63, 0.74, 371.61
413.60, 0.87, 372.22
414.99, 0.99, 373.08
415.39, 1.20, 373.32
415.82, 1.43, 373.58
417.12, 1.64, 374.38
419.02, 1.89, 375.56
402.64, 0.27, 365.30
402.78, 0.28, 365.39
402.93, 0.28, 365.48
403.08, 0.28, 365.57
403.25, 0.28, 365.67
403.43, 0.29, 365.78
403.62, 0.29, 365.90
403.83, 0.29, 366.03
404.06, 0.30, 366.17
404.30, 0.30, 366.31
404.56, 0.31, 366.47
404.85, 0.31, 366.65
405.16, 0.32, 366.84
405.50, 0.33, 367.05
405.89, 0.34, 367.28
406.26, 0.36, 367.51
¯406.68, 0.38, 367.77
407.11, 0.41, 368.03
407.59, 0.45, 368.31
408.11, 0.49, 368.63
408.70, 0.54, 368.99
409.36, 0.59, 369.39
410.80, 0.57, 370.27
411.78, 0.64, 370.87
412.72, 0.73, 371.44
413.70, 0.86, 372.03
415.39, 0.96, 373.05
415.81, 1.18, 373.30
416.99, 1.38, 374.01
417.81, 1.62, 374.50
419.62, 1.88, 375.59
402.66, 0.27, 365.25
402.80, 0.28, 365.33
402.95, 0.28, 365.42
403.11, 0.28, 365.52
403.28, 0.28, 365.61
403.45, 0.29, 365.72
403.65, 0.29, 365.84
403.86, 0.29, 365.96
404.09, 0.30, 366.10
404.33, 0.30, 366.24
404.59, 0.31, 366.39
404.88, 0.31, 366.56
405.19, 0.32, 366.75
405.54, 0.33, 366.96
405.92, 0.34, 367.18
406.30, 0.36, 367.40
406.71, 0.38, 367.65
407.14, 0.41, 367.90
407.61, 0.45, 368.18
408.14, 0.49, 368.49
408.72, 0.54, 368.84
409.39, 0.59, 369.23
410.86, 0.56, 370.11
411.82, 0.63, 370.67
412.81, 0.73, 371.26
413.80, 0.85, 371.83
415.60, 0.94, 372.90
416.53, 1.14, 373.44
417.30, 1.36, 373.89
418.24, 1.60, 374.43
402.68, 0.27, 365.20
402.82, 0.28, 365.28
402.97, 0.28, 365.37
403.13, 0.28, 365.46
403.30, 0.28, 365.55
403.48, 0.29, 365.66
¯403.68, 0.29, 365.77
403.89, 0.29, 365.89
404.11, 0.30, 366.02
404.36, 0.30, 366.16
404.62, 0.31, 366.32
404.91, 0.31, 366.48
405.22, 0.32, 366.66
405.57, 0.33, 366.86
405.95, 0.34, 367.08
406.33, 0.36, 367.30
406.74, 0.38, 367.54
407.17, 0.42, 367.78
407.64, 0.45, 368.05
408.16, 0.49, 368.35
408.75, 0.54, 368.69
409.41, 0.59, 369.07
410.91, 0.56, 369.94
411.84, 0.63, 370.47
412.90, 0.72, 371.08
413.89, 0.84, 371.64
415.74, 0.93, 372.71
416.82, 1.12, 373.32
417.60, 1.34, 373.76
418.78, 1.58, 374.43
402.71, 0.27, 365.15
402.85, 0.28, 365.23
403.00, 0.28, 365.31
403.16, 0.28, 365.40
403.32, 0.28, 365.49
403.50, 0.29, 365.60
403.70, 0.29, 365.71
403.92, 0.29, 365.83
404.14, 0.30, 365.95
404.38, 0.30, 366.09
404.65, 0.31, 366.24
404.94, 0.31, 366.40
405.25, 0.32, 366.57
405.60, 0.33, 366.77
405.98, 0.34, 366.98
406.35, 0.36, 367.19
406.77, 0.38, 367.42
407.19, 0.42, 367.66
407.66, 0.45, 367.92
408.19, 0.49, 368.21
408.77, 0.54, 368.54
409.43, 0.59, 368.91
410.24, 0.64, 369.36
411.85, 0.63, 370.27
412.91, 0.72, 370.86
413.99, 0.83, 371.45
415.70, 0.93, 372.41
¯417.11, 1.10, 373.19
417.92, 1.32, 373.64
419.35, 1.56, 374.42
402.73, 0.28, 365.10
402.87, 0.28, 365.17
403.02, 0.28, 365.26
403.18, 0.28, 365.34
403.35, 0.28, 365.43
403.53, 0.29, 365.53
403.73, 0.29, 365.64
403.94, 0.29, 365.76
404.17, 0.30, 365.88
404.41, 0.30, 366.01
404.68, 0.31, 366.16
404.96, 0.31, 366.31
405.28, 0.32, 366.49
405.63, 0.33, 366.68
406.00, 0.34, 366.88
406.38, 0.36, 367.09
406.79, 0.39, 367.31
407.22, 0.42, 367.54
407.69, 0.45, 367.79
408.21, 0.50, 368.08
408.79, 0.54, 368.39
409.46, 0.59, 368.75
410.26, 0.64, 369.18
411.87, 0.63, 370.07
412.93, 0.72, 370.64
414.10, 0.82, 371.27
415.66, 0.93, 372.12
417.41, 1.08, 373.06
418.41, 1.30, 373.60
419.63, 1.54, 374.25
402.75, 0.28, 365.04
402.89, 0.28, 365.12
403.04, 0.28, 365.20
403.20, 0.28, 365.28
403.37, 0.28, 365.37
403.55, 0.29, 365.47
403.75, 0.29, 365.58
403.97, 0.29, 365.69
404.19, 0.30, 365.81
404.44, 0.30, 365.94
404.70, 0.31, 366.08
404.99, 0.31, 366.23
405.31, 0.32, 366.40
405.66, 0.33, 366.58
406.03, 0.34, 366.78
406.41, 0.36, 366.98
406.81, 0.39, 367.19
407.24, 0.42, 367.42
¯407.71, 0.46, 367.66
408.23, 0.50, 367.94
408.81, 0.54, 368.24
409.48, 0.59, 368.59
410.28, 0.64, 369.01
411.89, 0.63, 369.87
412.94, 0.72, 370.42
414.16, 0.81, 371.06
415.62, 0.93, 371.83
417.39, 1.07, 372.76
418.73, 1.28, 373.46
419.92, 1.52, 374.08
402.77, 0.28, 364.99
402.91, 0.28, 365.07
403.06, 0.28, 365.14
403.22, 0.28, 365.23
403.39, 0.28, 365.31
403.58, 0.29, 365.41
403.78, 0.29, 365.51
403.99, 0.29, 365.62
404.22, 0.30, 365.74
404.46, 0.30, 365.86
404.73, 0.31, 366.00
405.02, 0.31, 366.15
405.34, 0.32, 366.31
405.68, 0.33, 366.49
406.06, 0.34, 366.68
406.44, 0.36, 366.87
406.84, 0.39, 367.08
407.26, 0.42, 367.30
407.73, 0.46, 367.54
408.25, 0.50, 367.80
408.83, 0.54, 368.10
409.49, 0.59, 368.44
410.29, 0.64, 368.84
411.16, 0.71, 369.29
412.95, 0.71, 370.21
414.15, 0.81, 370.82
415.58, 0.93, 371.55
417.33, 1.07, 372.44
418.99, 1.26, 373.29
420.38, 1.50, 373.99
402.79, 0.28, 364.94
402.93, 0.28, 365.01
403.08, 0.28, 365.09
403.24, 0.28, 365.17
403.41, 0.28, 365.25
403.60, 0.29, 365.34
403.80, 0.29, 365.44
404.01, 0.29, 365.55
404.24, 0.30, 365.66
¯404.49, 0.30, 365.79
404.75, 0.31, 365.92
405.04, 0.31, 366.06
405.36, 0.32, 366.22
405.71, 0.33, 366.40
406.08, 0.34, 366.58
406.46, 0.36, 366.77
406.86, 0.39, 366.97
407.29, 0.42, 367.18
407.75, 0.46, 367.41
408.27, 0.50, 367.67
408.85, 0.54, 367.95
409.51, 0.59, 368.28
410.30, 0.64, 368.67
411.17, 0.71, 369.10
412.96, 0.71, 369.99
414.14, 0.81, 370.58
415.54, 0.93, 371.27
417.27, 1.07, 372.13
419.26, 1.24, 373.11
420.82, 1.48, 373.87
402.81, 0.28, 364.89
402.95, 0.28, 364.96
403.10, 0.28, 365.03
403.26, 0.28, 365.11
403.43, 0.28, 365.19
403.62, 0.29, 365.28
403.82, 0.29, 365.38
404.04, 0.29, 365.48
404.26, 0.30, 365.59
404.51, 0.30, 365.71
404.78, 0.31, 365.84
405.07, 0.31, 365.98
405.39, 0.32, 366.13
405.74, 0.33, 366.30
406.11, 0.34, 366.48
406.49, 0.36, 366.66
406.88, 0.39, 366.85
407.31, 0.42, 367.06
407.77, 0.46, 367.28
408.29, 0.50, 367.53
408.87, 0.54, 367.81
409.53, 0.59, 368.12
410.32, 0.64, 368.50
411.18, 0.71, 368.92
412.17, 0.79, 369.39
414.13, 0.81, 370.34
415.51, 0.93, 371.00
417.21, 1.06, 371.82
419.31, 1.23, 372.82
421.04, 1.47, 373.65
¯402.82, 0.27, 364.84
402.97, 0.28, 364.90
403.12, 0.28, 364.98
403.28, 0.28, 365.05
403.45, 0.28, 365.13
403.64, 0.29, 365.22
403.84, 0.29, 365.31
404.06, 0.29, 365.41
404.29, 0.30, 365.52
404.53, 0.30, 365.64
404.80, 0.31, 365.76
405.09, 0.31, 365.90
405.41, 0.32, 366.05
405.76, 0.33, 366.21
406.13, 0.34, 366.38
406.51, 0.36, 366.56
406.90, 0.39, 366.74
407.33, 0.42, 366.94
407.79, 0.46, 367.16
408.31, 0.50, 367.40
408.88, 0.54, 367.66
409.55, 0.59, 367.97
410.33, 0.65, 368.33
411.18, 0.71, 368.73
412.16, 0.79, 369.19
414.12, 0.81, 370.10
415.49, 0.93, 370.74
417.16, 1.06, 371.52
419.22, 1.23, 372.48
421.26, 1.45, 373.42
402.84, 0.27, 364.78
402.99, 0.28, 364.85
403.14, 0.28, 364.92
403.30, 0.28, 364.99
403.47, 0.28, 365.07
403.66, 0.29, 365.15
403.86, 0.29, 365.25
404.08, 0.29, 365.34
404.31, 0.30, 365.45
404.56, 0.30, 365.56
404.82, 0.31, 365.68
405.12, 0.31, 365.81
405.43, 0.32, 365.96
405.79, 0.33, 366.12
406.15, 0.34, 366.28
406.53, 0.36, 366.45
406.92, 0.39, 366.63
407.35, 0.42, 366.82
407.81, 0.46, 367.03
408.33, 0.50, 367.26
408.90, 0.54, 367.52
¯409.56, 0.59, 367.82
410.34, 0.65, 368.17
411.19, 0.71, 368.55
412.16, 0.79, 368.99
414.11, 0.81, 369.87
415.46, 0.92, 370.48
417.10, 1.06, 371.22
419.13, 1.22, 372.13
421.48, 1.43, 373.19
402.86, 0.27, 364.73
403.00, 0.28, 364.79
403.16, 0.28, 364.86
403.32, 0.28, 364.93
403.49, 0.28, 365.01
403.68, 0.29, 365.09
403.88, 0.29, 365.18
404.10, 0.29, 365.28
404.33, 0.30, 365.38
404.58, 0.30, 365.48
404.84, 0.31, 365.60
405.14, 0.31, 365.73
405.46, 0.32, 365.87
405.81, 0.33, 366.02
406.17, 0.34, 366.18
406.55, 0.36, 366.35
406.94, 0.39, 366.52
407.36, 0.42, 366.70
407.83, 0.46, 366.90
408.34, 0.50, 367.13
408.91, 0.54, 367.38
409.58, 0.59, 367.67
410.34, 0.65, 368.00
411.19, 0.71, 368.37
412.16, 0.79, 368.79
413.26, 0.88, 369.27
415.43, 0.92, 370.22
417.04, 1.06, 370.92
419.03, 1.22, 371.79
421.56, 1.42, 372.89
402.88, 0.27, 364.68
403.02, 0.28, 364.74
403.18, 0.28, 364.81
403.34, 0.28, 364.87
403.51, 0.28, 364.95
403.70, 0.29, 365.03
403.90, 0.29, 365.11
404.12, 0.29, 365.21
404.35, 0.30, 365.30
404.60, 0.30, 365.41
404.87, 0.31, 365.52
405.16, 0.31, 365.65
¯405.48, 0.32, 365.78
405.83, 0.33, 365.93
406.20, 0.34, 366.08
406.57, 0.36, 366.24
406.96, 0.39, 366.41
407.38, 0.42, 366.58
407.84, 0.46, 366.78
408.36, 0.50, 367.00
408.93, 0.54, 367.24
409.59, 0.59, 367.51
410.35, 0.65, 367.84
411.20, 0.71, 368.19
412.16, 0.78, 368.60
413.25, 0.87, 369.06
415.39, 0.92, 369.96
416.99, 1.06, 370.64
418.93, 1.22, 371.45
421.41, 1.42, 372.50
402.89, 0.27, 364.63
403.04, 0.28, 364.69
403.19, 0.28, 364.75
403.35, 0.28, 364.81
403.53, 0.28, 364.89
403.72, 0.29, 364.96
403.92, 0.29, 365.05
404.14, 0.29, 365.14
404.37, 0.30, 365.23
404.62, 0.30, 365.33
404.89, 0.31, 365.44
405.18, 0.31, 365.56
405.50, 0.32, 365.69
405.85, 0.33, 365.84
406.21, 0.34, 365.99
406.59, 0.36, 366.14
406.97, 0.39, 366.30
407.40, 0.42, 366.47
407.86, 0.46, 366.66
408.37, 0.50, 366.86
408.94, 0.54, 367.10
409.60, 0.59, 367.36
410.36, 0.65, 367.67
411.20, 0.71, 368.02
412.15, 0.78, 368.40
413.24, 0.87, 368.84
415.35, 0.92, 369.71
416.93, 1.05, 370.35
418.83, 1.22, 371.12
421.26, 1.41, 372.11
402.91, 0.27, 364.57
403.05, 0.28, 364.63
403.21, 0.28, 364.69
¯403.37, 0.28, 364.76
403.55, 0.28, 364.83
403.74, 0.29, 364.90
403.94, 0.29, 364.98
404.16, 0.29, 365.07
404.39, 0.30, 365.16
404.64, 0.30, 365.26
404.90, 0.31, 365.36
405.20, 0.31, 365.48
405.52, 0.32, 365.61
405.87, 0.33, 365.74
406.23, 0.34, 365.89
406.60, 0.36, 366.03
406.99, 0.39, 366.18
407.41, 0.42, 366.35
407.87, 0.46, 366.53
408.39, 0.50, 366.73
408.96, 0.54, 366.96
409.61, 0.59, 367.21
410.36, 0.64, 367.51
411.20, 0.71, 367.84
412.15, 0.78, 368.21
413.22, 0.87, 368.63
414.45, 0.98, 369.11
416.88, 1.05, 370.07
418.74, 1.21, 370.80
421.12, 1.41, 371.74
402.92, 0.27, 364.52
403.07, 0.28, 364.58
403.22, 0.28, 364.63
403.39, 0.28, 364.70
403.56, 0.28, 364.76
403.75, 0.29, 364.84
403.96, 0.29, 364.91
404.17, 0.29, 365.00
404.40, 0.30, 365.08
404.65, 0.30, 365.18
404.92, 0.31, 365.28
405.22, 0.31, 365.39
405.54, 0.32, 365.52
405.89, 0.33, 365.65
406.25, 0.34, 365.79
406.62, 0.36, 365.93
407.01, 0.39, 366.07
407.43, 0.42, 366.23
407.89, 0.46, 366.41
408.40, 0.50, 366.60
408.97, 0.54, 366.82
409.62, 0.59, 367.07
410.37, 0.64, 367.35
411.20, 0.71, 367.67
¯412.14, 0.78, 368.02
413.21, 0.87, 368.42
414.42, 0.98, 368.88
416.81, 1.05, 369.79
418.64, 1.21, 370.49
420.98, 1.40, 371.37
402.94, 0.27, 364.47
403.08, 0.28, 364.52
403.24, 0.28, 364.58
403.40, 0.28, 364.64
403.58, 0.28, 364.70
403.77, 0.29, 364.77
403.97, 0.29, 364.85
404.19, 0.29, 364.93
404.42, 0.30, 365.01
404.67, 0.30, 365.10
404.94, 0.31, 365.20
405.24, 0.31, 365.31
405.56, 0.32, 365.43
405.91, 0.33, 365.56
406.27, 0.34, 365.69
406.63, 0.36, 365.82
407.02, 0.39, 365.97
407.44, 0.42, 366.12
407.90, 0.46, 366.29
408.41, 0.50, 366.47
408.98, 0.54, 366.68
409.63, 0.59, 366.92
410.37, 0.64, 367.19
411.20, 0.71, 367.49
412.14, 0.78, 367.83
413.19, 0.87, 368.22
414.40, 0.98, 368.65
416.74, 1.05, 369.52
418.55, 1.21, 370.17
420.84, 1.40, 371.01
402.95, 0.27, 364.41
403.10, 0.28, 364.47
403.25, 0.28, 364.52
403.42, 0.28, 364.58
403.59, 0.28, 364.64
403.78, 0.29, 364.71
403.99, 0.29, 364.78
404.21, 0.29, 364.86
404.44, 0.30, 364.94
404.69, 0.30, 365.03
404.96, 0.31, 365.12
405.25, 0.31, 365.23
405.57, 0.32, 365.34
405.93, 0.33, 365.47
406.29, 0.34, 365.59
¯406.65, 0.36, 365.72
407.03, 0.39, 365.86
407.45, 0.42, 366.00
407.91, 0.46, 366.16
408.42, 0.50, 366.34
408.99, 0.54, 366.54
409.64, 0.59, 366.77
410.38, 0.64, 367.03
411.20, 0.71, 367.32
412.13, 0.78, 367.64
413.18, 0.87, 368.01
414.37, 0.97, 368.43
415.74, 1.10, 368.91
418.46, 1.20, 369.87
420.71, 1.39, 370.66
402.96, 0.27, 364.36
403.11, 0.28, 364.41
403.27, 0.28, 364.46
403.43, 0.28, 364.52
403.61, 0.28, 364.58
403.80, 0.29, 364.64
404.00, 0.29, 364.71
404.22, 0.29, 364.79
404.45, 0.29, 364.87
404.70, 0.30, 364.95
404.97, 0.31, 365.04
405.27, 0.31, 365.14
405.59, 0.32, 365.25
405.94, 0.33, 365.37
406.30, 0.34, 365.49
406.66, 0.37, 365.62
407.05, 0.39, 365.75
407.47, 0.42, 365.89
407.93, 0.46, 366.04
408.43, 0.50, 366.21
409.00, 0.54, 366.40
409.65, 0.59, 366.62
410.38, 0.64, 366.87
411.20, 0.71, 367.15
412.12, 0.78, 367.46
413.16, 0.87, 367.81
414.34, 0.97, 368.21
415.70, 1.10, 368.66
418.37, 1.20, 369.57
420.57, 1.39, 370.31
402.97, 0.27, 364.31
403.12, 0.28, 364.36
403.28, 0.28, 364.41
403.44, 0.28, 364.46
403.62, 0.28, 364.52
403.81, 0.28, 364.58
¯404.02, 0.29, 364.65
404.24, 0.29, 364.72
404.47, 0.29, 364.79
404.72, 0.30, 364.88
404.99, 0.31, 364.96
405.28, 0.31, 365.06
405.61, 0.32, 365.17
405.96, 0.33, 365.28
406.32, 0.34, 365.40
406.67, 0.37, 365.51
407.06, 0.39, 365.64
407.48, 0.43, 365.77
407.94, 0.46, 365.92
408.44, 0.50, 366.09
409.01, 0.54, 366.27
409.66, 0.59, 366.48
410.38, 0.64, 366.71
411.20, 0.71, 366.98
412.12, 0.78, 367.28
413.15, 0.87, 367.61
414.32, 0.97, 367.99
415.66, 1.10, 368.42
418.28, 1.20, 369.28
420.45, 1.38, 369.97
402.99, 0.27, 364.25
403.13, 0.28, 364.30
403.29, 0.28, 364.35
403.45, 0.28, 364.40
