žVERSION 0.7
FIELDS x y z
SIZE 8 8 8
TYPE F F F
COUNT 1 1 1
WIDTH 2271
HEIGHT 1
VIEWPOINT 328.11, 7.25, 380.72 1 333.01, 2.49, 361.27
POINTS 2271
DATA ascii
333.53, 0.44, 354.58
333.54, 0.44, 354.27
333.56, 0.44, 353.93
333.57, 0.44, 353.55
333.59, 0.45, 353.14
333.61, 0.45, 352.68
333.63, 0.45, 352.18
333.66, 0.45, 351.60
333.69, 0.45, 350.95
333.72, 0.45, 350.21
333.76, 0.42, 349.19
333.83, 0.33, 347.60
333.88, 0.33, 346.37
333.95, 0.33, 344.92
334.02, 0.33, 343.15
334.12, 0.34, 341.03
334.23, 0.35, 338.38
333.41, 0.43, 355.81
333.42, 0.43, 355.60
333.42, 0.43, 355.37
333.43, 0.44, 355.13
333.44, 0.44, 354.86
333.45, 0.44, 354.57
333.46, 0.44, 354.26
333.47, 0.44, 353.92
333.48, 0.44, 353.55
333.49, 0.45, 353.14
¯333.51, 0.45, 352.68
333.52, 0.45, 352.17
333.54, 0.45, 351.60
333.56, 0.45, 350.95
333.61, 0.31, 349.44
333.63, 0.32, 348.58
333.66, 0.33, 347.59
333.70, 0.33, 346.37
333.75, 0.33, 344.91
333.80, 0.33, 343.14
333.87, 0.34, 341.02
333.95, 0.35, 338.37
333.34, 0.43, 355.81
333.35, 0.43, 355.60
333.35, 0.43, 355.37
333.36, 0.44, 355.12
333.36, 0.44, 354.86
333.37, 0.44, 354.57
333.37, 0.44, 354.26
333.38, 0.44, 353.92
333.38, 0.44, 353.55
333.39, 0.45, 353.13
333.40, 0.45, 352.68
333.41, 0.45, 352.17
333.42, 0.45, 351.59
333.45, 0.31, 350.22
333.46, 0.31, 349.44
333.48, 0.32, 348.58
333.50, 0.33, 347.59
333.52, 0.33, 346.36
333.55, 0.33, 344.90
333.58, 0.33, 343.13
333.62, 0.34, 341.01
333.67, 0.35, 338.36
333.27, 0.43, 355.81
333.28, 0.43, 355.60
333.28, 0.43, 355.37
333.28, 0.44, 355.12
333.28, 0.44, 354.86
333.28, 0.44, 354.57
333.29, 0.44, 354.26
333.29, 0.44, 353.92
333.29, 0.44, 353.54
333.29, 0.45, 353.13
333.30, 0.45, 352.67
333.30, 0.45, 352.17
333.31, 0.31, 350.91
333.31, 0.31, 350.22
333.32, 0.31, 349.44
333.32, 0.32, 348.58
333.33, 0.33, 347.59
¯333.34, 0.33, 346.36
333.35, 0.33, 344.90
333.36, 0.33, 343.13
333.37, 0.34, 341.01
333.39, 0.35, 338.36
333.21, 0.43, 355.81
333.21, 0.43, 355.60
333.21, 0.43, 355.37
333.20, 0.44, 355.12
333.20, 0.44, 354.86
333.20, 0.44, 354.57
333.20, 0.44, 354.26
333.20, 0.44, 353.92
333.19, 0.44, 353.54
333.19, 0.45, 353.13
333.19, 0.45, 352.67
333.18, 0.31, 351.53
333.18, 0.31, 350.91
333.18, 0.31, 350.22
333.17, 0.31, 349.44
333.17, 0.32, 348.58
333.16, 0.33, 347.59
333.15, 0.33, 346.36
333.15, 0.33, 344.90
333.14, 0.33, 343.13
333.12, 0.34, 341.01
333.11, 0.35, 338.36
333.14, 0.43, 355.81
333.14, 0.43, 355.60
333.13, 0.43, 355.37
333.13, 0.44, 355.12
333.12, 0.44, 354.86
333.12, 0.44, 354.57
333.11, 0.44, 354.26
333.11, 0.44, 353.92
333.10, 0.44, 353.55
333.09, 0.45, 353.13
333.07, 0.31, 352.08
333.06, 0.31, 351.53
333.05, 0.31, 350.91
333.04, 0.31, 350.22
333.03, 0.31, 349.44
333.01, 0.32, 348.58
332.99, 0.33, 347.59
332.97, 0.33, 346.37
332.95, 0.33, 344.91
332.91, 0.33, 343.14
332.88, 0.34, 341.02
332.83, 0.35, 338.37
333.07, 0.43, 355.82
333.07, 0.43, 355.60
¯333.06, 0.43, 355.37
333.05, 0.44, 355.13
333.04, 0.44, 354.86
333.04, 0.44, 354.57
333.03, 0.44, 354.26
333.02, 0.44, 353.92
333.00, 0.44, 353.55
332.98, 0.31, 352.58
332.96, 0.31, 352.08
332.94, 0.31, 351.53
332.93, 0.31, 350.92
332.90, 0.31, 350.22
332.88, 0.31, 349.44
332.86, 0.32, 348.58
332.83, 0.33, 347.59
332.79, 0.33, 346.37
332.74, 0.33, 344.91
332.69, 0.33, 343.14
332.63, 0.34, 341.02
332.55, 0.35, 338.37
333.01, 0.43, 355.82
333.00, 0.43, 355.60
332.99, 0.43, 355.38
332.98, 0.44, 355.13
332.97, 0.44, 354.86
332.95, 0.44, 354.58
332.94, 0.44, 354.27
332.93, 0.44, 353.93
332.89, 0.31, 353.03
332.87, 0.31, 352.58
332.85, 0.31, 352.09
332.82, 0.31, 351.54
332.80, 0.31, 350.92
332.77, 0.31, 350.23
332.74, 0.31, 349.45
332.70, 0.32, 348.59
332.66, 0.33, 347.60
332.61, 0.33, 346.38
332.54, 0.33, 344.92
332.47, 0.33, 343.15
332.38, 0.34, 341.03
332.27, 0.35, 338.38
332.23, 2.31, 337.47
332.23, 2.60, 337.47
332.94, 0.43, 355.82
332.93, 0.43, 355.61
332.91, 0.43, 355.38
332.90, 0.44, 355.13
332.89, 0.44, 354.87
332.87, 0.44, 354.58
332.85, 0.44, 354.27
¯332.81, 0.31, 353.44
332.79, 0.31, 353.03
332.76, 0.31, 352.59
332.74, 0.31, 352.09
332.71, 0.31, 351.54
332.67, 0.31, 350.93
332.63, 0.31, 350.24
332.59, 0.31, 349.45
332.54, 0.32, 348.60
332.49, 0.33, 347.61
332.42, 0.33, 346.39
332.34, 0.33, 344.93
332.25, 0.33, 343.16
332.13, 0.34, 341.04
331.99, 0.35, 338.41
331.94, 1.14, 337.49
331.94, 1.44, 337.47
332.87, 0.43, 355.83
332.86, 0.43, 355.61
332.84, 0.43, 355.38
332.83, 0.44, 355.14
332.81, 0.44, 354.87
332.79, 0.44, 354.59
332.74, 0.31, 353.80
332.71, 0.31, 353.44
332.69, 0.31, 353.04
332.66, 0.31, 352.59
332.62, 0.31, 352.10
332.59, 0.31, 351.55
332.55, 0.31, 350.94
332.50, 0.31, 350.24
332.45, 0.31, 349.46
332.39, 0.32, 348.61
332.32, 0.33, 347.62
332.24, 0.33, 346.40
332.14, 0.33, 344.94
332.03, 0.33, 343.18
331.89, 0.34, 341.09
331.71, 0.35, 338.48
331.65, 1.14, 337.49
331.73, 2.04, 338.82
332.81, 0.43, 355.83
332.79, 0.43, 355.62
332.77, 0.43, 355.39
332.75, 0.44, 355.14
332.73, 0.44, 354.88
332.67, 0.31, 354.14
332.64, 0.31, 353.81
332.62, 0.31, 353.45
332.58, 0.31, 353.05
332.55, 0.31, 352.60
¯332.51, 0.31, 352.11
332.47, 0.31, 351.56
332.42, 0.31, 350.95
332.36, 0.31, 350.25
332.30, 0.31, 349.47
332.23, 0.32, 348.62
332.16, 0.33, 347.63
332.06, 0.33, 346.41
331.94, 0.33, 344.96
331.81, 0.33, 343.23
331.64, 0.35, 341.17
331.44, 0.36, 338.56
331.35, 1.14, 337.49
331.46, 1.77, 338.82
332.74, 0.43, 355.84
332.72, 0.43, 355.62
332.70, 0.43, 355.40
332.68, 0.44, 355.15
332.61, 0.30, 354.45
332.58, 0.31, 354.14
332.55, 0.31, 353.82
332.52, 0.31, 353.46
332.48, 0.31, 353.05
332.44, 0.31, 352.61
332.40, 0.31, 352.12
332.35, 0.31, 351.57
332.29, 0.31, 350.96
332.23, 0.31, 350.27
332.16, 0.31, 349.49
332.08, 0.32, 348.63
331.99, 0.33, 347.65
331.88, 0.33, 346.43
331.74, 0.33, 344.97
331.59, 0.34, 343.28
331.40, 0.35, 341.25
331.17, 0.36, 338.64
331.06, 1.14, 337.49
331.06, 2.02, 337.47
332.67, 0.43, 355.84
332.65, 0.43, 355.63
332.63, 0.43, 355.40
332.56, 0.30, 354.73
332.53, 0.30, 354.45
332.50, 0.31, 354.15
332.46, 0.31, 353.83
332.42, 0.31, 353.47
332.38, 0.31, 353.06
332.34, 0.31, 352.62
332.29, 0.31, 352.13
332.23, 0.31, 351.58
332.17, 0.31, 350.97
¯332.09, 0.31, 350.28
332.01, 0.31, 349.50
331.92, 0.32, 348.65
331.82, 0.33, 347.66
331.70, 0.33, 346.45
331.55, 0.33, 345.00
331.37, 0.34, 343.31
331.16, 0.36, 341.31
330.89, 0.37, 338.73
330.77, 0.55, 337.51
330.77, 0.85, 337.51
330.81, 1.16, 337.90
330.79, 1.44, 337.74
330.77, 1.73, 337.51
330.77, 2.02, 337.51
330.77, 2.31, 337.51
330.77, 2.60, 337.51
330.77, 2.90, 337.51
332.60, 0.43, 355.85
332.58, 0.43, 355.64
332.51, 0.30, 355.00
332.48, 0.30, 354.74
332.44, 0.30, 354.46
332.41, 0.31, 354.16
332.37, 0.31, 353.83
332.33, 0.31, 353.48
332.28, 0.31, 353.08
332.23, 0.31, 352.63
332.17, 0.31, 352.14
332.11, 0.31, 351.60
332.04, 0.31, 350.98
331.96, 0.31, 350.29
331.87, 0.31, 349.52
331.77, 0.32, 348.66
331.66, 0.33, 347.68
331.51, 0.33, 346.47
331.35, 0.33, 345.02
331.15, 0.34, 343.33
330.92, 0.36, 341.37
330.63, 0.38, 338.86
330.62, 2.32, 338.82
330.62, 2.59, 338.82
332.54, 0.43, 355.86
332.46, 0.30, 355.25
332.43, 0.30, 355.01
332.40, 0.30, 354.75
332.36, 0.30, 354.47
332.32, 0.31, 354.17
332.28, 0.31, 353.85
332.23, 0.31, 353.49
332.18, 0.31, 353.09
¯332.12, 0.31, 352.65
332.06, 0.31, 352.16
331.99, 0.31, 351.61
331.91, 0.31, 351.00
331.82, 0.31, 350.31
331.72, 0.31, 349.53
331.61, 0.32, 348.68
331.49, 0.33, 347.70
331.33, 0.33, 346.49
331.15, 0.33, 345.04
330.93, 0.34, 343.35
330.68, 0.36, 341.43
330.37, 0.39, 338.99
332.42, 0.29, 355.49
332.39, 0.29, 355.26
332.35, 0.30, 355.02
332.32, 0.30, 354.76
332.28, 0.30, 354.48
332.23, 0.31, 354.18
332.19, 0.31, 353.86
332.14, 0.31, 353.50
332.08, 0.31, 353.10
332.02, 0.31, 352.66
331.95, 0.31, 352.17
331.87, 0.31, 351.63
331.79, 0.31, 351.02
331.69, 0.31, 350.33
331.58, 0.31, 349.55
331.46, 0.32, 348.70
331.32, 0.33, 347.72
331.17, 0.35, 346.67
331.17, 0.54, 346.67
331.17, 0.72, 346.67
331.17, 0.90, 346.67
331.17, 1.08, 346.67
331.17, 1.27, 346.67
331.17, 1.45, 346.67
331.17, 1.63, 346.67
331.17, 1.81, 346.67
331.17, 1.99, 346.67
331.17, 2.17, 346.67
331.17, 2.35, 346.67
331.17, 2.53, 346.67
332.35, 0.29, 355.50
332.31, 0.29, 355.27
332.27, 0.30, 355.03
332.24, 0.30, 354.77
332.19, 0.30, 354.50
332.15, 0.30, 354.20
332.10, 0.31, 353.87
332.04, 0.31, 353.52
¯331.98, 0.31, 353.12
331.91, 0.31, 352.68
331.84, 0.31, 352.19
331.76, 0.31, 351.65
331.66, 0.31, 351.04
331.56, 0.31, 350.35
331.44, 0.31, 349.57
331.31, 0.32, 348.72
331.16, 0.33, 347.75
330.99, 0.35, 346.66
330.99, 0.53, 346.66
330.99, 0.71, 346.66
330.99, 0.90, 346.66
330.99, 1.08, 346.66
330.99, 1.26, 346.66
330.99, 1.45, 346.66
330.99, 1.63, 346.66
330.99, 1.81, 346.66
330.99, 1.99, 346.66
330.99, 2.17, 346.66
330.99, 2.35, 346.66
330.99, 2.53, 346.70
332.28, 0.29, 355.51
332.24, 0.29, 355.28
332.20, 0.30, 355.04
332.16, 0.30, 354.79
332.11, 0.30, 354.51
332.06, 0.30, 354.21
332.01, 0.31, 353.88
331.95, 0.31, 353.53
331.88, 0.31, 353.13
331.81, 0.31, 352.69
331.73, 0.31, 352.21
331.64, 0.31, 351.66
331.54, 0.31, 351.06
331.42, 0.31, 350.37
331.29, 0.31, 349.59
331.15, 0.32, 348.75
330.99, 0.33, 347.77
330.81, 0.35, 346.71
330.81, 0.53, 346.71
330.81, 0.72, 346.71
330.81, 0.90, 346.71
330.81, 1.08, 346.71
330.81, 1.26, 346.71
330.81, 1.45, 346.71
330.81, 1.63, 346.71
330.81, 1.81, 346.71
330.81, 1.99, 346.71
330.81, 2.17, 346.71
330.81, 2.35, 346.71
¯330.82, 2.53, 346.75
332.20, 0.29, 355.52
332.16, 0.29, 355.30
332.12, 0.30, 355.06
332.08, 0.30, 354.80
332.03, 0.30, 354.52
331.97, 0.30, 354.22
331.91, 0.31, 353.90
331.85, 0.31, 353.54
331.78, 0.31, 353.15
331.70, 0.31, 352.71
331.62, 0.31, 352.23
331.52, 0.31, 351.69
331.41, 0.31, 351.08
331.29, 0.31, 350.40
331.15, 0.31, 349.62
331.00, 0.32, 348.77
330.83, 0.33, 347.80
330.64, 0.35, 346.75
330.64, 0.53, 346.75
330.64, 0.72, 346.75
330.64, 0.90, 346.75
330.64, 1.08, 346.75
330.64, 1.27, 346.75
330.64, 1.45, 346.75
330.64, 1.63, 346.75
330.64, 1.81, 346.75
330.64, 1.99, 346.75
330.64, 2.17, 346.75
330.64, 2.35, 346.75
330.65, 2.53, 346.80
332.13, 0.29, 355.53
332.09, 0.29, 355.31
332.05, 0.30, 355.07
332.00, 0.30, 354.81
331.94, 0.30, 354.54
331.89, 0.30, 354.24
331.82, 0.31, 353.91
331.76, 0.31, 353.56
331.68, 0.31, 353.17
331.60, 0.31, 352.73
331.51, 0.31, 352.25
331.40, 0.31, 351.71
331.29, 0.31, 351.10
331.16, 0.31, 350.42
331.01, 0.31, 349.65
330.85, 0.32, 348.80
330.66, 0.33, 347.83
330.46, 0.35, 346.80
330.46, 0.54, 346.80
330.46, 0.72, 346.80
¯330.46, 0.90, 346.80
330.46, 1.08, 346.80
330.46, 1.27, 346.80
330.46, 1.45, 346.80
330.46, 1.63, 346.80
330.46, 1.81, 346.80
330.46, 1.99, 346.80
330.46, 2.17, 346.80
330.46, 2.35, 346.80
330.47, 2.53, 346.85
332.06, 0.29, 355.55
332.02, 0.29, 355.32
331.97, 0.30, 355.08
331.92, 0.30, 354.83
331.86, 0.30, 354.55
331.80, 0.30, 354.25
331.73, 0.30, 353.93
331.66, 0.31, 353.57
331.58, 0.31, 353.19
331.49, 0.31, 352.75
331.39, 0.31, 352.27
331.28, 0.31, 351.73
331.16, 0.31, 351.13
331.02, 0.31, 350.45
330.87, 0.31, 349.67
330.69, 0.32, 348.83
330.50, 0.33, 347.86
330.29, 0.35, 346.85
330.29, 0.54, 346.85
330.29, 0.72, 346.85
330.29, 0.90, 346.85
330.29, 1.09, 346.85
330.29, 1.27, 346.85
330.29, 1.45, 346.85
330.29, 1.63, 346.85
330.29, 1.81, 346.85
330.29, 1.99, 346.85
330.29, 2.17, 346.85
330.29, 2.35, 346.85
330.30, 2.53, 346.89
331.99, 0.29, 355.56
331.94, 0.29, 355.34
331.89, 0.30, 355.10
331.84, 0.30, 354.84
331.78, 0.30, 354.56
331.71, 0.30, 354.27
331.64, 0.30, 353.94
331.56, 0.31, 353.59
331.48, 0.31, 353.20
331.39, 0.31, 352.77
331.28, 0.31, 352.29
¯331.17, 0.31, 351.76
331.04, 0.31, 351.15
330.89, 0.31, 350.48
330.72, 0.31, 349.70
330.54, 0.32, 348.86
330.33, 0.33, 347.90
330.11, 0.36, 346.90
330.11, 0.54, 346.90
330.11, 0.72, 346.90
330.11, 0.90, 346.90
330.11, 1.09, 346.90
330.11, 1.27, 346.90
330.11, 1.45, 346.90
330.11, 1.63, 346.90
330.11, 1.81, 346.90
330.11, 1.99, 346.90
330.11, 2.17, 346.90
330.11, 2.35, 346.90
330.12, 2.53, 346.94
331.92, 0.29, 355.58
331.87, 0.29, 355.35
331.82, 0.29, 355.11
331.76, 0.30, 354.86
331.69, 0.30, 354.58
331.63, 0.30, 354.28
331.55, 0.30, 353.96
331.47, 0.31, 353.61
331.38, 0.31, 353.22
331.28, 0.31, 352.80
331.17, 0.31, 352.32
331.05, 0.31, 351.78
330.91, 0.31, 351.18
330.76, 0.31, 350.51
330.58, 0.31, 349.74
330.39, 0.32, 348.89
330.17, 0.33, 347.93
329.94, 0.36, 346.94
329.94, 0.54, 346.94
329.94, 0.72, 346.94
329.94, 0.91, 346.94
329.94, 1.09, 346.94
329.94, 1.27, 346.94
329.94, 1.45, 346.94
329.94, 1.63, 346.94
329.94, 1.81, 346.94
329.94, 1.99, 346.94
329.94, 2.17, 346.94
329.94, 2.35, 346.94
329.95, 2.53, 346.99
331.85, 0.29, 355.60
331.80, 0.29, 355.37
¯331.74, 0.29, 355.13
331.68, 0.30, 354.87
331.61, 0.30, 354.60
331.54, 0.30, 354.30
331.46, 0.30, 353.98
331.37, 0.30, 353.62
331.28, 0.31, 353.24
331.18, 0.31, 352.82
331.06, 0.31, 352.34
330.94, 0.31, 351.81
330.79, 0.31, 351.21
330.63, 0.31, 350.54
330.44, 0.31, 349.77
330.24, 0.32, 348.93
330.00, 0.33, 347.97
329.77, 0.36, 346.99
329.77, 0.54, 346.99
329.77, 0.72, 346.99
329.77, 0.91, 346.99
329.77, 1.09, 346.99
329.77, 1.27, 346.99
329.77, 1.45, 346.99
329.77, 1.63, 346.99
329.77, 1.81, 346.99
329.77, 1.99, 346.99
329.77, 2.17, 346.99
329.77, 2.35, 346.99
329.78, 2.53, 347.04
331.78, 0.29, 355.61
331.73, 0.29, 355.39
331.66, 0.29, 355.15
331.60, 0.29, 354.89
331.53, 0.30, 354.61
331.45, 0.30, 354.32
331.37, 0.30, 353.99
331.28, 0.30, 353.64
331.18, 0.31, 353.26
331.07, 0.31, 352.84
330.96, 0.31, 352.37
330.82, 0.31, 351.84
330.67, 0.31, 351.24
330.50, 0.31, 350.57
330.30, 0.31, 349.81
330.09, 0.32, 348.96
329.84, 0.33, 348.02
329.59, 0.36, 347.04
329.59, 0.54, 347.04
329.59, 0.72, 347.04
329.59, 0.91, 347.04
329.59, 1.09, 347.04
329.59, 1.27, 347.04
¯329.59, 1.45, 347.04
329.59, 1.63, 347.04
329.59, 1.81, 347.04
329.59, 1.99, 347.04
329.59, 2.17, 347.04
329.59, 2.35, 347.04
329.60, 2.53, 347.08
331.71, 0.29, 355.63
331.65, 0.29, 355.41
331.59, 0.29, 355.17
331.52, 0.29, 354.91
331.45, 0.30, 354.63
331.37, 0.30, 354.34
331.28, 0.30, 354.01
331.19, 0.30, 353.66
331.08, 0.30, 353.28
330.97, 0.31, 352.86
330.85, 0.31, 352.40
330.70, 0.31, 351.87
330.54, 0.31, 351.28
330.36, 0.31, 350.61
330.16, 0.31, 349.84
329.94, 0.32, 349.01
329.68, 0.33, 348.07
329.42, 0.36, 347.09
329.42, 0.54, 347.09
329.42, 0.72, 347.09
329.42, 0.91, 347.09
329.42, 1.09, 347.09
329.42, 1.27, 347.09
329.42, 1.45, 347.09
329.42, 1.63, 347.09
329.42, 1.81, 347.09
329.42, 1.99, 347.09
329.42, 2.17, 347.09
329.42, 2.35, 347.09
329.43, 2.53, 347.13
331.64, 0.29, 355.65
331.58, 0.29, 355.43
331.51, 0.29, 355.19
331.44, 0.29, 354.93
331.36, 0.29, 354.65
331.28, 0.30, 354.36
331.19, 0.30, 354.04
331.09, 0.30, 353.69
330.98, 0.30, 353.31
330.87, 0.31, 352.89
330.74, 0.31, 352.42
330.59, 0.31, 351.90
330.42, 0.31, 351.31
330.23, 0.31, 350.64
¯330.02, 0.31, 349.88
329.79, 0.32, 349.06
329.52, 0.33, 348.12
329.25, 0.36, 347.13
329.25, 0.54, 347.13
329.25, 0.72, 347.13
329.25, 0.91, 347.13
329.25, 1.09, 347.13
329.25, 1.27, 347.13
329.25, 1.45, 347.13
329.24, 1.63, 347.13
329.24, 1.81, 347.13
329.24, 1.99, 347.13
329.24, 2.17, 347.13
329.24, 2.35, 347.13
329.26, 2.53, 347.18
331.58, 0.29, 355.67
331.51, 0.29, 355.45
331.44, 0.29, 355.21
331.36, 0.29, 354.95
331.28, 0.29, 354.67
331.19, 0.30, 354.38
331.10, 0.30, 354.06
331.00, 0.30, 353.71
330.89, 0.30, 353.33
330.76, 0.31, 352.91
330.63, 0.31, 352.45
330.47, 0.31, 351.94
330.30, 0.31, 351.35
330.10, 0.31, 350.68
329.88, 0.31, 349.92
329.64, 0.32, 349.11
329.37, 0.33, 348.18
329.07, 0.36, 347.18
329.07, 0.54, 347.18
329.07, 0.72, 347.18
329.07, 0.91, 347.18
329.07, 1.09, 347.18
329.07, 1.27, 347.19
329.07, 1.45, 347.19
329.07, 1.63, 347.19
329.07, 1.81, 347.19
329.08, 1.99, 347.20
329.07, 2.17, 347.18
329.07, 2.35, 347.18
329.08, 2.53, 347.23
331.51, 0.29, 355.69
331.44, 0.29, 355.47
331.36, 0.29, 355.23
331.29, 0.29, 354.97
331.20, 0.29, 354.70
¯331.11, 0.29, 354.40
331.01, 0.30, 354.08
330.90, 0.30, 353.73
330.79, 0.30, 353.35
330.66, 0.30, 352.94
330.52, 0.31, 352.48
330.36, 0.31, 351.97
330.18, 0.31, 351.38
329.97, 0.31, 350.72
329.74, 0.31, 349.97
329.49, 0.32, 349.15
329.21, 0.33, 348.23
328.90, 0.36, 347.23
328.90, 0.54, 347.23
328.90, 0.72, 347.23
328.90, 0.90, 347.23
328.90, 1.09, 347.23
328.90, 1.27, 347.24
328.90, 1.45, 347.24
328.90, 1.63, 347.24
328.90, 1.81, 347.24
328.90, 1.99, 347.25
328.90, 2.17, 347.23
328.90, 2.35, 347.23
328.91, 2.53, 347.27
331.44, 0.29, 355.71
331.37, 0.29, 355.49
331.29, 0.29, 355.25
331.21, 0.29, 355.00
331.12, 0.29, 354.72
331.02, 0.29, 354.42
330.92, 0.30, 354.11
330.81, 0.30, 353.76
330.69, 0.30, 353.38
330.55, 0.30, 352.97
330.41, 0.31, 352.51
330.24, 0.31, 352.00
330.06, 0.31, 351.42
329.85, 0.31, 350.76
329.60, 0.31, 350.01
329.34, 0.32, 349.19
329.05, 0.33, 348.29
328.72, 0.36, 347.28
328.72, 0.54, 347.28
328.72, 0.72, 347.28
328.72, 0.90, 347.28
328.72, 1.09, 347.28
328.73, 1.27, 347.29
328.73, 1.45, 347.29
328.73, 1.63, 347.29
328.73, 1.81, 347.29
¯328.73, 1.99, 347.30
328.72, 2.17, 347.28
328.72, 2.35, 347.28
328.74, 2.53, 347.32
331.37, 0.29, 355.74
331.30, 0.29, 355.52
331.22, 0.29, 355.28
331.13, 0.29, 355.02
331.04, 0.29, 354.75
330.94, 0.29, 354.45
330.83, 0.29, 354.13
330.72, 0.30, 353.79
330.59, 0.30, 353.41
330.45, 0.30, 352.99
330.30, 0.30, 352.54
330.13, 0.31, 352.03
329.94, 0.31, 351.47
329.72, 0.31, 350.81
329.47, 0.31, 350.06
329.19, 0.32, 349.24
328.89, 0.33, 348.35
328.55, 0.35, 347.32
328.55, 0.54, 347.32
328.55, 0.72, 347.32
328.55, 0.90, 347.32
328.55, 1.08, 347.32
328.55, 1.27, 347.32
328.55, 1.45, 347.32
328.55, 1.63, 347.32
328.55, 1.81, 347.32
328.55, 1.99, 347.32
328.55, 2.17, 347.32
328.55, 2.35, 347.32
328.56, 2.53, 347.37
331.30, 0.29, 355.76
331.23, 0.29, 355.54
331.14, 0.29, 355.30
331.05, 0.29, 355.05
330.96, 0.29, 354.78
330.86, 0.29, 354.48
330.74, 0.29, 354.16
330.62, 0.30, 353.81
330.49, 0.30, 353.44
330.35, 0.30, 353.02
330.19, 0.30, 352.57
330.02, 0.31, 352.07
329.83, 0.32, 351.54
329.59, 0.31, 350.85
329.33, 0.31, 350.11
329.04, 0.32, 349.29
328.74, 0.33, 348.40
¯328.38, 0.35, 347.37
328.38, 0.54, 347.37
328.38, 0.72, 347.37
328.38, 0.90, 347.37
328.38, 1.08, 347.37
328.38, 1.27, 347.37
328.38, 1.45, 347.37
328.37, 1.63, 347.37
328.37, 1.81, 347.37
328.37, 1.99, 347.37
328.37, 2.17, 347.37
328.37, 2.35, 347.37
328.39, 2.53, 347.42
331.23, 0.29, 355.78
331.16, 0.29, 355.57
331.07, 0.29, 355.33
330.98, 0.29, 355.08
330.88, 0.29, 354.81
330.77, 0.29, 354.51
330.66, 0.29, 354.19
330.53, 0.29, 353.84
330.39, 0.30, 353.47
330.25, 0.30, 353.06
330.08, 0.30, 352.60
329.91, 0.31, 352.13
329.72, 0.32, 351.61
329.46, 0.31, 350.90
329.19, 0.31, 350.15
328.90, 0.32, 349.33
328.58, 0.33, 348.45
328.21, 0.35, 347.43
328.20, 0.53, 347.42
328.20, 0.72, 347.42
328.20, 0.90, 347.42
328.20, 1.08, 347.42
328.20, 1.26, 347.42
328.20, 1.45, 347.42
328.20, 1.63, 347.42
328.20, 1.81, 347.42
328.20, 1.99, 347.42
328.20, 2.17, 347.42
328.20, 2.35, 347.42
328.22, 2.53, 347.46
331.17, 0.29, 355.81
331.09, 0.29, 355.59
331.00, 0.29, 355.36
330.90, 0.29, 355.11
330.80, 0.29, 354.83
330.69, 0.29, 354.54
330.57, 0.29, 354.22
330.44, 0.29, 353.87
¯330.30, 0.30, 353.50
330.14, 0.30, 353.09
329.98, 0.30, 352.65
329.80, 0.32, 352.19
329.61, 0.33, 351.67
329.35, 0.32, 350.97
329.06, 0.31, 350.21
328.75, 0.32, 349.38
328.42, 0.33, 348.50
328.06, 0.36, 347.56
328.03, 0.53, 347.47
328.03, 0.72, 347.47
328.03, 0.90, 347.47
328.03, 1.08, 347.47
328.03, 1.26, 347.47
328.03, 1.44, 347.47
328.03, 1.63, 347.47
328.03, 1.81, 347.47
328.02, 1.99, 347.47
328.02, 2.17, 347.47
328.02, 2.35, 347.47
328.04, 2.53, 347.51
331.10, 0.29, 355.84
331.02, 0.29, 355.62
330.92, 0.29, 355.39
330.83, 0.29, 355.14
330.72, 0.29, 354.87
330.61, 0.29, 354.57
330.48, 0.29, 354.26
330.35, 0.29, 353.91
330.20, 0.29, 353.53
330.04, 0.30, 353.13
329.88, 0.31, 352.71
329.70, 0.32, 352.24
329.50, 0.33, 351.73
329.23, 0.32, 351.05
328.92, 0.31, 350.26
328.60, 0.31, 349.43
328.26, 0.33, 348.56
327.91, 0.37, 347.67
327.85, 0.53, 347.51
327.85, 0.71, 347.51
327.85, 0.90, 347.51
327.85, 1.08, 347.51
327.85, 1.26, 347.51
327.85, 1.44, 347.51
327.85, 1.62, 347.51
327.85, 1.81, 347.51
327.85, 1.99, 347.51
327.85, 2.17, 347.51
327.85, 2.35, 347.51
¯327.87, 2.53, 347.56
331.03, 0.29, 355.86
330.95, 0.29, 355.65
330.85, 0.29, 355.41
330.75, 0.29, 355.17
330.64, 0.29, 354.90
330.53, 0.29, 354.61
330.40, 0.29, 354.29
330.26, 0.29, 353.94
330.10, 0.29, 353.57
329.95, 0.30, 353.18
329.78, 0.31, 352.76
329.59, 0.32, 352.30
329.39, 0.34, 351.79
329.12, 0.33, 351.14
328.79, 0.31, 350.32
328.45, 0.31, 349.49
328.11, 0.33, 348.63
327.77, 0.38, 347.80
327.68, 0.53, 347.56
327.68, 0.71, 347.56
327.67, 0.89, 347.56
327.67, 1.08, 347.56
327.67, 1.26, 347.56
327.67, 1.44, 347.56
327.67, 1.62, 347.56
327.67, 1.81, 347.56
327.67, 1.99, 347.56
327.67, 2.17, 347.56
327.67, 2.35, 347.56
327.69, 2.53, 347.61
330.97, 0.29, 355.89
330.88, 0.29, 355.68
330.78, 0.29, 355.44
330.68, 0.29, 355.20
330.57, 0.29, 354.93
330.44, 0.29, 354.64
330.31, 0.29, 354.33
330.17, 0.29, 353.98
330.01, 0.29, 353.61
329.85, 0.30, 353.23
329.68, 0.31, 352.82
329.49, 0.33, 352.36
329.28, 0.34, 351.86
329.01, 0.34, 351.23
328.68, 0.32, 350.42
328.31, 0.31, 349.54
327.98, 0.34, 348.75
327.64, 0.39, 347.94
327.50, 0.52, 347.61
327.50, 0.71, 347.61
¯327.50, 0.89, 347.61
327.50, 1.07, 347.61
327.50, 1.26, 347.61
327.50, 1.44, 347.61
327.50, 1.62, 347.61
327.50, 1.80, 347.61
327.50, 1.99, 347.61
327.50, 2.17, 347.61
327.50, 2.35, 347.61
327.51, 2.53, 347.65
330.90, 0.29, 355.92
330.81, 0.29, 355.70
330.71, 0.29, 355.48
330.60, 0.29, 355.23
330.49, 0.29, 354.96
330.36, 0.29, 354.67
330.23, 0.29, 354.36
330.08, 0.29, 354.02
329.92, 0.29, 353.65
329.76, 0.30, 353.28
329.58, 0.32, 352.88
329.39, 0.33, 352.42
329.17, 0.34, 351.92
328.91, 0.35, 351.32
328.56, 0.33, 350.52
328.16, 0.31, 349.60
327.85, 0.35, 348.87
327.50, 0.40, 348.08
327.32, 0.52, 347.66
327.32, 0.70, 347.66
327.32, 0.89, 347.66
327.32, 1.07, 347.66
327.32, 1.26, 347.66
327.32, 1.44, 347.66
327.32, 1.62, 347.66
327.32, 1.80, 347.66
327.32, 1.98, 347.66
327.32, 2.17, 347.66
327.32, 2.35, 347.66
327.34, 2.53, 347.70
330.84, 0.29, 355.95
330.74, 0.29, 355.74
330.64, 0.29, 355.51
330.53, 0.29, 355.26
330.41, 0.29, 355.00
330.28, 0.29, 354.71
330.14, 0.29, 354.40
329.99, 0.29, 354.06
329.83, 0.30, 353.70
329.66, 0.30, 353.32
329.49, 0.32, 352.93
¯329.29, 0.33, 352.49
329.06, 0.35, 351.99
328.80, 0.35, 351.41
328.45, 0.34, 350.62
328.05, 0.32, 349.73
327.72, 0.36, 349.00
327.37, 0.41, 348.21
327.14, 0.52, 347.71
327.14, 0.70, 347.71
327.14, 0.89, 347.71
327.14, 1.07, 347.71
327.14, 1.25, 347.71
327.14, 1.44, 347.71
327.14, 1.62, 347.71
327.14, 1.80, 347.71
327.14, 1.98, 347.71
327.14, 2.17, 347.71
327.14, 2.35, 347.71
327.16, 2.53, 347.75
330.77, 0.29, 355.98
330.67, 0.29, 355.77
330.57, 0.29, 355.54
330.46, 0.29, 355.30
330.33, 0.29, 355.03
330.20, 0.29, 354.75
330.06, 0.29, 354.44
329.90, 0.29, 354.11
329.74, 0.30, 353.74
329.56, 0.30, 353.36
329.38, 0.32, 352.98
329.18, 0.34, 352.55
328.96, 0.35, 352.06
328.70, 0.36, 351.50
328.34, 0.34, 350.72
327.95, 0.34, 349.87
327.60, 0.37, 349.12
327.24, 0.42, 348.35
326.97, 0.51, 347.76
326.97, 0.70, 347.76
326.97, 0.88, 347.76
326.97, 1.07, 347.76
326.97, 1.25, 347.76
326.97, 1.43, 347.76
326.97, 1.62, 347.76
326.96, 1.80, 347.76
326.96, 1.98, 347.76
326.96, 2.17, 347.76
326.96, 2.35, 347.76
326.98, 2.53, 347.80
330.71, 0.29, 356.01
330.61, 0.29, 355.80
¯330.50, 0.29, 355.57
330.38, 0.29, 355.33
330.26, 0.29, 355.07
330.12, 0.29, 354.79
329.98, 0.29, 354.48
329.82, 0.30, 354.15
329.65, 0.30, 353.79
329.46, 0.30, 353.41
329.28, 0.32, 353.02
329.08, 0.34, 352.60
328.85, 0.35, 352.13
328.59, 0.37, 351.58
328.23, 0.35, 350.82
327.85, 0.35, 350.02
327.48, 0.38, 349.25
327.11, 0.43, 348.49
326.79, 0.51, 347.80
326.79, 0.69, 347.80
326.79, 0.88, 347.80
326.79, 1.06, 347.80
326.79, 1.25, 347.81
326.79, 1.43, 347.81
326.79, 1.61, 347.81
326.79, 1.80, 347.81
326.79, 1.98, 347.81
326.79, 2.16, 347.81
326.79, 2.35, 347.81
326.81, 2.53, 347.85
330.64, 0.29, 356.04
330.54, 0.29, 355.83
330.43, 0.29, 355.61
330.31, 0.29, 355.37
330.18, 0.29, 355.11
330.04, 0.29, 354.83
329.89, 0.29, 354.52
329.73, 0.30, 354.20
329.56, 0.30, 353.84
329.37, 0.30, 353.45
329.18, 0.32, 353.07
328.97, 0.34, 352.65
328.75, 0.36, 352.19
328.48, 0.37, 351.66
328.12, 0.36, 350.93
327.75, 0.37, 350.17
327.36, 0.39, 349.37
326.99, 0.44, 348.62
326.61, 0.50, 347.85
326.61, 0.69, 347.85
326.61, 0.87, 347.85
326.61, 1.06, 347.85
326.61, 1.24, 347.85
¯326.61, 1.43, 347.85
326.61, 1.61, 347.85
326.61, 1.80, 347.85
326.61, 1.98, 347.85
326.61, 2.16, 347.85
326.61, 2.35, 347.85
326.63, 2.53, 347.90
330.58, 0.29, 356.07
330.47, 0.29, 355.86
330.36, 0.29, 355.64
330.24, 0.29, 355.40
330.11, 0.29, 355.14
329.97, 0.29, 354.87
329.81, 0.30, 354.57
329.65, 0.30, 354.24
329.47, 0.30, 353.89
329.27, 0.30, 353.50
329.08, 0.32, 353.12
328.87, 0.33, 352.70
328.63, 0.35, 352.25
328.37, 0.37, 351.73
328.03, 0.37, 351.06
327.65, 0.38, 350.32
327.24, 0.40, 349.50
326.86, 0.45, 348.76
326.44, 0.50, 347.92
326.43, 0.68, 347.90
326.43, 0.87, 347.90
326.43, 1.06, 347.90
326.43, 1.24, 347.90
326.43, 1.43, 347.90
326.43, 1.61, 347.90
326.43, 1.79, 347.90
326.43, 1.98, 347.90
326.42, 2.16, 347.90
326.42, 2.35, 347.90
326.45, 2.53, 347.95
330.51, 0.29, 356.11
330.41, 0.29, 355.90
330.29, 0.29, 355.68
330.16, 0.29, 355.44
330.03, 0.29, 355.18
329.89, 0.29, 354.91
329.73, 0.30, 354.61
329.56, 0.30, 354.29
329.38, 0.30, 353.94
329.17, 0.30, 353.55
328.97, 0.32, 353.17
328.76, 0.33, 352.75
328.52, 0.35, 352.30
328.26, 0.37, 351.80
¯327.94, 0.39, 351.19
327.56, 0.40, 350.46
327.12, 0.41, 349.63
326.74, 0.45, 348.90
326.31, 0.51, 348.07
326.25, 0.68, 347.95
326.25, 0.87, 347.95
326.25, 1.05, 347.95
326.25, 1.24, 347.96
326.25, 1.42, 347.96
326.25, 1.61, 347.96
326.25, 1.79, 347.96
326.25, 1.98, 347.96
326.24, 2.16, 347.95
326.24, 2.35, 347.95
326.26, 2.53, 348.00
330.45, 0.29, 356.14
330.34, 0.29, 355.93
330.22, 0.29, 355.71
330.09, 0.29, 355.48
329.96, 0.29, 355.23
329.81, 0.30, 354.95
329.65, 0.30, 354.66
329.48, 0.30, 354.34
329.29, 0.30, 353.99
329.08, 0.30, 353.60
328.87, 0.32, 353.22
328.65, 0.33, 352.81
328.41, 0.35, 352.36
328.14, 0.37, 351.86
327.85, 0.40, 351.32
327.47, 0.41, 350.61
327.03, 0.42, 349.79
326.62, 0.46, 349.03
326.18, 0.52, 348.22
326.06, 0.67, 348.00
326.06, 0.86, 348.00
326.06, 1.05, 348.00
326.07, 1.24, 348.01
326.07, 1.42, 348.01
326.07, 1.61, 348.01
326.07, 1.79, 348.01
326.07, 1.98, 348.01
326.06, 2.16, 348.00
326.06, 2.35, 348.00
326.08, 2.53, 348.05
330.39, 0.29, 356.17
330.27, 0.29, 355.97
330.15, 0.29, 355.75
330.02, 0.29, 355.52
329.89, 0.29, 355.27
¯329.74, 0.30, 355.00
329.57, 0.30, 354.71
329.40, 0.30, 354.39
329.20, 0.30, 354.04
328.99, 0.30, 353.66
328.77, 0.31, 353.27
328.55, 0.33, 352.86
328.30, 0.35, 352.41
328.04, 0.38, 351.95
327.77, 0.42, 351.46
327.38, 0.42, 350.76
326.94, 0.44, 349.96
326.50, 0.47, 349.17
325.96, 0.50, 348.20
325.88, 0.67, 348.05
325.88, 0.86, 348.05
325.88, 1.04, 348.05
325.88, 1.23, 348.06
325.88, 1.42, 348.06
325.88, 1.60, 348.06
325.88, 1.79, 348.06
325.88, 1.97, 348.06
325.88, 2.16, 348.05
325.88, 2.35, 348.05
325.90, 2.53, 348.10
330.32, 0.29, 356.21
330.21, 0.29, 356.01
330.09, 0.29, 355.79
329.95, 0.29, 355.56
329.81, 0.29, 355.31
329.66, 0.30, 355.05
329.49, 0.30, 354.75
329.31, 0.30, 354.44
329.12, 0.30, 354.09
328.90, 0.30, 353.71
328.67, 0.31, 353.32
328.44, 0.33, 352.91
328.19, 0.35, 352.47
327.94, 0.39, 352.04
327.69, 0.43, 351.59
327.30, 0.44, 350.91
326.85, 0.45, 350.12
326.38, 0.48, 349.31
325.73, 0.48, 348.17
325.69, 0.66, 348.10
325.69, 0.85, 348.10
325.69, 1.04, 348.10
325.69, 1.23, 348.10
325.69, 1.41, 348.10
325.69, 1.60, 348.10
325.69, 1.79, 348.10
¯325.69, 1.97, 348.10
325.69, 2.16, 348.10
325.69, 2.34, 348.10
325.72, 2.53, 348.15
330.26, 0.29, 356.25
330.14, 0.29, 356.05
330.02, 0.29, 355.83
329.88, 0.29, 355.60
329.74, 0.29, 355.35
329.58, 0.30, 355.09
329.42, 0.30, 354.80
329.23, 0.30, 354.49
329.03, 0.30, 354.15
328.81, 0.30, 353.77
328.57, 0.31, 353.37
328.34, 0.33, 352.97
328.09, 0.35, 352.54
327.85, 0.39, 352.13
327.59, 0.44, 351.69
327.22, 0.45, 351.06
326.76, 0.47, 350.28
326.27, 0.49, 349.44
325.51, 0.47, 348.15
325.51, 0.66, 348.15
325.51, 0.85, 348.15
325.51, 1.03, 348.15
325.51, 1.22, 348.15
325.51, 1.41, 348.15
325.51, 1.60, 348.15
325.51, 1.78, 348.15
325.51, 1.97, 348.15
325.51, 2.16, 348.15
325.51, 2.34, 348.15
325.53, 2.53, 348.20
330.20, 0.29, 356.28
330.08, 0.29, 356.08
329.95, 0.29, 355.87
329.81, 0.29, 355.64
329.66, 0.29, 355.39
329.51, 0.30, 355.13
329.34, 0.30, 354.85
329.15, 0.30, 354.54
328.94, 0.30, 354.20
328.72, 0.31, 353.83
328.48, 0.31, 353.43
328.23, 0.33, 353.03
327.99, 0.36, 352.63
327.75, 0.40, 352.23
327.49, 0.44, 351.79
327.14, 0.47, 351.22
326.68, 0.48, 350.45
¯326.14, 0.49, 349.56
325.32, 0.46, 348.20
325.32, 0.65, 348.20
325.32, 0.84, 348.20
325.32, 1.03, 348.21
325.32, 1.22, 348.21
325.32, 1.41, 348.21
325.32, 1.59, 348.21
325.32, 1.78, 348.21
325.32, 1.97, 348.21
325.32, 2.16, 348.21
325.32, 2.34, 348.21
325.34, 2.53, 348.25
330.14, 0.29, 356.32
330.02, 0.29, 356.12
329.89, 0.29, 355.91
329.74, 0.29, 355.68
329.59, 0.29, 355.44
329.43, 0.30, 355.18
329.26, 0.30, 354.90
329.07, 0.30, 354.59
328.86, 0.30, 354.26
328.63, 0.31, 353.89
328.38, 0.31, 353.48
328.13, 0.33, 353.08
327.90, 0.36, 352.72
327.66, 0.40, 352.33
327.39, 0.45, 351.90
327.07, 0.48, 351.37
326.60, 0.50, 350.62
326.01, 0.50, 349.66
325.13, 0.45, 348.26
325.13, 0.64, 348.26
325.13, 0.84, 348.26
325.13, 1.02, 348.26
325.13, 1.21, 348.26
325.13, 1.40, 348.26
325.13, 1.59, 348.26
325.13, 1.78, 348.26
325.13, 1.97, 348.26
325.13, 2.16, 348.26
325.13, 2.34, 348.26
325.16, 2.53, 348.30
330.08, 0.29, 356.36
329.95, 0.29, 356.16
329.82, 0.29, 355.95
329.68, 0.29, 355.73
329.52, 0.29, 355.48
329.36, 0.30, 355.22
329.18, 0.30, 354.95
328.98, 0.30, 354.64
¯328.77, 0.30, 354.31
328.54, 0.31, 353.95
328.28, 0.31, 353.54
328.04, 0.33, 353.17
327.82, 0.37, 352.81
327.57, 0.41, 352.42
327.30, 0.45, 352.00
326.99, 0.50, 351.52
326.53, 0.51, 350.79
325.88, 0.50, 349.78
324.96, 0.45, 348.33
324.96, 0.64, 348.33
324.96, 0.83, 348.33
324.96, 1.02, 348.33
324.96, 1.21, 348.33
324.96, 1.40, 348.33
324.96, 1.59, 348.33
324.96, 1.78, 348.33
324.96, 1.97, 348.33
324.96, 2.15, 348.34
324.94, 2.34, 348.31
324.97, 2.53, 348.35
330.02, 0.29, 356.40
329.89, 0.29, 356.20
329.76, 0.29, 356.00
329.61, 0.29, 355.77
329.45, 0.29, 355.53
329.28, 0.29, 355.27
329.10, 0.30, 354.99
328.90, 0.30, 354.69
328.69, 0.30, 354.36
328.45, 0.31, 354.00
328.19, 0.31, 353.60
327.96, 0.34, 353.25
327.73, 0.38, 352.90
327.48, 0.42, 352.52
327.20, 0.46, 352.10
326.90, 0.51, 351.64
326.46, 0.53, 350.96
325.76, 0.50, 349.90
324.77, 0.44, 348.38
324.77, 0.63, 348.38
324.77, 0.82, 348.38
324.77, 1.02, 348.38
324.77, 1.21, 348.38
324.77, 1.40, 348.38
324.77, 1.59, 348.38
324.77, 1.77, 348.38
324.76, 1.96, 348.38
324.77, 2.15, 348.39
324.75, 2.34, 348.36
¯324.78, 2.53, 348.40
329.96, 0.29, 356.44
329.83, 0.29, 356.25
329.69, 0.29, 356.04
329.54, 0.29, 355.82
329.38, 0.29, 355.58
329.21, 0.29, 355.32
329.02, 0.30, 355.04
328.82, 0.30, 354.75
328.60, 0.30, 354.42
328.36, 0.31, 354.06
328.10, 0.31, 353.67
327.87, 0.34, 353.34
327.64, 0.38, 352.99
327.39, 0.42, 352.61
327.11, 0.47, 352.20
326.81, 0.51, 351.75
326.39, 0.54, 351.13
325.64, 0.51, 350.02
324.58, 0.43, 348.43
324.57, 0.63, 348.43
324.57, 0.82, 348.43
324.57, 1.01, 348.43
324.57, 1.20, 348.43
324.57, 1.39, 348.43
324.57, 1.58, 348.43
324.57, 1.77, 348.43
324.57, 1.96, 348.43
324.58, 2.15, 348.45
324.56, 2.34, 348.41
324.58, 2.53, 348.45
329.90, 0.29, 356.48
329.77, 0.29, 356.29
329.63, 0.29, 356.08
329.47, 0.29, 355.86
329.31, 0.29, 355.62
329.13, 0.29, 355.37
328.95, 0.30, 355.10
328.74, 0.30, 354.80
328.52, 0.30, 354.48
328.27, 0.31, 354.12
328.02, 0.32, 353.76
327.79, 0.35, 353.42
327.55, 0.39, 353.08
327.30, 0.43, 352.71
327.02, 0.47, 352.30
326.71, 0.52, 351.86
326.32, 0.56, 351.29
325.52, 0.51, 350.14
324.38, 0.43, 348.49
324.38, 0.62, 348.49
¯324.38, 0.81, 348.49
324.38, 1.00, 348.49
324.38, 1.20, 348.49
324.38, 1.39, 348.49
324.38, 1.58, 348.49
324.38, 1.77, 348.49
324.38, 1.96, 348.49
324.39, 2.15, 348.51
324.36, 2.34, 348.47
324.39, 2.53, 348.51
329.84, 0.29, 356.52
329.71, 0.29, 356.33
329.56, 0.29, 356.13
329.41, 0.29, 355.91
329.24, 0.29, 355.67
329.06, 0.29, 355.42
328.87, 0.30, 355.15
328.66, 0.30, 354.85
328.43, 0.30, 354.53
328.18, 0.31, 354.18
327.95, 0.32, 353.85
327.70, 0.35, 353.50
327.47, 0.39, 353.17
327.21, 0.43, 352.80
326.92, 0.48, 352.40
326.62, 0.52, 351.97
326.25, 0.57, 351.46
325.41, 0.52, 350.26
324.17, 0.41, 348.52
324.17, 0.61, 348.52
324.17, 0.80, 348.52
324.17, 0.99, 348.52
324.17, 1.19, 348.52
324.17, 1.38, 348.52
324.17, 1.57, 348.52
324.17, 1.76, 348.52
324.17, 1.96, 348.52
324.20, 2.15, 348.56
324.17, 2.34, 348.52
324.20, 2.53, 348.56
329.78, 0.29, 356.56
329.65, 0.29, 356.37
329.50, 0.29, 356.17
329.34, 0.29, 355.96
329.17, 0.29, 355.72
328.99, 0.29, 355.47
328.79, 0.30, 355.20
328.58, 0.30, 354.91
328.35, 0.30, 354.59
328.10, 0.31, 354.25
327.87, 0.33, 353.94
¯327.63, 0.36, 353.60
327.38, 0.39, 353.26
327.12, 0.43, 352.90
326.83, 0.48, 352.50
326.52, 0.53, 352.07
326.18, 0.58, 351.60
325.29, 0.52, 350.39
323.97, 0.40, 348.57
323.97, 0.60, 348.57
323.97, 0.79, 348.57
323.97, 0.99, 348.57
323.97, 1.18, 348.57
323.97, 1.38, 348.57
323.97, 1.57, 348.57
323.97, 1.76, 348.57
323.97, 1.95, 348.57
323.97, 2.15, 348.57
323.97, 2.34, 348.57
324.00, 2.53, 348.61
318.76, 2.90, 341.41
329.73, 0.29, 356.61
329.59, 0.29, 356.42
329.44, 0.29, 356.22
329.28, 0.29, 356.00
329.10, 0.29, 355.77
328.92, 0.29, 355.52
328.72, 0.29, 355.25
328.50, 0.30, 354.97
328.27, 0.30, 354.65
328.03, 0.31, 354.33
327.80, 0.34, 354.02
327.55, 0.36, 353.69
327.29, 0.40, 353.34
327.03, 0.44, 352.99
326.74, 0.48, 352.60
326.42, 0.53, 352.18
326.04, 0.58, 351.67
325.18, 0.53, 350.52
323.81, 0.40, 348.68
323.81, 0.60, 348.68
323.81, 0.79, 348.68
323.81, 0.99, 348.68
323.81, 1.18, 348.68
323.81, 1.37, 348.68
323.81, 1.57, 348.68
323.81, 1.76, 348.68
323.81, 1.95, 348.68
323.81, 2.15, 348.68
323.81, 2.34, 348.68
323.81, 2.53, 348.68
318.63, 2.89, 341.74
¯329.67, 0.29, 356.65
329.53, 0.29, 356.46
329.38, 0.29, 356.27
329.21, 0.29, 356.05
329.04, 0.29, 355.82
328.85, 0.29, 355.58
328.64, 0.29, 355.31
328.42, 0.30, 355.02
328.18, 0.30, 354.71
327.96, 0.32, 354.42
327.73, 0.34, 354.11
327.48, 0.37, 353.78
327.21, 0.40, 353.43
326.94, 0.44, 353.08
326.65, 0.49, 352.70
326.33, 0.54, 352.28
325.91, 0.58, 351.74
325.08, 0.53, 350.65
321.90, 0.03, 346.49
320.55, 0.00, 344.73
319.00, 0.00, 342.71
318.53, 0.81, 342.10
318.56, 1.11, 342.13
318.51, 1.41, 342.06
318.51, 1.70, 342.07
318.48, 2.00, 342.03
318.43, 2.29, 341.97
318.37, 2.59, 341.89
318.30, 2.89, 341.80
329.61, 0.29, 356.69
329.47, 0.29, 356.51
329.32, 0.29, 356.31
329.15, 0.29, 356.10
328.97, 0.29, 355.88
328.78, 0.29, 355.63
328.57, 0.29, 355.36
328.35, 0.30, 355.08
328.11, 0.30, 354.78
327.89, 0.32, 354.50
327.66, 0.35, 354.20
327.40, 0.38, 353.88
327.12, 0.41, 353.52
326.85, 0.45, 353.18
326.56, 0.49, 352.80
326.23, 0.54, 352.39
325.78, 0.57, 351.81
324.97, 0.54, 350.78
321.70, 0.03, 346.61
321.35, 0.19, 346.16
321.35, 0.43, 346.17
321.35, 0.67, 346.17
¯321.35, 0.91, 346.17
321.35, 1.14, 346.17
321.35, 1.38, 346.17
321.35, 1.61, 346.17
321.35, 1.85, 346.17
321.35, 2.08, 346.17
321.35, 2.32, 346.17
321.35, 2.56, 346.17
317.92, 2.90, 341.80
329.56, 0.29, 356.74
329.41, 0.29, 356.56
329.25, 0.29, 356.36
329.09, 0.29, 356.15
328.91, 0.29, 355.93
328.71, 0.29, 355.69
328.50, 0.29, 355.42
328.27, 0.30, 355.14
328.04, 0.31, 354.86
327.82, 0.33, 354.58
327.59, 0.35, 354.29
327.33, 0.38, 353.97
327.05, 0.41, 353.62
326.77, 0.45, 353.27
326.47, 0.50, 352.90
326.13, 0.54, 352.48
325.64, 0.57, 351.88
324.87, 0.54, 350.91
321.50, 0.02, 346.73
321.41, 0.24, 346.62
321.41, 0.47, 346.62
321.41, 0.70, 346.62
321.41, 0.94, 346.62
321.42, 1.17, 346.62
321.42, 1.40, 346.63
321.42, 1.63, 346.63
321.42, 1.86, 346.63
321.42, 2.09, 346.63
321.42, 2.32, 346.63
321.42, 2.55, 346.63
329.50, 0.29, 356.78
329.35, 0.29, 356.60
329.19, 0.29, 356.41
329.02, 0.29, 356.21
328.84, 0.29, 355.98
328.64, 0.29, 355.74
328.42, 0.29, 355.48
328.19, 0.30, 355.20
327.98, 0.31, 354.94
327.76, 0.34, 354.67
327.52, 0.36, 354.38
327.26, 0.39, 354.06
¯326.97, 0.42, 353.72
326.68, 0.45, 353.37
326.38, 0.50, 353.00
326.01, 0.54, 352.55
325.51, 0.56, 351.95
324.76, 0.55, 351.04
321.48, 0.05, 347.06
321.48, 0.28, 347.06
321.48, 0.51, 347.06
321.48, 0.74, 347.06
321.48, 0.97, 347.06
321.48, 1.19, 347.06
321.48, 1.42, 347.06
321.48, 1.65, 347.06
321.48, 1.87, 347.07
321.48, 2.10, 347.07
321.48, 2.32, 347.07
321.48, 2.55, 347.07
329.45, 0.29, 356.83
329.30, 0.29, 356.65
329.14, 0.29, 356.46
328.96, 0.29, 356.26
328.78, 0.29, 356.04
328.57, 0.29, 355.80
328.35, 0.29, 355.54
328.12, 0.30, 355.26
327.91, 0.32, 355.02
327.69, 0.34, 354.75
327.45, 0.37, 354.47
327.19, 0.39, 354.16
326.90, 0.42, 353.82
326.60, 0.46, 353.46
326.29, 0.50, 353.10
325.88, 0.53, 352.62
325.38, 0.56, 352.02
324.67, 0.55, 351.18
321.54, 0.10, 347.48
321.54, 0.32, 347.48
321.54, 0.55, 347.48
321.54, 0.77, 347.48
321.54, 0.99, 347.48
321.54, 1.22, 347.48
321.54, 1.44, 347.48
321.54, 1.66, 347.49
321.54, 1.88, 347.49
321.54, 2.10, 347.49
321.54, 2.32, 347.49
321.54, 2.55, 347.49
329.39, 0.29, 356.87
329.24, 0.29, 356.70
329.08, 0.29, 356.51
¯328.90, 0.29, 356.31
328.71, 0.29, 356.09
328.51, 0.29, 355.86
328.28, 0.29, 355.60
328.06, 0.30, 355.34
327.85, 0.32, 355.10
327.62, 0.35, 354.84
327.38, 0.37, 354.56
327.12, 0.40, 354.25
326.83, 0.43, 353.92
326.52, 0.46, 353.56
326.20, 0.51, 353.20
325.76, 0.53, 352.69
325.25, 0.55, 352.10
324.57, 0.56, 351.32
321.60, 0.14, 347.89
321.60, 0.36, 347.89
321.60, 0.58, 347.89
321.60, 0.80, 347.89
321.60, 1.02, 347.89
321.60, 1.24, 347.89
321.60, 1.46, 347.89
321.60, 1.67, 347.89
321.60, 1.89, 347.89
321.60, 2.11, 347.89
321.60, 2.33, 347.89
321.60, 2.54, 347.89
329.33, 0.29, 356.92
329.18, 0.29, 356.75
329.01, 0.29, 356.56
328.84, 0.29, 356.36
328.65, 0.29, 356.15
328.44, 0.29, 355.91
328.21, 0.29, 355.66
327.98, 0.30, 355.40
327.78, 0.32, 355.17
327.56, 0.35, 354.92
327.32, 0.38, 354.65
327.05, 0.40, 354.35
326.76, 0.43, 354.02
326.44, 0.47, 353.67
326.10, 0.50, 353.28
325.64, 0.52, 352.76
325.11, 0.55, 352.17
324.48, 0.57, 351.45
321.65, 0.18, 348.28
321.65, 0.40, 348.28
321.65, 0.62, 348.28
321.65, 0.83, 348.28
321.65, 1.05, 348.28
321.65, 1.26, 348.28
¯321.65, 1.47, 348.28
321.65, 1.69, 348.28
321.65, 1.90, 348.28
321.65, 2.11, 348.28
321.65, 2.33, 348.28
321.65, 2.54, 348.28
329.28, 0.29, 356.97
329.12, 0.29, 356.79
328.96, 0.29, 356.61
328.78, 0.29, 356.41
328.58, 0.29, 356.20
328.37, 0.29, 355.97
328.14, 0.29, 355.72
327.89, 0.29, 355.44
327.68, 0.31, 355.21
327.45, 0.34, 354.96
327.21, 0.37, 354.70
326.95, 0.40, 354.41
326.66, 0.43, 354.10
326.35, 0.47, 353.75
325.99, 0.50, 353.36
325.52, 0.52, 352.84
324.98, 0.54, 352.25
324.37, 0.57, 351.58
321.57, 0.20, 348.50
321.57, 0.41, 348.50
321.57, 0.63, 348.50
321.57, 0.84, 348.50
321.56, 1.05, 348.50
321.56, 1.27, 348.50
321.56, 1.48, 348.50
321.56, 1.69, 348.50
321.56, 1.90, 348.50
321.56, 2.12, 348.50
321.56, 2.33, 348.50
321.56, 2.54, 348.50
329.22, 0.29, 357.01
329.07, 0.29, 356.84
328.90, 0.29, 356.66
328.71, 0.29, 356.47
328.52, 0.29, 356.25
328.30, 0.29, 356.03
328.07, 0.29, 355.77
327.80, 0.28, 355.49
327.58, 0.31, 355.25
327.35, 0.33, 355.01
327.11, 0.36, 354.74
326.84, 0.39, 354.45
326.55, 0.42, 354.14
326.23, 0.46, 353.80
325.93, 0.51, 353.49
¯325.45, 0.53, 352.97
324.90, 0.55, 352.38
324.26, 0.57, 351.70
321.26, 0.17, 348.48
321.26, 0.39, 348.48
321.26, 0.60, 348.48
321.26, 0.82, 348.48
321.26, 1.04, 348.48
321.26, 1.25, 348.48
321.26, 1.47, 348.48
321.26, 1.68, 348.48
321.26, 1.90, 348.48
321.26, 2.11, 348.48
321.26, 2.33, 348.48
321.29, 2.54, 348.52
329.17, 0.29, 357.06
329.01, 0.29, 356.89
328.84, 0.29, 356.71
328.65, 0.29, 356.52
328.45, 0.29, 356.31
328.24, 0.29, 356.08
328.00, 0.29, 355.83
327.73, 0.28, 355.55
327.49, 0.30, 355.30
327.25, 0.32, 355.05
327.00, 0.35, 354.79
326.72, 0.38, 354.50
326.43, 0.41, 354.19
326.12, 0.45, 353.87
325.84, 0.51, 353.58
325.39, 0.54, 353.11
324.84, 0.56, 352.53
321.62, 0.06, 349.17
321.00, 0.15, 348.52
321.00, 0.37, 348.52
321.00, 0.59, 348.52
321.00, 0.81, 348.52
321.00, 1.02, 348.52
321.00, 1.24, 348.52
321.00, 1.46, 348.52
321.00, 1.68, 348.52
321.00, 1.89, 348.52
320.99, 2.11, 348.52
320.99, 2.32, 348.52
321.03, 2.54, 348.56
329.12, 0.29, 357.11
328.96, 0.29, 356.94
328.78, 0.29, 356.77
328.59, 0.29, 356.57
328.39, 0.29, 356.37
328.17, 0.29, 356.14
¯327.92, 0.28, 355.89
327.65, 0.28, 355.61
327.39, 0.29, 355.35
327.15, 0.31, 355.10
326.89, 0.34, 354.84
326.61, 0.37, 354.55
326.31, 0.40, 354.24
326.02, 0.45, 353.95
325.73, 0.51, 353.66
325.33, 0.55, 353.25
324.78, 0.57, 352.68
321.45, 0.05, 349.29
320.73, 0.13, 348.56
320.73, 0.35, 348.56
320.73, 0.57, 348.56
320.73, 0.79, 348.56
320.73, 1.01, 348.56
320.73, 1.23, 348.56
320.73, 1.45, 348.56
320.73, 1.67, 348.56
320.73, 1.89, 348.56
320.73, 2.11, 348.56
320.73, 2.32, 348.56
320.77, 2.54, 348.60
329.07, 0.29, 357.16
328.90, 0.29, 356.99
328.72, 0.29, 356.82
328.53, 0.29, 356.63
328.33, 0.29, 356.42
328.10, 0.29, 356.20
327.85, 0.28, 355.95
327.57, 0.28, 355.67
327.29, 0.28, 355.39
327.05, 0.30, 355.15
326.78, 0.33, 354.89
326.50, 0.36, 354.60
326.19, 0.39, 354.29
325.92, 0.45, 354.02
325.63, 0.51, 353.74
325.27, 0.56, 353.38
324.72, 0.58, 352.83
321.28, 0.05, 349.41
320.46, 0.11, 348.59
320.46, 0.33, 348.59
320.46, 0.55, 348.59
320.46, 0.78, 348.59
320.46, 1.00, 348.59
320.46, 1.22, 348.59
320.46, 1.44, 348.59
320.46, 1.66, 348.59
320.46, 1.88, 348.59
¯320.46, 2.10, 348.59
320.46, 2.32, 348.59
320.50, 2.54, 348.64
329.01, 0.29, 357.21
328.85, 0.28, 357.05
328.67, 0.28, 356.87
328.47, 0.28, 356.68
328.27, 0.28, 356.48
328.04, 0.28, 356.26
327.78, 0.28, 356.01
327.50, 0.27, 355.74
327.20, 0.27, 355.44
326.95, 0.30, 355.20
326.68, 0.32, 354.94
326.38, 0.35, 354.65
326.09, 0.39, 354.37
325.82, 0.44, 354.10
325.53, 0.50, 353.82
325.22, 0.57, 353.52
324.66, 0.59, 352.98
321.12, 0.04, 349.54
320.19, 0.08, 348.63
320.19, 0.31, 348.63
320.19, 0.54, 348.63
320.19, 0.76, 348.63
320.19, 0.98, 348.63
320.19, 1.21, 348.63
320.18, 1.43, 348.63
320.18, 1.65, 348.63
320.18, 1.88, 348.63
320.18, 2.10, 348.63
320.18, 2.32, 348.63
320.22, 2.54, 348.68
328.96, 0.28, 357.26
328.79, 0.28, 357.10
328.61, 0.28, 356.93
328.42, 0.28, 356.74
328.21, 0.28, 356.54
327.97, 0.28, 356.32
327.71, 0.28, 356.07
327.42, 0.27, 355.80
327.11, 0.26, 355.50
326.84, 0.29, 355.25
326.57, 0.31, 354.99
326.27, 0.34, 354.71
325.99, 0.39, 354.44
325.72, 0.44, 354.18
325.42, 0.50, 353.91
325.11, 0.56, 353.61
324.61, 0.60, 353.13
320.96, 0.04, 349.67
¯319.91, 0.06, 348.67
319.91, 0.29, 348.67
319.91, 0.52, 348.67
319.91, 0.74, 348.67
319.91, 0.97, 348.67
319.90, 1.20, 348.67
319.90, 1.42, 348.67
319.90, 1.65, 348.67
319.90, 1.87, 348.67
319.90, 2.10, 348.67
319.90, 2.32, 348.67
319.94, 2.54, 348.72
328.91, 0.28, 357.31
328.74, 0.28, 357.15
328.56, 0.28, 356.98
328.36, 0.28, 356.80
328.14, 0.28, 356.60
327.90, 0.28, 356.38
327.64, 0.27, 356.13
327.35, 0.27, 355.87
327.03, 0.26, 355.57
326.74, 0.28, 355.30
326.46, 0.30, 355.04
326.16, 0.33, 354.76
325.90, 0.38, 354.52
325.62, 0.44, 354.27
325.32, 0.50, 353.99
325.00, 0.56, 353.69
324.56, 0.61, 353.28
320.81, 0.04, 349.82
319.62, 0.04, 348.71
319.62, 0.27, 348.72
319.62, 0.50, 348.72
319.62, 0.73, 348.72
319.62, 0.95, 348.72
319.62, 1.18, 348.72
319.62, 1.41, 348.72
319.62, 1.64, 348.72
319.62, 1.86, 348.72
319.62, 2.09, 348.72
319.62, 2.32, 348.72
319.66, 2.54, 348.76
328.86, 0.28, 357.36
328.69, 0.28, 357.20
328.50, 0.28, 357.04
328.30, 0.28, 356.86
328.08, 0.28, 356.66
327.84, 0.28, 356.44
327.57, 0.27, 356.20
327.28, 0.26, 355.93
326.95, 0.26, 355.64
¯326.64, 0.27, 355.36
326.35, 0.29, 355.10
326.07, 0.33, 354.84
325.80, 0.38, 354.60
325.52, 0.43, 354.35
325.22, 0.49, 354.08
324.89, 0.56, 353.78
324.51, 0.62, 353.43
320.67, 0.04, 349.97
319.33, 0.01, 348.76
319.33, 0.25, 348.76
319.33, 0.48, 348.76
319.33, 0.71, 348.76
319.33, 0.94, 348.76
319.33, 1.17, 348.76
319.33, 1.40, 348.76
319.33, 1.63, 348.76
319.32, 1.86, 348.76
319.32, 2.09, 348.76
319.32, 2.32, 348.76
319.37, 2.55, 348.80
328.81, 0.28, 357.41
328.64, 0.28, 357.26
328.45, 0.28, 357.09
328.25, 0.28, 356.92
328.02, 0.28, 356.72
327.77, 0.27, 356.50
327.50, 0.27, 356.26
327.20, 0.26, 356.00
326.88, 0.26, 355.71
326.54, 0.26, 355.41
326.24, 0.28, 355.15
325.98, 0.32, 354.92
325.71, 0.38, 354.68
325.43, 0.43, 354.43
325.12, 0.49, 354.16
324.79, 0.55, 353.87
324.43, 0.62, 353.56
320.49, 0.03, 350.08
319.14, 0.01, 348.90
319.03, 0.22, 348.80
319.03, 0.46, 348.80
319.03, 0.69, 348.80
319.03, 0.92, 348.80
319.03, 1.16, 348.80
319.03, 1.39, 348.80
319.03, 1.62, 348.80
319.03, 1.85, 348.80
319.03, 2.08, 348.80
319.03, 2.32, 348.80
319.07, 2.55, 348.84
¯328.76, 0.28, 357.47
328.58, 0.28, 357.31
328.39, 0.28, 357.15
328.19, 0.28, 356.97
327.96, 0.28, 356.78
327.71, 0.27, 356.56
327.43, 0.27, 356.33
327.13, 0.26, 356.07
326.80, 0.25, 355.78
326.43, 0.25, 355.47
326.14, 0.27, 355.22
325.89, 0.32, 355.00
325.62, 0.37, 354.77
325.33, 0.43, 354.52
325.02, 0.48, 354.25
324.68, 0.55, 353.96
324.32, 0.62, 353.65
320.31, 0.02, 350.20
318.99, 0.01, 349.07
318.73, 0.20, 348.84
318.73, 0.44, 348.84
318.73, 0.67, 348.84
318.73, 0.91, 348.84
318.72, 1.14, 348.84
318.72, 1.38, 348.84
318.72, 1.61, 348.84
318.72, 1.85, 348.84
318.72, 2.08, 348.84
318.72, 2.31, 348.84
318.77, 2.55, 348.88
328.71, 0.28, 357.52
328.53, 0.28, 357.37
328.34, 0.28, 357.21
328.13, 0.28, 357.03
327.90, 0.27, 356.84
327.65, 0.27, 356.63
327.37, 0.26, 356.39
327.06, 0.26, 356.14
326.73, 0.25, 355.85
326.35, 0.24, 355.54
326.06, 0.27, 355.29
325.80, 0.32, 355.08
325.53, 0.37, 354.85
325.24, 0.42, 354.61
324.93, 0.48, 354.35
324.59, 0.55, 354.06
324.23, 0.62, 353.76
320.17, 0.02, 350.36
318.83, 0.00, 349.24
318.42, 0.17, 348.89
318.42, 0.41, 348.89
¯318.42, 0.65, 348.89
318.41, 0.89, 348.89
318.41, 1.13, 348.89
318.41, 1.37, 348.89
318.41, 1.60, 348.89
318.41, 1.84, 348.89
318.41, 2.08, 348.89
318.41, 2.31, 348.89
318.46, 2.55, 348.93
328.67, 0.28, 357.57
328.48, 0.28, 357.43
328.29, 0.28, 357.27
328.08, 0.28, 357.09
327.84, 0.27, 356.90
327.58, 0.27, 356.69
327.30, 0.26, 356.46
326.99, 0.25, 356.21
326.65, 0.25, 355.93
326.28, 0.24, 355.62
325.98, 0.27, 355.38
325.72, 0.32, 355.17
325.45, 0.37, 354.94
325.16, 0.42, 354.70
324.84, 0.48, 354.45
324.50, 0.55, 354.17
321.39, 0.07, 351.62
320.03, 0.02, 350.52
318.68, 0.00, 349.41
318.10, 0.15, 348.93
318.10, 0.39, 348.93
318.10, 0.63, 348.93
318.10, 0.87, 348.93
318.10, 1.11, 348.93
318.10, 1.35, 348.93
318.10, 1.59, 348.93
318.09, 1.83, 348.93
318.09, 2.07, 348.93
318.09, 2.31, 348.93
318.14, 2.55, 348.97
328.62, 0.28, 357.63
328.44, 0.28, 357.48
328.24, 0.28, 357.33
328.02, 0.27, 357.15
327.78, 0.27, 356.96
327.52, 0.26, 356.75
327.24, 0.26, 356.53
326.93, 0.25, 356.28
326.59, 0.25, 356.01
326.21, 0.24, 355.71
325.91, 0.27, 355.47
325.65, 0.32, 355.26
¯325.37, 0.37, 355.04
325.08, 0.42, 354.80
324.76, 0.48, 354.55
324.42, 0.55, 354.28
321.27, 0.07, 351.77
319.90, 0.01, 350.67
318.53, 0.00, 349.58
317.77, 0.12, 348.98
317.77, 0.37, 348.98
317.77, 0.61, 348.98
317.77, 0.85, 348.98
317.77, 1.10, 348.98
317.77, 1.34, 348.98
317.77, 1.58, 348.98
317.77, 1.82, 348.98
317.77, 2.07, 348.98
317.77, 2.31, 348.98
317.82, 2.55, 349.02
328.57, 0.28, 357.68
328.39, 0.28, 357.54
328.19, 0.28, 357.39
327.97, 0.27, 357.21
327.72, 0.27, 357.03
327.46, 0.26, 356.82
327.18, 0.26, 356.60
326.87, 0.25, 356.36
326.52, 0.25, 356.09
326.15, 0.24, 355.80
325.86, 0.27, 355.57
325.57, 0.32, 355.35
325.30, 0.37, 355.14
325.00, 0.42, 354.90
324.68, 0.48, 354.65
324.33, 0.55, 354.39
321.16, 0.07, 351.92
319.77, 0.01, 350.83
318.38, 0.00, 349.76
317.44, 0.10, 349.03
317.44, 0.34, 349.03
317.44, 0.59, 349.03
317.44, 0.84, 349.03
317.44, 1.08, 349.03
317.44, 1.33, 349.03
317.44, 1.57, 349.03
317.44, 1.82, 349.03
317.44, 2.06, 349.03
317.44, 2.31, 349.03
317.49, 2.55, 349.07
328.53, 0.28, 357.74
328.34, 0.28, 357.60
328.14, 0.27, 357.45
