žVERSION 0.7
FIELDS x y z
SIZE 8 8 8
TYPE F F F
COUNT 1 1 1
WIDTH 2271
HEIGHT 1
VIEWPOINT 409.12, 7.26, 367.89 1 390.36, 2.29, 360.92
POINTS 2271
DATA ascii
384.21, 1.46, 353.97
384.38, 1.62, 354.10
384.47, 1.77, 354.18
384.54, 1.92, 354.24
384.60, 2.07, 354.29
384.66, 2.21, 354.35
384.73, 2.35, 354.40
389.29, 0.18, 358.34
389.13, 0.19, 358.21
388.96, 0.19, 358.07
388.78, 0.19, 357.92
388.59, 0.20, 357.76
388.38, 0.20, 357.59
388.15, 0.20, 357.41
387.91, 0.21, 357.21
387.65, 0.21, 356.99
387.36, 0.22, 356.75
387.04, 0.22, 356.49
386.69, 0.23, 356.20
386.31, 0.24, 355.88
385.88, 0.25, 355.53
385.41, 0.26, 355.15
384.87, 0.27, 354.70
384.20, 0.27, 354.15
383.40, 0.27, 353.49
382.45, 0.26, 352.71
381.31, 0.26, 351.77
383.49, 0.77, 353.57
383.69, 0.96, 353.73
383.75, 1.12, 353.78
383.93, 1.29, 353.93
384.10, 1.46, 354.07
¯384.27, 1.62, 354.21
384.36, 1.77, 354.28
384.43, 1.92, 354.34
384.50, 2.07, 354.39
384.56, 2.21, 354.45
384.63, 2.35, 354.50
389.24, 0.18, 358.39
389.08, 0.19, 358.26
388.91, 0.19, 358.13
388.73, 0.19, 357.98
388.54, 0.20, 357.82
388.33, 0.20, 357.65
388.10, 0.20, 357.47
387.85, 0.21, 357.27
387.59, 0.21, 357.06
387.29, 0.22, 356.82
386.97, 0.22, 356.57
386.62, 0.23, 356.28
386.23, 0.24, 355.97
385.80, 0.25, 355.62
385.32, 0.26, 355.24
384.78, 0.27, 354.80
384.09, 0.27, 354.25
383.27, 0.26, 353.59
382.31, 0.26, 352.82
381.69, 0.34, 352.32
383.36, 0.76, 353.66
383.58, 0.95, 353.84
383.64, 1.12, 353.89
383.82, 1.29, 354.03
384.00, 1.46, 354.17
384.16, 1.62, 354.31
384.26, 1.77, 354.39
384.33, 1.92, 354.44
384.39, 2.07, 354.49
384.46, 2.21, 354.55
384.52, 2.35, 354.60
389.20, 0.18, 358.44
389.04, 0.18, 358.32
388.87, 0.19, 358.18
388.68, 0.19, 358.04
388.49, 0.19, 357.88
388.27, 0.20, 357.72
388.04, 0.20, 357.54
387.79, 0.21, 357.34
387.52, 0.21, 357.13
387.23, 0.22, 356.90
386.91, 0.22, 356.64
386.55, 0.23, 356.37
386.16, 0.24, 356.06
385.72, 0.24, 355.71
¯385.23, 0.26, 355.33
384.68, 0.26, 354.90
383.97, 0.26, 354.34
383.14, 0.26, 353.69
382.52, 0.31, 353.21
381.54, 0.33, 352.44
383.22, 0.76, 353.75
383.46, 0.95, 353.94
383.53, 1.12, 354.00
383.71, 1.29, 354.14
383.89, 1.46, 354.28
384.06, 1.62, 354.41
384.15, 1.77, 354.49
384.22, 1.92, 354.54
384.29, 2.06, 354.59
384.36, 2.21, 354.65
384.42, 2.35, 354.70
389.16, 0.18, 358.49
389.00, 0.18, 358.37
388.82, 0.19, 358.24
388.64, 0.19, 358.10
388.44, 0.19, 357.94
388.22, 0.20, 357.78
387.99, 0.20, 357.60
387.74, 0.21, 357.41
387.46, 0.21, 357.20
387.17, 0.22, 356.97
386.84, 0.22, 356.72
386.48, 0.23, 356.45
386.08, 0.24, 356.14
385.64, 0.24, 355.80
385.14, 0.25, 355.43
384.57, 0.26, 354.99
383.85, 0.26, 354.44
383.24, 0.29, 353.97
382.39, 0.31, 353.32
381.39, 0.33, 352.56
383.06, 0.75, 353.84
383.35, 0.95, 354.05
383.41, 1.11, 354.10
383.60, 1.29, 354.25
383.78, 1.46, 354.38
383.91, 1.62, 354.49
384.00, 1.77, 354.55
384.08, 1.92, 354.61
384.16, 2.06, 354.68
384.24, 2.21, 354.74
384.31, 2.35, 354.79
389.12, 0.18, 358.55
388.95, 0.18, 358.43
388.78, 0.19, 358.29
¯388.59, 0.19, 358.15
388.39, 0.19, 358.00
388.17, 0.20, 357.84
387.94, 0.20, 357.67
387.68, 0.21, 357.48
387.41, 0.21, 357.27
387.10, 0.22, 357.05
386.77, 0.22, 356.80
386.41, 0.23, 356.53
386.01, 0.23, 356.23
385.56, 0.24, 355.90
385.06, 0.25, 355.52
384.47, 0.26, 355.08
383.86, 0.27, 354.63
383.12, 0.29, 354.08
382.26, 0.30, 353.44
381.25, 0.32, 352.68
382.90, 0.74, 353.92
383.23, 0.95, 354.16
383.30, 1.11, 354.21
383.49, 1.29, 354.35
383.59, 1.45, 354.43
383.68, 1.61, 354.50
383.77, 1.76, 354.56
383.85, 1.91, 354.62
383.91, 2.06, 354.67
383.98, 2.21, 354.72
384.04, 2.35, 354.77
389.07, 0.18, 358.60
388.91, 0.18, 358.48
388.73, 0.19, 358.35
388.54, 0.19, 358.21
388.34, 0.19, 358.07
388.12, 0.20, 357.91
387.88, 0.20, 357.74
387.63, 0.20, 357.55
387.35, 0.21, 357.35
387.04, 0.21, 357.13
386.71, 0.22, 356.88
386.34, 0.23, 356.62
385.94, 0.23, 356.32
385.48, 0.24, 355.99
384.98, 0.25, 355.62
384.40, 0.26, 355.21
383.75, 0.27, 354.73
383.00, 0.28, 354.19
382.12, 0.30, 353.55
381.10, 0.31, 352.81
382.72, 0.73, 353.99
383.12, 0.94, 354.27
383.16, 1.11, 354.31
¯383.26, 1.27, 354.38
383.34, 1.44, 354.44
383.41, 1.59, 354.49
383.48, 1.75, 354.54
383.55, 1.91, 354.59
383.62, 2.06, 354.64
383.69, 2.21, 354.69
383.76, 2.35, 354.74
389.03, 0.18, 358.65
388.87, 0.18, 358.54
388.69, 0.18, 358.41
388.50, 0.19, 358.27
388.29, 0.19, 358.13
388.07, 0.20, 357.97
387.83, 0.20, 357.80
387.57, 0.20, 357.62
387.29, 0.21, 357.42
386.98, 0.21, 357.20
386.65, 0.22, 356.97
386.28, 0.23, 356.70
385.87, 0.23, 356.41
385.41, 0.24, 356.09
384.91, 0.25, 355.73
384.30, 0.25, 355.30
383.64, 0.26, 354.83
382.88, 0.28, 354.30
381.99, 0.29, 353.67
380.95, 0.31, 352.93
382.53, 0.72, 354.05
383.00, 0.94, 354.39
382.98, 1.10, 354.37
382.94, 1.25, 354.35
383.02, 1.42, 354.40
383.10, 1.58, 354.45
383.17, 1.74, 354.51
383.25, 1.90, 354.56
383.32, 2.05, 354.61
383.39, 2.21, 354.66
383.46, 2.36, 354.71
388.99, 0.18, 358.71
388.82, 0.18, 358.59
388.64, 0.18, 358.47
388.45, 0.19, 358.33
388.24, 0.19, 358.19
388.02, 0.19, 358.04
387.78, 0.20, 357.87
387.52, 0.20, 357.69
387.23, 0.21, 357.50
386.92, 0.21, 357.28
386.58, 0.22, 357.05
386.21, 0.22, 356.79
¯385.80, 0.23, 356.50
385.33, 0.24, 356.19
384.84, 0.25, 355.84
384.20, 0.25, 355.40
383.53, 0.26, 354.94
382.76, 0.27, 354.41
381.86, 0.29, 353.79
380.81, 0.30, 353.06
379.54, 0.32, 352.19
382.89, 0.94, 354.50
382.45, 1.05, 354.20
382.55, 1.23, 354.27
382.66, 1.40, 354.34
382.76, 1.57, 354.41
382.85, 1.73, 354.47
382.93, 1.89, 354.53
383.00, 2.05, 354.58
383.08, 2.21, 354.63
383.15, 2.36, 354.68
388.95, 0.18, 358.76
388.78, 0.18, 358.65
388.60, 0.18, 358.53
388.41, 0.19, 358.40
388.20, 0.19, 358.26
387.97, 0.19, 358.10
387.73, 0.20, 357.94
387.46, 0.20, 357.76
387.18, 0.21, 357.57
386.87, 0.21, 357.36
386.52, 0.22, 357.13
386.14, 0.22, 356.88
385.73, 0.23, 356.60
385.26, 0.24, 356.28
384.76, 0.25, 355.95
384.11, 0.25, 355.51
383.42, 0.26, 355.05
382.64, 0.27, 354.52
381.73, 0.28, 353.91
380.66, 0.30, 353.19
379.38, 0.32, 352.33
376.66, 0.20, 350.50
382.72, 2.21, 354.58
382.82, 2.36, 354.64
388.91, 0.18, 358.82
388.74, 0.18, 358.71
388.56, 0.18, 358.59
388.36, 0.19, 358.46
388.15, 0.19, 358.32
387.92, 0.19, 358.17
387.68, 0.20, 358.01
387.41, 0.20, 357.84
¯387.12, 0.21, 357.65
386.81, 0.21, 357.44
386.46, 0.22, 357.21
386.08, 0.22, 356.96
385.66, 0.23, 356.69
385.23, 0.25, 356.41
384.69, 0.25, 356.05
384.03, 0.25, 355.62
383.31, 0.25, 355.15
382.52, 0.26, 354.64
381.60, 0.27, 354.03
380.52, 0.29, 353.32
379.22, 0.31, 352.48
376.54, 0.20, 350.73
373.90, 0.17, 348.99
388.88, 0.18, 358.87
388.70, 0.18, 358.76
388.52, 0.18, 358.65
388.32, 0.18, 358.52
388.11, 0.19, 358.38
387.88, 0.19, 358.24
387.63, 0.20, 358.08
387.36, 0.20, 357.91
387.07, 0.20, 357.72
386.75, 0.21, 357.52
386.40, 0.21, 357.30
386.02, 0.22, 357.05
385.59, 0.23, 356.78
385.17, 0.25, 356.51
384.61, 0.25, 356.16
383.95, 0.25, 355.74
383.21, 0.25, 355.26
382.41, 0.26, 354.75
381.47, 0.27, 354.16
380.37, 0.28, 353.46
379.05, 0.30, 352.62
376.43, 0.20, 350.95
373.74, 0.17, 349.24
388.84, 0.18, 358.93
388.66, 0.18, 358.82
388.48, 0.18, 358.71
388.28, 0.18, 358.58
388.06, 0.19, 358.45
387.83, 0.19, 358.31
387.58, 0.19, 358.15
387.31, 0.20, 357.98
387.02, 0.20, 357.80
386.69, 0.21, 357.60
386.34, 0.21, 357.38
385.95, 0.22, 357.14
385.55, 0.23, 356.90
¯385.11, 0.25, 356.62
384.54, 0.25, 356.27
383.87, 0.24, 355.85
383.10, 0.24, 355.38
382.29, 0.25, 354.87
381.34, 0.26, 354.29
380.23, 0.28, 353.59
378.89, 0.30, 352.77
376.32, 0.21, 351.17
373.59, 0.17, 349.48
388.80, 0.17, 358.99
388.63, 0.18, 358.88
388.44, 0.18, 358.77
388.23, 0.18, 358.65
388.02, 0.19, 358.52
387.78, 0.19, 358.37
387.53, 0.19, 358.22
387.26, 0.20, 358.06
386.96, 0.20, 357.88
386.64, 0.21, 357.68
386.28, 0.21, 357.47
385.89, 0.22, 357.23
385.52, 0.24, 357.01
385.04, 0.25, 356.72
384.47, 0.25, 356.37
383.79, 0.24, 355.97
383.01, 0.24, 355.49
382.18, 0.25, 354.99
381.22, 0.26, 354.41
380.09, 0.27, 353.73
378.70, 0.28, 352.89
376.21, 0.21, 351.40
373.44, 0.17, 349.72
388.77, 0.17, 359.04
388.59, 0.18, 358.94
388.40, 0.18, 358.83
388.19, 0.18, 358.71
387.98, 0.19, 358.58
387.74, 0.19, 358.44
387.49, 0.19, 358.29
387.21, 0.20, 358.13
386.91, 0.20, 357.96
386.59, 0.21, 357.77
386.23, 0.21, 357.56
385.85, 0.22, 357.34
385.47, 0.24, 357.11
384.98, 0.25, 356.82
384.39, 0.25, 356.48
383.71, 0.24, 356.08
382.92, 0.24, 355.62
382.06, 0.24, 355.11
¯381.09, 0.25, 354.54
379.95, 0.27, 353.87
378.49, 0.27, 353.02
376.11, 0.21, 351.62
373.29, 0.17, 349.97
388.73, 0.17, 359.10
388.55, 0.18, 359.00
388.36, 0.18, 358.89
388.15, 0.18, 358.77
387.93, 0.18, 358.65
387.70, 0.19, 358.51
387.44, 0.19, 358.37
387.16, 0.20, 358.21
386.86, 0.20, 358.04
386.53, 0.20, 357.85
386.17, 0.21, 357.64
385.82, 0.23, 357.45
385.42, 0.24, 357.21
384.91, 0.25, 356.93
384.32, 0.24, 356.59
383.64, 0.24, 356.20
382.83, 0.23, 355.74
381.95, 0.24, 355.24
380.97, 0.25, 354.68
379.81, 0.26, 354.01
378.28, 0.26, 353.15
376.00, 0.21, 351.84
373.15, 0.17, 350.22
388.69, 0.17, 359.16
388.51, 0.17, 359.06
388.32, 0.18, 358.95
388.11, 0.18, 358.84
387.89, 0.18, 358.72
387.65, 0.19, 358.58
387.40, 0.19, 358.44
387.12, 0.19, 358.29
386.81, 0.20, 358.12
386.48, 0.20, 357.93
386.13, 0.21, 357.74
385.80, 0.24, 357.55
385.36, 0.24, 357.31
384.85, 0.25, 357.03
384.26, 0.24, 356.70
383.56, 0.24, 356.32
382.75, 0.23, 355.87
381.84, 0.23, 355.36
380.84, 0.24, 354.81
379.67, 0.25, 354.16
378.09, 0.25, 353.28
375.90, 0.22, 352.07
373.00, 0.17, 350.47
¯388.66, 0.17, 359.22
388.48, 0.17, 359.12
388.28, 0.18, 359.02
388.07, 0.18, 358.90
387.85, 0.18, 358.78
387.61, 0.19, 358.65
387.35, 0.19, 358.51
387.07, 0.19, 358.36
386.76, 0.20, 358.20
386.43, 0.20, 358.02
386.10, 0.22, 357.84
385.76, 0.24, 357.66
385.31, 0.24, 357.41
384.79, 0.24, 357.13
384.19, 0.24, 356.81
383.49, 0.24, 356.44
382.67, 0.23, 356.00
381.73, 0.23, 355.49
380.72, 0.24, 354.94
379.53, 0.25, 354.30
377.94, 0.24, 353.45
375.79, 0.22, 352.29
372.86, 0.17, 350.72
388.63, 0.17, 359.28
388.44, 0.17, 359.18
388.25, 0.18, 359.08
388.04, 0.18, 358.97
387.81, 0.18, 358.85
387.57, 0.18, 358.72
387.31, 0.19, 358.59
387.02, 0.19, 358.44
386.71, 0.20, 358.28
386.38, 0.20, 358.10
386.07, 0.22, 357.94
385.71, 0.24, 357.75
385.25, 0.24, 357.51
384.73, 0.24, 357.24
384.12, 0.24, 356.92
383.42, 0.24, 356.56
382.59, 0.23, 356.13
381.64, 0.22, 355.63
380.60, 0.23, 355.08
379.39, 0.24, 354.45
377.79, 0.24, 353.62
375.69, 0.22, 352.52
372.73, 0.17, 350.97
388.59, 0.17, 359.34
388.41, 0.17, 359.24
388.21, 0.17, 359.14
388.00, 0.18, 359.04
387.77, 0.18, 358.92
¯387.53, 0.18, 358.80
387.26, 0.19, 358.66
386.98, 0.19, 358.52
386.67, 0.20, 358.36
386.36, 0.21, 358.20
386.05, 0.23, 358.05
385.66, 0.24, 357.85
385.20, 0.24, 357.61
384.67, 0.24, 357.35
384.06, 0.24, 357.04
383.35, 0.24, 356.68
382.52, 0.23, 356.26
381.55, 0.22, 355.76
380.48, 0.22, 355.22
379.25, 0.23, 354.60
377.65, 0.23, 353.79
375.59, 0.22, 352.74
372.59, 0.17, 351.22
388.56, 0.17, 359.40
388.37, 0.17, 359.30
388.18, 0.17, 359.21
387.96, 0.18, 359.10
387.73, 0.18, 358.99
387.49, 0.18, 358.87
387.22, 0.19, 358.74
386.93, 0.19, 358.60
386.62, 0.19, 358.44
386.33, 0.21, 358.30
386.02, 0.24, 358.15
385.61, 0.24, 357.94
385.14, 0.24, 357.71
384.61, 0.24, 357.45
383.99, 0.24, 357.15
383.28, 0.23, 356.80
382.44, 0.23, 356.39
381.47, 0.22, 355.91
380.35, 0.22, 355.36
379.12, 0.23, 354.75
377.50, 0.22, 353.96
375.43, 0.21, 352.94
372.46, 0.17, 351.48
388.53, 0.17, 359.46
388.34, 0.17, 359.37
388.14, 0.17, 359.27
387.93, 0.18, 359.17
387.70, 0.18, 359.06
387.45, 0.18, 358.94
387.18, 0.19, 358.81
386.89, 0.19, 358.68
386.59, 0.20, 358.53
386.31, 0.22, 358.40
¯385.98, 0.24, 358.24
385.56, 0.24, 358.04
385.09, 0.24, 357.82
384.55, 0.24, 357.56
383.93, 0.24, 357.26
383.21, 0.23, 356.92
382.37, 0.23, 356.52
381.38, 0.22, 356.05
380.24, 0.21, 355.51
378.98, 0.22, 354.90
377.36, 0.22, 354.13
375.27, 0.21, 353.13
372.34, 0.17, 351.74
388.50, 0.17, 359.52
388.31, 0.17, 359.43
388.11, 0.17, 359.34
387.89, 0.17, 359.24
387.66, 0.18, 359.13
387.41, 0.18, 359.01
387.14, 0.18, 358.89
386.85, 0.19, 358.76
386.57, 0.20, 358.63
386.29, 0.23, 358.50
385.93, 0.24, 358.33
385.51, 0.24, 358.14
385.04, 0.24, 357.92
384.50, 0.24, 357.67
383.87, 0.24, 357.38
383.14, 0.23, 357.04
382.30, 0.23, 356.65
381.30, 0.22, 356.19
380.15, 0.21, 355.66
378.85, 0.21, 355.06
377.22, 0.21, 354.31
375.11, 0.20, 353.33
372.21, 0.17, 351.99
388.47, 0.17, 359.58
388.28, 0.17, 359.49
388.07, 0.17, 359.40
387.86, 0.17, 359.30
387.62, 0.18, 359.20
387.37, 0.18, 359.09
387.10, 0.18, 358.97
386.81, 0.19, 358.84
386.55, 0.21, 358.72
386.27, 0.23, 358.59
385.89, 0.24, 358.42
385.47, 0.24, 358.24
384.99, 0.24, 358.02
384.44, 0.24, 357.78
383.81, 0.24, 357.49
¯383.08, 0.23, 357.17
382.23, 0.22, 356.79
381.23, 0.21, 356.34
380.05, 0.21, 355.81
378.72, 0.21, 355.22
377.08, 0.21, 354.48
374.96, 0.20, 353.54
372.09, 0.17, 352.25
388.44, 0.17, 359.64
388.25, 0.17, 359.56
388.04, 0.17, 359.47
387.82, 0.17, 359.37
387.59, 0.18, 359.27
387.34, 0.18, 359.16
387.06, 0.18, 359.04
386.79, 0.19, 358.93
386.53, 0.21, 358.81
386.23, 0.23, 358.68
385.85, 0.24, 358.52
385.42, 0.24, 358.33
384.94, 0.24, 358.12
384.39, 0.24, 357.89
383.75, 0.23, 357.61
383.02, 0.23, 357.29
382.16, 0.22, 356.92
381.15, 0.21, 356.49
379.96, 0.20, 355.97
378.58, 0.20, 355.38
376.84, 0.19, 354.62
374.80, 0.19, 353.74
371.97, 0.17, 352.52
388.41, 0.16, 359.70
388.22, 0.17, 359.62
388.01, 0.17, 359.53
387.79, 0.17, 359.44
387.55, 0.17, 359.34
387.30, 0.18, 359.24
387.03, 0.18, 359.12
386.78, 0.20, 359.02
386.51, 0.22, 358.91
386.19, 0.23, 358.77
385.81, 0.24, 358.61
385.38, 0.24, 358.43
384.89, 0.24, 358.23
384.33, 0.24, 358.00
383.69, 0.23, 357.73
382.96, 0.23, 357.42
382.09, 0.22, 357.06
381.08, 0.21, 356.63
379.88, 0.20, 356.13
378.47, 0.20, 355.54
¯376.75, 0.19, 354.82
374.65, 0.19, 353.95
371.85, 0.17, 352.78
388.38, 0.16, 359.76
388.19, 0.17, 359.68
387.98, 0.17, 359.60
387.76, 0.17, 359.51
387.52, 0.17, 359.42
387.27, 0.18, 359.31
387.01, 0.18, 359.21
386.76, 0.20, 359.11
386.49, 0.22, 359.00
386.16, 0.23, 358.86
385.77, 0.24, 358.71
385.33, 0.24, 358.53
384.84, 0.24, 358.33
384.28, 0.24, 358.11
383.64, 0.23, 357.85
382.90, 0.23, 357.55
381.08, 0.05, 356.81
380.04, 0.05, 356.39
378.81, 0.05, 355.90
377.59, 0.09, 355.40
376.65, 0.19, 355.02
374.49, 0.18, 354.15
371.74, 0.17, 353.04
388.35, 0.16, 359.82
388.16, 0.16, 359.75
387.95, 0.17, 359.67
387.73, 0.17, 359.58
387.49, 0.17, 359.49
387.23, 0.18, 359.39
386.99, 0.19, 359.29
386.74, 0.21, 359.20
386.47, 0.23, 359.09
386.12, 0.23, 358.95
385.73, 0.24, 358.80
385.29, 0.24, 358.63
384.79, 0.24, 358.44
384.23, 0.24, 358.22
383.53, 0.22, 357.95
381.92, 0.05, 357.32
381.02, 0.05, 356.97
379.97, 0.05, 356.56
378.74, 0.05, 356.08
377.26, 0.05, 355.50
375.52, 0.06, 354.82
374.34, 0.17, 354.36
371.63, 0.17, 353.31
388.33, 0.16, 359.89
388.13, 0.16, 359.81
¯387.92, 0.17, 359.73
387.70, 0.17, 359.65
387.46, 0.17, 359.56
387.20, 0.18, 359.47
386.97, 0.19, 359.38
386.73, 0.21, 359.29
386.44, 0.23, 359.18
386.08, 0.23, 359.04
385.69, 0.23, 358.90
385.25, 0.24, 358.73
384.75, 0.24, 358.54
383.34, 0.05, 358.01
382.65, 0.05, 357.75
381.86, 0.05, 357.46
380.96, 0.05, 357.12
379.90, 0.05, 356.72
378.66, 0.05, 356.26
377.18, 0.05, 355.70
375.24, 0.04, 354.97
373.84, 0.13, 354.45
371.52, 0.17, 353.57
388.30, 0.16, 359.95
388.10, 0.16, 359.88
387.89, 0.17, 359.80
387.67, 0.17, 359.72
387.43, 0.17, 359.63
387.19, 0.18, 359.55
386.96, 0.20, 359.46
386.71, 0.22, 359.37
386.41, 0.23, 359.26
386.05, 0.23, 359.14
385.66, 0.23, 358.99
385.21, 0.24, 358.83
383.91, 0.05, 358.36
383.29, 0.05, 358.14
382.60, 0.05, 357.89
381.81, 0.05, 357.60
380.90, 0.05, 357.27
379.84, 0.05, 356.89
378.59, 0.05, 356.44
377.10, 0.05, 355.90
375.15, 0.04, 355.19
372.86, 0.04, 354.36
371.42, 0.17, 353.84
388.27, 0.16, 360.01
388.08, 0.16, 359.94
387.86, 0.16, 359.87
387.64, 0.17, 359.79
387.40, 0.17, 359.71
387.17, 0.18, 359.63
386.94, 0.20, 359.55
¯386.70, 0.22, 359.46
386.37, 0.23, 359.35
386.02, 0.23, 359.23
385.62, 0.23, 359.09
385.17, 0.23, 358.93
383.86, 0.05, 358.48
383.25, 0.05, 358.26
382.55, 0.05, 358.02
381.76, 0.05, 357.75
380.84, 0.05, 357.43
379.78, 0.05, 357.06
378.53, 0.05, 356.62
377.03, 0.05, 356.10
375.06, 0.04, 355.41
372.76, 0.04, 354.61
371.02, 0.15, 354.01
388.25, 0.16, 360.08
388.05, 0.16, 360.01
387.84, 0.16, 359.94
387.61, 0.17, 359.86
387.38, 0.17, 359.79
387.16, 0.19, 359.71
386.93, 0.21, 359.64
386.67, 0.23, 359.55
386.34, 0.23, 359.44
385.98, 0.23, 359.32
385.58, 0.23, 359.18
384.37, 0.05, 358.78
383.82, 0.05, 358.60
383.20, 0.05, 358.39
382.50, 0.05, 358.16
381.71, 0.05, 357.89
380.79, 0.05, 357.58
379.72, 0.05, 357.22
378.46, 0.05, 356.80
376.96, 0.05, 356.30
374.97, 0.04, 355.64
372.67, 0.04, 354.87
388.23, 0.16, 360.14
388.03, 0.16, 360.08
387.81, 0.16, 360.01
387.58, 0.16, 359.93
387.36, 0.18, 359.86
387.15, 0.19, 359.79
386.92, 0.21, 359.72
386.65, 0.23, 359.63
386.31, 0.23, 359.53
385.95, 0.23, 359.41
384.83, 0.05, 359.05
384.34, 0.05, 358.89
383.78, 0.05, 358.72
¯383.16, 0.05, 358.52
382.46, 0.05, 358.29
381.66, 0.05, 358.03
380.74, 0.05, 357.74
379.66, 0.05, 357.39
378.40, 0.05, 356.99
376.88, 0.05, 356.50
374.89, 0.04, 355.86
372.58, 0.04, 355.12
388.20, 0.16, 360.21
388.00, 0.16, 360.14
387.79, 0.16, 360.08
387.56, 0.16, 360.01
387.35, 0.18, 359.94
387.14, 0.20, 359.88
386.90, 0.22, 359.81
386.62, 0.23, 359.72
386.29, 0.23, 359.62
385.25, 0.05, 359.30
384.80, 0.05, 359.16
384.30, 0.05, 359.01
383.74, 0.05, 358.83
383.12, 0.05, 358.64
382.41, 0.05, 358.43
381.61, 0.05, 358.18
380.68, 0.05, 357.89
379.61, 0.05, 357.56
378.34, 0.05, 357.17
376.81, 0.05, 356.70
374.82, 0.04, 356.09
372.50, 0.04, 355.38
388.18, 0.16, 360.27
387.98, 0.16, 360.21
387.76, 0.16, 360.15
387.55, 0.17, 360.08
387.34, 0.18, 360.02
387.12, 0.20, 359.96
386.89, 0.22, 359.89
386.59, 0.22, 359.80
385.63, 0.05, 359.52
385.22, 0.05, 359.40
384.77, 0.05, 359.27
384.27, 0.05, 359.12
383.71, 0.05, 358.95
383.08, 0.05, 358.77
382.37, 0.05, 358.56
381.56, 0.05, 358.32
380.64, 0.05, 358.05
379.55, 0.05, 357.73
378.28, 0.05, 357.36
376.74, 0.05, 356.91
¯374.74, 0.04, 356.32
372.41, 0.04, 355.63
388.16, 0.16, 360.33
387.96, 0.16, 360.28
387.74, 0.16, 360.22
387.53, 0.17, 360.16
387.33, 0.19, 360.10
387.11, 0.21, 360.04
386.87, 0.22, 359.97
386.57, 0.22, 359.89
385.60, 0.05, 359.62
385.19, 0.05, 359.50
384.74, 0.05, 359.37
384.23, 0.05, 359.23
383.67, 0.05, 359.07
383.04, 0.05, 358.90
382.33, 0.05, 358.70
381.52, 0.05, 358.47
380.59, 0.05, 358.21
379.50, 0.05, 357.90
378.22, 0.05, 357.54
376.67, 0.05, 357.11
374.67, 0.04, 356.55
372.33, 0.04, 355.89
388.14, 0.15, 360.40
387.93, 0.16, 360.35
387.72, 0.16, 360.29
387.53, 0.17, 360.24
387.32, 0.19, 360.18
387.10, 0.21, 360.12
386.85, 0.22, 360.06
385.95, 0.05, 359.81
385.57, 0.05, 359.71
385.16, 0.05, 359.60
384.70, 0.05, 359.48
384.20, 0.05, 359.35
383.64, 0.05, 359.19
383.01, 0.05, 359.03
382.29, 0.05, 358.83
381.48, 0.05, 358.62
380.54, 0.05, 358.37
379.45, 0.05, 358.07
378.17, 0.05, 357.73
376.61, 0.05, 357.31
374.61, 0.04, 356.78
372.26, 0.04, 356.15
388.12, 0.15, 360.46
387.91, 0.16, 360.41
387.71, 0.16, 360.36
387.52, 0.18, 360.31
387.31, 0.20, 360.26
¯387.10, 0.21, 360.20
386.27, 0.05, 360.00
385.92, 0.05, 359.91
385.55, 0.05, 359.81
385.13, 0.05, 359.71
384.68, 0.05, 359.59
384.17, 0.05, 359.46
383.60, 0.05, 359.32
382.97, 0.05, 359.15
382.25, 0.05, 358.97
381.44, 0.05, 358.76
380.50, 0.05, 358.52
379.41, 0.05, 358.25
378.12, 0.05, 357.92
376.55, 0.05, 357.52
374.54, 0.04, 357.01
372.18, 0.04, 356.41
388.10, 0.15, 360.53
387.89, 0.15, 360.48
387.70, 0.17, 360.43
387.51, 0.18, 360.39
387.30, 0.20, 360.34
386.57, 0.05, 360.16
386.25, 0.05, 360.08
385.90, 0.05, 360.00
385.52, 0.05, 359.91
385.11, 0.05, 359.81
384.65, 0.05, 359.70
384.14, 0.05, 359.57
383.57, 0.05, 359.44
382.94, 0.05, 359.28
382.22, 0.05, 359.11
381.40, 0.05, 358.91
380.46, 0.05, 358.68
379.36, 0.05, 358.42
378.07, 0.05, 358.11
376.49, 0.05, 357.72
374.48, 0.04, 357.24
372.11, 0.04, 356.67
388.08, 0.15, 360.60
387.88, 0.15, 360.55
387.69, 0.17, 360.51
387.50, 0.19, 360.46
387.30, 0.20, 360.42
386.55, 0.05, 360.25
386.23, 0.05, 360.17
385.88, 0.05, 360.09
385.50, 0.05, 360.01
385.08, 0.05, 359.91
384.62, 0.05, 359.81
384.11, 0.05, 359.69
¯383.54, 0.05, 359.56
382.90, 0.05, 359.41
382.18, 0.05, 359.25
381.36, 0.05, 359.06
380.42, 0.05, 358.84
379.32, 0.05, 358.59
378.02, 0.05, 358.29
376.43, 0.05, 357.93
374.42, 0.04, 357.47
372.05, 0.04, 356.93
388.06, 0.15, 360.66
387.87, 0.16, 360.62
387.69, 0.17, 360.58
387.49, 0.19, 360.54
386.82, 0.05, 360.40
386.53, 0.05, 360.33
386.21, 0.05, 360.26
385.86, 0.05, 360.19
385.47, 0.05, 360.10
385.06, 0.05, 360.01
384.60, 0.05, 359.91
384.08, 0.05, 359.80
383.51, 0.05, 359.68
382.87, 0.05, 359.54
382.15, 0.05, 359.39
381.33, 0.05, 359.21
380.38, 0.05, 359.00
379.27, 0.05, 358.76
377.97, 0.05, 358.48
376.37, 0.05, 358.14
374.36, 0.04, 357.70
371.98, 0.04, 357.19
388.04, 0.15, 360.73
387.86, 0.16, 360.69
387.68, 0.18, 360.66
387.08, 0.05, 360.53
386.80, 0.05, 360.48
386.51, 0.05, 360.42
386.19, 0.05, 360.35
385.84, 0.05, 360.28
385.45, 0.05, 360.20
385.03, 0.05, 360.12
384.57, 0.05, 360.02
384.06, 0.05, 359.92
383.49, 0.05, 359.80
382.85, 0.05, 359.67
382.12, 0.05, 359.53
381.29, 0.05, 359.36
380.34, 0.05, 359.16
379.24, 0.05, 358.94
377.93, 0.05, 358.67
¯376.32, 0.05, 358.35
374.31, 0.04, 357.94
371.92, 0.04, 357.45
388.03, 0.15, 360.80
387.86, 0.16, 360.76
387.67, 0.18, 360.73
387.06, 0.05, 360.61
386.79, 0.05, 360.56
386.49, 0.05, 360.50
386.17, 0.05, 360.44
385.82, 0.05, 360.37
385.43, 0.05, 360.30
385.01, 0.05, 360.22
384.55, 0.05, 360.13
384.03, 0.05, 360.04
383.46, 0.05, 359.93
382.82, 0.05, 359.80
382.09, 0.05, 359.66
381.26, 0.05, 359.51
380.31, 0.05, 359.32
379.20, 0.05, 359.11
377.89, 0.05, 358.86
376.27, 0.05, 358.56
374.25, 0.04, 358.17
371.86, 0.04, 357.71
388.02, 0.15, 360.87
387.85, 0.17, 360.83
387.30, 0.05, 360.74
387.05, 0.05, 360.69
386.77, 0.05, 360.64
386.47, 0.05, 360.59
386.15, 0.05, 360.53
385.80, 0.05, 360.47
385.41, 0.05, 360.40
384.99, 0.05, 360.33
384.53, 0.05, 360.24
384.01, 0.05, 360.15
383.44, 0.05, 360.05
382.79, 0.05, 359.93
382.06, 0.05, 359.80
381.23, 0.05, 359.66
380.28, 0.05, 359.49
379.16, 0.05, 359.29
377.85, 0.05, 359.05
376.23, 0.05, 358.77
374.21, 0.04, 358.41
371.80, 0.04, 357.98
388.02, 0.15, 360.93
387.85, 0.17, 360.91
387.29, 0.05, 360.81
387.03, 0.05, 360.77
¯386.76, 0.05, 360.73
386.46, 0.05, 360.68
386.13, 0.05, 360.62
385.78, 0.05, 360.56
385.40, 0.05, 360.50
384.97, 0.05, 360.43
384.51, 0.05, 360.35
383.99, 0.05, 360.27
383.41, 0.05, 360.17
382.77, 0.05, 360.07
382.04, 0.05, 359.94
381.20, 0.05, 359.81
380.24, 0.05, 359.65
379.13, 0.05, 359.46
377.81, 0.05, 359.25
376.18, 0.05, 358.98
374.16, 0.04, 358.64
371.75, 0.04, 358.24
388.02, 0.16, 361.00
387.52, 0.05, 360.93
387.28, 0.05, 360.89
387.02, 0.05, 360.85
386.74, 0.05, 360.81
386.44, 0.05, 360.76
386.12, 0.05, 360.71
385.76, 0.05, 360.66
385.38, 0.05, 360.60
384.95, 0.05, 360.53
384.49, 0.05, 360.46
383.97, 0.05, 360.38
383.39, 0.05, 360.30
382.74, 0.05, 360.20
382.01, 0.05, 360.09
381.18, 0.05, 359.96
380.22, 0.05, 359.81
379.10, 0.05, 359.64
377.78, 0.05, 359.44
376.14, 0.05, 359.19
374.12, 0.04, 358.88
371.70, 0.04, 358.51
387.73, 0.05, 361.03
387.51, 0.05, 361.00
387.27, 0.05, 360.97
387.01, 0.05, 360.93
386.73, 0.05, 360.89
386.43, 0.05, 360.85
386.10, 0.05, 360.80
385.75, 0.05, 360.75
385.36, 0.05, 360.70
384.94, 0.05, 360.64
384.47, 0.05, 360.57
¯383.95, 0.05, 360.50
383.37, 0.05, 360.42
382.72, 0.05, 360.33
381.99, 0.05, 360.23
381.15, 0.05, 360.11
380.19, 0.05, 359.97
379.07, 0.05, 359.82
377.75, 0.05, 359.63
376.10, 0.05, 359.40
374.07, 0.04, 359.11
371.65, 0.04, 358.77
387.72, 0.05, 361.10
387.50, 0.05, 361.07
387.26, 0.05, 361.04
387.00, 0.05, 361.01
386.72, 0.05, 360.97
386.42, 0.05, 360.94
386.09, 0.05, 360.89
385.74, 0.05, 360.85
385.35, 0.05, 360.80
384.92, 0.05, 360.74
384.45, 0.05, 360.68
383.93, 0.05, 360.62
383.35, 0.05, 360.54
382.70, 0.05, 360.46
381.97, 0.05, 360.37
381.13, 0.05, 360.26
380.16, 0.05, 360.14
379.04, 0.05, 359.99
377.72, 0.05, 359.82
376.06, 0.05, 359.61
374.04, 0.04, 359.35
371.61, 0.04, 359.04
387.71, 0.05, 361.17
387.49, 0.05, 361.15
387.25, 0.05, 361.12
386.99, 0.05, 361.09
386.71, 0.05, 361.06
386.41, 0.05, 361.02
386.08, 0.05, 360.99
385.72, 0.05, 360.94
385.33, 0.05, 360.90
384.91, 0.05, 360.85
384.44, 0.05, 360.80
383.92, 0.05, 360.74
383.34, 0.05, 360.67
382.69, 0.05, 360.59
381.95, 0.05, 360.51
381.11, 0.05, 360.41
380.14, 0.05, 360.30
379.02, 0.05, 360.17
¯377.69, 0.05, 360.02
376.03, 0.05, 359.82
374.06, 0.04, 359.60
371.57, 0.04, 359.31
387.70, 0.05, 361.25
387.48, 0.05, 361.22
387.24, 0.05, 361.20
386.98, 0.05, 361.17
386.70, 0.05, 361.14
386.39, 0.05, 361.11
386.07, 0.05, 361.08
385.71, 0.05, 361.04
385.32, 0.05, 361.00
384.90, 0.05, 360.96
384.42, 0.05, 360.91
383.90, 0.05, 360.85
383.32, 0.05, 360.79
382.67, 0.05, 360.73
381.93, 0.05, 360.65
381.09, 0.05, 360.56
380.12, 0.05, 360.46
378.99, 0.05, 360.35
377.66, 0.05, 360.21
376.00, 0.05, 360.04
374.08, 0.05, 359.84
371.76, 0.06, 359.60
387.70, 0.05, 361.32
387.47, 0.05, 361.30
387.23, 0.05, 361.27
386.97, 0.05, 361.25
386.69, 0.05, 361.23
386.39, 0.05, 361.20
386.06, 0.05, 361.17
385.70, 0.05, 361.14
385.31, 0.05, 361.10
384.88, 0.05, 361.06
384.41, 0.05, 361.02
383.89, 0.05, 360.97
383.31, 0.05, 360.92
382.65, 0.05, 360.86
381.91, 0.05, 360.79
381.07, 0.05, 360.71
380.10, 0.05, 360.63
378.97, 0.05, 360.52
377.64, 0.05, 360.40
375.97, 0.05, 360.25
374.12, 0.06, 360.08
372.03, 0.09, 359.89
387.69, 0.05, 361.39
387.46, 0.05, 361.37
387.22, 0.05, 361.35
¯386.96, 0.05, 361.33
386.68, 0.05, 361.31
386.38, 0.05, 361.29
386.05, 0.05, 361.26
385.69, 0.05, 361.23
385.30, 0.05, 361.20
384.87, 0.05, 361.17
384.40, 0.05, 361.13
383.88, 0.05, 361.09
383.30, 0.05, 361.04
382.64, 0.05, 360.99
381.90, 0.05, 360.93
381.06, 0.05, 360.87
380.08, 0.05, 360.79
378.95, 0.05, 360.70
377.62, 0.05, 360.60
375.97, 0.05, 360.47
374.15, 0.06, 360.32
372.30, 0.12, 360.18
387.68, 0.05, 361.46
387.46, 0.05, 361.44
387.21, 0.05, 361.43
386.95, 0.05, 361.41
386.67, 0.05, 361.39
386.37, 0.05, 361.37
386.04, 0.05, 361.35
385.68, 0.05, 361.33
385.29, 0.05, 361.30
384.86, 0.05, 361.27
384.39, 0.05, 361.24
383.87, 0.05, 361.21
383.28, 0.05, 361.17
382.63, 0.05, 361.12
381.89, 0.05, 361.08
381.04, 0.05, 361.02
380.07, 0.05, 360.95
378.93, 0.05, 360.88
377.60, 0.05, 360.79
376.00, 0.05, 360.69
374.21, 0.07, 360.57
372.56, 0.15, 360.46
387.68, 0.05, 361.53
387.45, 0.05, 361.52
387.21, 0.05, 361.51
386.95, 0.05, 361.49
386.67, 0.05, 361.48
386.36, 0.05, 361.46
386.03, 0.05, 361.44
385.68, 0.05, 361.42
385.29, 0.05, 361.40
384.86, 0.05, 361.38
¯384.38, 0.05, 361.35
383.86, 0.05, 361.33
383.27, 0.05, 361.29
382.62, 0.05, 361.26
381.88, 0.05, 361.22
381.03, 0.05, 361.17
380.05, 0.05, 361.12
378.92, 0.05, 361.06
377.58, 0.05, 360.99
376.02, 0.06, 360.90
374.33, 0.09, 360.81
372.82, 0.18, 360.73
387.67, 0.05, 361.60
387.45, 0.05, 361.59
387.20, 0.05, 361.58
386.94, 0.05, 361.57
386.66, 0.05, 361.56
386.36, 0.05, 361.55
386.03, 0.05, 361.53
385.67, 0.05, 361.52
385.28, 0.05, 361.50
384.85, 0.05, 361.49
384.38, 0.05, 361.47
383.85, 0.05, 361.44
383.27, 0.05, 361.42
382.61, 0.05, 361.39
381.87, 0.05, 361.36
381.02, 0.05, 361.32
380.04, 0.05, 361.28
378.91, 0.05, 361.24
377.57, 0.05, 361.18
376.05, 0.07, 361.12
374.45, 0.10, 361.05
373.06, 0.20, 360.99
387.67, 0.05, 361.67
387.44, 0.05, 361.67
387.20, 0.05, 361.66
386.94, 0.05, 361.65
386.66, 0.05, 361.64
386.35, 0.05, 361.64
386.02, 0.05, 361.63
385.67, 0.05, 361.62
385.27, 0.05, 361.60
384.84, 0.05, 361.59
384.37, 0.05, 361.58
383.85, 0.05, 361.56
383.26, 0.05, 361.54
382.60, 0.05, 361.52
381.86, 0.05, 361.50
381.01, 0.05, 361.48
380.05, 0.06, 361.45
¯378.94, 0.06, 361.42
377.60, 0.06, 361.38
376.08, 0.07, 361.33
374.57, 0.12, 361.29
373.20, 0.22, 361.25
387.67, 0.05, 361.75
387.44, 0.05, 361.74
387.20, 0.05, 361.74
386.94, 0.05, 361.73
386.66, 0.05, 361.73
386.35, 0.05, 361.72
386.02, 0.05, 361.72
385.66, 0.05, 361.71
385.27, 0.05, 361.70
384.84, 0.05, 361.70
384.37, 0.05, 361.69
383.84, 0.05, 361.68
383.25, 0.05, 361.67
382.60, 0.05, 361.66
381.85, 0.05, 361.65
381.02, 0.06, 361.63
380.06, 0.06, 361.61
379.02, 0.07, 361.60
377.75, 0.08, 361.57
376.06, 0.07, 361.55
374.60, 0.12, 361.52
373.25, 0.22, 361.50
387.67, 0.05, 361.82
387.44, 0.05, 361.82
387.20, 0.05, 361.82
386.93, 0.05, 361.81
386.65, 0.05, 361.81
386.35, 0.05, 361.81
386.02, 0.05, 361.81
385.66, 0.05, 361.81
385.27, 0.05, 361.81
384.84, 0.05, 361.80
384.36, 0.05, 361.80
383.84, 0.05, 361.80
383.25, 0.05, 361.80
382.59, 0.05, 361.79
381.85, 0.05, 361.79
381.03, 0.06, 361.78
380.07, 0.06, 361.78
379.10, 0.09, 361.77
377.90, 0.10, 361.77
376.04, 0.07, 361.76
374.60, 0.13, 361.75
373.22, 0.22, 361.74
368.65, 0.08, 361.72
387.67, 0.05, 361.89
¯387.44, 0.05, 361.89
387.20, 0.05, 361.89
386.93, 0.05, 361.90
386.65, 0.05, 361.90
386.35, 0.05, 361.90
386.02, 0.05, 361.90
385.66, 0.05, 361.90
385.27, 0.05, 361.91
384.84, 0.05, 361.91
384.36, 0.05, 361.91
383.84, 0.05, 361.92
383.25, 0.05, 361.92
382.59, 0.05, 361.93
381.84, 0.05, 361.93
381.04, 0.06, 361.94
380.09, 0.07, 361.94
379.18, 0.10, 361.95
378.05, 0.13, 361.96
376.02, 0.07, 361.97
374.61, 0.13, 361.98
373.18, 0.22, 361.99
368.89, 0.10, 362.02
387.67, 0.05, 361.96
387.44, 0.05, 361.97
387.20, 0.05, 361.97
386.93, 0.05, 361.98
386.65, 0.05, 361.98
386.35, 0.05, 361.99
386.02, 0.05, 361.99
385.66, 0.05, 362.00
385.27, 0.05, 362.01
384.84, 0.05, 362.02
384.36, 0.05, 362.03
383.83, 0.05, 362.04
383.25, 0.05, 362.05
382.59, 0.05, 362.06
381.84, 0.05, 362.07
381.05, 0.07, 362.09
380.11, 0.07, 362.11
379.26, 0.11, 362.12
378.21, 0.15, 362.14
376.00, 0.06, 362.19
374.62, 0.13, 362.21
373.14, 0.22, 362.24
369.13, 0.12, 362.32
387.67, 0.05, 362.03
387.44, 0.05, 362.04
387.20, 0.05, 362.05
386.93, 0.05, 362.06
386.65, 0.05, 362.07
386.35, 0.05, 362.08
¯386.02, 0.05, 362.09
385.66, 0.05, 362.10
385.27, 0.05, 362.11
384.84, 0.05, 362.12
384.36, 0.05, 362.14
383.84, 0.05, 362.15
383.25, 0.05, 362.17
382.59, 0.05, 362.19
381.84, 0.05, 362.22
381.07, 0.07, 362.24
380.12, 0.07, 362.27
379.34, 0.12, 362.30
378.36, 0.17, 362.33
375.99, 0.06, 362.40
374.63, 0.13, 362.45
373.11, 0.21, 362.49
369.46, 0.15, 362.61
387.67, 0.05, 362.11
387.44, 0.05, 362.12
387.20, 0.05, 362.13
386.94, 0.05, 362.14
386.66, 0.05, 362.15
386.35, 0.05, 362.16
386.02, 0.05, 362.18
385.66, 0.05, 362.19
385.27, 0.05, 362.21
384.84, 0.05, 362.23
384.36, 0.05, 362.25
383.84, 0.05, 362.27
383.25, 0.05, 362.30
382.59, 0.05, 362.33
381.85, 0.06, 362.36
381.09, 0.07, 362.39
380.15, 0.08, 362.44
379.42, 0.14, 362.47
378.51, 0.19, 362.51
376.01, 0.07, 362.62
374.64, 0.13, 362.68
373.07, 0.21, 362.74
369.79, 0.18, 362.89
387.67, 0.05, 362.18
387.44, 0.05, 362.19
387.20, 0.05, 362.20
387.79, 0.34, 362.17
388.85, 0.75, 362.11
387.79, 0.49, 362.17
387.79, 0.57, 362.17
387.79, 0.64, 362.17
387.79, 0.72, 362.17
387.79, 0.79, 362.17
387.74, 0.86, 362.17
¯383.84, 0.05, 362.39
383.25, 0.05, 362.42
382.60, 0.05, 362.46
381.87, 0.06, 362.50
381.10, 0.07, 362.55
380.17, 0.08, 362.60
379.50, 0.15, 362.64
378.65, 0.21, 362.68
376.02, 0.07, 362.83
374.65, 0.13, 362.91
372.99, 0.20, 363.00
370.12, 0.21, 363.16
388.85, 0.49, 362.17
388.85, 0.56, 362.17
388.85, 0.62, 362.17
388.85, 0.68, 362.17
388.85, 0.75, 362.17
388.85, 0.81, 362.17
388.80, 0.86, 362.17
387.79, 0.64, 362.24
387.79, 0.72, 362.24
387.79, 0.79, 362.24
387.79, 0.87, 362.24
387.79, 0.94, 362.24
383.26, 0.05, 362.55
382.60, 0.05, 362.60
381.89, 0.06, 362.64
381.12, 0.08, 362.70
380.24, 0.09, 362.76
379.58, 0.16, 362.80
378.80, 0.23, 362.85
376.04, 0.07, 363.04
374.63, 0.13, 363.14
372.98, 0.20, 363.25
370.10, 0.21, 363.45
388.85, 0.49, 362.22
388.85, 0.55, 362.22
388.85, 0.62, 362.22
388.85, 0.68, 362.22
388.85, 0.75, 362.22
388.85, 0.81, 362.22
388.85, 0.87, 362.22
388.85, 0.93, 362.22
387.79, 0.72, 362.31
387.79, 0.79, 362.31
387.79, 0.87, 362.31
387.79, 0.94, 362.31
387.79, 1.01, 362.31
382.61, 0.05, 362.73
381.90, 0.06, 362.79
381.15, 0.08, 362.85
¯380.32, 0.10, 362.91
379.66, 0.17, 362.97
378.93, 0.24, 363.03
376.06, 0.07, 363.26
374.64, 0.13, 363.37
372.88, 0.19, 363.51
369.80, 0.18, 363.76
388.85, 0.49, 362.28
388.85, 0.55, 362.28
388.85, 0.62, 362.28
388.85, 0.68, 362.28
388.85, 0.74, 362.28
388.85, 0.81, 362.28
388.85, 0.87, 362.28
388.85, 0.93, 362.28
388.85, 0.99, 362.28
387.79, 0.79, 362.38
387.79, 0.86, 362.38
387.79, 0.94, 362.38
387.79, 1.01, 362.38
387.79, 1.09, 362.38
387.79, 1.16, 362.38
381.17, 0.08, 363.00
380.39, 0.11, 363.07
379.74, 0.18, 363.13
379.02, 0.25, 363.20
376.23, 0.09, 363.46
374.69, 0.13, 363.60
372.75, 0.18, 363.78
369.36, 0.14, 364.09
388.85, 0.49, 362.34
388.85, 0.55, 362.34
388.85, 0.62, 362.34
388.85, 0.68, 362.34
388.85, 0.74, 362.34
388.85, 0.81, 362.34
388.85, 0.87, 362.34
388.85, 0.93, 362.34
388.85, 0.99, 362.34
388.85, 1.05, 362.34
388.85, 1.11, 362.34
387.79, 0.94, 362.45
387.79, 1.01, 362.45
387.79, 1.08, 362.45
387.79, 1.16, 362.45
387.79, 1.23, 362.45
387.75, 1.30, 362.45
379.83, 0.19, 363.29
379.13, 0.27, 363.36
376.42, 0.11, 363.65
374.74, 0.14, 363.83
¯372.63, 0.16, 364.05
368.88, 0.10, 364.44
388.85, 0.48, 362.40
388.85, 0.55, 362.40
388.85, 0.61, 362.40
388.85, 0.68, 362.40
388.85, 0.74, 362.40
388.85, 0.80, 362.40
388.85, 0.87, 362.40
388.85, 0.93, 362.40
388.85, 0.99, 362.40
388.85, 1.05, 362.40
388.85, 1.11, 362.40
388.85, 1.17, 362.40
387.79, 1.01, 362.52
387.79, 1.08, 362.52
387.79, 1.16, 362.52
387.79, 1.23, 362.52
387.79, 1.30, 362.52
387.79, 1.37, 362.52
379.26, 0.28, 363.53
376.61, 0.13, 363.84
374.79, 0.14, 364.05
372.50, 0.15, 364.32
388.85, 0.48, 362.46
388.85, 0.55, 362.46
388.85, 0.61, 362.46
388.85, 0.68, 362.46
388.85, 0.74, 362.46
388.85, 0.80, 362.46
388.85, 0.87, 362.46
388.85, 0.93, 362.45
388.85, 0.99, 362.45
388.85, 1.05, 362.45
388.85, 1.11, 362.45
388.85, 1.17, 362.45
388.85, 1.23, 362.45
388.85, 1.29, 362.45
387.79, 1.16, 362.59
387.79, 1.23, 362.59
387.79, 1.30, 362.59
387.79, 1.37, 362.59
387.79, 1.45, 362.59
387.76, 1.51, 362.59
374.84, 0.15, 364.28
372.36, 0.13, 364.60
388.85, 0.48, 362.52
388.85, 0.54, 362.51
388.85, 0.61, 362.51
388.85, 0.67, 362.51
388.85, 0.74, 362.51
¯388.85, 0.80, 362.51
388.85, 0.86, 362.51
388.85, 0.93, 362.51
388.85, 0.99, 362.51
388.85, 1.05, 362.51
388.85, 1.11, 362.51
388.85, 1.17, 362.51
388.85, 1.23, 362.51
388.85, 1.29, 362.51
388.85, 1.35, 362.51
387.79, 1.23, 362.66
387.79, 1.30, 362.66
387.79, 1.37, 362.66
387.79, 1.44, 362.66
387.79, 1.52, 362.66
387.79, 1.59, 362.66
372.06, 0.10, 364.91
388.79, 0.45, 362.58
388.79, 0.52, 362.58
388.85, 0.61, 362.57
388.85, 0.67, 362.57
388.85, 0.73, 362.57
388.85, 0.80, 362.57
388.85, 0.86, 362.57
388.85, 0.92, 362.57
388.85, 0.99, 362.57
388.85, 1.05, 362.57
388.85, 1.11, 362.57
388.85, 1.17, 362.57
388.85, 1.23, 362.57
388.85, 1.29, 362.57
388.85, 1.35, 362.57
388.85, 1.41, 362.57
388.85, 1.47, 362.57
387.79, 1.37, 362.73
387.79, 1.44, 362.73
387.79, 1.52, 362.73
387.79, 1.59, 362.73
387.79, 1.66, 362.73
387.78, 1.73, 362.73
388.79, 0.45, 362.64
388.79, 0.52, 362.64
388.79, 0.58, 362.64
388.85, 0.67, 362.63
388.85, 0.73, 362.63
388.85, 0.80, 362.63
388.85, 0.86, 362.63
388.85, 0.92, 362.63
388.85, 0.98, 362.63
388.85, 1.05, 362.63
388.85, 1.11, 362.63
¯388.85, 1.17, 362.63
388.85, 1.23, 362.63
388.85, 1.29, 362.63
388.85, 1.35, 362.63
388.85, 1.41, 362.63
388.85, 1.47, 362.63
388.85, 1.53, 362.63
388.81, 1.58, 362.63
387.79, 1.51, 362.80
387.79, 1.59, 362.80
387.79, 1.66, 362.80
387.79, 1.73, 362.80
387.79, 1.80, 362.80
388.79, 0.45, 362.70
388.79, 0.51, 362.70
388.79, 0.58, 362.70
388.79, 0.65, 362.70
388.79, 0.71, 362.70
388.85, 0.79, 362.69
388.85, 0.86, 362.69
388.85, 0.92, 362.69
388.85, 0.98, 362.69
388.85, 1.04, 362.69
388.85, 1.10, 362.69
388.85, 1.17, 362.69
388.85, 1.23, 362.69
388.85, 1.29, 362.69
388.85, 1.35, 362.69
388.85, 1.41, 362.69
388.85, 1.47, 362.69
388.85, 1.53, 362.69
388.85, 1.59, 362.69
388.85, 1.65, 362.69
387.79, 1.59, 362.88
387.79, 1.66, 362.88
387.79, 1.73, 362.88
387.79, 1.80, 362.88
387.79, 1.87, 362.88
387.79, 1.94, 362.87
388.79, 0.44, 362.76
388.79, 0.51, 362.76
388.79, 0.58, 362.76
388.79, 0.64, 362.76
388.79, 0.71, 362.76
388.79, 0.77, 362.76
388.85, 0.85, 362.75
388.85, 0.92, 362.75
388.85, 0.98, 362.75
388.85, 1.04, 362.75
388.85, 1.10, 362.75
388.85, 1.16, 362.75
¯388.85, 1.23, 362.75
388.85, 1.29, 362.75
388.85, 1.35, 362.75
388.85, 1.41, 362.75
388.85, 1.47, 362.75
388.85, 1.53, 362.75
388.85, 1.59, 362.75
388.85, 1.64, 362.75
388.85, 1.70, 362.74
388.82, 1.76, 362.75
387.79, 1.73, 362.95
387.79, 1.80, 362.95
387.79, 1.87, 362.95
387.79, 1.94, 362.95
387.79, 2.02, 362.95
387.77, 0.05, 363.03
388.79, 0.51, 362.82
388.79, 0.57, 362.82
388.79, 0.64, 362.82
388.79, 0.70, 362.82
388.79, 0.77, 362.82
388.79, 0.83, 362.82
388.79, 0.90, 362.82
388.85, 0.98, 362.81
388.85, 1.04, 362.81
388.85, 1.10, 362.81
388.85, 1.16, 362.81
388.85, 1.22, 362.81
388.85, 1.28, 362.81
388.85, 1.34, 362.81
388.85, 1.40, 362.81
388.85, 1.46, 362.81
388.85, 1.52, 362.81
388.85, 1.58, 362.80
388.85, 1.64, 362.80
388.85, 1.70, 362.80
388.85, 1.76, 362.80
388.85, 1.82, 362.80
387.79, 1.80, 363.02
387.79, 1.87, 363.02
387.79, 1.94, 363.02
387.79, 2.02, 363.02
387.79, 2.09, 363.02
387.79, 2.16, 363.02
387.79, 0.05, 363.10
387.56, 0.05, 363.15
388.74, 0.55, 362.89
388.79, 0.64, 362.88
388.79, 0.70, 362.88
388.79, 0.77, 362.88
388.79, 0.83, 362.88
¯388.79, 0.89, 362.88
388.79, 0.96, 362.88
388.85, 1.04, 362.87
388.85, 1.10, 362.87
388.85, 1.16, 362.87
388.85, 1.22, 362.87
388.85, 1.28, 362.87
388.85, 1.34, 362.87
388.85, 1.40, 362.87
388.85, 1.46, 362.87
388.85, 1.52, 362.87
388.85, 1.58, 362.86
388.85, 1.64, 362.86
388.85, 1.70, 362.86
388.85, 1.76, 362.86
388.85, 1.82, 362.86
388.85, 1.88, 362.86
388.85, 1.94, 362.86
387.79, 1.94, 363.09
387.79, 2.02, 363.09
387.79, 2.09, 363.09
387.79, 2.16, 363.09
387.79, 2.23, 363.09
387.75, 2.30, 363.10
387.80, 0.05, 363.18
387.58, 0.05, 363.23
387.34, 0.05, 363.28
387.08, 0.05, 363.34
388.79, 0.70, 362.94
388.79, 0.76, 362.94
388.79, 0.83, 362.94
388.79, 0.89, 362.94
388.79, 0.95, 362.94
388.79, 1.02, 362.94
388.79, 1.08, 362.94
388.85, 1.16, 362.93
388.85, 1.22, 362.93
388.85, 1.28, 362.93
388.85, 1.34, 362.93
388.85, 1.40, 362.93
388.85, 1.46, 362.93
388.85, 1.52, 362.93
388.85, 1.58, 362.92
388.85, 1.64, 362.92
388.85, 1.70, 362.92
388.85, 1.76, 362.92
388.85, 1.82, 362.92
388.85, 1.88, 362.92
388.85, 1.94, 362.92
388.85, 2.00, 362.92
387.79, 2.02, 363.17
¯387.79, 2.09, 363.17
387.79, 2.16, 363.17
387.79, 2.23, 363.17
387.79, 2.30, 363.17
387.82, 0.05, 363.25
387.60, 0.05, 363.30
387.36, 0.05, 363.36
387.10, 0.05, 363.42
386.83, 0.05, 363.49
386.53, 0.05, 363.56
388.79, 0.82, 363.00
388.79, 0.89, 363.00
388.79, 0.95, 363.00
388.79, 1.01, 363.00
388.79, 1.08, 363.00
388.79, 1.14, 363.00
388.85, 1.22, 362.99
388.85, 1.28, 362.99
388.85, 1.34, 362.99
388.85, 1.40, 362.99
388.85, 1.46, 362.99
388.85, 1.52, 362.99
388.85, 1.58, 362.99
388.85, 1.64, 362.99
388.85, 1.70, 362.98
388.85, 1.76, 362.98
388.85, 1.82, 362.98
388.85, 1.88, 362.98
388.85, 1.94, 362.98
388.85, 2.00, 362.98
388.85, 2.05, 362.98
388.85, 2.11, 362.98
387.79, 2.16, 363.24
387.79, 2.23, 363.24
387.79, 2.30, 363.24
387.83, 0.05, 363.32
387.61, 0.05, 363.37
387.37, 0.05, 363.43
387.12, 0.05, 363.50
386.85, 0.05, 363.57
386.55, 0.05, 363.65
386.23, 0.05, 363.73
388.79, 0.88, 363.06
388.79, 0.95, 363.06
388.79, 1.01, 363.06
388.79, 1.07, 363.06
388.79, 1.14, 363.06
388.79, 1.20, 363.06
388.79, 1.26, 363.06
388.85, 1.34, 363.05
388.85, 1.40, 363.05
¯388.85, 1.46, 363.05
388.85, 1.52, 363.05
388.85, 1.58, 363.05
388.85, 1.64, 363.05
388.85, 1.70, 363.05
388.85, 1.76, 363.05
388.85, 1.82, 363.04
388.85, 1.88, 363.04
388.85, 1.94, 363.04
388.85, 2.00, 363.04
388.85, 2.05, 363.04
388.85, 2.11, 363.04
388.85, 2.17, 363.04
388.81, 2.23, 363.05
387.79, 2.30, 363.31
387.85, 0.05, 363.39
387.63, 0.05, 363.45
387.39, 0.05, 363.51
387.14, 0.05, 363.58
386.87, 0.05, 363.65
386.57, 0.05, 363.73
386.25, 0.05, 363.82
385.90, 0.05, 363.91
388.74, 0.93, 363.14
388.79, 1.01, 363.13
388.79, 1.07, 363.13
388.79, 1.13, 363.13
388.79, 1.20, 363.12
388.79, 1.26, 363.12
388.79, 1.32, 363.12
388.79, 1.38, 363.12
388.85, 1.46, 363.11
388.85, 1.52, 363.11
388.85, 1.58, 363.11
388.85, 1.64, 363.11
388.85, 1.70, 363.11
388.85, 1.76, 363.11
388.85, 1.82, 363.11
388.85, 1.88, 363.11
388.85, 1.94, 363.11
388.85, 1.99, 363.11
388.85, 2.05, 363.10
388.85, 2.11, 363.10
388.85, 2.17, 363.10
388.85, 2.23, 363.10
388.85, 2.29, 363.10
387.87, 0.05, 363.46
387.65, 0.05, 363.52
387.41, 0.05, 363.58
387.16, 0.05, 363.66
386.89, 0.05, 363.73
¯386.59, 0.05, 363.82
386.27, 0.05, 363.91
385.92, 0.05, 364.01
385.54, 0.05, 364.11
385.12, 0.05, 364.23
384.66, 0.05, 364.36
388.79, 1.13, 363.19
388.79, 1.19, 363.19
388.79, 1.26, 363.19
388.79, 1.32, 363.19
388.79, 1.38, 363.19
388.79, 1.44, 363.19
388.85, 1.51, 363.17
388.85, 1.57, 363.17
388.85, 1.63, 363.17
388.85, 1.70, 363.17
388.85, 1.76, 363.17
388.85, 1.82, 363.17
388.85, 1.87, 363.17
388.85, 1.93, 363.17
388.85, 1.99, 363.17
388.85, 2.05, 363.17
388.85, 2.11, 363.17
388.85, 2.17, 363.17
388.85, 2.23, 363.17
388.85, 2.29, 363.16
387.89, 0.05, 363.52
387.67, 0.05, 363.59
387.43, 0.05, 363.66
387.18, 0.05, 363.73
386.91, 0.05, 363.82
386.61, 0.05, 363.90
386.30, 0.05, 364.00
385.95, 0.05, 364.10
385.57, 0.05, 364.21
385.15, 0.05, 364.34
384.69, 0.05, 364.47
384.18, 0.05, 364.62
388.79, 1.19, 363.25
388.79, 1.25, 363.25
388.79, 1.32, 363.25
388.79, 1.38, 363.25
388.79, 1.44, 363.25
388.79, 1.50, 363.25
388.79, 1.56, 363.25
388.85, 1.63, 363.23
388.85, 1.69, 363.23
388.85, 1.75, 363.23
388.85, 1.81, 363.23
388.85, 1.87, 363.23
388.85, 1.93, 363.23
¯388.85, 1.99, 363.23
388.85, 2.05, 363.23
388.85, 2.11, 363.23
388.85, 2.17, 363.23
388.85, 2.23, 363.23
388.85, 2.29, 363.23
387.91, 0.05, 363.59
387.69, 0.05, 363.66
387.46, 0.05, 363.73
387.20, 0.05, 363.81
386.93, 0.05, 363.90
386.64, 0.05, 363.99
386.32, 0.05, 364.09
385.97, 0.05, 364.19
385.60, 0.05, 364.31
385.18, 0.05, 364.44
384.72, 0.05, 364.58
384.23, 0.06, 364.73
383.86, 0.10, 364.85
383.47, 0.15, 364.97
388.79, 1.31, 363.31
388.79, 1.38, 363.31
388.79, 1.44, 363.31
388.79, 1.50, 363.31
388.79, 1.56, 363.31
388.79, 1.62, 363.31
388.85, 1.69, 363.29
388.85, 1.75, 363.29
388.85, 1.81, 363.29
388.85, 1.87, 363.29
388.85, 1.93, 363.29
388.85, 1.99, 363.29
388.85, 2.05, 363.29
388.85, 2.11, 363.29
388.85, 2.17, 363.29
388.85, 2.23, 363.29
388.85, 2.29, 363.29
387.93, 0.05, 363.66
387.71, 0.05, 363.73
387.48, 0.05, 363.81
387.23, 0.05, 363.89
386.96, 0.05, 363.98
386.66, 0.05, 364.07
386.35, 0.05, 364.17
386.00, 0.05, 364.29
385.62, 0.05, 364.41
385.21, 0.05, 364.54
384.75, 0.05, 364.69
384.28, 0.06, 364.84
383.92, 0.11, 364.96
383.53, 0.16, 365.08
¯383.11, 0.21, 365.22
388.79, 1.37, 363.38
388.79, 1.44, 363.38
388.79, 1.50, 363.38
388.79, 1.56, 363.37
388.79, 1.62, 363.37
388.79, 1.68, 363.37
388.79, 1.74, 363.37
388.85, 1.81, 363.35
388.85, 1.87, 363.35
388.85, 1.93, 363.35
388.85, 1.99, 363.35
388.85, 2.05, 363.35
388.85, 2.11, 363.35
388.85, 2.17, 363.35
388.85, 2.23, 363.35
388.85, 2.29, 363.35
387.95, 0.05, 363.73
387.73, 0.05, 363.81
387.50, 0.05, 363.88
387.25, 0.05, 363.97
386.98, 0.05, 364.06
386.69, 0.05, 364.16
386.37, 0.05, 364.26
386.03, 0.05, 364.38
385.65, 0.05, 364.51
385.24, 0.05, 364.64
384.79, 0.05, 364.80
384.34, 0.07, 364.95
383.98, 0.11, 365.07
383.59, 0.16, 365.20
383.17, 0.21, 365.34
382.72, 0.27, 365.49
382.23, 0.33, 365.66
388.79, 1.50, 363.44
388.79, 1.56, 363.44
388.79, 1.62, 363.44
388.79, 1.68, 363.44
388.79, 1.74, 363.44
388.79, 1.80, 363.44
388.79, 1.87, 363.44
388.85, 1.93, 363.42
388.85, 1.99, 363.42
388.85, 2.05, 363.42
388.85, 2.11, 363.42
388.85, 2.17, 363.42
388.85, 2.23, 363.42
388.85, 2.29, 363.42
387.97, 0.05, 363.80
387.76, 0.05, 363.88
387.52, 0.05, 363.96
¯387.28, 0.05, 364.04
387.01, 0.05, 364.14
386.72, 0.05, 364.24
386.40, 0.05, 364.35
386.06, 0.05, 364.47
385.69, 0.05, 364.60
385.27, 0.05, 364.75
384.82, 0.05, 364.91
384.39, 0.07, 365.05
384.04, 0.12, 365.18
383.65, 0.17, 365.31
383.23, 0.22, 365.46
382.79, 0.27, 365.62
382.30, 0.33, 365.79
381.76, 0.40, 365.97
380.89, 0.43, 366.28
388.79, 1.62, 363.50
388.79, 1.68, 363.50
388.79, 1.74, 363.50
388.79, 1.80, 363.50
388.79, 1.87, 363.50
388.79, 1.93, 363.50
388.85, 1.99, 363.48
388.85, 2.05, 363.48
388.85, 2.11, 363.48
388.85, 2.17, 363.48
388.85, 2.23, 363.48
388.85, 2.29, 363.48
388.00, 0.05, 363.87
387.78, 0.05, 363.95
387.55, 0.05, 364.03
387.30, 0.05, 364.12
387.03, 0.05, 364.22
386.75, 0.05, 364.32
386.43, 0.05, 364.44
386.09, 0.05, 364.56
385.72, 0.05, 364.70
385.31, 0.05, 364.85
384.86, 0.05, 365.01
384.45, 0.08, 365.16
384.09, 0.12, 365.29
383.71, 0.17, 365.43
383.29, 0.22, 365.58
382.85, 0.28, 365.74
382.37, 0.34, 365.92
381.84, 0.40, 366.11
380.94, 0.43, 366.43
376.37, 0.00, 368.10
388.79, 1.68, 363.57
388.79, 1.74, 363.57
388.79, 1.80, 363.57
¯388.79, 1.86, 363.57
388.79, 1.93, 363.57
388.79, 1.99, 363.57
388.79, 2.05, 363.57
388.85, 2.11, 363.54
388.85, 2.17, 363.54
388.85, 2.23, 363.54
388.85, 2.30, 363.54
388.02, 0.05, 363.94
387.81, 0.05, 364.02
387.58, 0.05, 364.10
387.33, 0.05, 364.20
387.06, 0.05, 364.30
386.77, 0.05, 364.41
386.46, 0.05, 364.53
386.12, 0.05, 364.65
385.75, 0.05, 364.79
385.34, 0.05, 364.95
384.89, 0.05, 365.12
384.51, 0.08, 365.27
384.15, 0.13, 365.40
383.76, 0.17, 365.55
383.35, 0.22, 365.70
382.92, 0.28, 365.86
382.44, 0.34, 366.05
381.91, 0.41, 366.24
381.00, 0.43, 366.59
376.43, 0.00, 368.32
374.47, 0.00, 369.06
388.74, 1.73, 363.65
388.79, 1.80, 363.63
388.79, 1.86, 363.63
388.79, 1.92, 363.63
388.79, 1.99, 363.63
388.79, 2.05, 363.63
388.79, 2.11, 363.63
388.85, 2.17, 363.61
388.85, 2.23, 363.61
388.85, 2.30, 363.61
388.05, 0.05, 364.00
387.83, 0.05, 364.09
387.60, 0.05, 364.18
387.36, 0.05, 364.27
387.09, 0.05, 364.38
386.80, 0.05, 364.49
386.49, 0.05, 364.61
386.16, 0.05, 364.75
385.79, 0.05, 364.89
385.38, 0.05, 365.05
384.93, 0.05, 365.23
384.56, 0.08, 365.37
¯384.20, 0.13, 365.51
383.82, 0.18, 365.66
383.41, 0.23, 365.82
382.98, 0.28, 365.99
382.51, 0.35, 366.17
381.98, 0.41, 366.38
381.05, 0.43, 366.74
376.49, 0.00, 368.54
374.54, 0.00, 369.30
372.13, 0.00, 370.25
388.79, 1.86, 363.70
388.79, 1.92, 363.70
388.79, 1.99, 363.70
388.79, 2.05, 363.70
388.79, 2.11, 363.70
388.79, 2.17, 363.70
388.79, 2.24, 363.70
388.85, 2.30, 363.67
388.07, 0.05, 364.07
387.86, 0.05, 364.16
387.63, 0.05, 364.25
387.39, 0.05, 364.35
387.12, 0.05, 364.46
386.84, 0.05, 364.57
386.53, 0.05, 364.70
386.19, 0.05, 364.84
385.82, 0.05, 364.99
385.42, 0.05, 365.15
384.99, 0.06, 365.33
384.61, 0.09, 365.48
384.26, 0.13, 365.62
383.88, 0.18, 365.77
383.47, 0.23, 365.94
383.05, 0.29, 366.11
382.58, 0.35, 366.30
382.03, 0.41, 366.52
381.11, 0.43, 366.90
376.55, 0.00, 368.75
374.62, 0.00, 369.53
372.21, 0.00, 370.51
388.79, 1.99, 363.77
388.79, 2.05, 363.77
388.79, 2.11, 363.77
388.79, 2.17, 363.76
388.79, 2.24, 363.76
388.79, 2.30, 363.76
388.10, 0.05, 364.14
387.89, 0.05, 364.23
387.66, 0.05, 364.32
387.41, 0.05, 364.43
387.15, 0.05, 364.54
¯386.87, 0.05, 364.66
386.56, 0.05, 364.79
386.22, 0.05, 364.93
385.86, 0.05, 365.08
385.46, 0.06, 365.25
385.04, 0.06, 365.42
384.66, 0.09, 365.58
384.32, 0.13, 365.73
383.94, 0.18, 365.89
383.54, 0.23, 366.06
383.12, 0.29, 366.23
382.65, 0.35, 366.43
382.09, 0.41, 366.66
381.17, 0.43, 367.05
376.63, 0.00, 368.96
374.71, 0.00, 369.77
372.31, 0.00, 370.78
388.79, 2.11, 363.83
388.79, 2.17, 363.83
388.79, 2.24, 363.83
388.79, 2.30, 363.83
388.12, 0.05, 364.21
387.91, 0.05, 364.30
387.69, 0.05, 364.40
387.45, 0.05, 364.50
387.18, 0.05, 364.62
386.90, 0.05, 364.74
386.59, 0.05, 364.87
386.26, 0.05, 365.02
385.90, 0.05, 365.18
385.51, 0.06, 365.34
385.10, 0.07, 365.52
384.72, 0.09, 365.69
384.37, 0.14, 365.84
384.00, 0.18, 366.00
383.60, 0.24, 366.17
383.18, 0.29, 366.35
382.73, 0.36, 366.55
382.15, 0.41, 366.80
381.22, 0.43, 367.21
376.70, 0.00, 369.17
374.79, 0.00, 370.01
372.40, 0.00, 371.05
388.80, 2.17, 363.90
388.80, 2.24, 363.90
388.80, 2.30, 363.90
