ŸVERSION 0.7
FIELDS x y z
SIZE 8 8 8
TYPE F F F
COUNT 1 1 1
WIDTH 2271
HEIGHT 1
VIEWPOINT 381.75, 10.78, 326.15 1 362.71, 3.97, 322.15
POINTS 2271
DATA ascii
365.84, 2.49, 315.55
365.83, 2.51, 315.28
365.82, 2.54, 314.99
365.81, 2.57, 314.71
365.80, 2.60, 314.36
365.78, 2.56, 313.62
365.75, 2.51, 312.79
365.73, 2.51, 312.05
365.70, 2.51, 311.27
365.68, 2.60, 310.87
365.67, 2.71, 310.66
365.65, 2.84, 310.46
365.63, 2.96, 310.28
365.62, 3.10, 310.09
365.60, 3.23, 309.89
365.58, 3.37, 309.69
365.56, 3.52, 309.48
365.54, 3.67, 309.27
365.52, 3.82, 309.05
365.50, 3.98, 308.85
365.49, 4.15, 308.74
365.47, 4.32, 308.64
365.45, 4.49, 308.52
365.85, 2.42, 317.41
365.84, 2.42, 317.21
365.83, 2.42, 316.99
365.82, 2.42, 316.77
365.81, 2.42, 316.52
365.80, 2.43, 316.29
365.78, 2.45, 316.06
365.77, 2.47, 315.83
365.76, 2.49, 315.57
365.74, 2.51, 315.30
365.73, 2.53, 315.01
365.71, 2.57, 314.73
365.70, 2.60, 314.39
365.67, 2.55, 313.66
365.63, 2.51, 312.81
365.60, 2.50, 312.07
365.57, 2.51, 311.29
365.54, 2.57, 310.75
365.52, 2.68, 310.54
365.50, 2.81, 310.36
365.48, 2.94, 310.17
365.46, 3.07, 309.98
365.44, 3.21, 309.78
365.42, 3.35, 309.58
365.40, 3.50, 309.37
¯365.38, 3.65, 309.15
365.35, 3.80, 308.92
365.33, 3.96, 308.69
365.31, 4.13, 308.58
365.29, 4.30, 308.46
365.27, 4.47, 308.34
365.78, 2.42, 317.42
365.77, 2.42, 317.23
365.76, 2.42, 317.01
365.75, 2.42, 316.79
365.73, 2.42, 316.54
365.72, 2.43, 316.31
365.70, 2.44, 316.09
365.69, 2.46, 315.85
365.67, 2.49, 315.60
365.66, 2.51, 315.33
365.64, 2.53, 315.04
365.62, 2.56, 314.74
365.60, 2.59, 314.43
365.56, 2.55, 313.70
365.52, 2.50, 312.84
365.47, 2.49, 312.09
365.43, 2.50, 311.31
365.39, 2.54, 310.64
365.37, 2.66, 310.44
365.35, 2.78, 310.26
365.32, 2.91, 310.07
365.30, 3.05, 309.87
365.28, 3.19, 309.67
365.26, 3.33, 309.46
365.23, 3.48, 309.25
365.21, 3.63, 309.02
365.18, 3.78, 308.79
365.15, 3.95, 308.56
365.13, 4.11, 308.43
365.11, 4.29, 308.31
365.09, 4.46, 308.20
365.72, 2.42, 317.44
365.71, 2.42, 317.25
365.69, 2.42, 317.03
365.68, 2.42, 316.81
365.66, 2.42, 316.57
365.64, 2.42, 316.33
365.63, 2.44, 316.11
365.61, 2.46, 315.87
365.59, 2.48, 315.62
365.57, 2.51, 315.35
365.55, 2.53, 315.07
365.52, 2.56, 314.76
365.50, 2.59, 314.46
365.45, 2.55, 313.74
¯365.40, 2.50, 312.89
365.35, 2.48, 312.10
365.29, 2.49, 311.33
365.24, 2.51, 310.53
365.21, 2.63, 310.34
365.19, 2.76, 310.15
365.16, 2.89, 309.95
365.14, 3.02, 309.75
365.11, 3.16, 309.54
365.09, 3.30, 309.32
365.06, 3.45, 309.10
365.03, 3.61, 308.87
365.00, 3.76, 308.63
364.98, 3.93, 308.46
364.95, 4.10, 308.30
364.93, 4.27, 308.18
364.90, 4.45, 308.06
365.66, 2.42, 317.46
365.64, 2.42, 317.27
365.63, 2.42, 317.06
365.61, 2.42, 316.83
365.59, 2.42, 316.59
365.57, 2.42, 316.35
365.55, 2.44, 316.13
365.53, 2.46, 315.90
365.51, 2.48, 315.65
365.48, 2.50, 315.38
365.46, 2.53, 315.10
365.43, 2.55, 314.79
365.40, 2.59, 314.48
365.35, 2.55, 313.79
365.28, 2.50, 312.94
365.22, 2.47, 312.12
365.15, 2.47, 311.30
365.08, 2.48, 310.45
365.05, 2.60, 310.22
365.03, 2.73, 310.02
365.00, 2.86, 309.82
364.97, 2.99, 309.61
364.94, 3.13, 309.40
364.91, 3.28, 309.18
364.88, 3.43, 308.95
364.85, 3.58, 308.72
364.82, 3.74, 308.51
364.79, 3.91, 308.35
364.77, 4.08, 308.18
364.74, 4.26, 308.04
364.72, 4.44, 307.91
365.60, 2.42, 317.48
365.58, 2.42, 317.29
365.56, 2.42, 317.08
¯365.54, 2.42, 316.85
365.52, 2.42, 316.62
365.49, 2.42, 316.37
365.47, 2.44, 316.15
365.45, 2.46, 315.92
365.42, 2.48, 315.67
365.40, 2.50, 315.41
365.37, 2.53, 315.12
365.34, 2.55, 314.82
365.30, 2.58, 314.49
365.25, 2.55, 313.84
365.17, 2.50, 313.00
365.09, 2.45, 312.06
365.01, 2.45, 311.24
364.93, 2.46, 310.41
364.89, 2.57, 310.10
364.86, 2.70, 309.90
364.83, 2.83, 309.69
364.80, 2.97, 309.48
364.77, 3.11, 309.26
364.74, 3.25, 309.03
364.70, 3.40, 308.80
364.67, 3.56, 308.57
364.64, 3.72, 308.40
364.61, 3.89, 308.24
364.58, 4.06, 308.06
364.55, 4.24, 307.89
364.52, 4.42, 307.77
365.54, 2.42, 317.50
365.52, 2.42, 317.31
365.49, 2.42, 317.10
365.47, 2.42, 316.88
365.45, 2.42, 316.64
365.42, 2.42, 316.39
365.39, 2.44, 316.17
365.37, 2.46, 315.94
365.34, 2.48, 315.70
365.31, 2.50, 315.44
365.28, 2.52, 315.15
365.24, 2.55, 314.85
365.21, 2.57, 314.51
365.14, 2.55, 313.89
365.06, 2.50, 313.07
364.95, 2.43, 312.01
364.86, 2.42, 311.18
364.78, 2.44, 310.37
364.73, 2.53, 309.97
364.69, 2.66, 309.76
364.66, 2.80, 309.55
364.63, 2.94, 309.34
364.59, 3.08, 309.11
¯364.55, 3.23, 308.88
364.52, 3.38, 308.64
364.48, 3.54, 308.46
364.45, 3.70, 308.29
364.42, 3.87, 308.12
364.39, 4.05, 307.95
364.35, 4.23, 307.77
364.32, 4.41, 307.62
365.48, 2.42, 317.52
365.45, 2.42, 317.33
365.43, 2.42, 317.12
365.40, 2.42, 316.90
365.38, 2.42, 316.67
365.34, 2.42, 316.41
365.32, 2.43, 316.20
365.29, 2.45, 315.97
365.26, 2.47, 315.72
365.23, 2.50, 315.46
365.19, 2.52, 315.16
365.15, 2.54, 314.84
365.11, 2.56, 314.50
365.04, 2.55, 313.94
364.95, 2.50, 313.13
364.82, 2.41, 311.96
364.72, 2.40, 311.12
364.62, 2.42, 310.34
364.56, 2.50, 309.84
364.52, 2.63, 309.63
364.49, 2.77, 309.42
364.45, 2.91, 309.19
364.41, 3.05, 308.96
364.37, 3.20, 308.73
364.33, 3.35, 308.52
364.30, 3.52, 308.35
364.26, 3.68, 308.18
364.23, 3.86, 308.01
364.19, 4.03, 307.83
364.16, 4.21, 307.65
364.12, 4.39, 307.47
365.42, 2.42, 317.54
365.39, 2.42, 317.35
365.36, 2.42, 317.15
365.34, 2.42, 316.93
365.30, 2.42, 316.69
365.27, 2.42, 316.44
365.24, 2.43, 316.22
365.21, 2.45, 315.98
365.17, 2.47, 315.73
365.14, 2.48, 315.45
365.10, 2.50, 315.15
365.05, 2.52, 314.83
¯365.00, 2.55, 314.48
364.94, 2.55, 314.00
364.84, 2.50, 313.20
364.68, 2.38, 311.91
364.57, 2.37, 311.06
364.47, 2.40, 310.30
364.39, 2.47, 309.73
364.35, 2.60, 309.49
364.31, 2.73, 309.27
364.26, 2.87, 309.05
364.22, 3.02, 308.81
364.18, 3.17, 308.58
364.14, 3.33, 308.41
364.11, 3.50, 308.24
364.07, 3.66, 308.07
364.03, 3.84, 307.89
364.00, 4.01, 307.71
363.96, 4.19, 307.52
363.92, 4.38, 307.33
365.36, 2.42, 317.56
365.33, 2.42, 317.37
365.30, 2.42, 317.17
365.27, 2.42, 316.95
365.24, 2.42, 316.72
365.20, 2.42, 316.47
365.16, 2.42, 316.22
365.13, 2.44, 315.98
365.09, 2.45, 315.72
365.05, 2.47, 315.44
365.00, 2.49, 315.14
364.95, 2.51, 314.82
364.90, 2.53, 314.47
364.84, 2.55, 314.06
364.73, 2.50, 313.26
364.56, 2.39, 312.02
364.42, 2.35, 311.00
364.31, 2.38, 310.26
364.22, 2.45, 309.69
364.17, 2.56, 309.36
364.12, 2.70, 309.13
364.08, 2.84, 308.90
364.03, 2.99, 308.66
363.99, 3.15, 308.47
363.95, 3.31, 308.30
363.92, 3.47, 308.13
363.88, 3.64, 307.95
363.84, 3.82, 307.77
363.79, 3.99, 307.59
363.75, 4.18, 307.40
363.71, 4.36, 307.20
365.30, 2.42, 317.58
¯365.27, 2.42, 317.40
365.24, 2.42, 317.20
365.20, 2.42, 316.98
365.17, 2.42, 316.74
365.13, 2.41, 316.49
365.08, 2.41, 316.21
365.04, 2.43, 315.97
365.00, 2.44, 315.71
364.96, 2.46, 315.43
364.91, 2.48, 315.13
364.86, 2.50, 314.81
364.80, 2.52, 314.45
364.73, 2.53, 314.04
364.63, 2.50, 313.33
364.46, 2.41, 312.23
364.27, 2.32, 310.94
364.15, 2.36, 310.23
364.06, 2.43, 309.65
363.98, 2.53, 309.21
363.93, 2.67, 308.98
363.88, 2.81, 308.74
363.84, 2.96, 308.53
363.80, 3.12, 308.36
363.76, 3.28, 308.19
363.72, 3.45, 308.01
363.68, 3.62, 307.84
363.63, 3.80, 307.65
363.59, 3.98, 307.46
363.54, 4.16, 307.27
363.50, 4.35, 307.07
365.24, 2.42, 317.61
365.21, 2.42, 317.42
365.17, 2.42, 317.22
365.14, 2.41, 317.00
365.10, 2.41, 316.77
365.05, 2.41, 316.52
365.01, 2.40, 316.22
364.96, 2.41, 315.96
364.92, 2.43, 315.70
364.87, 2.44, 315.42
364.81, 2.46, 315.12
364.76, 2.48, 314.80
364.70, 2.50, 314.44
364.63, 2.52, 314.03
364.52, 2.50, 313.40
364.36, 2.44, 312.43
364.11, 2.30, 310.89
363.99, 2.33, 310.20
363.89, 2.40, 309.62
363.79, 2.49, 309.07
363.74, 2.63, 308.83
¯363.69, 2.78, 308.59
363.65, 2.93, 308.42
363.60, 3.09, 308.25
363.56, 3.26, 308.08
363.52, 3.43, 307.90
363.47, 3.60, 307.71
363.43, 3.78, 307.53
363.38, 3.96, 307.34
363.33, 4.14, 307.14
363.28, 4.33, 306.94
365.18, 2.42, 317.63
365.14, 2.41, 317.44
365.11, 2.41, 317.24
365.07, 2.41, 317.02
365.03, 2.41, 316.79
364.98, 2.41, 316.54
364.93, 2.40, 316.25
364.88, 2.40, 315.96
364.83, 2.42, 315.70
364.78, 2.43, 315.42
364.72, 2.45, 315.11
364.66, 2.47, 314.79
364.59, 2.49, 314.43
364.52, 2.50, 314.01
364.42, 2.50, 313.47
364.26, 2.45, 312.56
363.96, 2.27, 310.83
363.83, 2.31, 310.16
363.72, 2.38, 309.58
363.60, 2.46, 308.94
363.54, 2.59, 308.68
363.49, 2.75, 308.48
363.45, 2.90, 308.31
363.40, 3.07, 308.14
363.36, 3.23, 307.96
363.31, 3.40, 307.78
363.26, 3.58, 307.59
363.21, 3.75, 307.38
363.16, 3.94, 307.17
363.10, 4.12, 306.96
363.05, 4.32, 306.73
365.12, 2.41, 317.65
365.08, 2.41, 317.46
365.04, 2.41, 317.26
365.00, 2.41, 317.05
364.96, 2.41, 316.82
364.91, 2.41, 316.57
364.86, 2.40, 316.29
364.79, 2.39, 315.96
364.74, 2.40, 315.69
364.69, 2.42, 315.41
¯364.63, 2.44, 315.11
364.56, 2.45, 314.78
364.49, 2.47, 314.42
364.41, 2.49, 314.00
364.32, 2.50, 313.54
364.15, 2.45, 312.64
363.80, 2.25, 310.78
363.67, 2.29, 310.13
363.55, 2.36, 309.54
363.42, 2.43, 308.90
363.34, 2.56, 308.54
363.30, 2.72, 308.37
363.25, 2.87, 308.19
363.20, 3.04, 308.00
363.15, 3.20, 307.81
363.09, 3.37, 307.61
363.04, 3.55, 307.40
362.98, 3.73, 307.19
362.93, 3.92, 306.97
362.87, 4.11, 306.75
362.81, 4.30, 306.54
365.06, 2.41, 317.67
365.02, 2.41, 317.48
364.98, 2.41, 317.28
364.94, 2.41, 317.07
364.89, 2.41, 316.84
364.84, 2.41, 316.60
364.78, 2.40, 316.32
364.72, 2.39, 315.99
364.65, 2.39, 315.69
364.59, 2.41, 315.41
364.53, 2.42, 315.10
364.46, 2.44, 314.77
364.38, 2.46, 314.41
364.30, 2.47, 313.99
364.20, 2.49, 313.52
364.04, 2.45, 312.72
363.64, 2.22, 310.72
363.51, 2.27, 310.10
363.38, 2.33, 309.50
363.23, 2.40, 308.83
363.14, 2.52, 308.40
363.08, 2.68, 308.21
363.03, 2.84, 308.02
362.98, 3.00, 307.83
362.92, 3.17, 307.63
362.87, 3.35, 307.42
362.81, 3.52, 307.21
362.75, 3.71, 306.99
362.69, 3.89, 306.77
362.63, 4.09, 306.55
¯362.57, 4.28, 306.35
365.00, 2.41, 317.69
364.96, 2.41, 317.50
364.92, 2.41, 317.31
364.87, 2.41, 317.09
364.82, 2.41, 316.87
364.77, 2.40, 316.62
364.71, 2.40, 316.35
364.64, 2.39, 316.02
364.57, 2.38, 315.69
364.50, 2.39, 315.40
364.43, 2.41, 315.09
364.36, 2.42, 314.76
364.28, 2.44, 314.40
364.18, 2.46, 313.97
364.08, 2.47, 313.51
363.93, 2.45, 312.81
363.48, 2.19, 310.67
363.34, 2.24, 310.06
363.20, 2.30, 309.42
363.02, 2.36, 308.66
362.92, 2.48, 308.23
362.87, 2.64, 308.04
362.81, 2.80, 307.85
362.75, 2.97, 307.65
362.69, 3.14, 307.44
362.63, 3.32, 307.23
362.57, 3.50, 307.01
362.51, 3.68, 306.79
362.44, 3.87, 306.57
362.38, 4.07, 306.36
362.32, 4.27, 306.15
364.94, 2.41, 317.71
364.90, 2.41, 317.53
364.86, 2.41, 317.33
364.81, 2.41, 317.12
364.76, 2.40, 316.89
364.70, 2.40, 316.65
364.64, 2.40, 316.39
364.56, 2.39, 316.06
364.48, 2.37, 315.70
364.41, 2.38, 315.40
364.34, 2.39, 315.09
364.26, 2.41, 314.76
364.17, 2.43, 314.39
364.07, 2.44, 313.96
363.96, 2.45, 313.49
363.82, 2.45, 312.90
363.34, 2.19, 310.74
363.16, 2.21, 309.97
363.00, 2.26, 309.27
¯362.82, 2.33, 308.55
362.72, 2.45, 308.14
362.64, 2.60, 307.87
362.58, 2.77, 307.67
362.52, 2.93, 307.46
362.46, 3.11, 307.25
362.39, 3.28, 307.03
362.32, 3.47, 306.81
362.26, 3.65, 306.59
362.19, 3.85, 306.38
362.13, 4.05, 306.17
362.06, 4.25, 305.95
364.89, 2.41, 317.73
364.84, 2.41, 317.55
364.80, 2.40, 317.35
364.74, 2.40, 317.15
364.69, 2.40, 316.92
364.63, 2.40, 316.68
364.57, 2.40, 316.42
364.49, 2.38, 316.10
364.40, 2.37, 315.74
364.32, 2.36, 315.39
364.24, 2.38, 315.09
364.16, 2.40, 314.75
364.07, 2.41, 314.38
363.96, 2.42, 313.95
363.84, 2.44, 313.48
363.71, 2.45, 312.96
363.27, 2.23, 311.07
362.97, 2.17, 309.84
362.79, 2.22, 309.12
362.62, 2.29, 308.46
362.51, 2.42, 308.06
362.41, 2.56, 307.69
362.35, 2.73, 307.48
362.28, 2.90, 307.27
362.21, 3.07, 307.05
362.14, 3.25, 306.83
362.07, 3.44, 306.60
362.01, 3.63, 306.40
361.94, 3.82, 306.18
361.87, 4.03, 305.97
361.80, 4.23, 305.74
364.83, 2.41, 317.75
364.78, 2.40, 317.57
364.73, 2.40, 317.38
364.68, 2.40, 317.17
364.62, 2.40, 316.95
364.56, 2.40, 316.71
364.49, 2.40, 316.45
364.41, 2.38, 316.14
¯364.32, 2.37, 315.78
364.22, 2.35, 315.39
364.14, 2.37, 315.08
364.06, 2.38, 314.75
363.96, 2.40, 314.37
363.85, 2.41, 313.95
363.72, 2.42, 313.47
363.58, 2.43, 312.94
363.21, 2.28, 311.44
362.77, 2.13, 309.70
362.58, 2.17, 308.97
362.42, 2.26, 308.38
362.30, 2.39, 307.97
362.18, 2.52, 307.53
362.10, 2.69, 307.29
362.03, 2.86, 307.07
361.96, 3.04, 306.85
361.89, 3.22, 306.62
361.82, 3.41, 306.41
361.75, 3.60, 306.20
361.67, 3.80, 305.98
361.60, 4.00, 305.76
361.52, 4.21, 305.53
364.77, 2.40, 317.78
364.72, 2.40, 317.60
364.67, 2.40, 317.41
364.62, 2.40, 317.20
364.56, 2.40, 316.98
364.49, 2.40, 316.74
364.42, 2.39, 316.48
364.34, 2.38, 316.18
364.25, 2.37, 315.83
364.14, 2.35, 315.44
364.05, 2.35, 315.08
363.95, 2.37, 314.74
363.85, 2.38, 314.37
363.73, 2.39, 313.94
363.60, 2.40, 313.46
363.46, 2.42, 312.93
363.16, 2.33, 311.80
362.57, 2.08, 309.56
362.36, 2.13, 308.81
362.21, 2.23, 308.30
362.09, 2.36, 307.88
361.96, 2.49, 307.43
361.85, 2.64, 307.09
361.78, 2.82, 306.87
361.70, 3.00, 306.64
361.63, 3.18, 306.43
361.56, 3.38, 306.22
361.48, 3.57, 306.00
¯361.40, 3.77, 305.78
361.32, 3.98, 305.55
361.24, 4.19, 305.30
364.72, 2.40, 317.80
364.67, 2.40, 317.62
364.61, 2.40, 317.43
364.55, 2.40, 317.23
364.49, 2.40, 317.01
364.42, 2.39, 316.77
364.35, 2.39, 316.52
364.27, 2.38, 316.22
364.17, 2.37, 315.87
364.06, 2.35, 315.48
363.95, 2.34, 315.08
363.85, 2.35, 314.74
363.74, 2.36, 314.36
363.62, 2.37, 313.93
363.48, 2.38, 313.45
363.33, 2.40, 312.92
363.11, 2.38, 312.14
362.36, 2.04, 309.42
362.14, 2.08, 308.65
362.00, 2.20, 308.22
361.87, 2.32, 307.79
361.73, 2.45, 307.34
361.59, 2.60, 306.89
361.51, 2.78, 306.66
361.44, 2.96, 306.45
361.36, 3.15, 306.23
361.28, 3.34, 306.01
361.20, 3.54, 305.79
361.12, 3.75, 305.55
361.03, 3.96, 305.31
360.95, 4.17, 305.06
364.66, 2.40, 317.83
364.61, 2.40, 317.65
364.55, 2.40, 317.46
364.49, 2.40, 317.26
364.43, 2.39, 317.04
364.36, 2.39, 316.80
364.28, 2.39, 316.55
364.20, 2.38, 316.26
364.09, 2.37, 315.91
363.98, 2.35, 315.53
363.86, 2.33, 315.11
363.75, 2.33, 314.74
363.63, 2.35, 314.36
363.50, 2.36, 313.92
363.36, 2.37, 313.44
363.20, 2.38, 312.91
363.01, 2.39, 312.30
¯362.15, 1.99, 309.28
361.92, 2.04, 308.54
361.79, 2.16, 308.13
361.65, 2.29, 307.70
361.50, 2.42, 307.24
361.35, 2.56, 306.75
361.25, 2.74, 306.46
361.17, 2.92, 306.24
361.08, 3.11, 306.02
361.00, 3.31, 305.79
360.91, 3.51, 305.56
360.83, 3.72, 305.32
360.73, 3.93, 305.07
360.64, 4.15, 304.81
364.61, 2.40, 317.86
364.55, 2.40, 317.67
364.49, 2.40, 317.49
364.43, 2.39, 317.29
364.36, 2.39, 317.07
364.29, 2.39, 316.84
364.21, 2.39, 316.59
364.12, 2.38, 316.30
364.02, 2.37, 315.96
363.90, 2.35, 315.58
363.77, 2.33, 315.16
363.64, 2.32, 314.74
363.52, 2.33, 314.36
363.39, 2.34, 313.92
363.23, 2.35, 313.44
363.07, 2.36, 312.90
362.88, 2.37, 312.29
362.36, 2.20, 310.58
361.71, 2.01, 308.46
361.57, 2.13, 308.05
361.43, 2.25, 307.60
361.27, 2.38, 307.13
361.09, 2.52, 306.61
360.97, 2.69, 306.25
360.88, 2.88, 306.03
360.80, 3.08, 305.80
360.71, 3.28, 305.56
360.62, 3.48, 305.32
360.52, 3.69, 305.07
360.42, 3.91, 304.81
360.32, 4.13, 304.56
364.55, 2.40, 317.89
364.50, 2.40, 317.71
364.43, 2.39, 317.52
364.37, 2.39, 317.32
364.30, 2.39, 317.10
364.22, 2.39, 316.87
¯364.14, 2.39, 316.62
364.05, 2.38, 316.34
363.94, 2.37, 316.01
363.82, 2.35, 315.63
363.69, 2.33, 315.22
363.54, 2.31, 314.75
363.41, 2.32, 314.36
363.27, 2.32, 313.92
363.11, 2.33, 313.44
362.94, 2.34, 312.90
362.74, 2.35, 312.28
362.33, 2.26, 311.02
361.50, 1.97, 308.38
361.35, 2.09, 307.96
361.19, 2.21, 307.48
361.01, 2.34, 306.97
360.84, 2.49, 306.49
360.70, 2.65, 306.09
360.59, 2.84, 305.81
360.50, 3.04, 305.57
360.40, 3.24, 305.33
360.31, 3.45, 305.08
360.20, 3.66, 304.82
360.10, 3.88, 304.56
360.00, 4.11, 304.30
364.50, 2.40, 317.92
364.44, 2.40, 317.74
364.38, 2.39, 317.55
364.31, 2.39, 317.35
364.24, 2.39, 317.13
364.16, 2.39, 316.90
364.07, 2.38, 316.66
363.98, 2.38, 316.39
363.87, 2.37, 316.05
363.75, 2.35, 315.68
363.61, 2.33, 315.27
363.46, 2.31, 314.81
363.30, 2.30, 314.35
363.15, 2.31, 313.92
362.99, 2.31, 313.43
362.81, 2.32, 312.90
362.60, 2.33, 312.28
362.31, 2.31, 311.43
361.28, 1.93, 308.29
361.11, 2.05, 307.83
360.94, 2.17, 307.34
360.75, 2.30, 306.82
360.59, 2.45, 306.38
360.44, 2.62, 305.97
360.29, 2.80, 305.58
360.19, 3.00, 305.33
¯360.09, 3.20, 305.08
359.98, 3.41, 304.82
359.88, 3.63, 304.56
359.77, 3.86, 304.30
359.66, 4.09, 304.03
364.45, 2.41, 317.96
364.39, 2.40, 317.78
364.32, 2.40, 317.58
364.25, 2.39, 317.38
364.17, 2.39, 317.17
364.09, 2.39, 316.94
364.01, 2.38, 316.69
363.91, 2.38, 316.43
363.80, 2.37, 316.10
363.67, 2.35, 315.74
363.53, 2.33, 315.33
363.37, 2.31, 314.87
363.19, 2.28, 314.36
363.04, 2.29, 313.92
362.87, 2.30, 313.44
362.67, 2.31, 312.90
362.45, 2.31, 312.27
362.19, 2.31, 311.52
361.04, 1.88, 308.16
360.87, 2.00, 307.69
360.68, 2.12, 307.19
360.48, 2.25, 306.66
360.33, 2.41, 306.26
360.17, 2.58, 305.84
360.00, 2.76, 305.41
359.87, 2.96, 305.09
359.76, 3.16, 304.83
359.65, 3.38, 304.57
359.54, 3.60, 304.30
359.43, 3.83, 304.03
359.32, 4.07, 303.78
364.40, 2.41, 317.99
364.33, 2.40, 317.81
364.26, 2.40, 317.62
364.19, 2.39, 317.42
364.11, 2.39, 317.20
364.03, 2.38, 316.97
363.94, 2.38, 316.73
363.84, 2.38, 316.47
363.73, 2.37, 316.15
363.60, 2.35, 315.79
363.45, 2.33, 315.38
363.29, 2.31, 314.93
363.10, 2.28, 314.42
362.92, 2.27, 313.92
362.74, 2.28, 313.44
¯362.54, 2.29, 312.90
362.31, 2.29, 312.27
362.03, 2.29, 311.51
360.80, 1.84, 308.04
360.61, 1.95, 307.55
360.42, 2.08, 307.04
360.22, 2.21, 306.54
360.06, 2.37, 306.13
359.89, 2.54, 305.71
359.72, 2.72, 305.27
359.54, 2.91, 304.83
359.43, 3.12, 304.57
359.32, 3.34, 304.33
359.22, 3.57, 304.10
359.11, 3.80, 303.86
359.01, 4.04, 303.62
364.35, 2.41, 318.02
364.28, 2.40, 317.85
364.21, 2.40, 317.66
364.13, 2.39, 317.46
364.05, 2.39, 317.24
363.96, 2.38, 317.01
363.87, 2.38, 316.77
363.77, 2.38, 316.51
363.66, 2.36, 316.20
363.52, 2.35, 315.84
363.37, 2.33, 315.44
363.20, 2.31, 314.99
363.01, 2.28, 314.48
362.80, 2.26, 313.93
362.62, 2.26, 313.44
362.41, 2.27, 312.90
362.17, 2.27, 312.27
361.88, 2.27, 311.50
360.66, 1.84, 308.20
360.35, 1.90, 307.41
360.14, 2.03, 306.88
359.96, 2.17, 306.42
359.79, 2.33, 306.01
359.61, 2.50, 305.58
359.42, 2.68, 305.13
359.23, 2.87, 304.66
359.12, 3.09, 304.41
359.01, 3.31, 304.18
358.90, 3.54, 303.95
358.79, 3.78, 303.71
358.68, 4.02, 303.46
364.30, 2.41, 318.06
364.23, 2.40, 317.88
364.15, 2.40, 317.70
364.08, 2.39, 317.50
¯363.99, 2.39, 317.28
363.90, 2.38, 317.05
363.81, 2.38, 316.81
363.70, 2.37, 316.55
363.59, 2.36, 316.25
363.45, 2.35, 315.89
363.29, 2.33, 315.50
363.12, 2.31, 315.05
362.92, 2.28, 314.55
362.70, 2.25, 313.98
362.49, 2.24, 313.44
362.27, 2.25, 312.90
362.02, 2.25, 312.26
361.72, 2.25, 311.50
361.37, 2.24, 310.61
360.09, 1.85, 307.26
359.86, 1.98, 306.72
359.68, 2.13, 306.30
359.51, 2.29, 305.88
359.32, 2.46, 305.43
359.11, 2.64, 304.94
358.94, 2.84, 304.56
358.82, 3.06, 304.30
358.70, 3.28, 304.04
358.58, 3.51, 303.79
358.47, 3.75, 303.55
358.35, 4.00, 303.30
364.25, 2.41, 318.09
364.18, 2.40, 317.92
364.10, 2.40, 317.74
364.02, 2.39, 317.54
363.93, 2.39, 317.32
363.84, 2.38, 317.09
363.74, 2.38, 316.85
363.63, 2.37, 316.59
363.52, 2.36, 316.30
363.37, 2.35, 315.95
363.22, 2.33, 315.56
363.04, 2.30, 315.12
362.84, 2.28, 314.62
362.61, 2.25, 314.05
362.36, 2.23, 313.45
362.14, 2.23, 312.90
361.88, 2.23, 312.26
361.57, 2.22, 311.49
361.20, 2.21, 310.60
359.86, 1.82, 307.25
359.59, 1.93, 306.59
359.41, 2.09, 306.18
359.21, 2.25, 305.73
359.00, 2.42, 305.25
¯358.78, 2.60, 304.74
358.65, 2.81, 304.46
358.52, 3.03, 304.20
358.39, 3.25, 303.93
358.26, 3.49, 303.65
358.13, 3.73, 303.38
358.01, 3.97, 303.13
364.20, 2.41, 318.13
364.12, 2.41, 317.96
364.05, 2.40, 317.77
363.96, 2.40, 317.58
363.88, 2.39, 317.37
363.78, 2.38, 317.14
363.68, 2.38, 316.89
363.57, 2.37, 316.63
363.45, 2.36, 316.35
363.30, 2.35, 316.00
363.14, 2.33, 315.61
362.96, 2.30, 315.18
362.75, 2.28, 314.68
362.52, 2.25, 314.12
362.25, 2.21, 313.48
362.00, 2.21, 312.90
361.73, 2.21, 312.26
361.41, 2.20, 311.49
361.02, 2.19, 310.58
359.77, 1.85, 307.54
359.31, 1.88, 306.46
359.11, 2.04, 306.02
358.90, 2.20, 305.55
358.67, 2.37, 305.06
358.47, 2.56, 304.62
358.35, 2.77, 304.36
358.22, 2.99, 304.09
358.08, 3.22, 303.82
357.94, 3.46, 303.54
357.80, 3.70, 303.25
357.66, 3.95, 302.95
364.15, 2.41, 318.16
364.07, 2.41, 317.99
363.99, 2.40, 317.81
363.91, 2.40, 317.62
363.82, 2.39, 317.41
363.72, 2.38, 317.19
363.62, 2.38, 316.94
363.50, 2.37, 316.68
363.38, 2.36, 316.40
363.23, 2.35, 316.06
363.06, 2.33, 315.67
362.88, 2.30, 315.24
362.67, 2.28, 314.75
¯362.43, 2.25, 314.20
362.15, 2.21, 313.56
361.87, 2.19, 312.91
361.59, 2.19, 312.27
361.25, 2.18, 311.49
360.84, 2.16, 310.56
359.67, 1.87, 307.83
359.03, 1.84, 306.36
358.80, 1.98, 305.85
358.57, 2.15, 305.37
358.34, 2.32, 304.86
358.17, 2.52, 304.52
358.04, 2.74, 304.25
357.90, 2.96, 303.98
357.76, 3.19, 303.70
357.62, 3.43, 303.42
357.47, 3.67, 303.12
357.29, 3.92, 302.76
364.10, 2.41, 318.20
364.02, 2.41, 318.03
363.94, 2.40, 317.85
363.86, 2.40, 317.66
363.76, 2.39, 317.46
363.66, 2.39, 317.23
363.56, 2.38, 316.99
363.44, 2.37, 316.73
363.31, 2.36, 316.45
363.16, 2.35, 316.11
362.99, 2.33, 315.73
362.80, 2.30, 315.30
362.58, 2.28, 314.82
362.34, 2.25, 314.27
362.06, 2.21, 313.65
361.73, 2.17, 312.92
361.44, 2.17, 312.27
361.08, 2.15, 311.48
360.66, 2.13, 310.55
359.58, 1.89, 308.12
358.86, 1.83, 306.49
358.48, 1.93, 305.67
358.24, 2.09, 305.18
358.00, 2.27, 304.67
357.86, 2.48, 304.41
357.72, 2.70, 304.15
357.58, 2.93, 303.87
357.44, 3.16, 303.59
357.25, 3.40, 303.22
357.06, 3.64, 302.83
356.86, 3.90, 302.45
364.05, 2.41, 318.24
363.97, 2.41, 318.07
¯363.89, 2.40, 317.89
363.80, 2.40, 317.71
363.71, 2.39, 317.50
363.61, 2.39, 317.28
363.50, 2.38, 317.05
363.38, 2.37, 316.79
363.24, 2.36, 316.50
363.09, 2.35, 316.17
362.91, 2.33, 315.79
362.72, 2.30, 315.37
362.50, 2.28, 314.89
362.25, 2.25, 314.35
361.97, 2.21, 313.73
361.63, 2.17, 313.02
361.29, 2.15, 312.28
360.92, 2.13, 311.47
360.48, 2.11, 310.52
359.50, 1.91, 308.40
358.68, 1.82, 306.63
358.22, 1.90, 305.66
357.90, 2.04, 304.98
357.69, 2.23, 304.57
357.55, 2.44, 304.31
357.40, 2.66, 304.03
357.21, 2.89, 303.67
357.02, 3.12, 303.30
356.82, 3.36, 302.91
356.62, 3.61, 302.52
356.42, 3.87, 302.13
364.00, 2.41, 318.27
363.92, 2.41, 318.11
363.84, 2.41, 317.93
363.75, 2.40, 317.75
363.65, 2.39, 317.55
363.55, 2.39, 317.33
363.44, 2.38, 317.10
363.32, 2.37, 316.84
363.18, 2.36, 316.55
363.02, 2.35, 316.22
362.84, 2.32, 315.85
362.64, 2.30, 315.43
362.42, 2.28, 314.96
362.16, 2.25, 314.43
361.87, 2.21, 313.82
361.54, 2.17, 313.11
361.14, 2.12, 312.27
360.75, 2.10, 311.46
360.29, 2.08, 310.50
359.44, 1.93, 308.72
358.58, 1.84, 306.92
358.04, 1.89, 305.81
¯357.54, 1.98, 304.78
357.36, 2.18, 304.45
357.18, 2.39, 304.10
356.99, 2.61, 303.74
356.79, 2.84, 303.37
356.59, 3.07, 302.98
356.38, 3.31, 302.59
356.17, 3.57, 302.20
355.95, 3.84, 301.79
363.96, 2.42, 318.31
363.88, 2.41, 318.15
363.79, 2.41, 317.98
363.70, 2.40, 317.79
363.60, 2.40, 317.59
363.50, 2.39, 317.38
363.38, 2.38, 317.15
363.26, 2.37, 316.89
363.11, 2.36, 316.60
362.95, 2.34, 316.28
362.77, 2.32, 315.91
362.57, 2.30, 315.50
362.34, 2.28, 315.03
362.08, 2.25, 314.51
361.78, 2.21, 313.91
361.44, 2.17, 313.21
361.02, 2.12, 312.34
360.58, 2.08, 311.46
360.10, 2.05, 310.49
359.27, 1.92, 308.80
358.49, 1.85, 307.21
357.86, 1.88, 305.96
357.22, 1.93, 304.67
356.96, 2.12, 304.18
356.76, 2.33, 303.82
356.56, 2.55, 303.45
356.35, 2.78, 303.06
356.13, 3.02, 302.66
355.92, 3.27, 302.27
355.69, 3.53, 301.86
355.46, 3.80, 301.44
363.91, 2.42, 318.35
363.83, 2.41, 318.19
363.74, 2.41, 318.02
363.65, 2.40, 317.84
363.55, 2.40, 317.64
363.44, 2.39, 317.43
363.32, 2.38, 317.20
363.19, 2.37, 316.94
363.05, 2.36, 316.65
362.88, 2.34, 316.33
362.70, 2.32, 315.97
¯362.49, 2.30, 315.56
362.26, 2.28, 315.10
362.00, 2.25, 314.59
361.70, 2.21, 313.99
361.35, 2.17, 313.31
360.91, 2.11, 312.44
360.41, 2.05, 311.46
359.91, 2.02, 310.47
359.12, 1.91, 308.93
358.40, 1.87, 307.50
357.68, 1.87, 306.10
356.90, 1.89, 304.58
356.60, 2.07, 304.02
356.33, 2.27, 303.52
356.11, 2.49, 303.14
355.89, 2.73, 302.73
355.67, 2.97, 302.34
355.44, 3.23, 301.94
355.23, 3.49, 301.56
355.00, 3.77, 301.17
363.86, 2.42, 318.38
363.78, 2.41, 318.23
363.69, 2.41, 318.06
363.60, 2.40, 317.88
363.50, 2.40, 317.69
363.39, 2.39, 317.48
363.27, 2.39, 317.25
363.13, 2.37, 316.99
362.98, 2.36, 316.71
362.82, 2.34, 316.39
362.63, 2.32, 316.03
362.42, 2.30, 315.63
362.18, 2.27, 315.18
361.91, 2.25, 314.67
361.61, 2.21, 314.08
361.25, 2.17, 313.39
360.80, 2.11, 312.53
360.25, 2.03, 311.48
359.72, 1.99, 310.46
358.98, 1.91, 309.06
358.26, 1.87, 307.69
357.50, 1.86, 306.25
356.58, 1.84, 304.50
356.26, 2.02, 303.92
355.93, 2.21, 303.32
355.64, 2.43, 302.81
355.42, 2.67, 302.42
355.21, 2.92, 302.06
354.99, 3.19, 301.68
354.76, 3.46, 301.29
354.52, 3.74, 300.89
¯363.82, 2.42, 318.42
363.73, 2.41, 318.27
363.64, 2.41, 318.10
363.55, 2.40, 317.92
363.44, 2.40, 317.73
363.33, 2.39, 317.53
363.21, 2.38, 317.30
363.07, 2.37, 317.04
362.92, 2.36, 316.76
362.75, 2.34, 316.45
362.56, 2.32, 316.09
362.35, 2.30, 315.70
362.11, 2.27, 315.25
361.83, 2.25, 314.75
361.52, 2.21, 314.17
361.15, 2.17, 313.48
360.69, 2.11, 312.62
360.14, 2.03, 311.59
359.52, 1.96, 310.45
358.84, 1.90, 309.19
358.10, 1.86, 307.83
357.18, 1.81, 306.11
356.25, 1.80, 304.41
355.92, 1.98, 303.83
355.57, 2.17, 303.21
355.22, 2.38, 302.59
354.98, 2.62, 302.18
354.75, 2.88, 301.81
354.52, 3.14, 301.42
354.28, 3.42, 301.02
363.77, 2.42, 318.46
363.69, 2.42, 318.31
363.60, 2.41, 318.14
363.50, 2.41, 317.97
363.39, 2.40, 317.78
363.28, 2.40, 317.58
363.15, 2.38, 317.34
363.01, 2.37, 317.09
362.85, 2.36, 316.81
362.68, 2.34, 316.50
362.49, 2.32, 316.16
362.27, 2.30, 315.76
362.03, 2.27, 315.32
361.75, 2.25, 314.83
361.44, 2.21, 314.26
361.05, 2.16, 313.56
360.58, 2.10, 312.71
360.02, 2.03, 311.70
359.34, 1.94, 310.47
358.70, 1.90, 309.32
357.95, 1.86, 307.97
¯356.70, 1.71, 305.71
355.92, 1.75, 304.32
355.57, 1.93, 303.73
355.15, 2.11, 303.01
354.83, 2.33, 302.46
354.56, 2.58, 302.01
354.28, 2.83, 301.55
354.03, 3.10, 301.14
363.72, 2.42, 318.49
363.64, 2.42, 318.35
363.55, 2.41, 318.19
363.45, 2.41, 318.01
363.34, 2.40, 317.83
363.22, 2.39, 317.62
363.09, 2.38, 317.39
362.95, 2.37, 317.14
362.79, 2.36, 316.86
362.62, 2.34, 316.56
362.42, 2.32, 316.22
362.20, 2.30, 315.83
361.96, 2.27, 315.40
361.67, 2.25, 314.91
361.35, 2.21, 314.35
360.95, 2.16, 313.65
360.48, 2.10, 312.81
359.91, 2.02, 311.81
359.20, 1.93, 310.57
358.56, 1.89, 309.45
357.79, 1.85, 308.11
356.19, 1.61, 305.28
355.57, 1.70, 304.23
355.16, 1.87, 303.55
354.70, 2.05, 302.77
354.42, 2.28, 302.32
354.14, 2.53, 301.86
353.85, 2.79, 301.39
353.54, 3.05, 300.89
363.68, 2.42, 318.53
363.60, 2.42, 318.39
363.50, 2.41, 318.23
363.40, 2.41, 318.06
363.29, 2.40, 317.88
363.17, 2.39, 317.67
363.04, 2.38, 317.44
362.89, 2.37, 317.19
362.73, 2.36, 316.92
362.55, 2.34, 316.62
362.36, 2.32, 316.28
362.13, 2.30, 315.90
361.88, 2.27, 315.47
361.60, 2.25, 314.99
¯361.27, 2.21, 314.43
360.86, 2.16, 313.73
360.38, 2.10, 312.91
359.80, 2.02, 311.92
359.07, 1.92, 310.68
358.43, 1.89, 309.58
357.64, 1.84, 308.25
355.64, 1.50, 304.83
355.17, 1.64, 304.06
354.72, 1.81, 303.32
354.30, 2.00, 302.62
354.01, 2.24, 302.18
353.72, 2.48, 301.71
353.39, 2.74, 301.20
363.64, 2.42, 318.57
363.55, 2.42, 318.43
363.46, 2.41, 318.28
363.35, 2.41, 318.11
363.24, 2.40, 317.92
363.12, 2.39, 317.71
362.98, 2.38, 317.49
362.83, 2.37, 317.24
362.67, 2.36, 316.97
362.49, 2.34, 316.68
362.29, 2.32, 316.35
362.06, 2.30, 315.97
361.81, 2.27, 315.55
361.52, 2.25, 315.07
361.19, 2.21, 314.52
360.77, 2.16, 313.82
360.27, 2.09, 313.00
359.69, 2.02, 312.03
358.95, 1.92, 310.80
358.27, 1.87, 309.68
357.49, 1.83, 308.39
356.48, 1.77, 306.73
354.74, 1.57, 303.85
354.27, 1.74, 303.09
353.89, 1.95, 302.49
353.59, 2.19, 302.03
353.24, 2.43, 301.50
363.59, 2.42, 318.61
363.50, 2.42, 318.47
363.41, 2.42, 318.32
363.31, 2.41, 318.15
363.19, 2.40, 317.97
363.06, 2.39, 317.76
362.92, 2.38, 317.54
362.77, 2.37, 317.29
362.61, 2.35, 317.03
362.43, 2.34, 316.74
¯362.23, 2.32, 316.41
362.00, 2.30, 316.04
361.74, 2.28, 315.63
361.45, 2.25, 315.16
361.10, 2.21, 314.60
360.68, 2.15, 313.91
360.18, 2.09, 313.10
359.58, 2.01, 312.14
358.82, 1.91, 310.92
358.11, 1.86, 309.77
357.33, 1.82, 308.52
356.30, 1.76, 306.87
354.46, 1.54, 303.89
353.79, 1.67, 302.84
353.46, 1.89, 302.34
353.09, 2.12, 301.79
363.55, 2.42, 318.65
363.46, 2.42, 318.51
363.37, 2.42, 318.36
363.26, 2.41, 318.20
363.14, 2.40, 318.01
363.01, 2.39, 317.81
362.87, 2.38, 317.59
362.72, 2.37, 317.35
362.55, 2.35, 317.08
362.37, 2.34, 316.80
362.16, 2.32, 316.48
361.93, 2.30, 316.11
361.67, 2.28, 315.70
361.37, 2.25, 315.24
361.02, 2.21, 314.68
360.59, 2.15, 314.01
360.08, 2.09, 313.20
359.47, 2.01, 312.25
358.70, 1.91, 311.04
357.95, 1.85, 309.86
357.10, 1.79, 308.53
356.13, 1.75, 307.02
354.33, 1.54, 304.19
353.37, 1.61, 302.70
352.95, 1.82, 302.08
363.51, 2.42, 318.69
363.42, 2.42, 318.55
363.32, 2.42, 318.41
363.21, 2.41, 318.24
363.09, 2.40, 318.05
362.96, 2.39, 317.85
362.82, 2.38, 317.64
362.66, 2.37, 317.40
362.49, 2.35, 317.14
362.30, 2.34, 316.86
¯362.10, 2.32, 316.54
361.86, 2.30, 316.19
361.60, 2.28, 315.78
361.30, 2.25, 315.32
360.94, 2.21, 314.77
360.51, 2.15, 314.11
359.99, 2.09, 313.32
359.37, 2.01, 312.37
358.58, 1.90, 311.17
357.79, 1.83, 309.95
356.86, 1.76, 308.54
355.94, 1.73, 307.14
354.20, 1.55, 304.49
353.04, 1.57, 302.73
352.54, 1.77, 302.00
363.46, 2.42, 318.73
363.37, 2.42, 318.59
363.28, 2.42, 318.45
363.17, 2.41, 318.28
363.04, 2.40, 318.10
362.91, 2.39, 317.90
362.76, 2.38, 317.69
362.61, 2.37, 317.45
362.43, 2.35, 317.20
362.24, 2.34, 316.92
362.04, 2.32, 316.61
361.80, 2.30, 316.26
361.53, 2.28, 315.86
361.22, 2.25, 315.40
360.86, 2.20, 314.86
360.43, 2.15, 314.21
359.90, 2.09, 313.43
359.26, 2.01, 312.48
358.47, 1.90, 311.29
357.63, 1.82, 310.05
356.63, 1.73, 308.56
355.68, 1.70, 307.15
354.19, 1.58, 304.94
352.74, 1.54, 302.80
352.19, 1.73, 302.01
363.42, 2.42, 318.77
363.33, 2.42, 318.64
363.23, 2.42, 318.49
363.12, 2.41, 318.33
362.99, 2.40, 318.15
362.86, 2.39, 317.95
362.71, 2.38, 317.74
362.55, 2.37, 317.51
362.38, 2.35, 317.25
362.18, 2.34, 316.98
361.97, 2.32, 316.67
¯361.74, 2.30, 316.33
361.47, 2.28, 315.94
361.15, 2.24, 315.48
360.78, 2.20, 314.94
360.35, 2.15, 314.31
359.82, 2.09, 313.54
359.17, 2.01, 312.61
358.35, 1.90, 311.42
357.47, 1.81, 310.14
356.39, 1.70, 308.57
355.39, 1.66, 307.14
354.25, 1.63, 305.49
352.46, 1.51, 302.91
363.38, 2.42, 318.81
363.29, 2.42, 318.68
363.19, 2.42, 318.53
363.08, 2.41, 318.38
362.95, 2.40, 318.20
362.81, 2.39, 318.00
362.66, 2.38, 317.79
362.50, 2.37, 317.56
362.32, 2.35, 317.31
362.13, 2.34, 317.04
361.91, 2.32, 316.74
361.67, 2.30, 316.40
361.40, 2.28, 316.02
361.08, 2.24, 315.56
360.70, 2.20, 315.03
360.27, 2.15, 314.42
359.73, 2.09, 313.66
359.08, 2.01, 312.73
358.25, 1.90, 311.56
357.29, 1.78, 310.20
356.15, 1.66, 308.59
355.06, 1.61, 307.07
353.88, 1.57, 305.41
352.18, 1.48, 303.02
363.34, 2.42, 318.85
363.25, 2.42, 318.72
363.14, 2.42, 318.57
363.03, 2.41, 318.42
362.90, 2.40, 318.25
362.76, 2.39, 318.05
362.61, 2.38, 317.85
362.45, 2.37, 317.62
362.27, 2.35, 317.37
362.07, 2.34, 317.10
361.85, 2.32, 316.80
361.61, 2.30, 316.47
361.34, 2.28, 316.10
361.01, 2.24, 315.64
¯360.63, 2.20, 315.12
360.19, 2.15, 314.52
359.65, 2.09, 313.77
358.98, 2.01, 312.86
358.15, 1.90, 311.70
357.09, 1.76, 310.25
355.91, 1.63, 308.62
354.72, 1.55, 306.99
353.51, 1.52, 305.33
351.91, 1.46, 303.14
363.30, 2.42, 318.89
363.20, 2.42, 318.76
363.10, 2.41, 318.62
362.98, 2.41, 318.46
362.86, 2.40, 318.30
362.72, 2.39, 318.11
362.56, 2.38, 317.90
362.40, 2.37, 317.68
362.21, 2.35, 317.43
362.01, 2.34, 317.17
361.79, 2.32, 316.87
361.55, 2.30, 316.55
361.27, 2.28, 316.17
360.94, 2.24, 315.72
360.55, 2.20, 315.21
360.11, 2.15, 314.61
359.57, 2.09, 313.89
358.89, 2.01, 312.98
358.05, 1.90, 311.85
356.99, 1.76, 310.42
355.67, 1.60, 308.65
354.38, 1.50, 306.92
353.24, 1.49, 305.40
351.67, 1.44, 303.31
363.26, 2.42, 318.93
363.16, 2.42, 318.80
363.05, 2.41, 318.66
362.94, 2.41, 318.51
362.81, 2.40, 318.35
362.67, 2.39, 318.16
362.52, 2.38, 317.96
362.35, 2.37, 317.74
362.16, 2.35, 317.50
361.96, 2.34, 317.23
361.74, 2.32, 316.94
361.49, 2.30, 316.62
361.20, 2.28, 316.25
360.87, 2.24, 315.80
360.48, 2.20, 315.30
360.03, 2.15, 314.71
359.49, 2.09, 314.00
¯358.81, 2.01, 313.11
357.96, 1.90, 312.00
356.89, 1.76, 310.60
355.50, 1.59, 308.77
354.02, 1.45, 306.85
352.96, 1.46, 305.47
351.48, 1.43, 303.54
363.22, 2.42, 318.97
363.12, 2.42, 318.84
363.01, 2.41, 318.70
362.89, 2.41, 318.55
362.77, 2.40, 318.39
362.62, 2.39, 318.21
362.47, 2.38, 318.01
362.30, 2.37, 317.80
362.11, 2.35, 317.56
361.91, 2.34, 317.30
361.68, 2.32, 317.01
361.43, 2.30, 316.70
361.14, 2.28, 316.33
360.80, 2.24, 315.89
360.41, 2.20, 315.39
359.96, 2.15, 314.81
359.41, 2.09, 314.12
358.72, 2.01, 313.24
357.87, 1.90, 312.14
356.79, 1.76, 310.77
355.39, 1.59, 308.98
353.66, 1.39, 306.77
352.69, 1.43, 305.55
351.33, 1.43, 303.83
363.18, 2.42, 319.01
363.08, 2.42, 318.88
362.97, 2.41, 318.75
362.85, 2.41, 318.60
362.72, 2.40, 318.44
362.58, 2.39, 318.27
362.42, 2.38, 318.07
362.25, 2.37, 317.86
362.06, 2.36, 317.62
361.86, 2.34, 317.37
361.63, 2.32, 317.08
361.38, 2.30, 316.77
361.08, 2.28, 316.41
360.74, 2.24, 315.98
360.34, 2.20, 315.48
359.88, 2.15, 314.91
359.34, 2.09, 314.24
358.64, 2.01, 313.36
357.78, 1.90, 312.29
356.70, 1.77, 310.94
¯355.28, 1.59, 309.18
353.50, 1.38, 306.96
352.41, 1.39, 305.62
351.19, 1.42, 304.12
363.15, 2.42, 319.05
363.04, 2.42, 318.93
362.93, 2.41, 318.79
362.81, 2.41, 318.64
362.68, 2.40, 318.49
362.54, 2.39, 318.32
362.38, 2.38, 318.13
362.20, 2.37, 317.92
362.01, 2.36, 317.69
361.81, 2.34, 317.43
361.58, 2.32, 317.16
361.32, 2.31, 316.85
361.02, 2.28, 316.49
360.68, 2.24, 316.07
360.28, 2.20, 315.58
359.81, 2.15, 315.02
359.26, 2.09, 314.35
358.56, 2.01, 313.49
357.69, 1.90, 312.44
356.60, 1.77, 311.12
355.17, 1.59, 309.38
353.32, 1.37, 307.14
352.11, 1.36, 305.68
350.94, 1.40, 304.28
363.11, 2.42, 319.09
363.00, 2.41, 318.97
362.89, 2.41, 318.83
362.76, 2.41, 318.69
362.63, 2.40, 318.54
362.49, 2.40, 318.37
362.33, 2.38, 318.18
362.16, 2.37, 317.98
361.97, 2.36, 317.75
361.76, 2.34, 317.50
361.52, 2.33, 317.23
361.27, 2.31, 316.92
360.96, 2.28, 316.57
360.62, 2.24, 316.16
360.21, 2.20, 315.68
359.75, 2.15, 315.13
359.19, 2.10, 314.47
358.48, 2.01, 313.63
357.61, 1.90, 312.59
356.51, 1.77, 311.29
355.07, 1.59, 309.58
353.15, 1.36, 307.31
351.82, 1.32, 305.74
¯350.61, 1.36, 304.33
363.07, 2.42, 319.14
362.96, 2.41, 319.01
362.84, 2.41, 318.88
362.72, 2.40, 318.74
362.59, 2.40, 318.59
362.45, 2.39, 318.42
362.29, 2.38, 318.24
362.11, 2.37, 318.04
361.92, 2.36, 317.81
361.71, 2.34, 317.57
361.47, 2.33, 317.30
361.21, 2.31, 317.00
360.91, 2.28, 316.65
360.56, 2.25, 316.25
360.15, 2.20, 315.78
359.68, 2.16, 315.24
359.13, 2.10, 314.59
358.41, 2.01, 313.77
357.53, 1.91, 312.75
356.42, 1.77, 311.47
354.97, 1.59, 309.79
352.98, 1.35, 307.49
351.52, 1.29, 305.81
350.27, 1.32, 304.38
363.03, 2.42, 319.18
362.92, 2.41, 319.05
362.80, 2.41, 318.92
362.68, 2.40, 318.78
362.55, 2.40, 318.63
362.40, 2.39, 318.47
362.25, 2.39, 318.30
362.07, 2.37, 318.10
361.87, 2.36, 317.88
361.66, 2.34, 317.64
361.42, 2.33, 317.37
361.16, 2.31, 317.07
360.85, 2.28, 316.73
360.50, 2.25, 316.34
360.09, 2.21, 315.88
359.62, 2.16, 315.35
359.06, 2.10, 314.71
358.35, 2.02, 313.91
357.46, 1.91, 312.91
356.34, 1.78, 311.65
354.87, 1.59, 309.99
352.82, 1.34, 307.67
351.21, 1.25, 305.86
349.93, 1.28, 304.44
362.99, 2.42, 319.22
362.88, 2.41, 319.10
¯362.76, 2.41, 318.97
362.64, 2.40, 318.83
362.50, 2.40, 318.68
362.36, 2.39, 318.53
362.20, 2.39, 318.36
362.02, 2.37, 318.16
361.83, 2.36, 317.94
361.61, 2.35, 317.71
361.38, 2.33, 317.45
361.10, 2.31, 317.15
360.79, 2.28, 316.81
360.44, 2.25, 316.43
360.03, 2.21, 315.98
359.56, 2.16, 315.45
358.99, 2.10, 314.83
358.29, 2.02, 314.05
357.40, 1.92, 313.08
356.26, 1.78, 311.82
354.75, 1.59, 310.17
352.67, 1.33, 307.87
350.89, 1.21, 305.92
349.59, 1.24, 304.50
362.96, 2.42, 319.26
362.84, 2.41, 319.14
362.73, 2.41, 319.01
362.60, 2.40, 318.88
362.46, 2.40, 318.73
362.32, 2.39, 318.58
362.16, 2.39, 318.41
361.98, 2.38, 318.22
361.78, 2.36, 318.01
361.57, 2.35, 317.78
361.33, 2.33, 317.52
361.05, 2.31, 317.22
360.74, 2.28, 316.89
360.39, 2.25, 316.51
359.98, 2.21, 316.08
359.50, 2.16, 315.56
358.93, 2.10, 314.95
358.22, 2.03, 314.19
357.33, 1.92, 313.24
356.18, 1.78, 312.00
354.64, 1.59, 310.35
352.54, 1.33, 308.09
350.67, 1.19, 306.08
349.17, 1.19, 304.49
362.92, 2.42, 319.30
362.81, 2.41, 319.19
362.69, 2.41, 319.06
362.56, 2.40, 318.93
362.42, 2.40, 318.78
¯362.27, 2.39, 318.63
362.11, 2.39, 318.47
361.94, 2.38, 318.28
361.74, 2.36, 318.07
361.52, 2.35, 317.85
361.28, 2.33, 317.59
361.00, 2.31, 317.30
360.68, 2.28, 316.97
360.33, 2.25, 316.60
359.92, 2.21, 316.18
359.44, 2.17, 315.67
358.86, 2.11, 315.07
358.17, 2.03, 314.34
357.27, 1.93, 313.40
356.10, 1.78, 312.17
354.53, 1.59, 310.53
352.42, 1.33, 308.32
350.45, 1.17, 306.26
362.88, 2.42, 319.35
362.77, 2.41, 319.23
362.65, 2.41, 319.11
362.52, 2.40, 318.98
362.38, 2.40, 318.83
362.23, 2.39, 318.68
362.07, 2.38, 318.52
361.90, 2.38, 318.34
361.70, 2.36, 318.14
361.48, 2.35, 317.92
361.23, 2.33, 317.66
360.95, 2.31, 317.38
360.63, 2.28, 317.05
360.28, 2.25, 316.69
359.87, 2.21, 316.28
359.39, 2.17, 315.78
358.80, 2.11, 315.19
358.11, 2.04, 314.48
357.21, 1.93, 313.56
356.03, 1.79, 312.35
354.44, 1.59, 310.72
352.30, 1.32, 308.54
350.25, 1.15, 306.44
362.85, 2.41, 319.39
362.73, 2.41, 319.28
362.61, 2.41, 319.15
362.48, 2.40, 319.02
362.34, 2.40, 318.89
362.19, 2.39, 318.74
362.03, 2.38, 318.58
361.85, 2.38, 318.40
361.65, 2.37, 318.21
361.43, 2.35, 317.99
¯361.18, 2.33, 317.74
360.90, 2.31, 317.45
360.58, 2.28, 317.14
360.22, 2.25, 316.78
359.82, 2.22, 316.38
359.33, 2.17, 315.89
358.74, 2.11, 315.31
358.04, 2.04, 314.61
357.15, 1.94, 313.72
355.96, 1.79, 312.53
354.35, 1.59, 310.92
352.19, 1.32, 308.77
350.04, 1.13, 306.63
362.81, 2.41, 319.43
362.70, 2.41, 319.32
362.57, 2.41, 319.20
362.44, 2.40, 319.07
362.30, 2.39, 318.94
362.15, 2.39, 318.79
361.99, 2.38, 318.63
361.81, 2.38, 318.46
361.61, 2.37, 318.27
361.39, 2.35, 318.06
361.14, 2.33, 317.81
360.85, 2.31, 317.53
360.53, 2.28, 317.22
360.17, 2.25, 316.87
359.76, 2.22, 316.47
359.28, 2.17, 316.00
358.68, 2.11, 315.43
357.98, 2.04, 314.75
357.09, 1.94, 313.88
355.90, 1.80, 312.72
354.26, 1.59, 311.12
352.08, 1.32, 308.99
349.95, 1.14, 306.93
362.78, 2.41, 319.48
362.66, 2.41, 319.37
362.54, 2.40, 319.25
362.40, 2.40, 319.12
362.26, 2.39, 318.99
362.11, 2.39, 318.84
361.94, 2.38, 318.69
361.77, 2.38, 318.52
361.57, 2.37, 318.34
361.35, 2.35, 318.13
361.09, 2.33, 317.88
360.80, 2.31, 317.61
360.48, 2.28, 317.30
360.12, 2.25, 316.96
359.71, 2.22, 316.57
¯359.22, 2.17, 316.11
358.63, 2.12, 315.55
357.93, 2.04, 314.88
357.04, 1.95, 314.03
355.85, 1.81, 312.90
354.19, 1.60, 311.33
351.97, 1.32, 309.22
349.52, 1.08, 306.90
362.75, 2.41, 319.52
362.63, 2.41, 319.41
362.50, 2.40, 319.30
362.37, 2.40, 319.17
362.22, 2.39, 319.04
362.07, 2.39, 318.90
361.90, 2.38, 318.74
361.73, 2.38, 318.58
361.53, 2.37, 318.40
361.31, 2.36, 318.20
361.05, 2.33, 317.95
360.76, 2.31, 317.69
360.43, 2.28, 317.39
360.07, 2.25, 317.05
359.66, 2.22, 316.67
359.17, 2.18, 316.22
358.58, 2.12, 315.67
357.88, 2.05, 315.02
356.98, 1.95, 314.19
355.79, 1.81, 313.09
354.14, 1.61, 311.56
351.87, 1.32, 309.45
349.18, 1.03, 306.96
362.71, 2.41, 319.57
362.59, 2.41, 319.46
362.47, 2.40, 319.34
362.33, 2.40, 319.22
362.19, 2.39, 319.09
362.03, 2.39, 318.95
361.86, 2.38, 318.80
361.68, 2.37, 318.64
361.49, 2.37, 318.46
361.27, 2.36, 318.26
361.00, 2.33, 318.03
360.71, 2.31, 317.76
360.39, 2.29, 317.47
360.02, 2.26, 317.14
359.61, 2.22, 316.77
359.13, 2.18, 316.33
358.53, 2.12, 315.80
357.83, 2.06, 315.16
356.93, 1.96, 314.35
355.74, 1.82, 313.28
¯354.09, 1.61, 311.78
351.77, 1.32, 309.68
348.83, 0.99, 307.02
362.68, 2.41, 319.61
362.56, 2.41, 319.50
362.43, 2.40, 319.39
362.30, 2.40, 319.27
362.15, 2.39, 319.14
361.99, 2.39, 319.01
361.82, 2.38, 318.86
361.64, 2.37, 318.70
361.45, 2.37, 318.53
361.23, 2.36, 318.34
360.96, 2.34, 318.10
360.67, 2.31, 317.85
360.35, 2.29, 317.56
359.98, 2.26, 317.24
359.57, 2.23, 316.87
359.08, 2.19, 316.45
358.49, 2.13, 315.93
357.79, 2.06, 315.31
356.88, 1.96, 314.51
355.70, 1.83, 313.46
354.04, 1.62, 312.00
351.67, 1.32, 309.91
348.47, 0.94, 307.08
362.65, 2.41, 319.66
362.53, 2.41, 319.55
362.40, 2.40, 319.44
362.26, 2.40, 319.32
362.12, 2.39, 319.20
361.96, 2.39, 319.06
361.79, 2.38, 318.92
361.61, 2.38, 318.76
361.41, 2.37, 318.60
361.19, 2.36, 318.41
360.93, 2.34, 318.18
360.63, 2.32, 317.93
360.31, 2.29, 317.65
359.94, 2.26, 317.33
359.52, 2.23, 316.98
359.04, 2.19, 316.56
358.45, 2.13, 316.05
357.75, 2.07, 315.45
356.84, 1.97, 314.67
355.65, 1.83, 313.65
354.00, 1.63, 312.22
351.58, 1.32, 310.14
348.14, 0.90, 307.18
362.62, 2.41, 319.70
362.50, 2.41, 319.60
¯362.37, 2.40, 319.49
362.23, 2.40, 319.38
362.08, 2.39, 319.26
361.93, 2.39, 319.12
361.76, 2.38, 318.98
361.57, 2.38, 318.83
361.38, 2.37, 318.66
361.15, 2.36, 318.47
360.89, 2.34, 318.26
360.59, 2.32, 318.01
360.27, 2.29, 317.74
359.90, 2.26, 317.43
359.48, 2.23, 317.08
358.99, 2.19, 316.67
358.41, 2.14, 316.18
357.71, 2.07, 315.59
356.80, 1.98, 314.83
355.61, 1.84, 313.83
353.96, 1.64, 312.45
349.44, 0.90, 308.64
348.03, 0.90, 307.46
362.59, 2.41, 319.75
362.47, 2.41, 319.65
362.34, 2.41, 319.54
362.20, 2.40, 319.43
362.05, 2.40, 319.31
361.89, 2.39, 319.18
361.72, 2.39, 319.04
361.54, 2.38, 318.89
361.34, 2.37, 318.73
361.11, 2.36, 318.54
360.85, 2.34, 318.33
360.56, 2.32, 318.09
360.23, 2.30, 317.82
359.86, 2.27, 317.52
359.44, 2.24, 317.18
358.95, 2.19, 316.78
358.37, 2.14, 316.31
357.67, 2.08, 315.73
356.75, 1.98, 314.98
355.57, 1.85, 314.02
353.92, 1.65, 312.66
349.34, 0.90, 308.90
347.92, 0.90, 307.75
362.75, 2.52, 319.95
362.44, 2.41, 319.70
362.31, 2.41, 319.60
362.17, 2.40, 319.49
362.02, 2.40, 319.37
361.86, 2.39, 319.24
361.69, 2.39, 319.11
¯361.51, 2.38, 318.96
361.30, 2.37, 318.80
361.07, 2.36, 318.61
360.81, 2.34, 318.41
360.52, 2.32, 318.18
360.19, 2.30, 317.91
359.82, 2.27, 317.62
359.40, 2.24, 317.28
358.91, 2.20, 316.89
358.33, 2.15, 316.43
357.63, 2.09, 315.87
356.71, 1.99, 315.14
355.54, 1.86, 314.20
353.89, 1.66, 312.88
349.24, 0.90, 309.15
347.82, 0.90, 308.03
362.73, 2.52, 320.00
362.61, 2.52, 319.91
362.47, 2.50, 319.80
362.14, 2.40, 319.54
361.99, 2.40, 319.42
361.83, 2.39, 319.30
361.66, 2.39, 319.17
361.47, 2.38, 319.02
361.27, 2.37, 318.87
361.03, 2.36, 318.68
360.78, 2.34, 318.48
360.49, 2.33, 318.26
360.15, 2.30, 318.00
359.78, 2.27, 317.71
359.36, 2.24, 317.39
358.87, 2.20, 317.00
358.29, 2.15, 316.55
357.60, 2.09, 316.01
356.68, 1.99, 315.30
355.50, 1.87, 314.38
353.83, 1.67, 313.08
349.13, 0.90, 309.41
347.71, 0.90, 308.31
362.70, 2.52, 320.04
362.58, 2.52, 319.96
362.46, 2.52, 319.86
362.33, 2.51, 319.76
361.96, 2.40, 319.48
361.80, 2.39, 319.36
361.63, 2.39, 319.23
361.44, 2.38, 319.09
361.23, 2.37, 318.93
361.00, 2.36, 318.75
360.74, 2.35, 318.56
360.45, 2.33, 318.34
¯360.12, 2.30, 318.09
359.75, 2.28, 317.81
359.32, 2.25, 317.49
358.83, 2.20, 317.11
358.25, 2.16, 316.67
357.57, 2.10, 316.15
356.64, 2.00, 315.45
355.47, 1.87, 314.56
353.78, 1.67, 313.28
349.04, 0.90, 309.66
347.61, 0.90, 308.59
362.67, 2.52, 320.09
362.56, 2.52, 320.00
362.43, 2.52, 319.91
362.30, 2.51, 319.81
362.16, 2.51, 319.71
361.96, 2.48, 319.56
361.60, 2.39, 319.29
361.41, 2.39, 319.15
361.20, 2.38, 319.00
360.96, 2.36, 318.82
360.70, 2.35, 318.63
360.41, 2.33, 318.42
360.09, 2.31, 318.18
359.71, 2.28, 317.90
359.29, 2.25, 317.59
358.79, 2.21, 317.22
358.21, 2.16, 316.79
357.53, 2.10, 316.29
356.79, 2.05, 315.75
356.39, 2.11, 315.46
355.13, 1.98, 314.52
348.94, 0.90, 309.92
347.51, 0.90, 308.87
362.65, 2.52, 320.13
362.53, 2.52, 320.05
362.41, 2.52, 319.96
362.27, 2.51, 319.86
362.13, 2.51, 319.76
361.98, 2.51, 319.65
361.81, 2.50, 319.53
361.60, 2.48, 319.38
361.17, 2.38, 319.06
360.93, 2.36, 318.89
360.67, 2.35, 318.71
360.38, 2.33, 318.50
360.05, 2.31, 318.26
359.68, 2.28, 318.00
359.25, 2.25, 317.69
358.75, 2.21, 317.33
358.18, 2.17, 316.91
¯357.93, 2.22, 316.74
357.49, 2.24, 316.43
356.50, 2.14, 315.71
355.11, 1.99, 314.71
353.00, 1.73, 313.19
347.42, 0.90, 309.15
362.62, 2.52, 320.18
362.51, 2.52, 320.10
362.38, 2.52, 320.01
362.24, 2.51, 319.91
362.10, 2.51, 319.81
361.95, 2.51, 319.71
361.78, 2.50, 319.59
361.60, 2.49, 319.46
361.40, 2.49, 319.32
361.19, 2.48, 319.17
360.83, 2.42, 318.92
360.34, 2.33, 318.58
360.02, 2.31, 318.35
359.65, 2.29, 318.09
359.22, 2.25, 317.79
359.06, 2.32, 317.69
358.66, 2.31, 317.40
358.19, 2.31, 317.08
357.48, 2.25, 316.58
356.47, 2.15, 315.87
355.09, 2.00, 314.90
352.99, 1.74, 313.42
347.32, 0.90, 309.43
362.60, 2.52, 320.22
362.48, 2.52, 320.14
362.35, 2.52, 320.06
362.22, 2.51, 319.97
362.07, 2.51, 319.87
361.92, 2.51, 319.76
361.75, 2.50, 319.65
361.57, 2.49, 319.52
361.37, 2.49, 319.39
361.15, 2.48, 319.24
360.92, 2.47, 319.08
360.66, 2.46, 318.90
360.36, 2.44, 318.70
360.04, 2.43, 318.48
359.67, 2.41, 318.23
359.24, 2.38, 317.93
358.75, 2.35, 317.60
358.14, 2.30, 317.18
357.44, 2.25, 316.71
356.45, 2.16, 316.03
355.07, 2.01, 315.09
352.97, 1.76, 313.65
¯347.23, 0.90, 309.70
345.55, 0.90, 308.56
362.58, 2.52, 320.27
362.46, 2.52, 320.19
362.33, 2.52, 320.11
362.19, 2.52, 320.02
362.05, 2.51, 319.92
361.89, 2.51, 319.82
361.72, 2.50, 319.70
361.54, 2.49, 319.58
361.34, 2.49, 319.45
361.12, 2.48, 319.31
360.89, 2.47, 319.15
360.62, 2.46, 318.97
360.33, 2.44, 318.78
360.00, 2.43, 318.56
359.63, 2.41, 318.32
359.20, 2.38, 318.03
358.70, 2.35, 317.70
358.08, 2.30, 317.29
357.40, 2.26, 316.83
356.42, 2.16, 316.18
355.06, 2.02, 315.27
352.97, 1.77, 313.88
347.91, 1.04, 310.49
345.45, 0.90, 308.86
362.55, 2.53, 320.32
362.43, 2.52, 320.24
362.30, 2.52, 320.16
362.17, 2.52, 320.07
362.02, 2.51, 319.97
361.87, 2.51, 319.87
361.69, 2.50, 319.76
361.51, 2.49, 319.64
361.31, 2.49, 319.51
361.09, 2.48, 319.37
360.86, 2.47, 319.22
360.59, 2.46, 319.05
360.29, 2.44, 318.86
359.97, 2.43, 318.65
359.59, 2.41, 318.40
359.16, 2.38, 318.12
358.65, 2.35, 317.80
358.03, 2.30, 317.39
357.36, 2.26, 316.96
356.40, 2.17, 316.34
355.05, 2.03, 315.46
352.96, 1.78, 314.10
347.85, 1.04, 310.77
345.36, 0.90, 309.17
362.53, 2.53, 320.36
¯362.41, 2.52, 320.29
362.28, 2.52, 320.20
362.14, 2.52, 320.12
362.00, 2.51, 320.03
361.84, 2.51, 319.93
361.67, 2.50, 319.82
361.48, 2.50, 319.70
361.28, 2.49, 319.58
361.06, 2.48, 319.44
360.83, 2.47, 319.29
360.56, 2.46, 319.12
360.26, 2.44, 318.94
359.93, 2.43, 318.73
359.55, 2.41, 318.49
359.12, 2.38, 318.22
358.61, 2.35, 317.89
357.98, 2.30, 317.50
357.32, 2.26, 317.09
356.38, 2.18, 316.49
355.04, 2.04, 315.64
352.96, 1.79, 314.33
347.79, 1.05, 311.05
346.10, 1.03, 309.99
362.51, 2.53, 320.41
362.39, 2.52, 320.33
362.26, 2.52, 320.25
362.12, 2.52, 320.17
361.97, 2.51, 320.08
361.81, 2.51, 319.98
361.64, 2.50, 319.88
361.46, 2.50, 319.76
361.25, 2.49, 319.64
361.04, 2.48, 319.51
360.80, 2.47, 319.36
360.53, 2.46, 319.20
360.23, 2.45, 319.01
359.90, 2.43, 318.81
359.52, 2.41, 318.58
359.08, 2.38, 318.31
358.56, 2.34, 317.99
357.94, 2.30, 317.61
357.29, 2.26, 317.21
356.36, 2.18, 316.64
355.03, 2.05, 315.83
352.97, 1.81, 314.56
347.74, 1.05, 311.33
346.01, 1.03, 310.27
362.49, 2.53, 320.45
362.36, 2.52, 320.38
362.23, 2.52, 320.30
362.10, 2.52, 320.22
¯361.95, 2.51, 320.13
361.79, 2.51, 320.04
361.62, 2.50, 319.94
361.43, 2.50, 319.83
361.23, 2.49, 319.71
361.01, 2.48, 319.58
360.77, 2.47, 319.43
360.50, 2.46, 319.27
360.20, 2.45, 319.09
359.87, 2.43, 318.90
359.48, 2.41, 318.67
359.04, 2.38, 318.40
358.51, 2.34, 318.09
357.90, 2.30, 317.72
357.25, 2.26, 317.34
356.35, 2.19, 316.80
355.03, 2.06, 316.01
353.06, 1.83, 314.83
347.68, 1.06, 311.61
345.92, 1.03, 310.55
362.47, 2.53, 320.50
362.34, 2.52, 320.43
362.21, 2.52, 320.35
362.07, 2.52, 320.27
361.92, 2.51, 320.19
361.77, 2.51, 320.10
361.59, 2.50, 320.00
361.40, 2.50, 319.89
361.20, 2.49, 319.77
360.98, 2.48, 319.64
