ŸVERSION 0.7
FIELDS x y z
SIZE 8 8 8
TYPE F F F
COUNT 1 1 1
WIDTH 2271
HEIGHT 1
VIEWPOINT 394.90, 14.49, 309.54 1 376.06, 9.48, 302.82
POINTS 2271
DATA ascii
375.24, 8.35, 304.27
375.09, 8.35, 304.33
374.94, 8.36, 304.40
374.76, 8.36, 304.47
374.72, 8.41, 304.49
374.72, 8.46, 304.49
374.72, 8.52, 304.49
374.72, 8.57, 304.49
374.72, 8.63, 304.49
375.10, 8.76, 304.33
375.17, 8.83, 304.30
375.24, 8.89, 304.27
375.29, 8.94, 304.25
375.29, 8.99, 304.25
375.29, 9.04, 304.25
¯375.29, 9.08, 304.25
375.29, 9.13, 304.25
375.29, 9.18, 304.25
375.29, 9.22, 304.25
375.29, 9.27, 304.25
375.29, 9.31, 304.25
375.29, 9.36, 304.25
375.29, 9.40, 304.25
375.29, 9.45, 304.25
375.29, 9.50, 304.25
375.29, 9.54, 304.25
375.29, 9.59, 304.25
375.29, 9.63, 304.25
375.49, 8.29, 304.21
375.49, 8.33, 304.21
375.36, 8.34, 304.27
375.25, 8.35, 304.31
375.11, 8.35, 304.38
374.95, 8.36, 304.44
374.77, 8.36, 304.52
374.77, 8.41, 304.52
374.77, 8.47, 304.52
374.77, 8.53, 304.52
374.77, 8.58, 304.52
374.77, 8.64, 304.52
375.01, 8.74, 304.42
375.09, 8.81, 304.38
375.17, 8.87, 304.35
375.24, 8.93, 304.32
375.31, 8.99, 304.29
375.33, 9.04, 304.28
375.33, 9.09, 304.28
375.33, 9.13, 304.28
375.33, 9.18, 304.28
375.33, 9.22, 304.28
375.33, 9.27, 304.28
375.33, 9.31, 304.28
375.33, 9.36, 304.28
375.33, 9.40, 304.28
375.33, 9.45, 304.28
375.33, 9.50, 304.28
375.33, 9.54, 304.28
375.33, 9.59, 304.28
375.33, 9.63, 304.28
375.44, 8.26, 304.28
375.44, 8.31, 304.28
375.37, 8.34, 304.31
375.24, 8.34, 304.37
375.12, 8.35, 304.42
374.97, 8.36, 304.49
374.82, 8.37, 304.56
¯374.82, 8.42, 304.56
374.82, 8.48, 304.56
374.82, 8.53, 304.56
374.82, 8.59, 304.56
374.82, 8.64, 304.56
374.93, 8.72, 304.51
375.01, 8.79, 304.47
375.09, 8.85, 304.44
375.17, 8.92, 304.40
375.24, 8.98, 304.37
375.31, 9.03, 304.34
375.37, 9.09, 304.31
375.37, 9.13, 304.31
375.37, 9.18, 304.31
375.37, 9.23, 304.31
375.37, 9.27, 304.31
375.37, 9.32, 304.31
375.37, 9.36, 304.31
375.37, 9.41, 304.31
375.37, 9.45, 304.31
375.37, 9.50, 304.31
375.37, 9.54, 304.31
375.37, 9.59, 304.31
375.37, 9.63, 304.31
375.38, 8.23, 304.35
375.38, 8.28, 304.35
375.39, 8.33, 304.35
375.25, 8.34, 304.41
375.14, 8.35, 304.47
374.98, 8.35, 304.54
374.87, 8.37, 304.59
374.87, 8.43, 304.59
374.87, 8.48, 304.59
374.87, 8.54, 304.59
374.87, 8.59, 304.59
374.87, 8.65, 304.59
374.87, 8.70, 304.59
374.92, 8.77, 304.57
375.01, 8.83, 304.53
375.09, 8.90, 304.49
375.16, 8.96, 304.46
375.24, 9.02, 304.42
375.30, 9.08, 304.39
375.37, 9.13, 304.36
375.41, 9.18, 304.34
375.41, 9.23, 304.34
375.41, 9.27, 304.34
375.41, 9.32, 304.34
375.41, 9.36, 304.34
375.41, 9.41, 304.34
375.41, 9.45, 304.34
¯375.41, 9.50, 304.34
375.41, 9.54, 304.34
375.41, 9.58, 304.34
375.41, 9.63, 304.34
375.32, 8.20, 304.43
375.33, 8.25, 304.43
375.33, 8.31, 304.43
375.27, 8.34, 304.46
375.12, 8.34, 304.53
375.00, 8.35, 304.59
374.92, 8.38, 304.63
374.92, 8.44, 304.63
374.92, 8.49, 304.63
374.92, 8.55, 304.63
374.92, 8.60, 304.63
374.92, 8.65, 304.63
374.92, 8.71, 304.63
374.83, 8.74, 304.67
374.92, 8.81, 304.63
375.00, 8.88, 304.59
375.08, 8.95, 304.55
375.16, 9.01, 304.51
375.23, 9.07, 304.48
375.30, 9.12, 304.44
375.37, 9.18, 304.41
375.43, 9.23, 304.38
375.45, 9.27, 304.37
375.45, 9.32, 304.37
375.45, 9.36, 304.37
375.45, 9.41, 304.37
375.45, 9.45, 304.37
375.45, 9.50, 304.37
375.45, 9.54, 304.37
375.46, 9.58, 304.37
375.46, 9.63, 304.37
375.26, 8.17, 304.51
375.27, 8.22, 304.51
375.27, 8.28, 304.51
375.27, 8.33, 304.51
375.14, 8.34, 304.57
375.02, 8.35, 304.64
374.96, 8.39, 304.66
374.96, 8.44, 304.66
374.96, 8.50, 304.66
374.96, 8.55, 304.66
374.96, 8.61, 304.66
374.96, 8.66, 304.66
374.96, 8.71, 304.66
374.75, 8.72, 304.77
374.82, 8.79, 304.73
374.91, 8.86, 304.69
¯375.00, 8.93, 304.65
375.08, 8.99, 304.61
375.15, 9.05, 304.57
375.23, 9.11, 304.53
375.30, 9.17, 304.50
375.37, 9.22, 304.46
375.43, 9.27, 304.43
375.49, 9.32, 304.40
375.49, 9.36, 304.40
375.49, 9.41, 304.40
375.49, 9.45, 304.40
375.49, 9.50, 304.40
375.50, 9.54, 304.40
375.50, 9.58, 304.40
375.50, 9.63, 304.40
375.01, 8.06, 304.69
375.20, 8.19, 304.60
375.20, 8.24, 304.60
375.21, 8.30, 304.59
375.16, 8.34, 304.62
375.01, 8.34, 304.70
375.01, 8.39, 304.70
375.01, 8.45, 304.70
375.01, 8.50, 304.70
375.01, 8.56, 304.70
375.01, 8.61, 304.70
375.01, 8.66, 304.70
375.00, 8.72, 304.70
374.77, 8.72, 304.82
374.72, 8.77, 304.84
374.82, 8.84, 304.80
374.91, 8.91, 304.75
374.99, 8.98, 304.71
375.07, 9.04, 304.67
375.15, 9.10, 304.63
375.22, 9.16, 304.59
375.29, 9.21, 304.55
375.36, 9.26, 304.52
375.43, 9.31, 304.49
375.49, 9.36, 304.45
375.53, 9.41, 304.43
375.53, 9.45, 304.43
375.53, 9.50, 304.43
375.53, 9.54, 304.43
375.53, 9.58, 304.43
375.54, 9.63, 304.43
375.06, 8.07, 304.73
375.06, 8.13, 304.73
375.14, 8.21, 304.69
375.14, 8.27, 304.68
375.15, 8.32, 304.68
¯375.05, 8.35, 304.73
375.05, 8.40, 304.73
375.05, 8.46, 304.73
375.05, 8.51, 304.73
375.05, 8.56, 304.73
375.05, 8.62, 304.73
375.06, 8.67, 304.73
375.02, 8.71, 304.75
374.78, 8.72, 304.87
374.61, 8.74, 304.96
374.71, 8.82, 304.91
374.81, 8.89, 304.86
374.90, 8.96, 304.81
374.98, 9.02, 304.77
375.07, 9.09, 304.73
375.14, 9.14, 304.69
375.22, 9.20, 304.65
375.29, 9.26, 304.61
375.36, 9.31, 304.57
375.42, 9.36, 304.54
375.49, 9.41, 304.50
375.55, 9.45, 304.47
375.57, 9.50, 304.46
375.57, 9.54, 304.46
375.57, 9.58, 304.46
375.57, 9.63, 304.46
375.10, 8.08, 304.76
375.10, 8.13, 304.76
375.10, 8.19, 304.76
375.10, 8.25, 304.76
375.10, 8.30, 304.76
375.10, 8.35, 304.76
375.10, 8.41, 304.76
375.10, 8.46, 304.76
375.10, 8.52, 304.76
375.10, 8.57, 304.76
375.10, 8.62, 304.76
375.10, 8.67, 304.76
375.04, 8.71, 304.80
374.80, 8.72, 304.93
374.53, 8.72, 305.07
374.60, 8.79, 305.03
374.71, 8.87, 304.98
374.80, 8.94, 304.93
374.89, 9.01, 304.88
374.98, 9.07, 304.83
375.06, 9.13, 304.79
375.14, 9.19, 304.74
375.21, 9.25, 304.70
375.28, 9.30, 304.66
375.35, 9.35, 304.63
¯375.42, 9.40, 304.59
375.48, 9.45, 304.56
375.54, 9.49, 304.52
375.60, 9.54, 304.49
375.61, 9.58, 304.49
375.61, 9.63, 304.49
375.15, 8.09, 304.79
375.18, 8.16, 304.77
375.16, 8.20, 304.78
375.04, 8.22, 304.85
375.05, 8.27, 304.85
375.06, 8.33, 304.84
375.07, 8.39, 304.84
375.07, 8.45, 304.83
375.08, 8.50, 304.83
375.09, 8.56, 304.83
375.09, 8.61, 304.82
375.10, 8.67, 304.82
375.06, 8.71, 304.85
374.82, 8.72, 304.98
374.55, 8.72, 305.13
374.49, 8.77, 305.16
374.59, 8.85, 305.10
374.70, 8.92, 305.05
374.79, 8.99, 304.99
374.88, 9.06, 304.94
374.97, 9.12, 304.90
375.05, 9.18, 304.85
375.13, 9.24, 304.81
375.21, 9.29, 304.76
375.28, 9.35, 304.72
375.35, 9.40, 304.68
375.42, 9.45, 304.65
375.48, 9.49, 304.61
375.54, 9.54, 304.58
375.60, 9.58, 304.54
375.65, 9.62, 304.52
373.60, 7.45, 305.74
373.40, 7.45, 305.86
373.17, 7.45, 305.98
374.96, 8.18, 304.95
374.97, 8.24, 304.95
374.98, 8.30, 304.95
374.99, 8.36, 304.94
375.00, 8.42, 304.94
375.00, 8.47, 304.93
375.01, 8.53, 304.93
375.02, 8.59, 304.93
375.02, 8.64, 304.92
375.03, 8.70, 304.92
374.84, 8.71, 305.03
¯374.57, 8.72, 305.18
374.36, 8.74, 305.30
374.48, 8.82, 305.24
374.58, 8.90, 305.18
374.69, 8.97, 305.12
374.78, 9.04, 305.06
374.87, 9.11, 305.01
374.96, 9.17, 304.96
375.14, 9.24, 304.86
375.14, 9.29, 304.86
375.20, 9.34, 304.82
375.28, 9.39, 304.78
375.35, 9.44, 304.74
375.41, 9.49, 304.70
375.48, 9.54, 304.67
375.54, 9.58, 304.63
375.60, 9.63, 304.60
373.63, 7.45, 305.80
373.43, 7.45, 305.92
373.21, 7.45, 306.05
372.97, 7.45, 306.20
374.89, 8.20, 305.06
374.90, 8.26, 305.06
374.90, 8.32, 305.05
374.91, 8.38, 305.05
374.92, 8.44, 305.04
374.93, 8.50, 305.04
374.94, 8.56, 305.04
374.94, 8.62, 305.03
374.95, 8.68, 305.03
374.86, 8.71, 305.08
374.59, 8.72, 305.24
374.23, 8.71, 305.46
374.35, 8.80, 305.38
374.46, 8.88, 305.32
374.57, 8.95, 305.25
374.67, 9.02, 305.19
374.77, 9.09, 305.13
374.87, 9.16, 305.08
375.18, 9.24, 304.89
375.18, 9.29, 304.89
375.18, 9.34, 304.89
375.20, 9.39, 304.88
375.27, 9.44, 304.84
375.34, 9.49, 304.80
375.41, 9.54, 304.76
375.47, 9.59, 304.72
375.54, 9.63, 304.68
373.66, 7.44, 305.87
373.46, 7.45, 305.99
373.24, 7.45, 306.12
¯373.00, 7.45, 306.27
374.80, 8.16, 305.18
374.81, 8.22, 305.17
374.82, 8.29, 305.17
374.82, 8.35, 305.16
374.83, 8.41, 305.16
374.84, 8.47, 305.16
374.85, 8.53, 305.15
374.86, 8.59, 305.15
374.86, 8.65, 305.14
374.87, 8.71, 305.14
374.62, 8.71, 305.29
373.61, 8.59, 305.90
374.21, 8.77, 305.54
374.33, 8.85, 305.47
374.45, 8.93, 305.40
374.56, 9.01, 305.33
374.66, 9.08, 305.27
375.22, 9.19, 304.92
375.22, 9.24, 304.92
375.22, 9.29, 304.92
375.23, 9.34, 304.93
375.23, 9.39, 304.93
375.23, 9.44, 304.93
375.26, 9.49, 304.90
375.34, 9.54, 304.86
375.40, 9.59, 304.82
375.47, 9.63, 304.78
373.70, 7.44, 305.93
373.49, 7.44, 306.06
373.28, 7.44, 306.19
374.55, 8.00, 305.40
374.55, 8.06, 305.40
374.71, 8.18, 305.30
374.72, 8.25, 305.29
374.73, 8.31, 305.29
374.74, 8.37, 305.28
374.75, 8.44, 305.28
374.76, 8.50, 305.27
374.76, 8.56, 305.27
374.77, 8.62, 305.26
374.78, 8.68, 305.26
374.64, 8.71, 305.35
374.06, 8.73, 305.71
374.19, 8.82, 305.63
374.32, 8.91, 305.55
374.43, 8.99, 305.48
375.27, 9.14, 304.96
375.27, 9.19, 304.96
375.27, 9.24, 304.96
375.27, 9.29, 304.96
¯375.27, 9.34, 304.96
375.27, 9.39, 304.96
375.27, 9.44, 304.96
375.27, 9.49, 304.96
375.27, 9.54, 304.96
375.33, 9.59, 304.92
375.40, 9.64, 304.88
374.97, 7.96, 305.20
374.60, 7.87, 305.44
374.60, 7.94, 305.44
374.60, 8.00, 305.44
374.60, 8.07, 305.44
374.60, 8.13, 305.44
374.62, 8.20, 305.43
374.63, 8.27, 305.42
374.64, 8.34, 305.42
374.65, 8.40, 305.41
374.66, 8.46, 305.40
374.67, 8.53, 305.40
374.67, 8.59, 305.39
374.68, 8.65, 305.39
374.66, 8.71, 305.40
374.17, 8.88, 305.72
375.31, 9.09, 304.99
375.31, 9.14, 304.99
375.31, 9.19, 304.99
375.31, 9.24, 304.99
375.31, 9.29, 304.99
375.31, 9.34, 304.99
375.31, 9.39, 304.99
375.31, 9.44, 304.99
375.31, 9.49, 304.99
375.31, 9.54, 304.99
375.31, 9.59, 304.99
375.33, 9.64, 304.98
374.88, 7.91, 305.33
374.88, 7.97, 305.32
374.65, 7.94, 305.47
374.65, 8.01, 305.48
374.65, 8.07, 305.48
374.65, 8.14, 305.48
374.65, 8.20, 305.48
374.47, 8.21, 305.60
374.47, 8.28, 305.60
374.44, 8.33, 305.62
374.21, 8.34, 305.77
370.58, 7.51, 308.16
370.26, 7.56, 308.37
369.93, 7.61, 308.60
369.57, 7.67, 308.83
375.35, 9.09, 305.02
¯375.35, 9.14, 305.02
375.35, 9.19, 305.02
375.35, 9.24, 305.02
375.35, 9.29, 305.02
375.35, 9.34, 305.02
375.35, 9.39, 305.02
375.35, 9.44, 305.02
375.35, 9.49, 305.02
375.35, 9.54, 305.02
375.35, 9.59, 305.02
375.36, 9.64, 305.02
374.77, 7.85, 305.47
374.78, 7.92, 305.46
374.76, 7.97, 305.48
374.70, 8.01, 305.52
374.66, 8.07, 305.54
372.64, 7.44, 306.91
372.35, 7.44, 307.10
372.04, 7.44, 307.32
374.36, 8.23, 305.75
374.36, 8.30, 305.74
374.24, 8.34, 305.83
370.66, 7.51, 308.25
370.35, 7.56, 308.46
370.02, 7.62, 308.68
369.67, 7.68, 308.92
375.39, 9.05, 305.05
375.40, 9.10, 305.05
375.40, 9.15, 305.05
375.40, 9.20, 305.05
375.40, 9.24, 305.05
375.40, 9.29, 305.05
375.40, 9.34, 305.05
375.40, 9.39, 305.05
375.40, 9.44, 305.05
375.40, 9.49, 305.05
375.40, 9.54, 305.05
375.40, 9.59, 305.05
375.40, 9.64, 305.05
373.84, 7.43, 306.19
374.67, 7.86, 305.61
374.67, 7.93, 305.61
374.62, 7.97, 305.64
372.95, 7.43, 306.80
372.69, 7.43, 306.98
372.40, 7.44, 307.18
372.09, 7.44, 307.40
374.24, 8.19, 305.91
374.24, 8.26, 305.91
374.25, 8.33, 305.90
370.75, 7.52, 308.33
¯370.45, 7.57, 308.55
370.12, 7.62, 308.77
369.77, 7.68, 309.02
375.44, 9.00, 305.08
375.44, 9.05, 305.08
375.44, 9.10, 305.08
375.44, 9.15, 305.08
375.44, 9.20, 305.08
375.44, 9.25, 305.08
375.44, 9.29, 305.08
375.44, 9.34, 305.08
375.44, 9.39, 305.08
375.44, 9.44, 305.08
375.44, 9.49, 305.08
375.44, 9.54, 305.08
375.44, 9.59, 305.08
375.44, 9.64, 305.08
373.87, 7.43, 306.25
373.68, 7.43, 306.39
374.55, 7.86, 305.76
374.56, 7.94, 305.76
374.42, 7.95, 305.86
372.73, 7.43, 307.06
372.45, 7.43, 307.27
372.14, 7.44, 307.49
371.84, 7.45, 307.70
371.55, 7.48, 307.91
371.23, 7.50, 308.14
370.84, 7.52, 308.42
370.54, 7.57, 308.63
370.22, 7.63, 308.86
369.88, 7.69, 309.11
375.48, 9.00, 305.11
375.48, 9.05, 305.11
375.48, 9.10, 305.11
375.48, 9.15, 305.11
375.48, 9.20, 305.11
375.48, 9.25, 305.11
375.48, 9.30, 305.11
375.48, 9.34, 305.11
375.48, 9.39, 305.11
375.48, 9.44, 305.11
375.48, 9.49, 305.11
375.48, 9.54, 305.11
375.48, 9.59, 305.11
375.48, 9.64, 305.11
373.91, 7.43, 306.31
373.71, 7.43, 306.45
373.50, 7.43, 306.61
374.43, 7.87, 305.93
374.44, 7.94, 305.93
¯372.78, 7.43, 307.14
372.50, 7.43, 307.35
372.19, 7.43, 307.57
371.90, 7.45, 307.78
371.61, 7.48, 308.00
371.29, 7.50, 308.23
370.93, 7.53, 308.50
370.63, 7.58, 308.71
370.32, 7.63, 308.95
369.98, 7.69, 309.19
375.52, 8.95, 305.14
375.52, 9.00, 305.14
375.52, 9.05, 305.14
375.52, 9.10, 305.14
375.52, 9.15, 305.14
375.52, 9.20, 305.14
375.52, 9.25, 305.14
375.52, 9.30, 305.14
375.52, 9.34, 305.14
375.52, 9.39, 305.14
375.52, 9.44, 305.14
375.52, 9.49, 305.14
375.52, 9.54, 305.14
375.52, 9.59, 305.14
375.52, 9.64, 305.14
373.95, 7.43, 306.37
373.75, 7.42, 306.52
373.55, 7.42, 306.67
373.33, 7.43, 306.84
374.30, 7.88, 306.11
374.31, 7.95, 306.10
372.55, 7.43, 307.43
372.24, 7.43, 307.66
371.96, 7.45, 307.87
371.67, 7.47, 308.09
371.36, 7.50, 308.32
371.01, 7.53, 308.58
370.73, 7.58, 308.80
370.42, 7.64, 309.03
370.08, 7.70, 309.28
375.56, 8.91, 305.17
375.56, 8.95, 305.17
375.56, 9.00, 305.17
375.56, 9.05, 305.17
375.56, 9.10, 305.17
375.56, 9.15, 305.17
375.56, 9.20, 305.17
375.56, 9.25, 305.17
375.56, 9.30, 305.17
375.56, 9.34, 305.17
375.56, 9.39, 305.17
¯375.56, 9.44, 305.17
375.56, 9.49, 305.17
375.56, 9.54, 305.17
375.56, 9.59, 305.17
375.39, 9.64, 305.30
373.99, 7.42, 306.43
373.80, 7.42, 306.58
373.59, 7.42, 306.74
373.38, 7.43, 306.90
373.14, 7.43, 307.09
372.88, 7.43, 307.29
372.60, 7.43, 307.50
372.29, 7.43, 307.74
372.02, 7.45, 307.95
371.73, 7.47, 308.17
371.42, 7.50, 308.41
371.10, 7.53, 308.66
370.82, 7.59, 308.88
370.51, 7.64, 309.11
375.60, 8.86, 305.20
375.60, 8.91, 305.20
375.60, 8.96, 305.20
375.60, 9.01, 305.20
375.60, 9.05, 305.20
375.60, 9.10, 305.20
375.60, 9.15, 305.20
375.60, 9.20, 305.20
375.60, 9.25, 305.20
375.60, 9.30, 305.20
375.60, 9.35, 305.20
375.60, 9.39, 305.20
375.60, 9.44, 305.20
375.60, 9.49, 305.20
375.60, 9.54, 305.20
375.60, 9.59, 305.20
375.23, 9.65, 305.49
374.03, 7.42, 306.49
373.84, 7.42, 306.65
373.64, 7.42, 306.80
373.43, 7.42, 306.97
373.19, 7.42, 307.16
372.93, 7.42, 307.36
372.65, 7.42, 307.58
372.35, 7.43, 307.82
372.08, 7.45, 308.04
371.79, 7.47, 308.26
371.49, 7.50, 308.51
371.17, 7.53, 308.76
370.91, 7.59, 308.96
370.61, 7.65, 309.20
375.64, 8.86, 305.23
¯375.64, 8.91, 305.23
375.64, 8.96, 305.23
375.64, 9.01, 305.23
375.64, 9.06, 305.23
375.64, 9.10, 305.23
375.64, 9.15, 305.23
375.64, 9.20, 305.23
375.64, 9.25, 305.23
375.64, 9.30, 305.23
375.64, 9.35, 305.23
375.64, 9.39, 305.23
375.64, 9.44, 305.23
375.64, 9.49, 305.23
375.64, 9.54, 305.23
375.57, 9.59, 305.29
375.06, 9.65, 305.69
374.07, 7.42, 306.56
373.88, 7.42, 306.71
373.69, 7.42, 306.87
373.47, 7.42, 307.04
373.24, 7.42, 307.23
372.98, 7.42, 307.44
372.70, 7.42, 307.66
372.40, 7.42, 307.90
372.14, 7.44, 308.12
371.86, 7.47, 308.35
371.55, 7.50, 308.60
371.24, 7.53, 308.85
371.01, 7.60, 309.04
375.68, 8.81, 305.26
375.68, 8.86, 305.26
375.68, 8.91, 305.26
375.68, 8.96, 305.26
375.68, 9.01, 305.26
375.68, 9.06, 305.26
375.68, 9.11, 305.26
375.68, 9.15, 305.26
375.68, 9.20, 305.26
375.68, 9.25, 305.26
375.68, 9.30, 305.26
375.68, 9.35, 305.26
375.68, 9.39, 305.26
375.68, 9.44, 305.26
375.68, 9.49, 305.26
375.68, 9.54, 305.26
375.43, 9.59, 305.46
374.11, 7.42, 306.62
373.93, 7.42, 306.77
373.73, 7.42, 306.93
373.52, 7.42, 307.10
373.29, 7.42, 307.30
¯373.03, 7.42, 307.51
372.76, 7.42, 307.74
372.46, 7.42, 307.99
372.20, 7.44, 308.20
371.92, 7.47, 308.44
371.61, 7.49, 308.70
371.31, 7.53, 308.94
375.72, 8.77, 305.29
375.72, 8.81, 305.29
375.72, 8.86, 305.29
375.72, 8.91, 305.29
375.72, 8.96, 305.29
375.72, 9.01, 305.29
375.72, 9.06, 305.29
375.72, 9.11, 305.29
375.72, 9.15, 305.29
375.72, 9.20, 305.29
375.72, 9.25, 305.29
375.72, 9.30, 305.29
375.72, 9.35, 305.29
375.72, 9.39, 305.29
375.72, 9.44, 305.29
375.72, 9.49, 305.29
375.72, 9.54, 305.29
375.28, 9.59, 305.66
374.15, 7.41, 306.67
373.97, 7.42, 306.83
373.78, 7.42, 306.99
373.57, 7.42, 307.17
373.34, 7.42, 307.37
373.09, 7.42, 307.58
372.81, 7.42, 307.82
372.52, 7.42, 308.07
372.26, 7.44, 308.29
371.99, 7.47, 308.52
371.67, 7.49, 308.79
371.38, 7.53, 309.04
375.76, 8.77, 305.32
375.76, 8.82, 305.32
375.76, 8.87, 305.32
375.76, 8.91, 305.32
375.76, 8.96, 305.32
375.76, 9.01, 305.32
375.76, 9.06, 305.32
375.76, 9.11, 305.32
375.76, 9.16, 305.32
375.76, 9.20, 305.32
375.76, 9.25, 305.32
375.76, 9.30, 305.32
375.76, 9.35, 305.32
375.76, 9.39, 305.32
¯375.76, 9.44, 305.32
375.76, 9.49, 305.32
375.61, 9.54, 305.45
374.20, 7.41, 306.73
374.02, 7.41, 306.89
373.83, 7.42, 307.05
373.62, 7.42, 307.23
373.39, 7.42, 307.44
373.14, 7.41, 307.66
372.87, 7.41, 307.89
372.58, 7.42, 308.15
372.33, 7.44, 308.37
372.05, 7.46, 308.61
371.73, 7.48, 308.89
375.80, 8.72, 305.34
375.80, 8.77, 305.34
375.80, 8.82, 305.34
375.80, 8.87, 305.35
375.80, 8.92, 305.35
375.80, 8.96, 305.35
375.80, 9.01, 305.35
375.80, 9.06, 305.35
375.80, 9.11, 305.35
375.80, 9.16, 305.35
375.80, 9.20, 305.35
375.80, 9.25, 305.35
375.80, 9.30, 305.35
375.80, 9.35, 305.35
375.80, 9.39, 305.35
375.80, 9.44, 305.35
375.80, 9.49, 305.35
375.47, 9.54, 305.63
374.25, 7.41, 306.79
374.07, 7.41, 306.95
373.88, 7.41, 307.11
373.68, 7.42, 307.30
373.45, 7.41, 307.50
373.20, 7.41, 307.73
372.93, 7.41, 307.97
372.64, 7.41, 308.22
372.39, 7.44, 308.45
372.11, 7.46, 308.70
375.84, 8.67, 305.37
375.84, 8.72, 305.37
375.84, 8.77, 305.37
375.84, 8.82, 305.37
375.84, 8.87, 305.37
375.84, 8.92, 305.37
375.84, 8.97, 305.37
375.84, 9.01, 305.37
375.84, 9.06, 305.37
¯375.84, 9.11, 305.37
375.84, 9.16, 305.37
375.84, 9.20, 305.37
375.84, 9.25, 305.38
375.84, 9.30, 305.38
375.84, 9.35, 305.38
375.84, 9.39, 305.38
375.84, 9.44, 305.38
375.78, 9.49, 305.43
375.32, 9.54, 305.84
374.29, 7.41, 306.84
374.12, 7.41, 307.00
373.93, 7.41, 307.18
373.73, 7.41, 307.36
373.50, 7.41, 307.57
373.25, 7.41, 307.80
372.99, 7.41, 308.04
372.70, 7.41, 308.30
372.46, 7.43, 308.53
372.17, 7.45, 308.79
375.87, 8.67, 305.40
375.87, 8.72, 305.40
375.88, 8.77, 305.40
375.88, 8.82, 305.40
375.88, 8.87, 305.40
375.88, 8.92, 305.40
375.88, 8.97, 305.40
375.88, 9.01, 305.40
375.88, 9.06, 305.40
375.88, 9.11, 305.40
375.88, 9.16, 305.40
375.88, 9.21, 305.40
375.88, 9.25, 305.40
375.88, 9.30, 305.40
375.88, 9.35, 305.40
375.88, 9.39, 305.40
375.88, 9.44, 305.40
375.66, 9.49, 305.61
374.34, 7.41, 306.90
374.17, 7.41, 307.06
373.98, 7.41, 307.24
373.78, 7.41, 307.42
373.56, 7.41, 307.64
373.31, 7.41, 307.87
373.05, 7.41, 308.12
372.77, 7.41, 308.38
372.52, 7.43, 308.61
372.23, 7.45, 308.88
371.91, 7.47, 309.18
375.81, 8.70, 305.53
375.91, 8.77, 305.43
¯375.91, 8.82, 305.43
375.91, 8.87, 305.43
375.91, 8.92, 305.43
375.91, 8.97, 305.43
375.91, 9.02, 305.43
375.92, 9.06, 305.43
375.92, 9.11, 305.43
375.92, 9.16, 305.43
375.92, 9.21, 305.43
375.92, 9.25, 305.43
375.92, 9.30, 305.43
375.92, 9.35, 305.43
375.92, 9.39, 305.43
375.92, 9.44, 305.43
375.52, 9.48, 305.81
374.39, 7.41, 306.95
374.22, 7.41, 307.12
374.03, 7.41, 307.29
373.84, 7.41, 307.49
373.61, 7.41, 307.70
373.37, 7.41, 307.93
373.11, 7.40, 308.19
372.83, 7.41, 308.45
372.58, 7.43, 308.70
372.29, 7.44, 308.98
371.98, 7.46, 309.28
371.74, 7.51, 309.50
375.60, 8.68, 305.80
375.95, 8.82, 305.46
375.95, 8.87, 305.46
375.95, 8.92, 305.46
375.95, 8.97, 305.46
375.95, 9.02, 305.46
375.95, 9.06, 305.46
375.95, 9.11, 305.46
375.95, 9.16, 305.46
375.95, 9.21, 305.46
375.95, 9.25, 305.46
375.95, 9.30, 305.46
375.95, 9.35, 305.46
375.96, 9.39, 305.46
375.83, 9.44, 305.58
374.44, 7.41, 307.01
374.27, 7.41, 307.17
374.09, 7.41, 307.35
373.89, 7.41, 307.55
373.67, 7.41, 307.76
373.43, 7.41, 308.00
373.17, 7.40, 308.26
372.90, 7.41, 308.53
372.64, 7.42, 308.78
¯372.35, 7.44, 309.07
372.04, 7.46, 309.38
371.82, 7.51, 309.60
371.62, 7.58, 309.79
371.42, 7.65, 309.99
375.86, 8.84, 305.62
375.99, 8.92, 305.49
375.99, 8.97, 305.49
375.99, 9.02, 305.49
375.99, 9.06, 305.49
375.99, 9.11, 305.49
375.99, 9.16, 305.49
375.99, 9.21, 305.49
375.99, 9.25, 305.49
375.99, 9.30, 305.49
375.99, 9.35, 305.49
375.99, 9.39, 305.49
375.71, 9.43, 305.77
374.49, 7.40, 307.06
374.32, 7.41, 307.23
374.14, 7.41, 307.41
373.95, 7.41, 307.61
373.73, 7.41, 307.83
373.49, 7.40, 308.07
373.23, 7.40, 308.33
372.96, 7.40, 308.60
372.70, 7.42, 308.87
372.42, 7.43, 309.16
372.11, 7.45, 309.47
371.89, 7.51, 309.69
371.70, 7.58, 309.89
371.49, 7.65, 310.09
371.28, 7.73, 310.31
375.64, 8.83, 305.91
376.03, 8.97, 305.51
376.03, 9.02, 305.52
376.03, 9.07, 305.52
376.03, 9.11, 305.52
376.03, 9.16, 305.52
376.03, 9.21, 305.52
376.03, 9.25, 305.52
376.03, 9.30, 305.52
376.03, 9.35, 305.52
375.99, 9.39, 305.56
375.57, 9.43, 305.99
374.54, 7.40, 307.11
374.37, 7.40, 307.29
374.20, 7.41, 307.47
374.00, 7.41, 307.67
373.79, 7.40, 307.89
373.55, 7.40, 308.13
¯373.30, 7.40, 308.40
373.02, 7.40, 308.68
372.76, 7.41, 308.95
372.48, 7.43, 309.25
372.17, 7.45, 309.57
371.97, 7.50, 309.78
371.78, 7.57, 309.98
371.57, 7.65, 310.19
371.36, 7.72, 310.41
375.88, 8.98, 305.73
376.07, 9.07, 305.54
376.07, 9.11, 305.54
376.07, 9.16, 305.54
376.07, 9.21, 305.54
376.07, 9.25, 305.54
376.07, 9.30, 305.54
376.07, 9.35, 305.54
375.88, 9.38, 305.74
374.59, 7.40, 307.17
374.43, 7.40, 307.34
374.25, 7.40, 307.53
374.06, 7.40, 307.73
373.85, 7.40, 307.95
373.62, 7.40, 308.20
373.36, 7.40, 308.47
373.09, 7.40, 308.76
372.83, 7.41, 309.04
372.55, 7.42, 309.34
372.24, 7.44, 309.66
372.04, 7.50, 309.87
371.85, 7.57, 310.07
371.65, 7.64, 310.29
371.44, 7.72, 310.51
375.66, 8.99, 306.05
376.09, 9.11, 305.59
376.11, 9.16, 305.57
376.11, 9.21, 305.57
376.11, 9.25, 305.57
376.11, 9.30, 305.57
376.11, 9.35, 305.57
375.76, 9.38, 305.94
374.64, 7.40, 307.22
374.48, 7.40, 307.39
374.31, 7.40, 307.58
374.12, 7.40, 307.79
373.91, 7.40, 308.02
373.68, 7.40, 308.26
373.43, 7.40, 308.54
373.16, 7.39, 308.83
372.89, 7.40, 309.12
372.62, 7.42, 309.42
¯372.31, 7.44, 309.75
372.12, 7.50, 309.96
371.93, 7.57, 310.17
371.74, 7.64, 310.38
371.51, 7.71, 310.63
375.89, 9.13, 305.87
376.14, 9.21, 305.60
376.14, 9.25, 305.60
376.14, 9.30, 305.60
376.05, 9.34, 305.71
374.69, 7.40, 307.27
374.53, 7.40, 307.45
374.36, 7.40, 307.64
374.18, 7.40, 307.85
373.97, 7.40, 308.08
373.74, 7.40, 308.33
373.50, 7.39, 308.60
373.23, 7.39, 308.90
372.96, 7.40, 309.21
372.68, 7.41, 309.51
372.38, 7.43, 309.85
372.20, 7.49, 310.05
372.01, 7.56, 310.26
371.82, 7.64, 310.48
371.58, 7.70, 310.75
376.10, 9.25, 305.72
376.18, 9.30, 305.63
375.94, 9.33, 305.90
374.75, 7.40, 307.32
374.59, 7.40, 307.50
374.42, 7.40, 307.69
374.24, 7.40, 307.90
374.03, 7.40, 308.14
373.81, 7.39, 308.39
373.57, 7.39, 308.67
373.31, 7.39, 308.97
373.03, 7.39, 309.29
372.75, 7.41, 309.60
372.46, 7.42, 309.94
372.28, 7.49, 310.14
372.09, 7.56, 310.36
371.89, 7.63, 310.59
371.64, 7.69, 310.88
375.89, 9.27, 306.03
375.81, 9.32, 306.12
374.80, 7.39, 307.37
374.64, 7.40, 307.55
374.48, 7.40, 307.75
374.30, 7.40, 307.96
374.10, 7.40, 308.20
373.88, 7.39, 308.45
¯373.64, 7.39, 308.73
373.38, 7.39, 309.03
373.10, 7.39, 309.36
372.82, 7.40, 309.69
372.53, 7.42, 310.03
372.36, 7.48, 310.24
372.17, 7.55, 310.45
371.96, 7.62, 310.70
371.71, 7.69, 311.00
374.85, 7.39, 307.42
374.70, 7.39, 307.60
374.54, 7.40, 307.80
374.36, 7.40, 308.01
374.16, 7.39, 308.25
373.94, 7.39, 308.52
373.71, 7.39, 308.80
373.46, 7.39, 309.10
373.18, 7.39, 309.43
372.90, 7.40, 309.77
372.61, 7.41, 310.12
372.44, 7.48, 310.33
372.26, 7.55, 310.54
372.02, 7.61, 310.82
371.77, 7.68, 311.12
374.91, 7.39, 307.47
374.76, 7.39, 307.65
374.60, 7.39, 307.85
374.42, 7.39, 308.07
374.22, 7.39, 308.31
374.01, 7.39, 308.58
373.78, 7.39, 308.86
373.53, 7.39, 309.16
373.26, 7.39, 309.50
372.97, 7.39, 309.86
372.69, 7.41, 310.21
372.52, 7.48, 310.42
372.32, 7.54, 310.66
372.09, 7.60, 310.94
371.84, 7.67, 311.25
374.96, 7.39, 307.52
374.82, 7.39, 307.70
374.66, 7.39, 307.91
374.48, 7.39, 308.12
374.29, 7.39, 308.37
374.08, 7.39, 308.64
373.85, 7.39, 308.92
373.61, 7.39, 309.23
373.34, 7.39, 309.57
373.04, 7.39, 309.95
372.77, 7.40, 310.29
372.60, 7.47, 310.51
¯372.39, 7.53, 310.77
372.16, 7.59, 311.06
375.02, 7.39, 307.56
374.87, 7.39, 307.75
374.72, 7.39, 307.96
374.55, 7.39, 308.18
374.36, 7.39, 308.43
374.15, 7.39, 308.69
373.93, 7.39, 308.98
373.69, 7.39, 309.29
373.42, 7.38, 309.64
373.13, 7.38, 310.02
372.85, 7.40, 310.38
372.67, 7.46, 310.61
372.46, 7.52, 310.89
372.23, 7.58, 311.18
375.08, 7.39, 307.61
374.93, 7.39, 307.80
374.78, 7.39, 308.01
374.61, 7.39, 308.23
374.42, 7.39, 308.48
374.22, 7.39, 308.75
374.00, 7.38, 309.04
373.77, 7.38, 309.35
373.50, 7.38, 309.70
373.21, 7.38, 310.09
372.93, 7.39, 310.47
372.74, 7.45, 310.72
372.53, 7.51, 311.00
372.30, 7.57, 311.30
375.14, 7.39, 307.66
374.99, 7.39, 307.85
374.84, 7.39, 308.06
374.68, 7.39, 308.28
374.49, 7.39, 308.54
374.29, 7.38, 308.80
374.08, 7.38, 309.10
373.84, 7.38, 309.42
373.59, 7.38, 309.77
373.30, 7.38, 310.15
373.01, 7.39, 310.56
372.81, 7.44, 310.83
372.60, 7.50, 311.12
372.37, 7.56, 311.43
375.19, 7.38, 307.70
375.05, 7.39, 307.90
374.90, 7.39, 308.11
374.74, 7.39, 308.33
374.56, 7.38, 308.59
374.37, 7.38, 308.86
374.16, 7.38, 309.15
¯373.92, 7.38, 309.48
373.67, 7.38, 309.83
373.39, 7.38, 310.22
373.09, 7.38, 310.65
372.88, 7.43, 310.94
372.67, 7.49, 311.23
372.45, 7.55, 311.55
375.25, 7.38, 307.75
375.11, 7.38, 307.94
374.97, 7.38, 308.16
374.81, 7.39, 308.38
374.63, 7.38, 308.64
374.44, 7.38, 308.91
374.23, 7.38, 309.21
374.01, 7.38, 309.54
373.76, 7.38, 309.89
373.48, 7.38, 310.29
373.18, 7.38, 310.72
372.95, 7.42, 311.05
372.74, 7.48, 311.35
372.52, 7.54, 311.67
375.31, 7.38, 307.79
375.18, 7.38, 307.99
375.03, 7.38, 308.20
374.87, 7.38, 308.43
374.70, 7.38, 308.69
374.51, 7.38, 308.97
374.31, 7.38, 309.27
374.09, 7.38, 309.59
373.84, 7.38, 309.95
373.57, 7.38, 310.35
373.27, 7.37, 310.80
373.02, 7.41, 311.16
372.82, 7.46, 311.47
372.60, 7.52, 311.79
375.37, 7.38, 307.83
375.24, 7.38, 308.03
375.10, 7.38, 308.25
374.94, 7.38, 308.48
374.77, 7.38, 308.74
374.59, 7.38, 309.02
374.39, 7.38, 309.32
374.17, 7.38, 309.65
373.93, 7.38, 310.02
373.66, 7.38, 310.42
373.36, 7.37, 310.87
373.11, 7.40, 311.25
372.89, 7.45, 311.58
372.67, 7.51, 311.92
375.43, 7.38, 307.88
375.30, 7.38, 308.08
¯375.16, 7.38, 308.30
375.01, 7.38, 308.53
374.84, 7.38, 308.79
374.66, 7.38, 309.07
374.47, 7.38, 309.37
374.25, 7.38, 309.71
374.02, 7.37, 310.07
373.75, 7.37, 310.48
373.46, 7.37, 310.95
373.21, 7.40, 311.32
372.97, 7.44, 311.70
372.75, 7.50, 312.04
379.73, 7.88, 298.01
379.76, 7.90, 297.89
379.80, 7.91, 297.76
379.84, 7.92, 297.64
379.89, 7.94, 297.50
379.93, 7.96, 297.36
379.98, 7.98, 297.21
380.03, 8.00, 297.05
380.08, 8.02, 296.88
380.14, 8.03, 296.69
380.21, 8.05, 296.49
380.28, 8.07, 296.26
380.35, 8.09, 296.02
380.44, 8.12, 295.75
380.53, 8.14, 295.45
380.63, 8.17, 295.13
380.75, 8.19, 294.77
380.87, 8.22, 294.37
381.01, 8.26, 293.93
381.17, 8.29, 293.43
381.37, 8.32, 292.79
381.62, 8.36, 292.00
381.91, 8.39, 291.07
382.31, 8.43, 289.80
382.94, 8.44, 287.82
384.21, 8.39, 283.79
379.68, 7.88, 297.99
379.71, 7.90, 297.87
379.75, 7.91, 297.75
379.79, 7.92, 297.62
379.83, 7.94, 297.49
379.87, 7.96, 297.34
379.92, 7.98, 297.19
379.97, 8.00, 297.03
380.02, 8.02, 296.87
380.08, 8.03, 296.67
380.14, 8.05, 296.46
380.21, 8.07, 296.24
380.28, 8.09, 295.99
¯380.36, 8.12, 295.72
380.45, 8.14, 295.43
380.55, 8.17, 295.11
380.66, 8.19, 294.75
380.78, 8.22, 294.34
380.92, 8.25, 293.89
381.07, 8.29, 293.39
381.26, 8.33, 292.76
381.50, 8.36, 291.97
381.78, 8.39, 291.03
382.16, 8.43, 289.76
382.77, 8.44, 287.76
384.01, 8.38, 283.64
379.63, 7.88, 297.98
379.66, 7.90, 297.86
379.70, 7.91, 297.73
379.74, 7.93, 297.60
379.77, 7.94, 297.47
379.82, 7.96, 297.33
379.86, 7.98, 297.18
379.91, 8.00, 297.02
379.96, 8.02, 296.85
380.01, 8.03, 296.65
380.07, 8.05, 296.44
380.14, 8.07, 296.22
380.21, 8.09, 295.97
380.29, 8.12, 295.70
380.37, 8.14, 295.40
380.46, 8.17, 295.08
380.57, 8.19, 294.72
380.69, 8.22, 294.31
380.82, 8.25, 293.86
380.96, 8.29, 293.35
381.01, 8.38, 293.20
381.16, 8.44, 292.68
381.36, 8.49, 291.99
381.66, 8.53, 290.94
382.59, 8.44, 287.70
383.81, 8.38, 283.49
379.58, 7.88, 297.97
379.61, 7.90, 297.85
379.65, 7.91, 297.72
379.68, 7.93, 297.59
379.72, 7.94, 297.45
379.76, 7.96, 297.31
379.80, 7.98, 297.16
379.84, 8.00, 297.00
379.89, 8.02, 296.83
379.95, 8.03, 296.63
380.00, 8.05, 296.42
380.07, 8.07, 296.20
¯380.13, 8.09, 295.95
380.21, 8.12, 295.68
380.29, 8.14, 295.38
380.38, 8.17, 295.06
380.46, 8.20, 294.76
380.49, 8.28, 294.66
380.58, 8.33, 294.34
380.68, 8.38, 293.98
380.82, 8.42, 293.45
381.01, 8.45, 292.78
381.24, 8.49, 291.95
381.53, 8.53, 290.89
381.92, 8.57, 289.45
383.61, 8.37, 283.34
379.47, 7.97, 298.18
379.51, 7.97, 298.02
379.59, 7.91, 297.71
379.63, 7.93, 297.58
379.66, 7.94, 297.44
379.70, 7.96, 297.30
379.74, 7.98, 297.14
379.78, 8.00, 296.98
379.83, 8.02, 296.81
379.88, 8.03, 296.61
379.94, 8.05, 296.40
379.99, 8.07, 296.18
380.06, 8.10, 295.93
380.06, 8.17, 295.93
380.12, 8.21, 295.71
380.18, 8.25, 295.47
380.25, 8.29, 295.20
380.35, 8.32, 294.84
380.46, 8.35, 294.42
380.58, 8.38, 293.95
380.72, 8.42, 293.42
380.90, 8.45, 292.74
381.12, 8.49, 291.91
381.39, 8.53, 290.85
381.77, 8.57, 289.41
382.47, 8.58, 286.74
379.41, 7.99, 298.22
379.44, 8.01, 298.11
379.47, 8.02, 297.99
379.50, 8.03, 297.85
379.54, 8.03, 297.70
379.58, 8.04, 297.55
379.62, 8.05, 297.38
379.66, 8.07, 297.23
379.70, 8.09, 297.07
379.74, 8.11, 296.90
379.79, 8.14, 296.71
¯379.83, 8.16, 296.53
379.88, 8.19, 296.34
379.94, 8.22, 296.10
380.01, 8.24, 295.83
380.08, 8.26, 295.53
380.16, 8.29, 295.19
380.26, 8.32, 294.82
380.36, 8.35, 294.40
380.48, 8.38, 293.92
380.62, 8.42, 293.39
380.79, 8.45, 292.70
380.99, 8.49, 291.87
381.26, 8.53, 290.81
381.62, 8.57, 289.36
382.28, 8.58, 286.69
379.36, 8.00, 298.21
379.39, 8.01, 298.10
379.42, 8.02, 297.98
379.45, 8.03, 297.86
379.48, 8.05, 297.73
379.51, 8.06, 297.59
379.54, 8.08, 297.44
379.58, 8.10, 297.29
379.62, 8.11, 297.13
379.66, 8.13, 296.95
379.70, 8.15, 296.77
379.75, 8.17, 296.56
379.81, 8.19, 296.33
379.86, 8.22, 296.09
379.93, 8.24, 295.81
380.00, 8.26, 295.50
380.08, 8.29, 295.17
380.17, 8.32, 294.79
380.27, 8.35, 294.37
380.38, 8.38, 293.89
380.51, 8.42, 293.35
380.67, 8.45, 292.67
380.87, 8.49, 291.83
381.12, 8.53, 290.77
381.46, 8.57, 289.32
382.10, 8.58, 286.63
379.32, 8.00, 298.21
379.34, 8.01, 298.09
379.37, 8.02, 297.97
379.39, 8.03, 297.85
379.42, 8.05, 297.72
379.45, 8.06, 297.58
379.49, 8.08, 297.44
379.52, 8.10, 297.28
379.56, 8.12, 297.12
379.60, 8.14, 296.95
¯379.64, 8.16, 296.76
379.69, 8.18, 296.55
379.74, 8.20, 296.32
379.79, 8.22, 296.08
379.86, 8.24, 295.79
379.92, 8.26, 295.48
380.00, 8.29, 295.14
380.08, 8.32, 294.77
380.18, 8.35, 294.34
380.29, 8.38, 293.86
380.41, 8.42, 293.32
380.56, 8.45, 292.63
380.75, 8.49, 291.79
380.99, 8.53, 290.73
381.31, 8.57, 289.28
381.92, 8.58, 286.56
379.27, 8.00, 298.20
379.29, 8.01, 298.09
379.32, 8.02, 297.97
379.34, 8.04, 297.84
379.37, 8.05, 297.71
379.40, 8.07, 297.58
379.43, 8.08, 297.43
379.46, 8.10, 297.28
379.50, 8.12, 297.12
379.53, 8.14, 296.94
379.57, 8.16, 296.76
379.62, 8.18, 296.54
379.67, 8.20, 296.32
379.72, 8.22, 296.07
379.78, 8.24, 295.77
379.85, 8.26, 295.46
379.92, 8.29, 295.12
380.00, 8.32, 294.74
380.09, 8.35, 294.32
380.19, 8.38, 293.84
380.30, 8.42, 293.29
380.45, 8.45, 292.60
380.63, 8.49, 291.76
380.85, 8.53, 290.70
381.16, 8.57, 289.24
381.73, 8.57, 286.50
379.22, 8.00, 298.19
379.24, 8.01, 298.08
379.27, 8.03, 297.96
379.29, 8.04, 297.84
379.32, 8.05, 297.71
379.34, 8.07, 297.57
379.37, 8.08, 297.42
379.40, 8.10, 297.27
379.43, 8.12, 297.11
¯379.47, 8.14, 296.94
379.51, 8.16, 296.76
379.55, 8.18, 296.53
379.59, 8.20, 296.31
379.64, 8.22, 296.06
379.71, 8.24, 295.75
379.77, 8.26, 295.44
379.83, 8.29, 295.10
379.91, 8.31, 294.72
379.99, 8.35, 294.29
380.09, 8.38, 293.81
380.20, 8.42, 293.26
380.34, 8.45, 292.57
380.50, 8.49, 291.72
380.71, 8.53, 290.66
381.00, 8.57, 289.20
381.55, 8.57, 286.45
379.17, 8.00, 298.19
379.19, 8.01, 298.07
379.22, 8.03, 297.96
379.24, 8.04, 297.83
379.26, 8.05, 297.70
379.29, 8.07, 297.56
379.32, 8.09, 297.42
379.34, 8.10, 297.27
379.37, 8.12, 297.11
379.41, 8.14, 296.94
379.44, 8.16, 296.75
379.48, 8.18, 296.52
379.52, 8.20, 296.30
379.57, 8.22, 296.05
379.63, 8.24, 295.73
379.69, 8.26, 295.42
379.75, 8.29, 295.08
379.82, 8.31, 294.70
379.90, 8.34, 294.27
379.99, 8.38, 293.78
380.09, 8.42, 293.23
380.22, 8.45, 292.53
380.38, 8.49, 291.69
380.58, 8.53, 290.62
380.85, 8.57, 289.16
381.36, 8.57, 286.39
379.13, 8.00, 298.18
379.15, 8.01, 298.07
379.17, 8.03, 297.95
379.19, 8.04, 297.83
379.21, 8.06, 297.70
379.23, 8.07, 297.56
379.26, 8.09, 297.41
379.28, 8.11, 297.27
¯379.31, 8.13, 297.10
379.34, 8.15, 296.93
379.37, 8.17, 296.75
379.41, 8.18, 296.52
379.45, 8.20, 296.29
379.50, 8.22, 296.05
379.55, 8.24, 295.71
379.61, 8.26, 295.40
379.67, 8.29, 295.06
379.73, 8.31, 294.67
379.81, 8.34, 294.24
379.89, 8.38, 293.76
379.99, 8.42, 293.20
380.11, 8.45, 292.50
380.25, 8.49, 291.66
380.44, 8.53, 290.59
380.69, 8.57, 289.13
381.17, 8.57, 286.33
379.08, 8.00, 298.18
379.10, 8.02, 298.06
379.12, 8.03, 297.95
379.14, 8.04, 297.82
379.16, 8.06, 297.69
379.18, 8.07, 297.56
379.20, 8.09, 297.41
379.23, 8.11, 297.26
379.25, 8.13, 297.10
379.28, 8.15, 296.93
379.31, 8.17, 296.75
379.35, 8.18, 296.51
379.38, 8.20, 296.28
379.42, 8.23, 296.04
379.48, 8.23, 295.69
379.53, 8.26, 295.38
379.58, 8.29, 295.04
379.64, 8.31, 294.65
379.71, 8.34, 294.22
379.79, 8.38, 293.73
379.88, 8.41, 293.18
379.99, 8.45, 292.47
380.13, 8.49, 291.62
380.30, 8.53, 290.56
380.53, 8.57, 289.09
380.98, 8.57, 286.28
379.03, 8.01, 298.17
379.05, 8.02, 298.06
379.07, 8.03, 297.95
379.08, 8.05, 297.82
379.10, 8.06, 297.69
379.12, 8.08, 297.55
379.15, 8.09, 297.41
¯379.17, 8.11, 297.26
379.19, 8.13, 297.10
379.22, 8.15, 296.93
379.24, 8.17, 296.74
379.28, 8.18, 296.50
379.31, 8.20, 296.28
379.35, 8.23, 296.03
379.40, 8.23, 295.67
379.45, 8.26, 295.36
379.50, 8.28, 295.02
379.56, 8.31, 294.63
379.62, 8.34, 294.20
379.69, 8.38, 293.71
379.77, 8.41, 293.15
379.88, 8.45, 292.44
380.00, 8.49, 291.59
380.16, 8.53, 290.52
380.38, 8.57, 289.06
380.79, 8.57, 286.23
378.98, 8.01, 298.17
379.00, 8.02, 298.06
379.02, 8.03, 297.94
379.03, 8.05, 297.82
379.05, 8.06, 297.69
379.07, 8.08, 297.55
379.09, 8.09, 297.40
379.11, 8.11, 297.26
379.13, 8.13, 297.10
379.15, 8.15, 296.93
379.18, 8.17, 296.74
379.21, 8.18, 296.50
379.24, 8.21, 296.27
379.27, 8.23, 296.03
379.32, 8.23, 295.66
379.37, 8.26, 295.34
379.41, 8.28, 295.00
379.47, 8.31, 294.61
379.52, 8.34, 294.18
379.59, 8.38, 293.68
379.67, 8.41, 293.12
379.76, 8.45, 292.41
379.88, 8.49, 291.56
380.02, 8.53, 290.49
380.22, 8.57, 289.02
380.60, 8.57, 286.19
378.94, 8.01, 298.17
378.95, 8.02, 298.05
378.96, 8.04, 297.94
378.98, 8.05, 297.82
379.00, 8.06, 297.68
379.01, 8.08, 297.55
¯379.03, 8.09, 297.40
379.05, 8.12, 297.26
379.07, 8.13, 297.10
379.09, 8.15, 296.92
379.11, 8.18, 296.74
379.14, 8.19, 296.49
379.17, 8.21, 296.27
379.20, 8.23, 296.02
379.25, 8.23, 295.64
379.29, 8.26, 295.33
379.33, 8.28, 294.98
379.38, 8.31, 294.59
379.43, 8.34, 294.16
379.49, 8.37, 293.66
379.56, 8.41, 293.09
379.65, 8.45, 292.38
379.75, 8.49, 291.53
379.88, 8.53, 290.46
380.06, 8.57, 288.99
380.41, 8.57, 286.14
378.89, 8.01, 298.16
378.90, 8.02, 298.05
378.91, 8.04, 297.94
378.93, 8.05, 297.81
378.94, 8.06, 297.68
378.96, 8.08, 297.54
378.97, 8.10, 297.40
378.99, 8.12, 297.26
379.01, 8.14, 297.10
379.03, 8.16, 296.92
379.05, 8.18, 296.74
379.08, 8.19, 296.49
379.10, 8.21, 296.26
379.13, 8.23, 296.01
379.17, 8.23, 295.62
379.21, 8.26, 295.31
379.24, 8.28, 294.96
379.29, 8.31, 294.57
379.34, 8.34, 294.14
379.39, 8.37, 293.64
379.45, 8.41, 293.07
379.53, 8.45, 292.36
379.63, 8.49, 291.50
379.74, 8.53, 290.43
379.91, 8.57, 288.96
380.22, 8.57, 286.10
378.84, 8.01, 298.16
378.85, 8.02, 298.05
378.86, 8.04, 297.93
378.88, 8.05, 297.81
378.89, 8.07, 297.68
¯378.90, 8.08, 297.54
378.92, 8.10, 297.40
378.93, 8.12, 297.25
378.95, 8.14, 297.09
378.96, 8.16, 296.92
378.98, 8.18, 296.74
379.01, 8.19, 296.48
379.03, 8.21, 296.26
379.05, 8.23, 296.01
379.09, 8.23, 295.61
379.12, 8.25, 295.29
379.16, 8.28, 294.94
379.20, 8.31, 294.56
379.24, 8.34, 294.12
379.29, 8.37, 293.61
379.35, 8.41, 293.04
379.42, 8.45, 292.33
379.50, 8.49, 291.47
379.60, 8.53, 290.40
379.75, 8.57, 288.93
380.03, 8.57, 286.05
378.80, 8.01, 298.16
378.81, 8.02, 298.04
378.81, 8.04, 297.93
378.83, 8.05, 297.81
378.84, 8.07, 297.68
378.85, 8.08, 297.54
378.86, 8.10, 297.40
378.87, 8.12, 297.25
378.89, 8.14, 297.09
378.90, 8.16, 296.92
378.92, 8.18, 296.74
378.94, 8.19, 296.48
378.96, 8.21, 296.25
378.98, 8.23, 296.01
379.02, 8.23, 295.60
379.04, 8.25, 295.28
379.07, 8.28, 294.93
379.11, 8.31, 294.54
379.14, 8.34, 294.10
379.19, 8.37, 293.59
379.24, 8.41, 293.02
379.30, 8.45, 292.30
379.37, 8.49, 291.45
379.46, 8.53, 290.37
379.59, 8.57, 288.90
379.84, 8.57, 286.02
378.75, 8.01, 298.16
378.76, 8.03, 298.04
378.76, 8.04, 297.93
378.77, 8.05, 297.81
¯378.78, 8.07, 297.68
378.79, 8.08, 297.54
378.80, 8.10, 297.39
378.81, 8.12, 297.25
378.83, 8.14, 297.10
378.84, 8.16, 296.92
378.85, 8.18, 296.74
378.87, 8.19, 296.49
378.89, 8.21, 296.25
378.91, 8.23, 296.00
378.94, 8.23, 295.58
378.96, 8.25, 295.26
378.99, 8.28, 294.91
379.02, 8.31, 294.52
379.05, 8.34, 294.08
379.09, 8.37, 293.57
379.13, 8.41, 293.00
379.18, 8.44, 292.28
379.24, 8.49, 291.42
379.32, 8.53, 290.35
379.43, 8.57, 288.88
379.64, 8.57, 285.98
378.70, 8.01, 298.16
378.71, 8.03, 298.04
378.71, 8.04, 297.93
378.72, 8.06, 297.81
378.73, 8.07, 297.68
378.74, 8.09, 297.54
378.75, 8.10, 297.39
378.76, 8.12, 297.25
378.77, 8.14, 297.10
378.78, 8.16, 296.93
378.79, 8.19, 296.74
378.80, 8.20, 296.50
378.82, 8.21, 296.25
378.83, 8.24, 296.00
378.86, 8.23, 295.57
378.88, 8.25, 295.25
378.90, 8.28, 294.90
378.92, 8.31, 294.51
378.95, 8.34, 294.06
378.98, 8.37, 293.55
379.02, 8.41, 292.98
379.06, 8.44, 292.25
379.12, 8.48, 291.40
379.18, 8.53, 290.32
379.27, 8.57, 288.85
379.45, 8.57, 285.94
378.65, 8.01, 298.15
378.66, 8.03, 298.04
378.66, 8.04, 297.93
¯378.67, 8.06, 297.81
378.68, 8.07, 297.68
378.68, 8.09, 297.54
378.69, 8.10, 297.39
378.70, 8.12, 297.25
378.71, 8.14, 297.10
378.71, 8.17, 296.93
378.72, 8.19, 296.75
378.74, 8.20, 296.51
378.75, 8.21, 296.24
378.76, 8.24, 296.00
378.78, 8.23, 295.56
378.80, 8.25, 295.23
378.81, 8.28, 294.88
378.83, 8.31, 294.49
378.86, 8.34, 294.04
378.88, 8.37, 293.53
378.91, 8.41, 292.95
378.94, 8.44, 292.23
378.99, 8.48, 291.37
379.04, 8.53, 290.29
379.11, 8.57, 288.82
379.25, 8.57, 285.91
378.61, 8.02, 298.15
378.61, 8.03, 298.04
378.61, 8.04, 297.93
378.62, 8.06, 297.81
378.62, 8.07, 297.68
378.63, 8.09, 297.54
378.63, 8.10, 297.40
378.64, 8.13, 297.25
378.65, 8.15, 297.10
378.65, 8.17, 296.93
378.66, 8.19, 296.75
378.67, 8.20, 296.52
378.68, 8.21, 296.24
378.69, 8.24, 296.00
378.70, 8.23, 295.55
378.71, 8.25, 295.22
378.73, 8.28, 294.87
378.74, 8.30, 294.48
378.76, 8.34, 294.03
378.78, 8.37, 293.51
378.80, 8.41, 292.93
378.83, 8.44, 292.21
378.86, 8.48, 291.35
378.90, 8.53, 290.27
378.95, 8.57, 288.80
379.06, 8.57, 285.88
378.56, 8.02, 298.15
378.56, 8.03, 298.04
¯378.56, 8.04, 297.93
378.57, 8.06, 297.81
378.57, 8.07, 297.68
378.57, 8.09, 297.54
378.58, 8.11, 297.40
378.58, 8.13, 297.25
378.59, 8.15, 297.10
378.59, 8.17, 296.93
378.59, 8.19, 296.75
378.60, 8.21, 296.53
378.61, 8.21, 296.24
378.61, 8.24, 296.00
378.62, 8.23, 295.58
378.63, 8.25, 295.21
378.64, 8.27, 294.85
378.65, 8.30, 294.46
378.66, 8.33, 294.01
378.67, 8.37, 293.50
378.69, 8.40, 292.91
378.71, 8.44, 292.19
378.73, 8.48, 291.33
378.75, 8.53, 290.25
378.79, 8.57, 288.78
378.86, 8.57, 285.84
378.51, 8.02, 298.16
378.51, 8.03, 298.04
378.52, 8.05, 297.93
378.52, 8.06, 297.81
378.52, 8.08, 297.68
378.52, 8.09, 297.54
378.52, 8.11, 297.40
378.52, 8.13, 297.26
378.53, 8.15, 297.11
378.53, 8.17, 296.94
378.53, 8.19, 296.76
378.53, 8.21, 296.54
378.54, 8.22, 296.24
378.54, 8.24, 296.00
378.54, 8.24, 295.62
378.55, 8.25, 295.20
378.55, 8.27, 294.84
378.56, 8.30, 294.45
378.56, 8.33, 294.00
378.57, 8.37, 293.48
378.58, 8.40, 292.89
378.59, 8.44, 292.17
378.60, 8.48, 291.30
378.61, 8.53, 290.23
378.63, 8.57, 288.76
378.66, 8.57, 285.80
378.47, 8.02, 298.16
¯378.47, 8.03, 298.04
378.47, 8.05, 297.93
378.47, 8.06, 297.81
378.47, 8.08, 297.68
378.47, 8.09, 297.55
378.47, 8.11, 297.40
378.47, 8.13, 297.26
378.47, 8.15, 297.11
378.47, 8.17, 296.94
378.47, 8.19, 296.76
378.47, 8.21, 296.55
378.47, 8.22, 296.24
378.47, 8.24, 296.00
378.47, 8.25, 295.65
378.47, 8.25, 295.19
378.47, 8.27, 294.83
378.47, 8.30, 294.44
378.47, 8.33, 293.98
378.47, 8.36, 293.46
378.47, 8.40, 292.87
378.47, 8.44, 292.14
378.47, 8.48, 291.28
378.47, 8.53, 290.20
378.47, 8.57, 288.74
378.47, 8.57, 285.76
378.42, 8.02, 298.16
378.42, 8.03, 298.05
378.42, 8.05, 297.93
378.41, 8.06, 297.81
378.41, 8.08, 297.68
378.41, 8.09, 297.55
378.41, 8.11, 297.40
378.41, 8.13, 297.26
378.41, 8.15, 297.11
378.40, 8.17, 296.94
378.40, 8.19, 296.76
378.40, 8.22, 296.57
378.40, 8.22, 296.24
378.39, 8.24, 296.00
378.39, 8.26, 295.69
378.38, 8.24, 295.18
378.38, 8.27, 294.82
378.37, 8.30, 294.42
378.37, 8.33, 293.97
378.36, 8.36, 293.45
378.35, 8.40, 292.86
378.35, 8.44, 292.13
378.34, 8.48, 291.26
378.32, 8.53, 290.18
378.30, 8.57, 288.72
378.27, 8.57, 285.72
¯378.37, 8.02, 298.16
378.37, 8.03, 298.05
378.37, 8.05, 297.94
378.36, 8.06, 297.82
378.36, 8.08, 297.69
378.36, 8.09, 297.55
378.35, 8.11, 297.41
378.35, 8.13, 297.26
378.35, 8.15, 297.12
378.34, 8.17, 296.95
378.34, 8.20, 296.77
378.33, 8.22, 296.58
378.33, 8.22, 296.24
378.32, 8.24, 296.00
378.31, 8.26, 295.73
378.30, 8.24, 295.17
378.29, 8.27, 294.81
378.28, 8.30, 294.41
378.27, 8.33, 293.96
378.26, 8.36, 293.43
378.24, 8.40, 292.84
378.22, 8.44, 292.11
378.20, 8.48, 291.24
378.18, 8.52, 290.17
378.14, 8.57, 288.70
378.07, 8.57, 285.68
378.32, 8.02, 298.16
378.32, 8.03, 298.05
378.32, 8.05, 297.94
378.31, 8.06, 297.82
378.31, 8.08, 297.69
378.30, 8.09, 297.55
378.30, 8.11, 297.41
378.29, 8.13, 297.27
378.29, 8.15, 297.12
378.28, 8.18, 296.95
378.27, 8.20, 296.77
378.27, 8.22, 296.58
378.25, 8.22, 296.25
378.25, 8.24, 296.00
378.24, 8.27, 295.73
378.21, 8.24, 295.16
378.20, 8.27, 294.80
378.19, 8.30, 294.40
378.17, 8.33, 293.94
378.15, 8.36, 293.42
378.13, 8.40, 292.82
378.10, 8.43, 292.09
378.07, 8.48, 291.23
378.03, 8.52, 290.15
377.98, 8.57, 288.68
¯377.87, 8.57, 285.65
378.28, 8.02, 298.16
378.27, 8.03, 298.05
378.27, 8.05, 297.94
378.26, 8.06, 297.82
378.25, 8.08, 297.69
378.25, 8.10, 297.56
378.24, 8.11, 297.41
378.23, 8.13, 297.27
378.23, 8.16, 297.12
378.22, 8.18, 296.96
378.21, 8.20, 296.78
378.20, 8.22, 296.59
378.18, 8.22, 296.25
378.17, 8.24, 296.00
378.16, 8.27, 295.74
378.13, 8.24, 295.15
378.11, 8.27, 294.79
378.09, 8.30, 294.39
378.07, 8.33, 293.93
378.05, 8.36, 293.40
378.02, 8.40, 292.81
377.98, 8.43, 292.07
377.94, 8.48, 291.21
377.89, 8.52, 290.13
377.81, 8.57, 288.67
377.66, 8.57, 285.62
378.23, 8.02, 298.17
378.22, 8.03, 298.06
378.22, 8.05, 297.94
378.21, 8.07, 297.83
378.20, 8.08, 297.70
378.19, 8.10, 297.56
378.18, 8.11, 297.42
378.18, 8.13, 297.27
378.17, 8.16, 297.13
378.16, 8.18, 296.97
378.15, 8.20, 296.79
378.14, 8.22, 296.60
378.11, 8.22, 296.26
378.10, 8.24, 296.01
378.08, 8.27, 295.74
378.05, 8.24, 295.14
378.02, 8.26, 294.78
378.00, 8.29, 294.38
377.97, 8.32, 293.92
377.94, 8.36, 293.39
377.90, 8.39, 292.79
377.86, 8.43, 292.06
377.81, 8.47, 291.19
377.74, 8.52, 290.11
¯377.65, 8.57, 288.65
377.46, 8.57, 285.60
378.18, 8.02, 298.17
378.18, 8.03, 298.06
378.17, 8.05, 297.95
378.16, 8.07, 297.83
378.15, 8.08, 297.70
378.14, 8.10, 297.57
378.13, 8.11, 297.42
378.12, 8.13, 297.28
378.11, 8.16, 297.13
378.10, 8.18, 296.97
378.08, 8.20, 296.79
378.07, 8.22, 296.60
378.05, 8.22, 296.28
378.03, 8.24, 296.01
378.01, 8.27, 295.74
377.96, 8.24, 295.14
377.93, 8.26, 294.77
377.91, 8.29, 294.37
377.87, 8.32, 293.91
377.83, 8.36, 293.38
377.79, 8.39, 292.78
377.73, 8.43, 292.04
377.67, 8.47, 291.18
377.59, 8.52, 290.10
377.49, 8.57, 288.64
377.26, 8.57, 285.57
378.14, 8.02, 298.18
378.13, 8.04, 298.06
378.12, 8.05, 297.95
378.11, 8.07, 297.84
378.10, 8.08, 297.71
378.09, 8.10, 297.57
378.07, 8.11, 297.43
378.06, 8.13, 297.28
378.05, 8.16, 297.14
378.03, 8.18, 296.98
378.02, 8.20, 296.80
378.00, 8.23, 296.61
377.98, 8.23, 296.30
377.95, 8.24, 296.01
377.93, 8.27, 295.75
377.88, 8.24, 295.13
377.85, 8.26, 294.76
377.81, 8.29, 294.36
377.77, 8.32, 293.90
377.73, 8.35, 293.37
377.67, 8.39, 292.77
377.61, 8.43, 292.03
377.54, 8.47, 291.16
¯377.44, 8.52, 290.09
377.32, 8.57, 288.63
378.09, 8.02, 298.18
378.08, 8.04, 298.07
378.07, 8.05, 297.96
378.06, 8.07, 297.84
378.04, 8.08, 297.71
378.03, 8.10, 297.58
378.02, 8.12, 297.43
378.00, 8.13, 297.29
377.99, 8.16, 297.14
377.97, 8.18, 296.99
377.96, 8.20, 296.81
377.94, 8.23, 296.62
377.91, 8.23, 296.32
377.88, 8.24, 296.02
377.85, 8.27, 295.75
377.79, 8.23, 295.12
377.76, 8.26, 294.76
377.72, 8.29, 294.36
377.67, 8.32, 293.89
377.62, 8.35, 293.36
377.56, 8.39, 292.75
377.49, 8.43, 292.01
377.40, 8.47, 291.15
377.30, 8.52, 290.07
377.15, 8.57, 288.62
378.04, 8.02, 298.18
378.03, 8.04, 298.07
378.02, 8.05, 297.96
378.01, 8.07, 297.85
377.99, 8.08, 297.72
377.98, 8.10, 297.58
377.96, 8.12, 297.44
377.95, 8.13, 297.29
377.93, 8.16, 297.15
377.91, 8.18, 296.99
377.89, 8.20, 296.82
377.87, 8.23, 296.63
377.84, 8.23, 296.34
377.81, 8.24, 296.03
377.78, 8.27, 295.76
377.71, 8.23, 295.12
377.66, 8.26, 294.75
377.62, 8.29, 294.35
377.57, 8.32, 293.89
377.51, 8.35, 293.35
377.44, 8.39, 292.74
377.36, 8.42, 292.00
377.27, 8.47, 291.14
377.15, 8.52, 290.06
¯376.99, 8.57, 288.61
378.00, 8.02, 298.19
377.98, 8.04, 298.08
377.97, 8.05, 297.97
377.96, 8.07, 297.85
377.94, 8.08, 297.73
377.92, 8.10, 297.59
377.91, 8.12, 297.45
377.89, 8.13, 297.30
377.87, 8.16, 297.16
377.85, 8.18, 297.00
377.83, 8.20, 296.83
377.81, 8.23, 296.64
377.77, 8.24, 296.37
377.73, 8.24, 296.03
377.70, 8.27, 295.77
377.62, 8.23, 295.11
377.57, 8.26, 294.74
377.52, 8.28, 294.34
377.47, 8.32, 293.88
377.40, 8.35, 293.34
377.33, 8.38, 292.73
377.24, 8.42, 291.99
377.13, 8.47, 291.12
377.00, 8.52, 290.05
376.82, 8.57, 288.60
377.95, 8.02, 298.20
377.93, 8.04, 298.08
377.92, 8.05, 297.97
377.90, 8.07, 297.86
377.89, 8.08, 297.73
377.87, 8.10, 297.60
377.85, 8.12, 297.45
377.83, 8.14, 297.31
377.81, 8.16, 297.16
377.79, 8.18, 297.01
377.77, 8.21, 296.84
377.74, 8.23, 296.65
377.71, 8.24, 296.39
377.66, 8.24, 296.04
377.62, 8.27, 295.77
377.53, 8.23, 295.11
377.48, 8.25, 294.74
377.43, 8.28, 294.34
377.37, 8.31, 293.87
377.29, 8.35, 293.33
377.21, 8.38, 292.72
377.11, 8.42, 291.98
376.99, 8.47, 291.11
376.85, 8.52, 290.03
376.43, 8.46, 286.93
¯377.90, 8.02, 298.20
377.89, 8.04, 298.09
377.87, 8.05, 297.98
377.85, 8.07, 297.86
377.84, 8.08, 297.74
377.82, 8.10, 297.61
377.79, 8.12, 297.46
377.77, 8.14, 297.31
377.75, 8.16, 297.17
377.73, 8.18, 297.02
377.70, 8.21, 296.84
377.68, 8.23, 296.66
377.64, 8.25, 296.41
377.59, 8.24, 296.05
377.55, 8.27, 295.78
377.45, 8.23, 295.11
377.39, 8.25, 294.74
377.33, 8.28, 294.33
377.26, 8.31, 293.87
377.18, 8.34, 293.33
377.09, 8.38, 292.71
376.98, 8.42, 291.97
376.86, 8.46, 291.09
376.70, 8.51, 290.02
376.24, 8.46, 286.93
377.86, 8.02, 298.21
377.84, 8.04, 298.10
377.82, 8.05, 297.99
377.80, 8.07, 297.87
377.78, 8.09, 297.75
377.76, 8.10, 297.61
377.74, 8.12, 297.47
377.72, 8.14, 297.32
377.69, 8.16, 297.18
377.67, 8.18, 297.02
377.64, 8.21, 296.86
377.61, 8.23, 296.67
377.57, 8.25, 296.44
377.51, 8.24, 296.05
377.47, 8.27, 295.79
377.36, 8.22, 295.10
377.30, 8.25, 294.73
377.24, 8.28, 294.33
377.16, 8.31, 293.86
377.08, 8.34, 293.32
376.98, 8.38, 292.70
376.86, 8.42, 291.96
376.72, 8.46, 291.08
376.55, 8.51, 290.01
376.05, 8.46, 286.94
377.81, 8.02, 298.22
¯377.79, 8.04, 298.10
377.77, 8.05, 297.99
377.75, 8.07, 297.88
377.73, 8.09, 297.76
377.71, 8.10, 297.62
377.68, 8.12, 297.48
377.66, 8.14, 297.33
377.63, 8.16, 297.18
377.61, 8.18, 297.03
377.58, 8.21, 296.87
377.55, 8.23, 296.68
377.51, 8.25, 296.47
