ŸVERSION 0.7
FIELDS x y z
SIZE 8 8 8
TYPE F F F
COUNT 1 1 1
WIDTH 2271
HEIGHT 1
VIEWPOINT 399.53, 14.03, 248.17 1 381.93, 8.94, 257.61
POINTS 2271
DATA ascii
382.88, 7.11, 262.40
382.79, 7.12, 262.66
382.70, 7.13, 262.94
382.60, 7.14, 263.25
382.49, 7.15, 263.58
382.37, 7.17, 263.94
382.24, 7.18, 264.34
382.10, 7.20, 264.77
381.95, 7.22, 265.23
381.78, 7.25, 265.74
381.60, 7.28, 266.29
381.40, 7.32, 266.91
381.18, 7.37, 267.57
380.94, 7.42, 268.29
380.68, 7.49, 269.10
380.38, 7.56, 270.02
380.03, 7.65, 271.07
379.64, 7.75, 272.28
379.17, 7.87, 273.70
378.60, 8.01, 275.42
377.90, 8.17, 277.58
383.35, 7.06, 261.18
383.29, 7.07, 261.36
383.23, 7.08, 261.54
383.17, 7.08, 261.74
383.10, 7.09, 261.95
383.03, 7.10, 262.18
382.95, 7.11, 262.43
382.87, 7.12, 262.69
382.78, 7.13, 262.97
382.68, 7.14, 263.28
382.58, 7.15, 263.61
382.47, 7.17, 263.97
382.34, 7.18, 264.37
382.20, 7.20, 264.81
¯382.06, 7.22, 265.27
381.90, 7.25, 265.78
381.72, 7.28, 266.34
381.53, 7.32, 266.96
381.32, 7.37, 267.62
381.09, 7.43, 268.34
380.84, 7.49, 269.14
380.55, 7.56, 270.06
380.22, 7.65, 271.11
379.84, 7.75, 272.31
379.39, 7.87, 273.74
378.85, 8.01, 275.45
378.17, 8.18, 277.62
383.40, 7.06, 261.20
383.35, 7.07, 261.38
383.30, 7.08, 261.56
383.23, 7.08, 261.76
383.17, 7.09, 261.98
383.10, 7.10, 262.21
383.03, 7.11, 262.45
382.95, 7.12, 262.72
382.86, 7.13, 263.00
382.77, 7.14, 263.31
382.67, 7.15, 263.64
382.56, 7.17, 264.01
382.44, 7.18, 264.41
382.31, 7.20, 264.84
382.17, 7.22, 265.31
382.01, 7.25, 265.82
381.84, 7.28, 266.38
381.66, 7.32, 267.00
381.46, 7.37, 267.66
381.24, 7.43, 268.38
381.00, 7.49, 269.19
380.72, 7.57, 270.10
380.40, 7.65, 271.16
380.05, 7.75, 272.34
379.61, 7.87, 273.78
379.10, 8.01, 275.47
378.45, 8.18, 277.65
383.46, 7.06, 261.22
383.41, 7.07, 261.40
383.36, 7.08, 261.58
383.30, 7.08, 261.79
383.24, 7.09, 262.00
383.17, 7.10, 262.23
383.10, 7.11, 262.48
383.03, 7.12, 262.74
382.94, 7.13, 263.03
382.85, 7.14, 263.34
382.76, 7.15, 263.67
¯382.65, 7.17, 264.04
382.54, 7.18, 264.44
382.41, 7.20, 264.88
382.28, 7.22, 265.35
382.13, 7.25, 265.86
381.97, 7.28, 266.42
381.79, 7.32, 267.04
381.60, 7.37, 267.71
381.39, 7.43, 268.42
381.16, 7.49, 269.23
380.89, 7.57, 270.14
380.59, 7.65, 271.20
380.25, 7.76, 272.38
379.84, 7.87, 273.81
379.35, 8.02, 275.49
378.72, 8.18, 277.68
383.52, 7.06, 261.24
383.48, 7.07, 261.42
383.42, 7.08, 261.60
383.37, 7.08, 261.81
383.31, 7.09, 262.02
383.25, 7.10, 262.25
383.18, 7.11, 262.50
383.10, 7.11, 262.77
383.03, 7.13, 263.05
382.94, 7.14, 263.37
382.85, 7.15, 263.70
382.75, 7.16, 264.07
382.64, 7.18, 264.47
382.52, 7.20, 264.91
382.39, 7.22, 265.38
382.24, 7.25, 265.89
382.09, 7.28, 266.46
381.92, 7.32, 267.08
381.73, 7.37, 267.75
381.54, 7.43, 268.46
381.32, 7.49, 269.27
381.07, 7.57, 270.18
380.78, 7.66, 271.23
380.45, 7.76, 272.41
380.06, 7.88, 273.84
379.60, 8.02, 275.52
379.00, 8.19, 277.70
383.58, 7.06, 261.26
383.54, 7.07, 261.43
383.49, 7.08, 261.62
383.44, 7.08, 261.83
383.38, 7.09, 262.04
383.32, 7.10, 262.28
383.25, 7.10, 262.53
383.18, 7.11, 262.79
¯383.11, 7.12, 263.08
383.02, 7.14, 263.40
382.94, 7.15, 263.73
382.84, 7.16, 264.10
382.73, 7.18, 264.50
382.62, 7.20, 264.94
382.50, 7.22, 265.42
382.36, 7.25, 265.93
382.21, 7.28, 266.50
382.05, 7.32, 267.12
381.87, 7.37, 267.79
381.69, 7.43, 268.49
381.48, 7.50, 269.31
381.24, 7.57, 270.22
380.96, 7.66, 271.27
380.66, 7.76, 272.44
380.28, 7.88, 273.87
379.84, 8.02, 275.54
379.27, 8.19, 277.72
383.64, 7.06, 261.27
383.60, 7.07, 261.45
383.55, 7.07, 261.64
383.50, 7.08, 261.85
383.45, 7.09, 262.06
383.39, 7.10, 262.30
383.33, 7.10, 262.55
383.26, 7.11, 262.82
383.19, 7.12, 263.11
383.11, 7.13, 263.42
383.03, 7.15, 263.76
382.94, 7.16, 264.13
382.83, 7.18, 264.53
382.72, 7.20, 264.97
382.61, 7.22, 265.45
382.48, 7.25, 265.97
382.34, 7.28, 266.53
382.18, 7.32, 267.15
382.01, 7.37, 267.83
381.84, 7.43, 268.53
381.64, 7.50, 269.34
381.41, 7.57, 270.26
381.15, 7.66, 271.30
380.86, 7.76, 272.47
380.51, 7.88, 273.89
380.09, 8.03, 275.56
379.55, 8.19, 277.74
383.71, 7.06, 261.29
383.66, 7.07, 261.47
383.62, 7.07, 261.66
383.57, 7.08, 261.87
383.52, 7.09, 262.08
¯383.46, 7.10, 262.32
383.40, 7.10, 262.57
383.34, 7.11, 262.84
383.27, 7.12, 263.13
383.20, 7.13, 263.45
383.12, 7.15, 263.78
383.03, 7.16, 264.15
382.93, 7.18, 264.56
382.83, 7.20, 265.01
382.72, 7.22, 265.48
382.59, 7.25, 266.00
382.46, 7.28, 266.57
382.31, 7.32, 267.19
382.15, 7.37, 267.87
381.99, 7.43, 268.57
381.80, 7.50, 269.38
381.58, 7.57, 270.30
381.34, 7.66, 271.33
381.06, 7.77, 272.50
380.73, 7.89, 273.91
380.33, 8.03, 275.58
379.82, 8.19, 277.76
383.77, 7.06, 261.31
383.73, 7.07, 261.49
383.68, 7.07, 261.68
383.64, 7.08, 261.88
383.59, 7.09, 262.10
383.54, 7.09, 262.34
383.48, 7.10, 262.59
383.42, 7.11, 262.86
383.35, 7.12, 263.15
383.28, 7.13, 263.47
383.21, 7.15, 263.81
383.13, 7.16, 264.18
383.03, 7.18, 264.59
382.93, 7.20, 265.04
382.83, 7.22, 265.51
382.71, 7.25, 266.03
382.59, 7.28, 266.60
382.45, 7.32, 267.23
382.30, 7.37, 267.90
382.14, 7.43, 268.60
381.96, 7.50, 269.41
381.75, 7.58, 270.33
381.52, 7.66, 271.36
381.26, 7.77, 272.53
380.95, 7.89, 273.93
380.58, 8.03, 275.60
380.09, 8.20, 277.78
383.83, 7.06, 261.32
383.79, 7.07, 261.50
¯383.75, 7.07, 261.70
383.71, 7.08, 261.90
383.66, 7.09, 262.12
383.61, 7.09, 262.36
383.56, 7.10, 262.61
383.50, 7.11, 262.88
383.44, 7.12, 263.17
383.37, 7.13, 263.49
383.30, 7.15, 263.83
383.22, 7.16, 264.21
383.13, 7.18, 264.62
383.04, 7.20, 265.06
382.94, 7.22, 265.54
382.83, 7.25, 266.07
382.71, 7.28, 266.64
382.58, 7.32, 267.26
382.44, 7.37, 267.94
382.29, 7.43, 268.64
382.12, 7.50, 269.45
381.93, 7.58, 270.36
381.71, 7.67, 271.39
381.47, 7.77, 272.55
381.17, 7.89, 273.95
380.82, 8.03, 275.62
380.36, 8.20, 277.80
383.89, 7.06, 261.34
383.85, 7.07, 261.52
383.81, 7.07, 261.71
383.77, 7.08, 261.92
383.73, 7.09, 262.14
383.68, 7.09, 262.38
383.63, 7.10, 262.63
383.58, 7.11, 262.90
383.52, 7.12, 263.20
383.46, 7.13, 263.52
383.39, 7.15, 263.86
383.32, 7.16, 264.23
383.24, 7.18, 264.64
383.15, 7.20, 265.09
383.05, 7.22, 265.57
382.95, 7.25, 266.10
382.84, 7.28, 266.67
382.68, 7.30, 267.46
382.46, 7.29, 268.58
382.31, 7.35, 269.34
382.24, 7.48, 269.69
382.10, 7.58, 270.39
381.90, 7.67, 271.42
381.67, 7.77, 272.58
381.39, 7.89, 273.97
381.06, 8.04, 275.64
¯380.63, 8.20, 277.81
383.95, 7.06, 261.35
383.92, 7.07, 261.53
383.88, 7.07, 261.73
383.84, 7.08, 261.93
383.80, 7.09, 262.16
383.76, 7.09, 262.39
383.71, 7.10, 262.65
383.66, 7.11, 262.92
383.60, 7.12, 263.22
383.55, 7.13, 263.54
383.48, 7.15, 263.88
383.41, 7.16, 264.25
383.34, 7.18, 264.67
383.25, 7.20, 265.12
383.16, 7.22, 265.60
383.02, 7.21, 266.36
382.85, 7.18, 267.33
382.73, 7.23, 267.95
382.61, 7.29, 268.62
382.47, 7.35, 269.37
382.31, 7.42, 270.22
382.13, 7.51, 271.17
382.06, 7.66, 271.57
381.87, 7.78, 272.60
381.61, 7.90, 273.99
381.30, 8.04, 275.66
380.90, 8.21, 277.82
384.01, 7.06, 261.36
383.98, 7.07, 261.55
383.95, 7.07, 261.74
383.91, 7.08, 261.95
383.87, 7.08, 262.17
383.83, 7.09, 262.41
383.79, 7.10, 262.67
383.74, 7.11, 262.94
383.69, 7.12, 263.24
383.63, 7.13, 263.56
383.57, 7.14, 263.90
383.51, 7.16, 264.28
383.44, 7.18, 264.69
383.36, 7.20, 265.14
383.18, 7.11, 266.21
383.08, 7.14, 266.75
382.98, 7.18, 267.36
382.87, 7.23, 267.98
382.76, 7.29, 268.65
382.63, 7.35, 269.40
382.48, 7.42, 270.25
382.32, 7.51, 271.20
382.14, 7.60, 272.26
¯382.04, 7.77, 272.78
381.83, 7.90, 274.01
381.55, 8.04, 275.67
381.17, 8.21, 277.84
384.07, 7.06, 261.38
384.04, 7.06, 261.56
384.01, 7.07, 261.75
383.98, 7.08, 261.96
383.94, 7.08, 262.19
383.91, 7.09, 262.43
383.86, 7.10, 262.68
383.82, 7.11, 262.96
383.77, 7.12, 263.26
383.72, 7.13, 263.58
383.67, 7.14, 263.92
383.61, 7.16, 264.30
383.54, 7.18, 264.71
383.38, 7.08, 265.74
383.30, 7.11, 266.23
383.21, 7.14, 266.78
383.11, 7.18, 267.39
383.01, 7.23, 268.01
382.91, 7.29, 268.68
382.79, 7.35, 269.43
382.65, 7.43, 270.27
382.50, 7.51, 271.23
382.33, 7.61, 272.29
382.13, 7.72, 273.52
382.05, 7.90, 274.02
381.79, 8.04, 275.69
381.44, 8.21, 277.86
384.13, 7.06, 261.39
384.11, 7.06, 261.57
384.08, 7.07, 261.77
384.05, 7.08, 261.98
384.02, 7.08, 262.20
383.98, 7.09, 262.44
383.94, 7.10, 262.70
383.90, 7.11, 262.97
383.86, 7.12, 263.27
383.81, 7.13, 263.60
383.76, 7.14, 263.94
383.70, 7.16, 264.32
383.56, 7.06, 265.28
383.49, 7.08, 265.76
383.42, 7.11, 266.26
383.34, 7.14, 266.81
383.25, 7.18, 267.42
383.16, 7.23, 268.04
383.06, 7.29, 268.71
382.95, 7.35, 269.46
¯382.82, 7.43, 270.30
382.68, 7.51, 271.26
382.53, 7.61, 272.32
382.35, 7.72, 273.54
382.15, 7.86, 274.85
382.03, 8.05, 275.70
381.71, 8.21, 277.87
384.20, 7.06, 261.40
384.17, 7.06, 261.58
384.15, 7.07, 261.78
384.12, 7.08, 261.99
384.09, 7.08, 262.21
384.05, 7.09, 262.46
384.02, 7.10, 262.71
383.98, 7.11, 262.99
383.94, 7.12, 263.29
383.90, 7.13, 263.62
383.85, 7.14, 263.96
383.73, 7.04, 264.87
383.67, 7.06, 265.31
383.61, 7.08, 265.78
383.54, 7.11, 266.28
383.47, 7.14, 266.84
383.38, 7.18, 267.45
383.30, 7.23, 268.07
383.21, 7.29, 268.74
383.11, 7.35, 269.49
382.99, 7.43, 270.33
382.86, 7.51, 271.29
382.72, 7.61, 272.35
382.56, 7.72, 273.56
382.37, 7.85, 274.96
382.22, 8.03, 276.05
381.97, 8.21, 277.88
384.26, 7.06, 261.41
384.24, 7.06, 261.60
384.21, 7.07, 261.79
384.19, 7.08, 262.00
384.16, 7.08, 262.23
384.13, 7.09, 262.47
384.10, 7.10, 262.73
384.06, 7.11, 263.01
384.03, 7.12, 263.31
383.99, 7.13, 263.63
383.88, 7.02, 264.48
383.83, 7.04, 264.89
383.78, 7.06, 265.33
383.72, 7.08, 265.81
383.66, 7.11, 266.31
383.59, 7.14, 266.86
383.52, 7.18, 267.48
¯383.44, 7.23, 268.10
383.36, 7.29, 268.77
383.27, 7.35, 269.52
383.17, 7.43, 270.35
383.05, 7.51, 271.32
382.92, 7.61, 272.37
382.77, 7.72, 273.58
382.60, 7.85, 274.98
382.37, 8.00, 276.85
382.24, 8.22, 277.89
384.32, 7.06, 261.42
384.30, 7.06, 261.61
384.28, 7.07, 261.80
384.26, 7.07, 262.01
384.23, 7.08, 262.24
384.20, 7.09, 262.48
384.18, 7.10, 262.74
384.15, 7.11, 263.02
384.11, 7.12, 263.32
384.02, 7.01, 264.13
383.98, 7.02, 264.50
383.94, 7.04, 264.91
383.89, 7.06, 265.35
383.84, 7.08, 265.83
383.78, 7.11, 266.33
383.72, 7.14, 266.89
383.65, 7.18, 267.51
383.59, 7.23, 268.12
383.51, 7.29, 268.80
383.43, 7.35, 269.55
383.34, 7.43, 270.38
383.23, 7.51, 271.34
383.12, 7.61, 272.38
382.98, 7.72, 273.59
382.83, 7.86, 275.00
382.62, 8.00, 276.86
382.43, 8.20, 278.58
384.38, 7.06, 261.43
384.37, 7.06, 261.62
384.35, 7.07, 261.81
384.33, 7.07, 262.02
384.30, 7.08, 262.25
384.28, 7.09, 262.49
384.25, 7.10, 262.75
384.23, 7.10, 263.03
384.20, 7.11, 263.34
384.12, 7.01, 264.14
384.08, 7.02, 264.52
384.04, 7.04, 264.93
384.00, 7.05, 265.37
383.95, 7.08, 265.85
¯383.90, 7.11, 266.35
383.85, 7.14, 266.91
383.79, 7.18, 267.53
383.73, 7.23, 268.15
383.66, 7.29, 268.82
383.59, 7.35, 269.58
383.51, 7.43, 270.40
383.41, 7.51, 271.37
383.31, 7.61, 272.40
383.20, 7.73, 273.60
383.06, 7.86, 275.00
382.88, 8.00, 276.86
382.65, 8.18, 279.20
384.45, 7.05, 261.44
384.43, 7.06, 261.62
384.41, 7.07, 261.82
384.40, 7.07, 262.03
384.38, 7.08, 262.26
384.36, 7.09, 262.50
384.33, 7.09, 262.77
384.31, 7.10, 263.05
384.24, 6.99, 263.82
384.22, 7.01, 264.16
384.18, 7.02, 264.53
384.15, 7.04, 264.94
384.11, 7.05, 265.39
384.07, 7.08, 265.87
384.03, 7.11, 266.37
383.98, 7.14, 266.93
383.93, 7.17, 267.56
383.87, 7.23, 268.17
383.82, 7.28, 268.85
383.75, 7.35, 269.61
383.68, 7.43, 270.42
383.60, 7.51, 271.39
383.51, 7.61, 272.41
383.41, 7.73, 273.61
383.29, 7.86, 275.00
383.13, 8.01, 276.86
382.93, 8.18, 279.21
384.51, 7.05, 261.45
384.50, 7.06, 261.63
384.48, 7.07, 261.83
384.47, 7.07, 262.04
384.45, 7.08, 262.27
384.43, 7.09, 262.52
384.41, 7.09, 262.78
384.36, 6.98, 263.51
384.34, 6.99, 263.83
384.31, 7.00, 264.18
384.28, 7.02, 264.55
¯384.25, 7.03, 264.96
384.22, 7.05, 265.41
384.19, 7.08, 265.89
384.15, 7.10, 266.39
384.11, 7.14, 266.95
384.06, 7.17, 267.58
384.02, 7.23, 268.19
383.97, 7.28, 268.87
383.91, 7.35, 269.63
383.85, 7.43, 270.45
383.78, 7.51, 271.42
383.71, 7.61, 272.43
383.62, 7.73, 273.63
383.52, 7.86, 275.00
383.38, 8.01, 276.86
383.21, 8.18, 279.23
384.57, 7.05, 261.45
384.56, 7.06, 261.64
384.55, 7.07, 261.84
384.54, 7.07, 262.05
384.52, 7.08, 262.28
384.51, 7.08, 262.52
384.49, 7.09, 262.79
384.45, 6.98, 263.53
384.43, 6.99, 263.84
384.41, 7.00, 264.19
384.38, 7.02, 264.56
384.36, 7.03, 264.98
384.33, 7.05, 265.43
384.30, 7.07, 265.90
384.27, 7.10, 266.41
384.24, 7.14, 266.97
384.20, 7.17, 267.60
384.16, 7.22, 268.21
384.12, 7.28, 268.90
384.08, 7.35, 269.66
384.03, 7.43, 270.48
383.97, 7.51, 271.44
383.91, 7.61, 272.45
383.83, 7.73, 273.64
383.75, 7.86, 275.00
383.64, 8.01, 276.85
383.49, 8.18, 279.25
384.63, 7.05, 261.46
384.63, 7.06, 261.65
384.62, 7.06, 261.85
384.61, 7.07, 262.06
384.60, 7.08, 262.29
384.58, 7.08, 262.53
384.55, 6.97, 263.23
384.54, 6.98, 263.54
¯384.52, 6.99, 263.86
384.50, 7.00, 264.20
384.49, 7.02, 264.58
384.47, 7.03, 264.99
384.44, 7.05, 265.44
384.42, 7.07, 265.92
384.40, 7.10, 266.43
384.37, 7.13, 266.99
384.34, 7.17, 267.62
384.31, 7.22, 268.23
384.27, 7.28, 268.92
384.24, 7.35, 269.68
384.20, 7.43, 270.50
384.15, 7.51, 271.46
384.10, 7.62, 272.47
384.04, 7.73, 273.65
383.98, 7.87, 275.00
383.89, 8.01, 276.85
383.77, 8.18, 279.27
384.70, 7.05, 261.47
384.69, 7.06, 261.65
384.68, 7.06, 261.85
384.68, 7.07, 262.07
384.67, 7.08, 262.29
384.64, 6.96, 262.96
384.63, 6.97, 263.24
384.62, 6.97, 263.55
384.61, 6.99, 263.87
384.60, 7.00, 264.21
384.59, 7.01, 264.59
384.57, 7.03, 265.00
384.55, 7.05, 265.46
384.54, 7.07, 265.93
384.52, 7.10, 266.45
384.50, 7.13, 267.01
384.48, 7.17, 267.63
384.45, 7.22, 268.25
384.43, 7.28, 268.94
384.40, 7.35, 269.70
384.37, 7.43, 270.53
384.34, 7.51, 271.48
384.30, 7.62, 272.48
384.26, 7.73, 273.66
384.21, 7.87, 275.00
384.14, 8.01, 276.84
384.05, 8.18, 279.28
384.76, 7.05, 261.47
384.76, 7.06, 261.66
384.75, 7.06, 261.86
384.75, 7.07, 262.07
384.74, 7.08, 262.30
¯384.73, 6.96, 262.97
384.72, 6.97, 263.25
384.71, 6.97, 263.55
384.70, 6.99, 263.88
384.70, 7.00, 264.22
384.69, 7.01, 264.60
384.68, 7.03, 265.02
384.67, 7.05, 265.47
384.66, 7.07, 265.95
384.64, 7.10, 266.46
384.63, 7.13, 267.03
384.61, 7.17, 267.65
384.60, 7.22, 268.27
384.58, 7.28, 268.96
384.56, 7.35, 269.72
384.54, 7.42, 270.55
384.52, 7.51, 271.49
384.50, 7.62, 272.50
384.47, 7.73, 273.67
384.44, 7.87, 275.00
384.39, 8.02, 276.84
384.33, 8.19, 279.30
384.82, 7.05, 261.48
384.82, 7.06, 261.66
384.82, 7.06, 261.86
384.82, 7.07, 262.08
384.81, 6.95, 262.71
384.81, 6.96, 262.97
384.80, 6.96, 263.25
384.80, 6.97, 263.56
384.80, 6.98, 263.88
384.79, 7.00, 264.23
384.79, 7.01, 264.61
384.78, 7.03, 265.03
384.78, 7.04, 265.48
384.77, 7.07, 265.96
384.77, 7.10, 266.47
384.76, 7.13, 267.04
384.75, 7.17, 267.67
384.75, 7.22, 268.29
384.74, 7.28, 268.98
384.73, 7.35, 269.74
384.72, 7.42, 270.57
384.71, 7.51, 271.51
384.70, 7.62, 272.52
384.68, 7.73, 273.68
384.67, 7.87, 275.00
384.64, 8.02, 276.83
384.61, 8.19, 279.32
384.89, 7.05, 261.48
384.89, 7.05, 261.67
¯384.89, 7.06, 261.87
384.89, 6.94, 262.47
384.89, 6.95, 262.72
384.89, 6.95, 262.98
384.89, 6.96, 263.26
384.89, 6.97, 263.57
384.89, 6.98, 263.89
384.89, 7.00, 264.24
384.89, 7.01, 264.62
384.89, 7.03, 265.04
384.89, 7.04, 265.50
384.89, 7.07, 265.97
384.89, 7.10, 266.49
384.89, 7.13, 267.06
384.89, 7.17, 267.68
384.89, 7.22, 268.30
384.89, 7.28, 269.00
384.89, 7.34, 269.76
384.89, 7.42, 270.59
384.89, 7.51, 271.52
384.89, 7.62, 272.52
384.89, 7.73, 273.68
384.89, 7.87, 275.01
384.89, 8.02, 276.82
384.90, 8.19, 279.33
384.95, 7.05, 261.48
384.95, 7.05, 261.67
384.96, 7.06, 261.87
384.96, 6.94, 262.47
384.97, 6.95, 262.72
384.97, 6.95, 262.98
384.98, 6.96, 263.27
384.98, 6.97, 263.57
384.98, 6.98, 263.90
384.99, 6.99, 264.25
384.99, 7.01, 264.63
385.00, 7.02, 265.05
385.00, 7.04, 265.51
385.01, 7.07, 265.98
385.02, 7.09, 266.50
385.02, 7.13, 267.07
385.03, 7.16, 267.69
385.04, 7.22, 268.32
385.05, 7.28, 269.01
385.06, 7.34, 269.77
385.07, 7.42, 270.60
385.08, 7.51, 271.53
385.09, 7.63, 272.37
385.11, 7.74, 273.68
385.12, 7.87, 275.02
385.15, 8.02, 276.81
¯385.18, 8.19, 279.31
385.02, 7.05, 261.49
385.02, 7.05, 261.67
385.03, 6.93, 262.25
385.04, 6.94, 262.48
385.05, 6.94, 262.72
385.05, 6.95, 262.99
385.06, 6.96, 263.27
385.07, 6.97, 263.58
385.08, 6.98, 263.91
385.09, 6.99, 264.26
385.09, 7.01, 264.64
385.11, 7.02, 265.06
385.12, 7.04, 265.52
385.13, 7.06, 265.99
385.14, 7.09, 266.51
385.16, 7.12, 267.08
385.17, 7.16, 267.71
385.19, 7.22, 268.33
385.20, 7.27, 269.03
385.22, 7.34, 269.78
385.24, 7.42, 270.61
385.27, 7.51, 271.54
385.28, 7.64, 272.21
385.32, 7.74, 273.68
385.35, 7.87, 275.03
385.40, 8.02, 276.80
385.46, 8.19, 279.29
385.28, 8.81, 272.27
385.28, 9.01, 272.28
385.28, 9.20, 272.28
385.08, 7.05, 261.49
385.09, 7.05, 261.67
385.11, 6.93, 262.25
385.12, 6.94, 262.48
385.13, 6.94, 262.73
385.14, 6.95, 262.99
385.15, 6.96, 263.28
385.16, 6.97, 263.58
385.17, 6.98, 263.91
385.18, 6.99, 264.26
385.20, 7.01, 264.64
385.21, 7.02, 265.06
385.23, 7.04, 265.52
385.25, 7.06, 266.00
385.27, 7.09, 266.52
385.29, 7.12, 267.09
385.31, 7.16, 267.72
385.33, 7.21, 268.34
385.36, 7.27, 269.04
385.39, 7.34, 269.80
¯385.42, 7.42, 270.62
385.45, 7.51, 271.55
385.47, 7.66, 272.05
385.48, 7.83, 272.38
385.58, 7.87, 275.03
385.65, 8.02, 276.79
385.74, 8.19, 279.28
385.48, 8.81, 272.40
385.47, 9.01, 272.12
385.48, 9.21, 272.40
385.14, 7.05, 261.49
385.17, 6.92, 262.04
385.18, 6.93, 262.25
385.19, 6.94, 262.48
385.20, 6.94, 262.73
385.22, 6.95, 262.99
385.23, 6.96, 263.28
385.25, 6.97, 263.59
385.26, 6.98, 263.91
385.28, 6.99, 264.27
385.30, 7.00, 264.65
385.32, 7.02, 265.07
385.34, 7.04, 265.53
385.37, 7.06, 266.01
385.37, 7.18, 266.00
385.37, 7.30, 266.01
385.37, 7.42, 266.07
385.41, 7.42, 266.92
385.52, 7.27, 269.06
385.55, 7.34, 269.81
385.59, 7.42, 270.63
385.64, 7.51, 271.56
385.66, 7.66, 271.98
385.68, 7.83, 272.40
385.81, 7.87, 275.03
385.90, 8.03, 276.78
386.02, 8.19, 279.26
385.69, 8.81, 272.61
385.68, 9.01, 272.57
385.68, 9.21, 272.61
385.23, 6.92, 261.84
385.24, 6.92, 262.04
385.25, 6.93, 262.25
385.27, 6.93, 262.48
385.28, 6.94, 262.73
385.30, 6.95, 263.00
385.32, 6.96, 263.28
385.34, 6.96, 263.59
385.36, 6.97, 263.92
385.38, 6.99, 264.27
385.37, 7.14, 264.07
¯385.37, 7.23, 264.08
385.37, 7.33, 264.09
385.37, 7.42, 264.16
385.40, 7.42, 264.71
385.51, 7.23, 266.44
385.56, 7.23, 267.25
385.63, 7.21, 268.37
385.67, 7.27, 269.07
385.72, 7.34, 269.83
385.77, 7.42, 270.64
385.83, 7.51, 271.57
385.86, 7.65, 272.15
385.96, 7.74, 273.65
386.04, 7.87, 275.04
386.15, 8.03, 276.76
386.30, 8.20, 279.25
385.88, 9.01, 272.54
385.30, 6.92, 261.84
385.31, 6.92, 262.04
385.33, 6.93, 262.25
385.34, 6.93, 262.49
385.36, 6.94, 262.73
385.38, 6.95, 263.00
385.40, 6.95, 263.28
385.43, 6.96, 263.59
385.45, 6.97, 263.92
385.46, 7.05, 264.03
385.46, 7.15, 264.03
385.46, 7.25, 264.03
385.50, 7.23, 264.57
385.54, 7.23, 265.11
385.58, 7.23, 265.73
385.64, 7.23, 266.43
385.70, 7.23, 267.25
385.74, 7.29, 267.83
385.83, 7.27, 269.08
385.89, 7.34, 269.84
385.95, 7.42, 270.65
386.02, 7.51, 271.58
386.07, 7.63, 272.33
386.17, 7.74, 273.64
386.27, 7.87, 275.04
386.40, 8.03, 276.77
386.58, 8.20, 279.23
385.36, 6.91, 261.84
385.38, 6.92, 262.04
385.40, 6.92, 262.25
385.42, 6.93, 262.48
385.44, 6.94, 262.73
385.47, 6.94, 263.00
385.49, 6.95, 263.28
¯385.52, 6.96, 263.59
385.54, 6.97, 263.92
385.55, 7.04, 264.03
385.55, 7.14, 264.03
385.56, 7.23, 264.08
385.60, 7.23, 264.56
385.65, 7.23, 265.11
385.70, 7.23, 265.72
385.74, 7.28, 266.16
385.76, 7.36, 266.45
385.80, 7.42, 266.91
385.99, 7.26, 269.09
386.06, 7.33, 269.85
386.13, 7.42, 270.66
386.20, 7.51, 271.58
386.28, 7.62, 272.51
386.38, 7.74, 273.63
386.50, 7.87, 275.03
386.65, 8.03, 276.77
386.86, 8.20, 279.22
385.43, 6.91, 261.83
385.45, 6.92, 262.04
385.47, 6.92, 262.25
385.50, 6.93, 262.48
385.52, 6.94, 262.73
385.55, 6.94, 263.00
385.58, 6.95, 263.28
385.61, 6.96, 263.59
385.64, 6.97, 263.92
385.65, 7.04, 264.03
385.65, 7.14, 264.03
385.65, 7.23, 264.07
385.70, 7.23, 264.56
385.73, 7.27, 264.90
385.76, 7.34, 265.13
385.78, 7.41, 265.37
386.02, 7.15, 267.76
386.08, 7.20, 268.39
386.15, 7.26, 269.10
386.22, 7.33, 269.86
386.30, 7.41, 270.67
386.39, 7.51, 271.59
386.49, 7.62, 272.52
386.59, 7.74, 273.61
386.73, 7.88, 275.02
386.90, 8.03, 276.77
387.14, 8.20, 279.23
385.50, 6.91, 261.83
385.52, 6.92, 262.03
385.55, 6.92, 262.25
385.57, 6.93, 262.48
¯385.60, 6.93, 262.73
385.63, 6.94, 262.99
385.66, 6.95, 263.28
385.70, 6.96, 263.59
385.73, 6.97, 263.92
385.75, 7.04, 264.03
385.74, 7.14, 264.03
385.74, 7.24, 264.03
385.75, 7.33, 264.10
385.77, 7.39, 264.29
385.82, 7.42, 264.69
386.09, 7.11, 267.14
386.16, 7.15, 267.76
386.23, 7.20, 268.40
386.31, 7.26, 269.11
386.39, 7.33, 269.87
386.48, 7.41, 270.68
386.58, 7.50, 271.59
386.69, 7.62, 272.53
386.80, 7.74, 273.60
386.96, 7.88, 275.00
387.16, 8.03, 276.78
387.36, 8.22, 278.64
385.57, 6.91, 261.83
385.59, 6.92, 262.03
385.62, 6.92, 262.25
385.65, 6.93, 262.48
385.68, 6.93, 262.73
385.71, 6.94, 262.99
385.75, 6.95, 263.28
385.79, 6.96, 263.59
385.83, 6.97, 263.92
385.87, 6.98, 264.27
385.92, 6.99, 264.66
385.97, 7.01, 265.08
386.03, 7.02, 265.55
386.09, 7.05, 266.03
386.15, 7.08, 266.56
386.22, 7.11, 267.14
386.30, 7.15, 267.76
386.38, 7.20, 268.40
386.47, 7.26, 269.11
386.56, 7.33, 269.88
386.66, 7.41, 270.69
386.77, 7.50, 271.59
386.89, 7.62, 272.52
387.02, 7.74, 273.58
387.19, 7.88, 274.99
387.22, 8.10, 275.22
387.22, 8.33, 275.22
387.22, 8.56, 275.23
¯387.21, 8.80, 275.23
387.21, 9.03, 275.23
387.21, 9.26, 275.23
385.64, 6.91, 261.82
385.67, 6.91, 262.03
385.69, 6.92, 262.24
385.73, 6.93, 262.47
385.76, 6.93, 262.72
385.80, 6.94, 262.99
385.83, 6.95, 263.28
385.88, 6.95, 263.59
385.92, 6.96, 263.92
385.97, 6.98, 264.27
386.02, 6.99, 264.66
386.08, 7.00, 265.08
386.14, 7.02, 265.55
386.21, 7.05, 266.03
386.28, 7.07, 266.56
386.36, 7.11, 267.14
386.44, 7.14, 267.77
386.53, 7.20, 268.41
386.63, 7.25, 269.12
386.73, 7.32, 269.88
386.84, 7.41, 270.70
386.96, 7.50, 271.59
387.09, 7.62, 272.50
387.23, 7.74, 273.56
387.42, 7.88, 274.97
387.44, 8.10, 275.15
387.44, 8.33, 275.15
387.44, 8.57, 275.15
387.44, 8.80, 275.15
387.44, 9.03, 275.15
387.44, 9.26, 275.15
385.71, 6.91, 261.82
385.74, 6.91, 262.02
385.77, 6.92, 262.24
385.80, 6.92, 262.47
385.84, 6.93, 262.72
385.88, 6.94, 262.98
385.92, 6.94, 263.27
385.97, 6.95, 263.58
386.02, 6.96, 263.91
386.07, 6.97, 264.27
386.13, 6.99, 264.65
386.19, 7.00, 265.08
386.26, 7.02, 265.54
386.33, 7.04, 266.03
386.41, 7.07, 266.56
386.49, 7.10, 267.14
386.59, 7.14, 267.77
¯386.68, 7.19, 268.41
386.79, 7.25, 269.12
386.90, 7.32, 269.88
387.02, 7.41, 270.69
387.15, 7.50, 271.59
387.29, 7.62, 272.49
387.44, 7.74, 273.55
387.65, 7.88, 274.95
387.67, 8.10, 275.07
387.67, 8.34, 275.07
387.66, 8.57, 275.07
387.66, 8.80, 275.07
387.66, 9.03, 275.07
387.66, 9.26, 275.07
385.77, 6.91, 261.81
385.81, 6.91, 262.02
385.84, 6.92, 262.23
385.88, 6.92, 262.46
385.92, 6.93, 262.71
385.96, 6.93, 262.98
386.01, 6.94, 263.27
386.06, 6.95, 263.58
386.11, 6.96, 263.91
386.17, 6.97, 264.26
386.23, 6.99, 264.65
386.30, 7.00, 265.07
386.37, 7.02, 265.54
386.45, 7.04, 266.03
386.54, 7.07, 266.55
386.63, 7.10, 267.14
386.72, 7.15, 267.67
386.72, 7.30, 267.68
386.74, 7.42, 267.85
387.07, 7.32, 269.88
387.20, 7.40, 270.69
387.34, 7.50, 271.59
387.49, 7.62, 272.47
387.65, 7.74, 273.53
387.88, 7.88, 274.93
387.89, 8.11, 274.99
387.89, 8.34, 274.99
387.89, 8.57, 274.99
387.89, 8.80, 274.99
387.88, 9.03, 274.99
387.88, 9.26, 275.00
385.84, 6.90, 261.81
385.88, 6.91, 262.01
385.92, 6.91, 262.23
385.96, 6.92, 262.46
386.00, 6.93, 262.71
386.04, 6.93, 262.97
¯386.09, 6.94, 263.26
386.15, 6.95, 263.57
386.21, 6.96, 263.90
386.27, 6.97, 264.26
386.33, 6.98, 264.64
386.41, 7.00, 265.07
386.49, 7.01, 265.54
386.57, 7.04, 266.02
386.66, 7.07, 266.55
386.72, 7.15, 266.85
386.72, 7.28, 266.85
386.72, 7.41, 266.86
387.11, 7.25, 269.13
387.24, 7.32, 269.88
387.38, 7.40, 270.69
387.54, 7.50, 271.59
387.69, 7.62, 272.45
387.87, 7.74, 273.51
388.11, 7.88, 274.91
388.11, 8.11, 274.91
388.11, 8.34, 274.91
388.11, 8.57, 274.92
388.11, 8.80, 274.92
388.11, 9.03, 274.92
388.10, 9.27, 274.92
385.91, 6.90, 261.80
385.95, 6.91, 262.00
385.99, 6.91, 262.22
386.03, 6.92, 262.45
386.08, 6.92, 262.70
386.13, 6.93, 262.96
386.18, 6.94, 263.25
386.24, 6.95, 263.56
386.30, 6.96, 263.89
386.37, 6.97, 264.25
386.44, 6.98, 264.64
386.52, 7.00, 265.06
386.60, 7.01, 265.53
386.70, 7.04, 266.02
386.72, 7.14, 266.13
386.72, 7.27, 266.14
386.72, 7.39, 266.14
387.07, 7.24, 268.05
387.27, 7.24, 269.13
387.41, 7.31, 269.88
387.56, 7.40, 270.69
387.73, 7.49, 271.59
387.89, 7.61, 272.45
388.08, 7.74, 273.49
388.34, 7.88, 274.89
388.33, 8.11, 274.84
¯388.33, 8.34, 274.84
388.33, 8.57, 274.84
388.33, 8.80, 274.84
388.33, 9.04, 274.84
388.33, 9.27, 274.84
385.98, 6.90, 261.79
386.02, 6.91, 262.00
386.06, 6.91, 262.21
386.11, 6.92, 262.44
386.16, 6.92, 262.69
386.21, 6.93, 262.96
386.27, 6.94, 263.24
386.33, 6.94, 263.55
386.40, 6.95, 263.89
386.47, 6.97, 264.24
386.54, 6.98, 264.63
386.63, 6.99, 265.05
386.72, 7.01, 265.52
386.72, 7.13, 265.50
386.72, 7.25, 265.51
386.72, 7.37, 265.51
387.03, 7.23, 267.11
387.10, 7.32, 267.45
387.17, 7.42, 267.79
387.59, 7.31, 269.89
387.74, 7.40, 270.68
387.92, 7.49, 271.59
388.09, 7.61, 272.45
388.29, 7.74, 273.46
388.57, 7.88, 274.87
388.63, 8.10, 275.18
388.63, 8.33, 275.17
388.63, 8.57, 275.15
388.62, 8.80, 275.13
388.62, 9.04, 275.12
388.61, 9.27, 275.10
386.05, 6.90, 261.78
386.09, 6.90, 261.99
386.14, 6.91, 262.20
386.18, 6.92, 262.43
386.24, 6.92, 262.68
386.29, 6.93, 262.95
386.35, 6.93, 263.23
386.42, 6.94, 263.55
386.49, 6.95, 263.88
386.57, 6.96, 264.23
386.65, 6.98, 264.62
386.74, 6.99, 265.05
386.72, 7.13, 264.95
386.72, 7.24, 264.95
386.72, 7.35, 264.95
¯387.00, 7.23, 266.28
387.09, 7.29, 266.72
387.13, 7.40, 266.89
387.37, 7.38, 268.03
387.76, 7.31, 269.89
387.93, 7.39, 270.68
388.12, 7.49, 271.58
388.30, 7.61, 272.45
388.51, 7.74, 273.44
388.80, 7.88, 274.84
389.16, 8.04, 276.51
389.25, 8.27, 276.94
389.24, 8.53, 276.92
389.24, 8.79, 276.90
389.23, 9.05, 276.88
389.22, 9.30, 276.86
386.12, 6.90, 261.77
386.16, 6.90, 261.98
386.21, 6.91, 262.19
386.26, 6.91, 262.42
386.32, 6.92, 262.67
386.38, 6.93, 262.94
386.44, 6.93, 263.22
386.51, 6.94, 263.53
386.58, 6.95, 263.87
386.66, 6.96, 264.22
386.75, 6.97, 264.61
386.72, 7.12, 264.45
386.72, 7.23, 264.46
386.72, 7.33, 264.46
386.74, 7.42, 264.56
387.08, 7.26, 266.09
387.11, 7.36, 266.24
387.37, 7.33, 267.36
387.37, 7.47, 267.36
387.93, 7.31, 269.88
388.11, 7.39, 270.68
388.31, 7.49, 271.58
388.51, 7.61, 272.45
388.72, 7.75, 273.39
389.04, 7.88, 274.82
389.39, 8.04, 276.41
390.03, 8.20, 279.23
386.18, 6.90, 261.76
386.23, 6.90, 261.97
386.28, 6.91, 262.18
386.34, 6.91, 262.41
386.40, 6.92, 262.66
386.46, 6.92, 262.93
386.53, 6.93, 263.21
386.60, 6.94, 263.52
¯386.68, 6.95, 263.86
386.76, 6.96, 264.21
386.78, 7.05, 264.27
386.74, 7.19, 264.12
386.74, 7.29, 264.12
386.74, 7.40, 264.12
387.07, 7.24, 265.52
387.10, 7.33, 265.65
387.16, 7.42, 265.88
387.37, 7.41, 266.76
387.37, 7.55, 266.76
388.11, 7.30, 269.88
388.30, 7.39, 270.68
388.51, 7.49, 271.57
388.71, 7.61, 272.42
388.90, 7.75, 273.24
389.27, 7.88, 274.79
389.63, 8.04, 276.32
390.32, 8.20, 279.23
386.25, 6.89, 261.75
386.30, 6.90, 261.96
386.36, 6.90, 262.17
386.41, 6.91, 262.40
386.48, 6.92, 262.65
386.54, 6.92, 262.91
386.61, 6.93, 263.20
386.69, 6.94, 263.51
386.77, 6.95, 263.84
386.84, 6.98, 264.12
386.84, 7.08, 264.12
386.84, 7.19, 264.12
386.91, 7.23, 264.38
387.04, 7.23, 264.91
387.09, 7.30, 265.13
387.13, 7.40, 265.26
387.37, 7.36, 266.22
387.37, 7.49, 266.22
387.73, 7.42, 267.69
387.78, 7.54, 267.86
388.48, 7.38, 270.68
388.70, 7.48, 271.55
388.88, 7.62, 272.28
389.08, 7.76, 273.09
389.50, 7.88, 274.76
389.88, 8.04, 276.29
390.60, 8.20, 279.17
386.32, 6.89, 261.74
386.37, 6.90, 261.94
386.43, 6.90, 262.16
386.49, 6.91, 262.39
386.56, 6.91, 262.64
¯386.63, 6.92, 262.90
386.70, 6.93, 263.19
386.78, 6.93, 263.50
386.87, 6.94, 263.83
386.94, 6.97, 264.12
386.94, 7.08, 264.12
386.94, 7.18, 264.12
387.01, 7.23, 264.36
387.09, 7.28, 264.66
387.12, 7.37, 264.77
387.37, 7.31, 265.72
387.37, 7.43, 265.73
387.37, 7.56, 265.73
387.75, 7.48, 267.20
388.46, 7.29, 269.88
388.67, 7.38, 270.68
388.89, 7.48, 271.53
389.05, 7.63, 272.15
389.26, 7.77, 272.94
389.73, 7.88, 274.73
390.14, 8.04, 276.27
390.77, 8.22, 278.67
386.39, 6.89, 261.73
386.44, 6.90, 261.93
386.50, 6.90, 262.15
386.57, 6.91, 262.37
386.63, 6.91, 262.62
386.71, 6.92, 262.89
386.79, 6.93, 263.17
386.87, 6.93, 263.48
386.96, 6.94, 263.81
387.05, 6.97, 264.12
387.05, 7.07, 264.12
387.05, 7.18, 264.12
387.08, 7.25, 264.23
387.11, 7.34, 264.34
387.14, 7.42, 264.47
387.37, 7.39, 265.28
387.37, 7.50, 265.28
387.74, 7.42, 266.62
387.77, 7.54, 266.75
388.64, 7.29, 269.87
388.86, 7.38, 270.67
389.09, 7.48, 271.52
389.23, 7.63, 272.02
389.44, 7.78, 272.79
389.94, 7.88, 274.61
390.39, 8.04, 276.24
390.92, 8.23, 278.16
390.94, 9.34, 278.25
386.46, 6.89, 261.72
¯386.51, 6.89, 261.92
386.58, 6.90, 262.13
386.64, 6.90, 262.36
386.71, 6.91, 262.61
386.79, 6.92, 262.87
386.87, 6.92, 263.15
386.96, 6.93, 263.46
387.06, 6.94, 263.79
387.16, 6.95, 264.16
387.27, 6.96, 264.54
387.15, 7.17, 264.12
387.15, 7.27, 264.12
387.15, 7.38, 264.12
387.37, 7.34, 264.87
387.37, 7.45, 264.87
387.37, 7.56, 264.87
387.75, 7.48, 266.21
388.59, 7.21, 269.10
388.81, 7.29, 269.86
389.04, 7.37, 270.66
389.29, 7.48, 271.52
389.43, 7.63, 272.02
389.62, 7.79, 272.65
389.94, 7.93, 273.76
390.64, 8.04, 276.20
391.07, 8.25, 277.70
391.24, 8.51, 278.28
391.24, 8.79, 278.29
391.24, 9.07, 278.29
386.52, 6.89, 261.70
386.58, 6.89, 261.90
386.65, 6.90, 262.12
386.72, 6.90, 262.35
386.79, 6.91, 262.59
386.87, 6.92, 262.85
386.96, 6.92, 263.13
387.05, 6.93, 263.44
387.15, 6.94, 263.77
387.26, 6.95, 264.14
387.38, 6.96, 264.53
387.43, 7.03, 264.71
387.37, 7.19, 264.49
387.37, 7.30, 264.49
387.37, 7.41, 264.49
387.37, 7.51, 264.49
387.74, 7.42, 265.71
387.77, 7.53, 265.83
388.60, 7.28, 268.55
388.99, 7.28, 269.84
389.23, 7.37, 270.64
389.49, 7.47, 271.51
¯389.64, 7.63, 272.01
389.80, 7.79, 272.55
390.04, 7.95, 273.34
390.85, 8.05, 276.02
391.27, 8.25, 277.40
392.06, 8.47, 280.01
386.59, 6.89, 261.69
386.66, 6.89, 261.89
386.72, 6.90, 262.10
386.79, 6.90, 262.33
386.87, 6.91, 262.57
386.95, 6.91, 262.83
387.04, 6.92, 263.12
387.14, 6.93, 263.42
387.24, 6.94, 263.75
387.36, 6.95, 264.11
387.45, 6.98, 264.40
387.37, 7.15, 264.14
387.37, 7.26, 264.14
387.37, 7.36, 264.14
387.37, 7.47, 264.14
387.37, 7.56, 264.17
387.75, 7.47, 265.37
387.38, 7.77, 264.21
387.38, 7.87, 264.21
387.39, 7.97, 264.22
387.49, 8.04, 264.56
389.69, 7.47, 271.51
389.85, 7.62, 272.01
390.02, 7.79, 272.54
390.22, 7.96, 273.19
391.06, 8.05, 275.83
391.48, 8.26, 277.18
392.22, 8.48, 279.52
386.66, 6.88, 261.67
386.73, 6.89, 261.87
386.80, 6.89, 262.08
386.87, 6.90, 262.31
386.95, 6.91, 262.55
387.04, 6.91, 262.81
387.13, 6.92, 263.09
387.23, 6.93, 263.40
387.34, 6.94, 263.73
387.46, 6.95, 264.09
387.44, 7.06, 264.05
387.44, 7.17, 264.05
387.44, 7.27, 264.05
387.44, 7.37, 264.05
387.44, 7.48, 264.05
387.74, 7.42, 264.95
387.48, 7.66, 264.17
¯387.48, 7.77, 264.17
387.48, 7.87, 264.18
387.74, 7.88, 264.95
388.18, 7.84, 266.29
388.42, 7.90, 267.03
390.06, 7.62, 272.00
390.24, 7.78, 272.54
390.43, 7.96, 273.12
391.23, 8.06, 275.55
391.70, 8.27, 276.97
392.37, 8.49, 279.03
386.73, 6.88, 261.65
386.79, 6.89, 261.85
386.87, 6.89, 262.06
386.94, 6.90, 262.29
387.03, 6.91, 262.53
387.12, 6.91, 262.79
387.21, 6.92, 263.07
387.32, 6.93, 263.38
387.43, 6.93, 263.71
387.55, 6.95, 264.05
387.55, 7.05, 264.05
387.55, 7.16, 264.05
387.55, 7.26, 264.05
387.55, 7.37, 264.05
387.71, 7.38, 264.54
387.75, 7.47, 264.65
387.57, 7.67, 264.13
387.57, 7.77, 264.14
387.58, 7.87, 264.14
387.84, 7.88, 264.93
388.45, 7.79, 266.68
390.10, 7.46, 271.49
390.27, 7.61, 272.00
390.46, 7.78, 272.54
390.65, 7.96, 273.11
391.29, 8.09, 274.96
391.91, 8.27, 276.77
392.57, 8.50, 278.69
386.79, 6.88, 261.63
386.86, 6.89, 261.83
386.94, 6.89, 262.04
387.02, 6.90, 262.27
387.11, 6.90, 262.51
387.20, 6.91, 262.77
387.30, 6.92, 263.05
387.41, 6.92, 263.35
387.52, 6.93, 263.68
387.65, 6.94, 264.04
387.66, 7.05, 264.05
387.65, 7.15, 264.05
¯387.65, 7.26, 264.05
387.65, 7.36, 264.05
387.74, 7.42, 264.28
387.77, 7.51, 264.37
388.60, 7.24, 266.69
387.67, 7.77, 264.10
387.67, 7.87, 264.11
387.67, 7.97, 264.11
388.58, 7.79, 266.65
390.30, 7.46, 271.48
390.49, 7.61, 271.99
390.68, 7.78, 272.53
390.88, 7.95, 273.11
391.22, 8.13, 274.07
392.09, 8.28, 276.48
392.71, 8.51, 278.24
386.86, 6.88, 261.61
386.93, 6.89, 261.81
387.01, 6.89, 262.02
387.09, 6.90, 262.25
387.18, 6.90, 262.49
387.28, 6.91, 262.75
387.38, 6.92, 263.03
387.50, 6.92, 263.33
387.62, 6.93, 263.66
387.75, 6.94, 264.02
387.76, 7.04, 264.05
387.76, 7.14, 264.05
387.76, 7.25, 264.05
387.76, 7.36, 264.05
387.76, 7.46, 264.05
387.78, 7.56, 264.10
388.60, 7.30, 266.30
388.63, 7.42, 266.39
389.01, 7.41, 267.42
389.95, 7.24, 269.96
390.21, 7.34, 270.66
390.51, 7.45, 271.46
390.70, 7.61, 271.98
390.90, 7.77, 272.53
391.12, 7.95, 273.11
391.46, 8.13, 274.03
392.25, 8.29, 276.17
392.85, 8.51, 277.79
393.54, 8.78, 279.66
386.93, 6.88, 261.59
387.00, 6.88, 261.79
387.08, 6.89, 262.00
387.17, 6.90, 262.22
387.26, 6.90, 262.46
387.36, 6.91, 262.72
¯387.47, 6.91, 263.00
387.58, 6.92, 263.30
387.71, 6.93, 263.63
387.85, 6.94, 263.99
388.00, 6.95, 264.38
388.17, 6.96, 264.82
388.35, 6.97, 265.29
388.55, 6.99, 265.81
388.60, 7.09, 265.94
388.60, 7.22, 265.94
388.60, 7.35, 265.94
388.98, 7.33, 266.94
389.18, 7.40, 267.45
389.18, 7.55, 267.45
388.23, 7.97, 265.01
388.24, 8.08, 265.02
388.24, 8.20, 265.02
391.13, 7.77, 272.52
391.35, 7.95, 273.10
391.70, 8.13, 274.03
392.41, 8.30, 275.87
393.01, 8.52, 277.44
393.66, 8.79, 279.12
386.99, 6.88, 261.57
386.89, 7.05, 261.32
386.89, 7.13, 261.32
386.89, 7.20, 261.32
386.89, 7.27, 261.32
386.89, 7.34, 261.32
386.89, 7.42, 261.32
386.89, 7.49, 261.32
386.90, 7.55, 261.34
387.95, 6.94, 263.96
388.10, 6.95, 264.35
388.27, 6.96, 264.78
388.46, 6.97, 265.26
388.67, 6.98, 265.78
388.60, 7.15, 265.60
388.60, 7.27, 265.60
388.60, 7.40, 265.60
389.00, 7.37, 266.60
388.33, 7.74, 264.93
388.33, 7.86, 264.93
388.33, 7.97, 264.94
388.40, 8.07, 265.13
388.47, 8.17, 265.30
391.35, 7.76, 272.51
391.58, 7.94, 273.10
391.95, 8.12, 274.03
392.57, 8.30, 275.57
393.17, 8.53, 277.08
¯393.79, 8.79, 278.64
386.92, 7.01, 261.21
386.92, 7.08, 261.21
386.92, 7.16, 261.21
386.92, 7.23, 261.21
386.92, 7.30, 261.21
386.92, 7.37, 261.22
386.96, 7.41, 261.31
386.96, 7.48, 261.33
386.97, 7.54, 261.35
388.04, 6.94, 263.93
388.20, 6.94, 264.32
388.38, 6.95, 264.75
388.58, 6.97, 265.23
388.66, 7.05, 265.42
388.60, 7.20, 265.28
388.60, 7.32, 265.28
388.97, 7.29, 266.19
389.01, 7.41, 266.28
388.42, 7.75, 264.86
388.42, 7.86, 264.87
388.42, 7.98, 264.87
388.68, 8.03, 265.50
388.76, 8.13, 265.70
391.58, 7.76, 272.51
391.82, 7.94, 273.10
392.21, 8.12, 274.03
392.73, 8.31, 275.30
393.32, 8.53, 276.72
393.95, 8.79, 278.27
380.57, 6.82, 252.30
380.41, 6.82, 252.13
380.24, 6.82, 251.95
380.09, 6.84, 251.79
379.92, 6.85, 251.61
379.74, 6.86, 251.41
379.77, 6.97, 251.46
379.77, 7.07, 251.46
379.77, 7.16, 251.46
379.77, 7.25, 251.46
379.77, 7.34, 251.46
379.77, 7.44, 251.46
379.77, 7.53, 251.46
379.77, 7.62, 251.46
379.77, 7.71, 251.46
379.77, 7.80, 251.46
379.77, 7.88, 251.46
379.77, 7.97, 251.46
379.77, 8.06, 251.46
379.77, 8.15, 251.46
379.40, 8.18, 251.06
¯378.73, 8.19, 250.35
378.73, 8.29, 250.35
378.73, 8.40, 250.35
378.73, 8.50, 250.35
378.73, 8.61, 250.35
378.73, 8.72, 250.35
378.73, 8.82, 250.35
378.73, 8.93, 250.35
378.73, 9.03, 250.35
378.73, 9.14, 250.35
380.52, 6.82, 252.35
380.36, 6.82, 252.19
380.19, 6.83, 252.01
380.02, 6.83, 251.84
379.85, 6.85, 251.66
379.67, 6.86, 251.47
379.65, 6.95, 251.45
379.65, 7.04, 251.45
379.65, 7.14, 251.45
379.65, 7.23, 251.45
379.65, 7.32, 251.45
379.65, 7.42, 251.45
379.65, 7.51, 251.45
379.65, 7.60, 251.45
379.65, 7.69, 251.45
379.65, 7.78, 251.45
379.65, 7.87, 251.45
379.65, 7.96, 251.45
379.65, 8.05, 251.45
379.65, 8.14, 251.45
379.33, 8.18, 251.12
378.72, 8.20, 250.50
378.72, 8.30, 250.50
378.72, 8.41, 250.50
378.72, 8.51, 250.50
378.72, 8.61, 250.50
378.72, 8.72, 250.50
378.72, 8.82, 250.50
378.72, 8.93, 250.50
378.72, 9.03, 250.50
378.72, 9.14, 250.50
380.47, 6.82, 252.41
380.31, 6.82, 252.24
380.14, 6.83, 252.07
379.96, 6.83, 251.89
379.79, 6.85, 251.71
379.60, 6.86, 251.53
379.53, 6.92, 251.45
379.53, 7.02, 251.45
379.53, 7.12, 251.45
379.53, 7.21, 251.45
¯379.52, 7.30, 251.45
379.52, 7.40, 251.45
379.52, 7.49, 251.45
379.52, 7.58, 251.45
379.52, 7.67, 251.45
379.52, 7.77, 251.45
379.52, 7.86, 251.45
379.52, 7.95, 251.45
379.52, 8.04, 251.45
379.52, 8.13, 251.45
379.26, 8.18, 251.19
378.72, 8.20, 250.64
378.72, 8.31, 250.64
378.72, 8.41, 250.64
378.72, 8.52, 250.64
378.72, 8.62, 250.64
378.72, 8.72, 250.64
378.72, 8.82, 250.64
378.72, 8.93, 250.64
378.72, 9.03, 250.64
378.72, 9.13, 250.64
380.43, 6.82, 252.46
380.26, 6.83, 252.30
380.09, 6.83, 252.13
379.90, 6.83, 251.94
379.72, 6.84, 251.77
379.53, 6.86, 251.58
379.40, 6.90, 251.45
379.40, 7.00, 251.45
379.40, 7.09, 251.45
379.40, 7.19, 251.45
379.40, 7.28, 251.45
379.40, 7.38, 251.45
379.40, 7.47, 251.45
379.40, 7.56, 251.45
379.40, 7.66, 251.45
379.40, 7.75, 251.45
379.40, 7.84, 251.45
379.40, 7.93, 251.45
379.40, 8.03, 251.45
379.39, 8.12, 251.45
379.20, 8.18, 251.26
378.72, 8.21, 250.78
378.72, 8.32, 250.79
378.72, 8.42, 250.79
378.72, 8.52, 250.79
378.72, 8.62, 250.79
378.72, 8.72, 250.79
378.72, 8.83, 250.79
378.72, 8.93, 250.79
378.72, 9.03, 250.79
¯378.72, 9.13, 250.79
380.38, 6.83, 252.52
380.21, 6.83, 252.36
380.04, 6.83, 252.19
379.85, 6.83, 252.01
379.66, 6.84, 251.83
379.47, 6.86, 251.64
379.26, 6.87, 251.45
379.26, 6.97, 251.45
379.26, 7.07, 251.45
379.26, 7.16, 251.45
379.26, 7.26, 251.45
379.26, 7.36, 251.45
379.26, 7.45, 251.45
379.26, 7.55, 251.45
379.26, 7.64, 251.45
379.26, 7.73, 251.45
379.26, 7.83, 251.45
379.26, 7.92, 251.45
379.26, 8.01, 251.45
379.26, 8.11, 251.45
379.13, 8.18, 251.32
378.72, 8.22, 250.92
378.72, 8.32, 250.92
378.72, 8.42, 250.92
378.72, 8.53, 250.92
378.72, 8.63, 250.92
378.72, 8.73, 250.92
378.72, 8.83, 250.92
378.72, 8.93, 250.92
378.72, 9.03, 250.93
378.72, 9.13, 250.93
380.33, 6.83, 252.57
380.16, 6.83, 252.42
379.99, 6.83, 252.25
379.79, 6.83, 252.07
379.60, 6.84, 251.88
379.40, 6.85, 251.70
379.19, 6.87, 251.51
379.13, 6.94, 251.45
379.13, 7.04, 251.45
379.13, 7.14, 251.45
379.13, 7.24, 251.45
379.13, 7.33, 251.45
379.13, 7.43, 251.45
379.13, 7.53, 251.45
379.13, 7.62, 251.45
379.13, 7.72, 251.45
379.13, 7.81, 251.45
379.13, 7.91, 251.45
379.13, 8.00, 251.45
¯379.13, 8.10, 251.45
379.07, 8.18, 251.39
378.72, 8.23, 251.06
378.72, 8.33, 251.06
378.72, 8.43, 251.06
378.72, 8.53, 251.06
378.72, 8.63, 251.06
378.72, 8.73, 251.06
378.72, 8.83, 251.06
378.72, 8.93, 251.06
378.72, 9.03, 251.06
378.72, 9.13, 251.06
380.29, 6.83, 252.63
380.12, 6.83, 252.47
379.94, 6.83, 252.31
379.74, 6.83, 252.13
379.53, 6.84, 251.94
379.34, 6.85, 251.76
379.13, 6.87, 251.57
378.99, 6.91, 251.44
378.99, 7.01, 251.44
378.99, 7.11, 251.44
378.99, 7.21, 251.44
378.99, 7.31, 251.44
378.99, 7.41, 251.44
378.99, 7.51, 251.44
378.99, 7.60, 251.44
378.99, 7.70, 251.44
378.99, 7.80, 251.44
378.99, 7.89, 251.44
378.99, 7.99, 251.44
378.99, 8.08, 251.44
378.99, 8.18, 251.44
378.69, 8.24, 251.17
378.69, 8.33, 251.17
378.69, 8.43, 251.17
378.69, 8.53, 251.17
378.69, 8.63, 251.17
378.69, 8.73, 251.17
378.69, 8.83, 251.17
378.69, 8.93, 251.17
378.69, 9.03, 251.17
378.69, 9.13, 251.17
380.24, 6.83, 252.68
380.07, 6.83, 252.53
379.89, 6.83, 252.37
379.69, 6.84, 252.19
379.48, 6.84, 252.01
379.27, 6.85, 251.82
379.06, 6.86, 251.63
378.83, 6.88, 251.43
¯378.59, 6.90, 251.21
378.54, 6.99, 251.17
378.54, 7.09, 251.17
378.54, 7.20, 251.17
378.54, 7.30, 251.17
378.54, 7.41, 251.17
378.54, 7.51, 251.17
378.54, 7.61, 251.17
378.54, 7.72, 251.17
378.54, 7.82, 251.17
378.54, 7.92, 251.17
378.54, 8.02, 251.17
378.54, 8.12, 251.17
378.54, 8.23, 251.17
378.54, 8.33, 251.17
378.54, 8.43, 251.17
378.54, 8.53, 251.17
378.54, 8.63, 251.17
378.54, 8.73, 251.17
378.54, 8.83, 251.17
378.54, 8.93, 251.17
378.54, 9.03, 251.17
378.54, 9.13, 251.17
380.41, 6.93, 252.92
380.41, 7.01, 252.92
380.41, 7.09, 252.92
380.41, 7.16, 252.92
380.41, 7.24, 252.92
380.41, 7.31, 252.92
380.41, 7.39, 252.92
380.41, 7.46, 252.92
380.41, 7.54, 252.92
380.41, 7.61, 252.92
380.41, 7.68, 252.93
380.41, 7.75, 252.93
380.40, 7.83, 252.93
380.40, 7.90, 252.93
380.40, 7.97, 252.93
380.40, 8.04, 252.93
380.40, 8.11, 252.93
380.40, 8.18, 252.93
378.59, 7.94, 251.35
378.59, 8.04, 251.35
378.59, 8.14, 251.35
378.38, 8.21, 251.17
378.38, 8.32, 251.17
378.38, 8.42, 251.17
378.38, 8.52, 251.17
378.38, 8.62, 251.17
378.38, 8.72, 251.17
378.38, 8.83, 251.17
¯378.38, 8.93, 251.17
378.38, 9.03, 251.17
378.38, 9.13, 251.17
380.37, 6.94, 252.99
380.37, 7.02, 252.99
380.37, 7.09, 252.99
380.37, 7.17, 252.99
380.37, 7.24, 252.99
380.37, 7.32, 252.99
380.37, 7.39, 252.99
380.37, 7.47, 252.99
380.37, 7.54, 252.99
380.37, 7.61, 252.99
380.37, 7.68, 252.99
380.37, 7.76, 252.99
380.37, 7.83, 252.99
380.37, 7.90, 252.99
380.37, 7.97, 252.99
380.37, 8.04, 252.99
380.37, 8.11, 252.99
380.36, 8.18, 252.98
379.95, 8.18, 252.63
378.59, 8.05, 251.47
378.59, 8.15, 251.47
378.22, 8.20, 251.16
378.22, 8.31, 251.16
378.22, 8.41, 251.16
378.22, 8.51, 251.16
378.22, 8.62, 251.16
378.22, 8.72, 251.16
378.22, 8.82, 251.16
378.22, 8.93, 251.16
378.22, 9.03, 251.16
378.22, 9.13, 251.16
380.34, 6.94, 253.05
380.34, 7.02, 253.05
380.34, 7.10, 253.05
380.34, 7.17, 253.05
380.34, 7.25, 253.05
380.34, 7.32, 253.05
380.34, 7.40, 253.05
380.34, 7.47, 253.05
380.34, 7.54, 253.05
380.34, 7.62, 253.05
380.34, 7.69, 253.05
380.34, 7.76, 253.05
380.34, 7.83, 253.05
380.34, 7.90, 253.05
380.34, 7.97, 253.05
380.34, 8.04, 253.05
380.34, 8.11, 253.05
¯380.32, 8.18, 253.03
379.90, 8.18, 252.69
378.59, 8.06, 251.60
378.59, 8.16, 251.60
378.06, 8.19, 251.16
378.06, 8.30, 251.16
378.06, 8.40, 251.16
378.06, 8.51, 251.16
378.06, 8.61, 251.16
378.06, 8.72, 251.16
378.06, 8.82, 251.16
378.06, 8.93, 251.16
378.06, 9.03, 251.16
378.06, 9.13, 251.16
380.30, 6.95, 253.11
380.30, 7.02, 253.11
380.30, 7.10, 253.11
380.30, 7.18, 253.11
380.30, 7.25, 253.11
380.30, 7.33, 253.11
380.30, 7.40, 253.11
380.30, 7.47, 253.11
380.30, 7.55, 253.11
380.30, 7.62, 253.11
380.30, 7.69, 253.11
380.30, 7.76, 253.11
380.30, 7.83, 253.11
380.30, 7.90, 253.11
380.30, 7.98, 253.11
380.30, 8.05, 253.11
380.30, 8.12, 253.11
380.28, 8.18, 253.09
379.85, 8.18, 252.74
379.34, 8.18, 252.33
378.59, 8.16, 251.72
377.89, 8.18, 251.16
377.89, 8.29, 251.16
377.89, 8.39, 251.16
377.89, 8.50, 251.16
377.89, 8.61, 251.16
377.89, 8.71, 251.16
377.89, 8.82, 251.16
377.89, 8.92, 251.16
377.89, 9.03, 251.16
377.89, 9.14, 251.16
380.27, 6.95, 253.17
380.27, 7.03, 253.17
380.27, 7.10, 253.17
380.27, 7.18, 253.17
380.27, 7.25, 253.17
380.27, 7.33, 253.17
¯380.27, 7.40, 253.17
380.27, 7.48, 253.17
380.27, 7.55, 253.17
380.27, 7.62, 253.17
380.27, 7.69, 253.17
380.27, 7.76, 253.17
380.27, 7.84, 253.17
380.27, 7.91, 253.17
380.27, 7.98, 253.17
380.27, 8.05, 253.17
380.27, 8.12, 253.17
380.23, 8.18, 253.14
379.81, 8.18, 252.80
379.29, 8.18, 252.40
378.58, 8.17, 251.84
377.72, 8.17, 251.16
377.71, 8.27, 251.15
377.71, 8.38, 251.15
377.71, 8.49, 251.15
377.71, 8.60, 251.15
377.71, 8.71, 251.15
377.71, 8.82, 251.15
377.71, 8.92, 251.15
377.71, 9.03, 251.15
377.71, 9.14, 251.15
380.24, 6.95, 253.23
380.24, 7.03, 253.23
380.24, 7.11, 253.23
380.24, 7.18, 253.23
380.24, 7.26, 253.23
380.23, 7.33, 253.23
380.23, 7.41, 253.23
380.23, 7.48, 253.23
380.23, 7.55, 253.23
380.23, 7.62, 253.23
380.23, 7.70, 253.23
380.23, 7.77, 253.23
380.23, 7.84, 253.23
380.23, 7.91, 253.23
380.23, 7.98, 253.23
380.23, 8.05, 253.23
380.23, 8.12, 253.23
380.19, 8.18, 253.20
379.76, 8.18, 252.86
379.24, 8.18, 252.46
378.58, 8.18, 251.96
377.78, 8.18, 251.34
377.53, 8.26, 251.15
377.53, 8.37, 251.15
377.53, 8.48, 251.15
377.53, 8.59, 251.15
¯377.53, 8.70, 251.15
377.53, 8.81, 251.15
377.53, 8.92, 251.15
377.53, 9.03, 251.15
377.53, 9.14, 251.15
380.20, 6.96, 253.29
380.20, 7.03, 253.29
380.20, 7.11, 253.29
380.20, 7.19, 253.29
380.20, 7.26, 253.29
380.20, 7.33, 253.29
380.20, 7.41, 253.29
380.20, 7.48, 253.29
380.20, 7.55, 253.29
380.20, 7.63, 253.29
380.20, 7.70, 253.29
380.20, 7.77, 253.29
380.20, 7.84, 253.29
380.20, 7.91, 253.29
380.20, 7.98, 253.29
380.20, 8.05, 253.29
380.20, 8.12, 253.29
380.15, 8.18, 253.25
379.71, 8.18, 252.92
378.58, 8.09, 252.07
378.54, 8.18, 252.04
377.71, 8.18, 251.42
377.26, 8.24, 251.08
377.26, 8.36, 251.08
377.26, 8.47, 251.08
377.26, 8.58, 251.08
377.26, 8.70, 251.08
377.26, 8.81, 251.08
377.26, 8.92, 251.08
377.26, 9.03, 251.08
377.26, 9.15, 251.08
380.17, 6.96, 253.35
380.17, 7.04, 253.35
380.17, 7.11, 253.35
380.17, 7.19, 253.35
380.17, 7.26, 253.35
380.17, 7.34, 253.35
380.17, 7.41, 253.35
380.17, 7.48, 253.35
380.17, 7.56, 253.35
380.17, 7.63, 253.35
380.17, 7.70, 253.35
380.17, 7.77, 253.35
380.17, 7.84, 253.35
380.17, 7.91, 253.35
380.17, 7.98, 253.35
¯380.17, 8.05, 253.35
380.17, 8.12, 253.35
380.11, 8.18, 253.31
379.67, 8.18, 252.98
378.58, 8.10, 252.19
378.48, 8.18, 252.12
377.65, 8.18, 251.51
377.10, 8.23, 251.11
377.10, 8.35, 251.11
377.10, 8.46, 251.11
377.10, 8.58, 251.11
377.10, 8.69, 251.11
377.10, 8.81, 251.11
377.10, 8.92, 251.11
377.10, 9.03, 251.11
377.10, 9.15, 251.11
380.13, 6.96, 253.41
380.13, 7.04, 253.41
380.13, 7.12, 253.41
380.13, 7.19, 253.41
380.13, 7.26, 253.41
380.13, 7.34, 253.41
380.13, 7.41, 253.41
380.13, 7.48, 253.41
380.13, 7.56, 253.41
380.13, 7.63, 253.41
380.13, 7.70, 253.41
380.13, 7.77, 253.41
380.13, 7.84, 253.41
380.13, 7.91, 253.41
380.13, 7.98, 253.41
380.13, 8.05, 253.41
380.13, 8.12, 253.41
380.07, 8.18, 253.36
379.63, 8.18, 253.05
378.58, 8.11, 252.30
378.43, 8.18, 252.19
377.59, 8.18, 251.60
376.94, 8.22, 251.13
376.94, 8.34, 251.13
376.94, 8.46, 251.13
376.94, 8.57, 251.13
376.94, 8.69, 251.13
376.94, 8.80, 251.13
376.94, 8.92, 251.13
376.94, 9.04, 251.13
376.94, 9.15, 251.13
380.10, 6.97, 253.47
380.10, 7.04, 253.47
380.10, 7.12, 253.47
380.10, 7.19, 253.47
¯380.10, 7.27, 253.47
380.10, 7.34, 253.47
380.10, 7.41, 253.47
380.10, 7.49, 253.47
380.10, 7.56, 253.47
380.10, 7.63, 253.47
380.10, 7.70, 253.47
380.10, 7.77, 253.47
380.10, 7.84, 253.47
380.10, 7.91, 253.47
380.10, 7.98, 253.47
380.10, 8.05, 253.47
380.10, 8.12, 253.47
380.03, 8.18, 253.42
379.58, 8.18, 253.11
378.58, 8.11, 252.41
378.38, 8.18, 252.27
377.53, 8.18, 251.68
376.78, 8.21, 251.16
376.78, 8.33, 251.16
376.78, 8.45, 251.16
376.78, 8.57, 251.16
376.78, 8.68, 251.16
376.78, 8.80, 251.16
376.78, 8.92, 251.16
376.78, 9.04, 251.16
376.78, 9.15, 251.16
380.07, 6.97, 253.52
380.07, 7.04, 253.52
380.07, 7.12, 253.52
380.07, 7.19, 253.52
380.07, 7.27, 253.52
380.07, 7.34, 253.52
380.07, 7.42, 253.52
380.07, 7.49, 253.52
380.07, 7.56, 253.52
380.07, 7.63, 253.52
380.07, 7.70, 253.52
380.07, 7.77, 253.53
380.07, 7.85, 253.53
380.07, 7.92, 253.53
380.07, 7.99, 253.53
380.07, 8.05, 253.53
380.07, 8.12, 253.53
379.99, 8.18, 253.48
379.54, 8.18, 253.17
378.57, 8.12, 252.52
378.32, 8.18, 252.35
377.47, 8.18, 251.77
376.61, 8.20, 251.19
376.61, 8.32, 251.19
¯376.61, 8.44, 251.19
376.61, 8.56, 251.19
376.61, 8.68, 251.19
376.61, 8.80, 251.19
376.61, 8.92, 251.19
376.61, 9.04, 251.19
376.61, 9.16, 251.19
380.03, 6.97, 253.58
380.03, 7.05, 253.58
380.03, 7.12, 253.58
380.03, 7.20, 253.58
380.03, 7.27, 253.58
380.03, 7.34, 253.58
380.03, 7.42, 253.58
380.03, 7.49, 253.58
380.03, 7.56, 253.58
380.03, 7.63, 253.58
380.03, 7.70, 253.58
380.03, 7.78, 253.58
380.03, 7.85, 253.58
380.03, 7.92, 253.58
380.03, 7.99, 253.58
380.03, 8.06, 253.58
380.03, 8.12, 253.58
379.96, 8.18, 253.53
379.50, 8.18, 253.23
378.46, 8.11, 252.55
378.27, 8.18, 252.43
377.41, 8.18, 251.86
376.44, 8.19, 251.22
376.44, 8.32, 251.22
376.43, 8.44, 251.22
376.43, 8.56, 251.22
376.43, 8.68, 251.22
376.43, 8.80, 251.22
376.43, 8.92, 251.22
376.43, 9.04, 251.22
376.43, 9.16, 251.22
380.00, 6.97, 253.64
380.00, 7.05, 253.64
380.00, 7.12, 253.64
380.00, 7.20, 253.64
380.00, 7.27, 253.64
