žVERSION 0.7
FIELDS x y z
SIZE 8 8 8
TYPE F F F
COUNT 1 1 1
WIDTH 2271
HEIGHT 1
VIEWPOINT 411.59, 7.44, 364.81 1 431.22, 5.67, 358.75
POINTS 2271
DATA ascii
429.58, 4.93, 343.20
429.57, 5.09, 341.67
429.56, 5.29, 339.86
429.54, 5.53, 338.07
429.52, 5.81, 336.26
429.57, 3.92, 353.35
429.56, 3.95, 353.16
429.56, 3.97, 352.95
429.56, 4.00, 352.74
429.55, 4.03, 352.51
429.55, 4.05, 352.25
429.54, 4.08, 351.97
¯429.54, 4.12, 351.68
429.53, 4.15, 351.34
429.52, 4.19, 350.97
429.52, 4.23, 350.56
429.51, 4.27, 350.11
429.50, 4.32, 349.59
429.49, 4.37, 349.02
429.48, 4.43, 348.37
429.47, 4.50, 347.64
429.45, 4.58, 346.79
429.44, 4.67, 345.79
429.42, 4.78, 344.68
429.39, 4.91, 343.38
429.37, 5.07, 341.88
429.33, 5.26, 340.10
429.29, 5.49, 338.24
429.25, 5.77, 336.45
429.19, 6.09, 334.73
429.50, 3.92, 353.37
429.50, 3.94, 353.18
429.49, 3.97, 352.98
429.48, 3.99, 352.77
429.48, 4.02, 352.54
429.47, 4.05, 352.28
429.46, 4.08, 352.01
429.45, 4.11, 351.72
429.44, 4.14, 351.38
429.43, 4.18, 351.03
429.42, 4.22, 350.62
429.40, 4.26, 350.18
429.39, 4.31, 349.67
429.37, 4.36, 349.11
429.35, 4.42, 348.47
429.33, 4.49, 347.76
429.31, 4.57, 346.92
429.28, 4.65, 345.93
429.25, 4.76, 344.83
429.21, 4.89, 343.55
429.16, 5.04, 342.10
429.11, 5.23, 340.34
429.05, 5.46, 338.42
428.96, 5.74, 335.86
428.91, 6.04, 335.30
429.44, 3.92, 353.40
429.43, 3.94, 353.21
429.42, 3.96, 353.00
429.41, 3.99, 352.80
429.40, 4.02, 352.57
429.39, 4.04, 352.32
429.38, 4.07, 352.05
429.36, 4.11, 351.76
¯429.35, 4.14, 351.43
429.34, 4.18, 351.08
429.32, 4.22, 350.68
429.30, 4.26, 350.24
429.28, 4.30, 349.75
429.26, 4.36, 349.20
429.23, 4.41, 348.57
429.20, 4.48, 347.87
429.17, 4.56, 347.04
429.13, 4.64, 346.08
429.08, 4.75, 344.99
429.03, 4.87, 343.72
428.97, 5.02, 342.31
428.89, 5.20, 340.58
428.80, 5.42, 338.63
428.69, 5.70, 335.92
428.63, 5.99, 335.36
428.57, 6.31, 334.65
429.37, 3.91, 353.42
429.36, 3.94, 353.24
429.35, 3.96, 353.03
429.34, 3.99, 352.82
429.33, 4.01, 352.60
429.31, 4.04, 352.35
429.30, 4.07, 352.09
429.28, 4.10, 351.80
429.26, 4.13, 351.48
429.24, 4.17, 351.13
429.22, 4.21, 350.74
429.20, 4.25, 350.31
429.17, 4.30, 349.83
429.14, 4.35, 349.28
429.11, 4.41, 348.67
429.07, 4.47, 347.98
429.03, 4.54, 347.17
428.98, 4.63, 346.23
428.92, 4.73, 345.16
428.85, 4.85, 343.91
428.77, 5.00, 342.50
428.68, 5.17, 340.81
428.53, 5.39, 337.82
428.42, 5.66, 336.07
428.35, 5.95, 335.42
428.28, 6.26, 334.83
429.31, 3.91, 353.44
429.30, 3.93, 353.26
429.28, 3.96, 353.06
429.27, 3.98, 352.85
429.25, 4.01, 352.64
429.24, 4.04, 352.39
429.22, 4.07, 352.13
¯429.20, 4.10, 351.85
429.18, 4.13, 351.53
429.15, 4.17, 351.19
429.13, 4.20, 350.81
429.10, 4.25, 350.38
429.07, 4.29, 349.90
429.03, 4.34, 349.37
428.99, 4.40, 348.77
428.95, 4.46, 348.09
428.89, 4.53, 347.30
428.83, 4.62, 346.38
428.76, 4.71, 345.33
428.68, 4.83, 344.10
428.59, 4.97, 342.70
428.47, 5.14, 341.04
428.28, 5.35, 338.00
428.15, 5.62, 336.27
428.07, 5.91, 335.48
427.99, 6.22, 334.90
427.92, 6.53, 334.28
429.25, 3.91, 353.46
429.23, 3.93, 353.28
429.21, 3.95, 353.09
429.20, 3.98, 352.88
429.18, 4.00, 352.67
429.16, 4.03, 352.43
429.14, 4.06, 352.17
429.12, 4.09, 351.89
429.09, 4.13, 351.58
429.06, 4.16, 351.24
429.03, 4.20, 350.87
429.00, 4.24, 350.45
428.96, 4.29, 349.98
428.92, 4.33, 349.46
428.88, 4.39, 348.87
428.82, 4.45, 348.20
428.76, 4.52, 347.43
428.69, 4.60, 346.53
428.61, 4.70, 345.49
428.51, 4.81, 344.29
428.40, 4.95, 342.91
428.20, 5.10, 340.05
428.04, 5.32, 338.19
427.89, 5.58, 336.46
427.79, 5.87, 335.54
427.71, 6.17, 334.99
427.63, 6.48, 334.51
427.55, 6.81, 334.00
429.18, 3.90, 353.49
429.17, 3.92, 353.31
429.15, 3.95, 353.11
¯429.13, 3.97, 352.91
429.11, 4.00, 352.70
429.09, 4.03, 352.47
429.06, 4.06, 352.21
429.04, 4.09, 351.93
429.01, 4.12, 351.63
428.98, 4.16, 351.29
428.94, 4.19, 350.93
428.90, 4.23, 350.52
428.86, 4.28, 350.06
428.81, 4.33, 349.54
428.76, 4.38, 348.96
428.70, 4.44, 348.31
428.63, 4.51, 347.56
428.55, 4.59, 346.67
428.46, 4.68, 345.65
428.35, 4.79, 344.47
428.20, 4.92, 342.79
427.99, 5.07, 340.31
427.81, 5.28, 338.44
427.66, 5.54, 336.97
427.53, 5.82, 335.87
427.46, 6.12, 335.44
427.38, 6.42, 334.97
427.29, 6.74, 334.48
429.12, 3.90, 353.51
429.10, 3.92, 353.33
429.08, 3.94, 353.14
429.06, 3.97, 352.94
429.04, 4.00, 352.73
429.01, 4.02, 352.51
428.98, 4.05, 352.25
428.96, 4.08, 351.98
428.92, 4.12, 351.68
428.89, 4.15, 351.35
428.85, 4.19, 350.99
428.81, 4.23, 350.58
428.76, 4.27, 350.12
428.71, 4.32, 349.59
428.65, 4.37, 349.00
428.58, 4.43, 348.37
428.50, 4.50, 347.63
428.41, 4.57, 346.75
428.30, 4.66, 345.61
428.11, 4.73, 343.67
427.97, 4.87, 342.30
427.79, 5.04, 340.58
427.59, 5.25, 338.75
427.46, 5.50, 337.70
427.33, 5.77, 336.73
427.20, 6.07, 335.79
¯427.13, 6.36, 335.41
427.04, 6.67, 334.95
426.95, 7.00, 334.46
429.06, 3.89, 353.53
429.04, 3.92, 353.36
429.01, 3.94, 353.17
428.99, 3.96, 352.97
428.97, 3.99, 352.76
428.94, 4.02, 352.54
428.91, 4.05, 352.29
428.88, 4.08, 352.02
428.84, 4.11, 351.70
428.79, 4.12, 351.26
428.72, 4.10, 350.52
428.67, 4.14, 350.08
428.61, 4.19, 349.60
428.55, 4.24, 349.07
428.48, 4.29, 348.48
428.40, 4.36, 347.81
428.31, 4.43, 347.01
428.20, 4.51, 346.09
428.08, 4.60, 345.06
427.94, 4.71, 343.86
427.79, 4.85, 342.52
427.59, 5.01, 340.85
427.38, 5.22, 339.08
427.21, 5.46, 337.76
427.13, 5.72, 337.40
427.00, 6.01, 336.49
426.87, 6.31, 335.72
426.79, 6.61, 335.33
426.70, 6.92, 334.92
426.60, 7.25, 334.43
429.00, 3.89, 353.56
428.97, 3.91, 353.39
428.95, 3.94, 353.20
428.92, 3.96, 353.01
428.90, 3.99, 352.80
428.87, 4.01, 352.58
428.83, 4.04, 352.32
428.76, 3.99, 351.62
428.72, 4.02, 351.30
428.67, 4.05, 350.96
428.62, 4.09, 350.58
428.57, 4.13, 350.16
428.51, 4.18, 349.69
428.44, 4.23, 349.17
428.37, 4.28, 348.58
428.28, 4.35, 347.92
428.18, 4.42, 347.15
428.07, 4.49, 346.24
¯427.93, 4.59, 345.23
427.78, 4.70, 344.06
427.61, 4.83, 342.73
427.40, 4.99, 341.11
427.17, 5.18, 339.37
426.96, 5.42, 337.83
426.88, 5.68, 337.47
426.79, 5.95, 337.09
426.65, 6.25, 336.24
426.54, 6.56, 335.64
426.45, 6.86, 335.25
426.35, 7.18, 334.84
426.25, 7.52, 334.41
428.94, 3.89, 353.58
428.91, 3.91, 353.41
428.88, 3.93, 353.23
428.86, 3.96, 353.04
428.83, 3.98, 352.83
428.76, 3.92, 352.21
428.72, 3.95, 351.95
428.68, 3.98, 351.67
428.63, 4.01, 351.36
428.58, 4.05, 351.02
428.53, 4.09, 350.65
428.47, 4.13, 350.23
428.41, 4.17, 349.77
428.33, 4.22, 349.26
428.25, 4.28, 348.68
428.16, 4.34, 348.04
428.05, 4.40, 347.29
427.93, 4.48, 346.40
427.79, 4.57, 345.39
427.63, 4.68, 344.25
427.44, 4.81, 342.93
427.22, 4.96, 341.37
426.96, 5.15, 339.56
426.71, 5.38, 337.91
426.62, 5.64, 337.53
426.54, 5.91, 337.16
426.45, 6.19, 336.77
426.30, 6.50, 335.99
426.20, 6.80, 335.57
426.10, 7.12, 335.17
426.00, 7.44, 334.76
428.88, 3.88, 353.61
428.85, 3.90, 353.44
428.82, 3.93, 353.26
428.79, 3.95, 353.07
428.72, 3.89, 352.49
428.68, 3.91, 352.25
428.64, 3.94, 351.99
¯428.60, 3.97, 351.72
428.55, 4.01, 351.41
428.50, 4.04, 351.07
428.44, 4.08, 350.71
428.38, 4.12, 350.31
428.31, 4.17, 349.85
428.23, 4.21, 349.35
428.14, 4.27, 348.79
428.04, 4.33, 348.15
427.93, 4.39, 347.42
427.80, 4.47, 346.56
427.65, 4.56, 345.56
427.47, 4.66, 344.44
427.27, 4.78, 343.13
427.04, 4.94, 341.63
426.74, 5.12, 339.74
426.50, 5.35, 338.27
426.37, 5.60, 337.60
426.28, 5.87, 337.23
426.18, 6.15, 336.85
426.08, 6.44, 336.45
425.96, 6.75, 335.88
425.86, 7.06, 335.49
425.75, 7.38, 335.08
428.82, 3.88, 353.64
428.79, 3.90, 353.47
428.76, 3.92, 353.29
428.68, 3.85, 352.74
428.65, 3.88, 352.53
428.61, 3.91, 352.29
428.56, 3.94, 352.04
428.52, 3.97, 351.76
428.46, 4.00, 351.46
428.41, 4.04, 351.13
428.35, 4.07, 350.77
428.28, 4.11, 350.38
428.21, 4.16, 349.94
428.12, 4.21, 349.44
428.03, 4.26, 348.89
427.93, 4.32, 348.27
427.81, 4.38, 347.56
427.67, 4.46, 346.71
427.51, 4.54, 345.73
427.32, 4.64, 344.63
427.11, 4.76, 343.34
426.86, 4.91, 341.87
426.54, 5.09, 339.97
426.30, 5.31, 338.57
426.12, 5.57, 337.67
426.02, 5.83, 337.30
425.92, 6.11, 336.92
¯425.82, 6.39, 336.52
425.72, 6.69, 336.15
425.61, 7.00, 335.76
425.50, 7.32, 335.34
428.76, 3.87, 353.66
428.73, 3.89, 353.50
428.65, 3.82, 352.97
428.61, 3.85, 352.78
428.57, 3.88, 352.56
428.53, 3.90, 352.34
428.49, 3.93, 352.08
428.44, 3.96, 351.81
428.38, 4.00, 351.52
428.32, 4.03, 351.19
428.26, 4.07, 350.84
428.19, 4.11, 350.45
428.11, 4.15, 350.02
428.02, 4.20, 349.53
427.93, 4.25, 348.99
427.82, 4.31, 348.38
427.69, 4.37, 347.69
427.54, 4.44, 346.87
427.37, 4.53, 345.91
427.18, 4.63, 344.81
426.95, 4.74, 343.55
426.69, 4.89, 342.10
426.36, 5.06, 340.27
426.08, 5.27, 338.77
425.87, 5.53, 337.74
425.77, 5.79, 337.38
425.67, 6.06, 337.06
425.58, 6.35, 336.74
425.48, 6.64, 336.40
425.37, 6.94, 336.05
425.25, 7.25, 335.62
428.70, 3.87, 353.69
428.62, 3.79, 353.19
428.58, 3.82, 353.01
428.54, 3.84, 352.81
428.50, 3.87, 352.60
428.46, 3.90, 352.38
428.41, 3.93, 352.13
428.36, 3.96, 351.86
428.30, 3.99, 351.57
428.24, 4.02, 351.25
428.17, 4.06, 350.90
428.10, 4.10, 350.52
428.01, 4.14, 350.10
427.92, 4.19, 349.62
427.82, 4.24, 349.09
427.71, 4.30, 348.49
¯427.58, 4.36, 347.82
427.42, 4.43, 347.02
427.24, 4.51, 346.08
427.03, 4.61, 344.99
426.80, 4.72, 343.77
426.52, 4.86, 342.32
426.18, 5.03, 340.56
425.86, 5.24, 338.97
425.63, 5.49, 337.85
425.54, 5.75, 337.60
425.44, 6.02, 337.29
425.34, 6.30, 336.97
425.24, 6.59, 336.64
425.13, 6.88, 336.30
425.02, 7.19, 335.95
428.59, 3.77, 353.40
428.56, 3.79, 353.22
428.52, 3.81, 353.04
428.48, 3.84, 352.84
428.43, 3.86, 352.63
428.39, 3.89, 352.41
428.34, 3.92, 352.18
428.28, 3.95, 351.91
428.22, 3.98, 351.63
428.16, 4.02, 351.31
428.08, 4.05, 350.96
428.01, 4.09, 350.59
427.92, 4.14, 350.17
427.82, 4.18, 349.71
427.72, 4.23, 349.19
427.60, 4.29, 348.60
427.46, 4.35, 347.94
427.30, 4.42, 347.17
427.12, 4.50, 346.26
426.90, 4.59, 345.19
426.65, 4.70, 343.98
426.36, 4.84, 342.55
426.01, 5.00, 340.85
425.68, 5.20, 339.28
425.42, 5.45, 338.12
425.29, 5.71, 337.70
425.21, 5.98, 337.46
425.12, 6.25, 337.20
425.01, 6.53, 336.88
424.90, 6.83, 336.54
424.79, 7.13, 336.20
428.53, 3.76, 353.43
428.49, 3.78, 353.25
428.45, 3.81, 353.07
428.41, 3.83, 352.88
428.36, 3.86, 352.67
¯428.31, 3.89, 352.45
428.26, 3.92, 352.22
428.20, 3.95, 351.96
428.14, 3.98, 351.68
428.07, 4.01, 351.37
428.00, 4.05, 351.03
427.92, 4.09, 350.66
427.83, 4.13, 350.25
427.73, 4.17, 349.80
427.62, 4.22, 349.29
427.49, 4.28, 348.72
427.35, 4.34, 348.07
427.19, 4.41, 347.32
426.99, 4.49, 346.43
426.77, 4.58, 345.39
426.50, 4.68, 344.18
426.20, 4.81, 342.80
425.84, 4.97, 341.13
425.50, 5.17, 339.62
425.24, 5.41, 338.53
425.05, 5.67, 337.78
424.95, 5.93, 337.54
424.86, 6.21, 337.29
424.77, 6.49, 337.04
424.67, 6.77, 336.78
424.55, 7.07, 336.44
428.47, 3.76, 353.46
428.43, 3.78, 353.28
428.39, 3.80, 353.10
428.34, 3.83, 352.91
428.29, 3.85, 352.71
428.24, 3.88, 352.49
428.19, 3.91, 352.26
428.13, 3.94, 352.01
428.06, 3.97, 351.74
427.99, 4.01, 351.43
427.91, 4.04, 351.09
427.83, 4.08, 350.73
427.73, 4.12, 350.32
427.63, 4.17, 349.88
427.52, 4.22, 349.39
427.39, 4.27, 348.83
427.24, 4.33, 348.19
427.07, 4.40, 347.46
426.87, 4.47, 346.59
426.64, 4.56, 345.58
426.36, 4.66, 344.39
426.05, 4.79, 343.04
425.68, 4.94, 341.45
425.29, 5.14, 339.77
425.07, 5.37, 338.94
¯424.80, 5.63, 337.86
424.70, 5.89, 337.62
424.61, 6.17, 337.38
424.51, 6.44, 337.12
424.41, 6.73, 336.87
424.31, 7.02, 336.60
428.41, 3.75, 353.49
428.37, 3.77, 353.32
428.32, 3.80, 353.14
428.27, 3.82, 352.95
428.22, 3.85, 352.74
428.17, 3.87, 352.53
428.11, 3.90, 352.30
428.05, 3.93, 352.05
427.99, 3.97, 351.79
427.91, 4.00, 351.49
427.83, 4.03, 351.16
427.74, 4.07, 350.80
427.64, 4.11, 350.40
427.54, 4.16, 349.97
427.42, 4.21, 349.49
427.28, 4.26, 348.94
427.13, 4.32, 348.31
426.96, 4.39, 347.61
426.75, 4.46, 346.76
426.51, 4.55, 345.77
426.23, 4.65, 344.62
425.90, 4.77, 343.28
425.52, 4.92, 341.72
425.11, 5.10, 340.05
424.87, 5.33, 339.18
424.60, 5.59, 338.16
424.45, 5.85, 337.70
424.35, 6.12, 337.46
424.25, 6.40, 337.21
424.15, 6.69, 336.95
424.04, 6.98, 336.69
434.03, 2.92, 364.46
434.22, 2.91, 364.73
434.42, 2.90, 365.02
434.64, 2.89, 365.33
434.87, 2.88, 365.68
435.13, 2.87, 366.06
435.42, 2.85, 366.48
435.75, 2.83, 366.95
436.16, 2.79, 367.55
436.67, 2.73, 368.28
437.24, 2.67, 369.10
434.11, 2.93, 364.42
434.30, 2.92, 364.69
434.51, 2.91, 364.98
¯434.73, 2.90, 365.29
434.97, 2.89, 365.64
435.24, 2.88, 366.01
435.53, 2.86, 366.43
435.87, 2.84, 366.91
436.29, 2.81, 367.50
436.81, 2.75, 368.23
437.42, 2.68, 369.08
434.20, 2.94, 364.38
434.39, 2.93, 364.64
434.60, 2.92, 364.93
434.82, 2.91, 365.25
435.07, 2.90, 365.59
435.34, 2.89, 365.97
435.65, 2.87, 366.39
436.00, 2.85, 366.87
436.42, 2.82, 367.45
436.96, 2.76, 368.18
434.28, 2.95, 364.34
434.47, 2.94, 364.60
434.69, 2.93, 364.89
434.92, 2.92, 365.20
435.17, 2.91, 365.54
435.45, 2.90, 365.92
435.77, 2.89, 366.35
436.12, 2.86, 366.83
436.55, 2.83, 367.40
437.10, 2.77, 368.13
434.36, 2.96, 364.29
434.56, 2.95, 364.56
434.77, 2.94, 364.84
435.01, 2.93, 365.16
435.27, 2.92, 365.50
435.55, 2.91, 365.87
435.88, 2.90, 366.30
436.25, 2.88, 366.78
436.68, 2.85, 367.34
437.24, 2.79, 368.07
434.44, 2.97, 364.25
434.64, 2.96, 364.51
434.86, 2.95, 364.80
435.10, 2.94, 365.11
435.37, 2.94, 365.45
435.66, 2.92, 365.82
436.00, 2.91, 366.25
436.38, 2.89, 366.73
436.81, 2.86, 367.29
437.38, 2.80, 368.01
434.52, 2.98, 364.21
434.72, 2.97, 364.47
434.95, 2.96, 364.75
¯435.20, 2.96, 365.06
435.47, 2.95, 365.39
435.77, 2.93, 365.78
436.12, 2.92, 366.21
436.50, 2.90, 366.68
436.94, 2.87, 367.23
434.60, 2.98, 364.17
434.81, 2.98, 364.42
435.04, 2.97, 364.70
435.29, 2.97, 365.01
435.56, 2.96, 365.34
435.88, 2.94, 365.73
436.23, 2.93, 366.16
436.62, 2.91, 366.63
437.07, 2.89, 367.17
434.68, 2.99, 364.12
434.90, 2.99, 364.38
435.13, 2.98, 364.66
435.38, 2.98, 364.96
435.66, 2.97, 365.29
435.99, 2.95, 365.68
436.35, 2.94, 366.10
436.75, 2.92, 366.58
437.20, 2.90, 367.12
434.77, 3.00, 364.08
434.98, 2.99, 364.34
435.22, 2.99, 364.61
435.48, 2.98, 364.91
435.76, 2.98, 365.24
436.09, 2.97, 365.62
436.46, 2.95, 366.05
436.87, 2.93, 366.52
437.33, 2.91, 367.06
434.85, 3.01, 364.04
435.07, 3.00, 364.29
435.31, 3.00, 364.57
435.58, 2.99, 364.87
435.86, 2.99, 365.19
436.19, 2.98, 365.56
436.57, 2.96, 365.99
436.99, 2.95, 366.46
437.46, 2.93, 366.99
434.93, 3.01, 363.99
435.16, 3.01, 364.24
435.41, 3.01, 364.52
435.67, 3.00, 364.81
435.96, 3.00, 365.13
436.30, 2.99, 365.50
436.68, 2.98, 365.92
437.11, 2.96, 366.40
437.64, 2.93, 366.98
¯435.01, 3.02, 363.95
435.24, 3.02, 364.20
435.50, 3.01, 364.47
435.77, 3.01, 364.76
436.06, 3.01, 365.08
436.40, 3.00, 365.44
436.79, 2.99, 365.86
437.22, 2.97, 366.33
437.84, 2.92, 366.98
435.09, 3.03, 363.90
435.33, 3.03, 364.15
435.59, 3.02, 364.42
435.86, 3.02, 364.71
436.16, 3.02, 365.02
436.50, 3.02, 365.38
436.89, 3.00, 365.79
437.34, 2.99, 366.26
438.04, 2.91, 366.99
435.17, 3.04, 363.85
435.42, 3.03, 364.10
435.67, 3.03, 364.36
435.95, 3.03, 364.65
436.26, 3.03, 364.96
436.60, 3.03, 365.31
437.00, 3.02, 365.73
437.45, 3.00, 366.19
438.25, 2.90, 366.99
435.25, 3.04, 363.80
435.50, 3.04, 364.05
435.76, 3.04, 364.31
436.05, 3.04, 364.59
436.35, 3.04, 364.90
436.70, 3.04, 365.25
437.11, 3.03, 365.66
437.60, 3.00, 366.15
438.45, 2.89, 366.98
435.33, 3.05, 363.75
435.58, 3.05, 363.99
435.85, 3.05, 364.25
436.14, 3.05, 364.53
436.45, 3.05, 364.84
436.80, 3.05, 365.18
437.21, 3.04, 365.59
437.78, 3.00, 366.14
438.66, 2.89, 366.98
435.41, 3.06, 363.70
435.67, 3.06, 363.94
435.93, 3.06, 364.19
436.23, 3.06, 364.47
436.55, 3.06, 364.78
436.90, 3.06, 365.12
¯437.31, 3.06, 365.51
437.96, 2.99, 366.12
438.88, 2.88, 366.97
435.49, 3.07, 363.64
435.75, 3.07, 363.88
436.02, 3.07, 364.13
436.32, 3.07, 364.41
436.64, 3.07, 364.72
437.00, 3.07, 365.05
437.42, 3.07, 365.44
438.15, 2.99, 366.10
439.09, 2.87, 366.96
435.57, 3.08, 363.59
435.83, 3.08, 363.82
436.11, 3.08, 364.07
436.41, 3.08, 364.35
436.74, 3.08, 364.65
437.10, 3.09, 364.99
437.53, 3.08, 365.37
438.33, 2.98, 366.08
439.26, 2.88, 366.91
435.65, 3.08, 363.53
435.91, 3.09, 363.76
436.19, 3.09, 364.01
436.50, 3.09, 364.29
436.84, 3.09, 364.59
437.21, 3.10, 364.92
437.66, 3.09, 365.32
438.43, 3.00, 365.99
439.37, 2.90, 366.80
435.72, 3.09, 363.47
435.99, 3.10, 363.70
436.27, 3.10, 363.95
436.59, 3.10, 364.22
436.93, 3.10, 364.52
437.31, 3.11, 364.85
437.75, 3.10, 365.23
438.52, 3.02, 365.88
435.80, 3.10, 363.41
436.07, 3.11, 363.64
436.36, 3.11, 363.89
436.67, 3.11, 364.15
437.02, 3.11, 364.45
437.41, 3.12, 364.77
437.86, 3.11, 365.16
438.61, 3.04, 365.78
435.87, 3.11, 363.35
436.14, 3.11, 363.57
436.44, 3.12, 363.82
436.76, 3.12, 364.09
437.12, 3.13, 364.38
¯437.51, 3.13, 364.70
437.98, 3.12, 365.09
438.70, 3.07, 365.67
435.94, 3.12, 363.29
436.22, 3.12, 363.51
436.52, 3.13, 363.75
436.85, 3.13, 364.02
437.21, 3.14, 364.31
437.61, 3.14, 364.63
438.10, 3.13, 365.02
438.78, 3.09, 365.56
436.02, 3.13, 363.22
436.30, 3.13, 363.44
436.60, 3.14, 363.68
436.93, 3.14, 363.95
437.30, 3.15, 364.23
437.72, 3.15, 364.56
438.21, 3.14, 364.95
438.86, 3.11, 365.45
436.09, 3.14, 363.16
436.37, 3.14, 363.38
436.68, 3.15, 363.62
437.02, 3.15, 363.87
437.39, 3.16, 364.16
437.83, 3.16, 364.49
438.33, 3.15, 364.87
438.94, 3.13, 365.34
436.16, 3.15, 363.09
436.45, 3.15, 363.31
436.76, 3.16, 363.54
437.10, 3.16, 363.80
437.48, 3.17, 364.08
437.93, 3.16, 364.42
438.44, 3.16, 364.80
439.02, 3.15, 365.23
436.23, 3.16, 363.03
436.52, 3.16, 363.24
436.84, 3.17, 363.47
437.19, 3.17, 363.73
437.57, 3.18, 364.01
438.04, 3.17, 364.34
438.56, 3.17, 364.72
439.14, 3.16, 365.15
436.30, 3.17, 362.96
436.59, 3.17, 363.17
436.92, 3.18, 363.40
437.27, 3.18, 363.65
437.67, 3.19, 363.93
438.14, 3.18, 364.27
438.67, 3.18, 364.64
439.27, 3.17, 365.06
¯436.37, 3.17, 362.89
436.67, 3.18, 363.10
436.99, 3.19, 363.33
437.35, 3.19, 363.57
437.77, 3.19, 363.86
438.25, 3.19, 364.19
438.78, 3.19, 364.56
439.28, 3.21, 364.90
436.43, 3.18, 362.82
436.74, 3.19, 363.03
437.07, 3.20, 363.25
437.43, 3.20, 363.49
437.86, 3.20, 363.78
438.34, 3.20, 364.10
438.79, 3.22, 364.41
439.28, 3.24, 364.74
436.50, 3.19, 362.75
436.81, 3.20, 362.95
437.14, 3.21, 363.17
437.51, 3.21, 363.41
437.94, 3.22, 363.69
438.35, 3.24, 363.96
438.79, 3.26, 364.26
439.28, 3.28, 364.58
436.57, 3.20, 362.68
436.88, 3.21, 362.88
437.22, 3.22, 363.10
437.58, 3.23, 363.33
437.95, 3.25, 363.56
438.35, 3.27, 363.83
438.80, 3.29, 364.11
439.28, 3.32, 364.43
436.63, 3.21, 362.61
436.95, 3.22, 362.80
437.30, 3.23, 363.02
437.62, 3.25, 363.22
437.96, 3.28, 363.44
438.36, 3.30, 363.69
438.80, 3.32, 363.96
439.28, 3.35, 364.27
436.70, 3.22, 362.53
437.02, 3.23, 362.73
437.38, 3.23, 362.95
437.68, 3.26, 363.13
437.96, 3.31, 363.31
438.36, 3.33, 363.55
438.80, 3.36, 363.82
439.28, 3.39, 364.11
436.77, 3.23, 362.46
437.10, 3.23, 362.66
437.47, 3.24, 362.87
¯437.74, 3.28, 363.04
438.01, 3.33, 363.20
438.36, 3.36, 363.42
438.80, 3.39, 363.68
439.28, 3.42, 363.96
436.84, 3.23, 362.39
437.18, 3.24, 362.59
437.53, 3.25, 362.79
437.79, 3.29, 362.94
438.07, 3.34, 363.11
438.36, 3.39, 363.28
438.79, 3.42, 363.53
439.27, 3.45, 363.81
436.92, 3.24, 362.32
437.26, 3.24, 362.51
437.59, 3.26, 362.70
437.85, 3.31, 362.85
438.13, 3.36, 363.01
438.42, 3.41, 363.18
438.79, 3.45, 363.39
439.26, 3.49, 363.66
436.99, 3.24, 362.25
437.34, 3.25, 362.44
437.64, 3.28, 362.60
437.90, 3.32, 362.75
438.18, 3.37, 362.91
438.48, 3.42, 363.08
438.80, 3.48, 363.26
439.25, 3.52, 363.51
437.06, 3.25, 362.17
437.41, 3.25, 362.36
437.69, 3.29, 362.51
437.96, 3.34, 362.66
438.24, 3.39, 362.81
438.54, 3.44, 362.98
438.86, 3.50, 363.15
439.24, 3.55, 363.36
437.13, 3.25, 362.10
437.49, 3.26, 362.28
437.75, 3.30, 362.42
438.01, 3.35, 362.56
438.30, 3.40, 362.71
438.60, 3.45, 362.87
438.92, 3.51, 363.04
439.27, 3.57, 363.23
437.20, 3.26, 362.02
437.54, 3.27, 362.19
437.80, 3.32, 362.32
438.06, 3.36, 362.46
438.35, 3.42, 362.61
438.65, 3.47, 362.77
¯438.98, 3.53, 362.94
439.35, 3.59, 363.12
437.27, 3.26, 361.95
437.59, 3.28, 362.10
437.85, 3.33, 362.23
438.12, 3.38, 362.36
438.40, 3.43, 362.51
438.71, 3.48, 362.66
439.05, 3.54, 362.83
439.53, 3.58, 363.07
437.34, 3.27, 361.87
437.64, 3.30, 362.01
437.89, 3.34, 362.13
438.17, 3.39, 362.27
438.46, 3.44, 362.41
438.78, 3.50, 362.56
439.18, 3.54, 362.76
439.92, 3.53, 363.10
437.41, 3.28, 361.79
437.68, 3.31, 361.92
437.94, 3.36, 362.04
438.22, 3.41, 362.17
438.52, 3.46, 362.31
438.90, 3.50, 362.48
439.31, 3.54, 362.67
440.34, 3.48, 363.12
437.47, 3.28, 361.71
437.73, 3.32, 361.82
437.99, 3.37, 361.94
438.27, 3.42, 362.07
438.63, 3.46, 362.23
439.02, 3.50, 362.40
439.44, 3.54, 362.59
440.77, 3.43, 363.15
437.53, 3.29, 361.62
437.77, 3.33, 361.73
438.04, 3.38, 361.85
438.38, 3.42, 361.99
438.75, 3.46, 362.15
439.14, 3.50, 362.32
439.78, 3.50, 362.59
441.24, 3.38, 363.18
437.57, 3.30, 361.53
437.82, 3.35, 361.64
438.14, 3.38, 361.77
438.49, 3.42, 361.91
438.86, 3.45, 362.07
439.26, 3.50, 362.24
440.17, 3.46, 362.59
441.29, 3.40, 363.04
437.61, 3.31, 361.44
¯437.91, 3.35, 361.56
438.24, 3.38, 361.69
438.59, 3.42, 361.83
438.97, 3.45, 361.99
439.39, 3.50, 362.15
440.57, 3.41, 362.60
441.28, 3.43, 362.88
437.70, 3.31, 361.36
438.01, 3.34, 361.48
438.34, 3.38, 361.61
438.70, 3.41, 361.75
439.09, 3.45, 361.90
439.61, 3.48, 362.10
440.72, 3.41, 362.50
441.26, 3.46, 362.71
437.76, 3.32, 361.28
438.10, 3.34, 361.40
438.44, 3.38, 361.53
438.81, 3.41, 361.67
439.20, 3.45, 361.81
439.96, 3.43, 362.08
440.70, 3.44, 362.35
441.24, 3.49, 362.55
437.81, 3.33, 361.19
438.19, 3.34, 361.32
438.54, 3.38, 361.45
438.91, 3.41, 361.58
439.32, 3.45, 361.72
440.19, 3.41, 362.02
440.68, 3.46, 362.20
441.22, 3.52, 362.39
437.85, 3.33, 361.09
438.24, 3.35, 361.22
438.64, 3.37, 361.36
439.02, 3.41, 361.49
439.43, 3.45, 361.63
440.18, 3.44, 361.88
440.66, 3.49, 362.05
441.20, 3.55, 362.23
437.90, 3.34, 361.00
438.29, 3.36, 361.13
438.71, 3.38, 361.26
439.13, 3.41, 361.40
439.72, 3.42, 361.59
440.16, 3.47, 361.74
440.64, 3.52, 361.90
441.17, 3.58, 362.07
437.94, 3.35, 360.91
438.33, 3.37, 361.03
438.76, 3.39, 361.16
439.23, 3.41, 361.31
¯439.70, 3.44, 361.46
440.14, 3.49, 361.60
440.62, 3.55, 361.75
441.15, 3.60, 361.92
437.98, 3.36, 360.81
438.37, 3.38, 360.93
438.80, 3.40, 361.06
439.28, 3.42, 361.20
439.69, 3.47, 361.32
440.12, 3.52, 361.46
440.60, 3.57, 361.60
441.12, 3.63, 361.76
438.02, 3.37, 360.72
438.42, 3.39, 360.83
438.85, 3.41, 360.95
439.34, 3.43, 361.09
439.73, 3.48, 361.21
440.11, 3.54, 361.32
440.58, 3.60, 361.46
441.09, 3.66, 361.61
438.06, 3.38, 360.62
438.46, 3.40, 360.73
438.89, 3.42, 360.85
439.40, 3.44, 360.99
439.78, 3.49, 361.09
440.15, 3.55, 361.20
440.56, 3.62, 361.31
441.06, 3.68, 361.46
438.10, 3.39, 360.52
438.50, 3.41, 360.63
438.94, 3.43, 360.74
439.46, 3.44, 360.88
439.82, 3.50, 360.97
440.20, 3.57, 361.08
440.61, 3.63, 361.19
441.04, 3.71, 361.31
438.13, 3.40, 360.43
438.53, 3.42, 360.53
439.00, 3.43, 360.64
439.50, 3.45, 360.76
439.86, 3.51, 360.85
440.24, 3.58, 360.95
440.65, 3.65, 361.06
441.09, 3.72, 361.17
438.17, 3.41, 360.33
438.57, 3.43, 360.42
439.06, 3.44, 360.54
439.54, 3.46, 360.65
439.90, 3.53, 360.74
440.28, 3.59, 360.83
440.69, 3.66, 360.93
¯441.14, 3.73, 361.04
438.20, 3.41, 360.23
438.62, 3.43, 360.32
439.11, 3.45, 360.43
439.57, 3.48, 360.53
439.94, 3.54, 360.62
440.32, 3.60, 360.71
440.74, 3.67, 360.80
441.20, 3.75, 360.91
438.23, 3.42, 360.13
438.67, 3.44, 360.22
439.16, 3.45, 360.32
439.61, 3.49, 360.42
439.97, 3.55, 360.50
440.36, 3.61, 360.58
440.78, 3.68, 360.67
441.26, 3.76, 360.78
438.27, 3.43, 360.03
438.72, 3.44, 360.12
439.21, 3.46, 360.22
439.64, 3.50, 360.30
440.01, 3.56, 360.38
440.40, 3.63, 360.46
440.84, 3.69, 360.55
441.32, 3.77, 360.65
438.31, 3.43, 359.94
438.76, 3.45, 360.02
439.26, 3.46, 360.11
439.68, 3.51, 360.18
440.04, 3.57, 360.26
440.44, 3.64, 360.33
440.89, 3.70, 360.42
441.38, 3.78, 360.51
438.35, 3.44, 359.84
438.81, 3.45, 359.91
439.31, 3.47, 360.00
439.71, 3.52, 360.07
440.08, 3.58, 360.13
440.49, 3.64, 360.21
440.94, 3.71, 360.29
438.39, 3.44, 359.74
438.85, 3.46, 359.81
439.36, 3.47, 359.89
439.74, 3.53, 359.95
440.11, 3.59, 360.01
440.54, 3.65, 360.08
440.99, 3.72, 360.16
438.43, 3.45, 359.64
438.89, 3.46, 359.70
439.40, 3.48, 359.78
439.77, 3.54, 359.83
¯440.16, 3.60, 359.89
440.58, 3.66, 359.96
441.05, 3.73, 360.03
438.47, 3.45, 359.54
438.93, 3.47, 359.60
439.45, 3.49, 359.66
439.80, 3.55, 359.71
440.20, 3.61, 359.77
440.63, 3.67, 359.83
441.09, 3.74, 359.90
438.50, 3.46, 359.43
438.97, 3.48, 359.49
439.47, 3.49, 359.55
439.84, 3.55, 359.59
440.24, 3.61, 359.65
440.67, 3.68, 359.70
441.14, 3.75, 359.76
438.53, 3.47, 359.33
439.00, 3.48, 359.38
439.50, 3.50, 359.43
439.88, 3.56, 359.48
440.28, 3.62, 359.52
440.72, 3.69, 359.57
441.19, 3.76, 359.63
438.55, 3.47, 359.23
439.03, 3.49, 359.27
439.53, 3.51, 359.32
439.91, 3.57, 359.36
440.32, 3.63, 359.40
440.76, 3.69, 359.44
441.24, 3.76, 359.49
438.57, 3.48, 359.12
439.05, 3.50, 359.16
439.55, 3.52, 359.20
439.93, 3.58, 359.24
440.35, 3.64, 359.27
440.79, 3.70, 359.31
441.28, 3.77, 359.36
438.58, 3.49, 359.02
439.06, 3.50, 359.05
439.57, 3.53, 359.08
439.95, 3.58, 359.11
440.37, 3.65, 359.15
440.82, 3.71, 359.18
441.31, 3.78, 359.22
438.60, 3.50, 358.91
439.09, 3.51, 358.94
439.58, 3.54, 358.97
439.97, 3.59, 358.99
440.39, 3.65, 359.02
440.84, 3.72, 359.05
¯441.36, 3.79, 359.08
438.61, 3.50, 358.81
439.11, 3.52, 358.83
439.60, 3.54, 358.85
439.99, 3.60, 358.87
440.41, 3.66, 358.89
440.86, 3.73, 358.92
441.40, 3.79, 358.94
438.62, 3.51, 358.70
439.13, 3.52, 358.72
439.62, 3.55, 358.73
440.01, 3.61, 358.75
440.43, 3.67, 358.76
440.89, 3.74, 358.78
441.57, 3.78, 358.81
438.63, 3.52, 358.59
439.15, 3.53, 358.60
439.63, 3.56, 358.61
440.02, 3.62, 358.62
440.44, 3.68, 358.64
440.93, 3.74, 358.65
441.74, 3.77, 358.67
438.64, 3.52, 358.49
439.17, 3.53, 358.49
439.64, 3.57, 358.50
440.03, 3.63, 358.50
440.46, 3.69, 358.51
440.96, 3.75, 358.52
441.91, 3.76, 358.52
438.66, 3.53, 358.38
439.19, 3.54, 358.38
439.65, 3.57, 358.38
440.05, 3.63, 358.38
440.48, 3.70, 358.38
441.00, 3.75, 358.38
442.08, 3.75, 358.37
438.67, 3.53, 358.27
439.20, 3.54, 358.26
439.66, 3.58, 358.26
440.06, 3.64, 358.25
440.51, 3.70, 358.25
441.03, 3.76, 358.24
442.23, 3.74, 358.22
438.68, 3.54, 358.17
439.21, 3.55, 358.15
439.67, 3.59, 358.14
440.07, 3.65, 358.13
440.54, 3.70, 358.12
441.07, 3.76, 358.11
442.29, 3.74, 358.07
438.69, 3.54, 358.06
¯439.22, 3.56, 358.04
439.68, 3.59, 358.02
440.08, 3.65, 358.01
440.57, 3.71, 357.99
441.10, 3.77, 357.97
442.34, 3.75, 357.91
438.70, 3.55, 357.95
439.23, 3.56, 357.92
439.68, 3.60, 357.90
440.10, 3.66, 357.88
440.59, 3.71, 357.86
441.13, 3.77, 357.83
442.39, 3.75, 357.76
438.70, 3.56, 357.84
439.24, 3.57, 357.81
439.69, 3.61, 357.78
440.12, 3.66, 357.75
440.62, 3.72, 357.72
441.15, 3.78, 357.69
442.43, 3.75, 357.60
438.70, 3.56, 357.74
439.24, 3.57, 357.69
439.69, 3.61, 357.66
440.15, 3.67, 357.63
440.64, 3.72, 357.59
441.18, 3.78, 357.55
442.47, 3.76, 357.44
438.70, 3.57, 357.63
439.24, 3.58, 357.58
439.71, 3.62, 357.54
440.16, 3.67, 357.50
440.66, 3.72, 357.46
441.20, 3.79, 357.41
442.64, 3.74, 357.27
438.70, 3.57, 357.52
439.24, 3.58, 357.46
439.72, 3.62, 357.42
440.17, 3.67, 357.37
440.66, 3.73, 357.32
441.19, 3.79, 357.27
442.84, 3.73, 357.09
438.70, 3.58, 357.41
439.23, 3.59, 357.35
439.71, 3.63, 357.30
440.16, 3.68, 357.25
440.65, 3.74, 357.19
441.24, 3.79, 357.13
442.92, 3.72, 356.92
438.68, 3.58, 357.31
439.21, 3.60, 357.24
439.70, 3.63, 357.18
¯440.15, 3.69, 357.12
440.64, 3.75, 357.06
441.33, 3.79, 356.97
442.89, 3.73, 356.77
438.66, 3.59, 357.20
439.19, 3.61, 357.13
439.69, 3.64, 357.06
440.14, 3.69, 357.00
440.63, 3.75, 356.93
441.43, 3.78, 356.82
442.86, 3.75, 356.61
438.64, 3.60, 357.09
439.17, 3.61, 357.01
439.68, 3.65, 356.94
440.12, 3.70, 356.87
440.61, 3.76, 356.80
441.57, 3.76, 356.65
442.82, 3.76, 356.46
438.61, 3.61, 356.99
439.15, 3.62, 356.90
439.66, 3.65, 356.82
440.11, 3.71, 356.75
440.59, 3.77, 356.67
441.71, 3.75, 356.48
442.78, 3.77, 356.30
438.59, 3.61, 356.88
439.13, 3.63, 356.79
439.64, 3.66, 356.70
440.09, 3.71, 356.62
440.62, 3.77, 356.53
441.85, 3.74, 356.31
442.74, 3.78, 356.15
438.56, 3.62, 356.78
439.10, 3.63, 356.68
439.63, 3.66, 356.58
440.07, 3.72, 356.50
440.69, 3.76, 356.38
441.98, 3.72, 356.13
442.69, 3.79, 356.00
438.53, 3.63, 356.68
439.07, 3.64, 356.57
439.61, 3.67, 356.46
440.05, 3.73, 356.37
440.75, 3.75, 356.23
441.99, 3.72, 355.98
442.65, 3.80, 355.84
438.50, 3.63, 356.57
439.04, 3.65, 356.46
439.58, 3.67, 356.34
440.03, 3.73, 356.25
440.81, 3.75, 356.08
¯441.94, 3.73, 355.83
442.60, 3.81, 355.69
443.33, 3.89, 355.54
438.47, 3.64, 356.47
439.01, 3.66, 356.35
439.56, 3.68, 356.22
440.00, 3.74, 356.12
440.87, 3.74, 355.92
441.89, 3.74, 355.69
442.55, 3.82, 355.54
443.27, 3.90, 355.38
438.43, 3.65, 356.37
438.97, 3.66, 356.24
439.53, 3.68, 356.10
439.98, 3.74, 356.00
440.93, 3.73, 355.77
441.84, 3.75, 355.55
442.49, 3.83, 355.39
443.20, 3.91, 355.22
438.40, 3.65, 356.27
438.93, 3.67, 356.13
439.51, 3.69, 355.99
440.01, 3.74, 355.86
440.99, 3.72, 355.61
441.79, 3.76, 355.41
442.42, 3.84, 355.25
443.14, 3.92, 355.07
438.36, 3.66, 356.17
438.89, 3.68, 356.03
439.48, 3.69, 355.87
440.05, 3.73, 355.72
441.03, 3.72, 355.46
441.73, 3.77, 355.27
442.36, 3.85, 355.10
443.07, 3.93, 354.91
438.32, 3.67, 356.07
438.85, 3.68, 355.92
439.45, 3.70, 355.75
440.09, 3.72, 355.57
440.97, 3.73, 355.33
441.66, 3.78, 355.13
442.29, 3.86, 354.96
443.01, 3.94, 354.76
438.28, 3.67, 355.97
438.81, 3.69, 355.81
439.40, 3.71, 355.64
440.10, 3.72, 355.43
440.91, 3.74, 355.20
441.60, 3.79, 355.00
442.22, 3.87, 354.82
442.93, 3.95, 354.61
¯438.24, 3.68, 355.87
438.76, 3.69, 355.71
439.35, 3.71, 355.53
440.05, 3.73, 355.32
440.85, 3.74, 355.07
441.53, 3.80, 354.86
442.14, 3.88, 354.68
442.86, 3.96, 354.46
438.20, 3.69, 355.77
438.72, 3.70, 355.61
439.30, 3.72, 355.42
439.99, 3.73, 355.20
440.78, 3.75, 354.95
441.46, 3.81, 354.73
442.07, 3.88, 354.54
442.79, 3.97, 354.31
438.15, 3.69, 355.68
438.67, 3.71, 355.50
439.25, 3.73, 355.31
439.93, 3.74, 355.08
440.71, 3.76, 354.82
441.38, 3.81, 354.60
441.99, 3.89, 354.40
442.71, 3.97, 354.16
438.10, 3.70, 355.58
438.62, 3.71, 355.40
439.19, 3.73, 355.20
439.86, 3.75, 354.97
440.64, 3.77, 354.70
441.29, 3.82, 354.47
441.91, 3.90, 354.26
442.63, 3.98, 354.01
438.06, 3.70, 355.49
438.56, 3.72, 355.30
439.13, 3.74, 355.10
439.80, 3.76, 354.86
440.56, 3.78, 354.58
441.20, 3.83, 354.35
441.83, 3.91, 354.13
442.55, 3.99, 353.87
438.00, 3.71, 355.39
438.51, 3.73, 355.20
439.07, 3.75, 354.99
439.73, 3.76, 354.75
440.48, 3.79, 354.47
441.11, 3.84, 354.23
441.75, 3.92, 353.99
442.47, 4.00, 353.73
443.27, 4.09, 353.42
437.95, 3.71, 355.30
438.45, 3.73, 355.10
¯439.01, 3.75, 354.89
439.66, 3.77, 354.64
440.39, 3.80, 354.35
441.02, 3.85, 354.11
441.67, 3.92, 353.86
442.38, 4.00, 353.58
443.17, 4.10, 353.28
437.90, 3.72, 355.21
438.39, 3.74, 355.01
438.95, 3.76, 354.78
439.58, 3.78, 354.53
440.30, 3.80, 354.24
440.93, 3.86, 353.99
441.58, 3.93, 353.73
442.29, 4.01, 353.44
443.06, 4.10, 353.13
437.84, 3.73, 355.12
438.33, 3.74, 354.91
438.88, 3.76, 354.68
439.51, 3.79, 354.42
440.21, 3.81, 354.13
440.83, 3.87, 353.87
441.50, 3.94, 353.60
442.20, 4.02, 353.31
442.96, 4.11, 352.99
437.78, 3.73, 355.03
438.27, 3.75, 354.82
438.82, 3.77, 354.58
439.43, 3.79, 354.32
440.13, 3.82, 354.02
440.73, 3.88, 353.76
441.41, 3.94, 353.47
442.10, 4.02, 353.17
442.85, 4.12, 352.85
437.73, 3.74, 354.94
438.21, 3.75, 354.72
438.75, 3.78, 354.48
439.36, 3.80, 354.21
440.03, 3.83, 353.91
440.63, 3.89, 353.65
441.33, 3.95, 353.34
442.00, 4.03, 353.04
442.74, 4.12, 352.71
437.66, 3.74, 354.85
438.14, 3.76, 354.63
438.68, 3.78, 354.39
439.28, 3.80, 354.11
439.94, 3.84, 353.81
440.53, 3.89, 353.53
441.24, 3.95, 353.21
441.90, 4.04, 352.91
¯442.63, 4.13, 352.57
443.33, 4.25, 352.25
437.60, 3.75, 354.77
438.08, 3.77, 354.54
438.60, 3.79, 354.29
439.20, 3.81, 354.01
439.85, 3.84, 353.70
440.45, 3.90, 353.41
441.15, 3.96, 353.09
441.80, 4.04, 352.78
442.51, 4.14, 352.44
443.21, 4.25, 352.11
437.54, 3.75, 354.68
438.01, 3.77, 354.45
438.53, 3.79, 354.20
439.12, 3.82, 353.91
439.75, 3.85, 353.60
440.37, 3.90, 353.30
441.05, 3.96, 352.96
441.70, 4.05, 352.65
442.40, 4.14, 352.30
443.09, 4.26, 351.97
437.47, 3.76, 354.60
437.94, 3.78, 354.36
438.45, 3.80, 354.10
439.04, 3.82, 353.81
439.66, 3.86, 353.49
440.29, 3.91, 353.18
440.96, 3.97, 352.84
441.59, 4.05, 352.52
442.28, 4.15, 352.17
442.96, 4.26, 351.83
437.40, 3.76, 354.52
437.87, 3.78, 354.28
438.38, 3.80, 354.01
438.95, 3.83, 353.71
439.58, 3.86, 353.38
440.21, 3.91, 353.06
440.86, 3.97, 352.72
441.49, 4.06, 352.40
442.17, 4.15, 352.04
442.84, 4.27, 351.69
437.33, 3.77, 354.44
437.79, 3.79, 354.19
438.30, 3.81, 353.92
438.87, 3.83, 353.62
439.50, 3.86, 353.28
440.12, 3.91, 352.95
440.77, 3.98, 352.60
441.38, 4.06, 352.27
442.05, 4.16, 351.91
¯442.72, 4.27, 351.56
437.26, 3.77, 354.36
437.72, 3.79, 354.11
438.22, 3.81, 353.83
438.78, 3.84, 353.52
439.41, 3.87, 353.17
440.03, 3.92, 352.83
440.67, 3.98, 352.48
441.27, 4.07, 352.15
441.93, 4.16, 351.79
442.65, 4.27, 351.39
437.19, 3.78, 354.28
437.64, 3.80, 354.03
438.13, 3.82, 353.75
438.69, 3.84, 353.43
439.31, 3.87, 353.08
439.94, 3.92, 352.72
440.57, 3.98, 352.37
441.17, 4.07, 352.03
441.81, 4.17, 351.66
442.57, 4.27, 351.23
437.12, 3.78, 354.21
437.56, 3.80, 353.94
438.05, 3.82, 353.66
438.59, 3.85, 353.35
439.21, 3.88, 352.99
439.85, 3.92, 352.61
440.47, 3.99, 352.25
441.06, 4.07, 351.91
441.70, 4.17, 351.53
442.50, 4.27, 351.07
437.04, 3.79, 354.13
437.49, 3.80, 353.87
437.97, 3.83, 353.58
438.50, 3.86, 353.26
439.10, 3.89, 352.90
439.76, 3.93, 352.50
440.37, 3.99, 352.14
440.95, 4.08, 351.79
441.63, 4.17, 351.38
442.42, 4.27, 350.90
436.96, 3.79, 354.06
437.40, 3.81, 353.79
437.88, 3.83, 353.50
438.40, 3.86, 353.18
438.99, 3.89, 352.81
439.66, 3.93, 352.40
440.26, 3.99, 352.03
440.84, 4.08, 351.67
441.55, 4.17, 351.23
442.34, 4.27, 350.74
¯449.34, 3.90, 346.44
436.89, 3.80, 353.99
437.32, 3.81, 353.71
437.79, 3.84, 353.42
438.30, 3.87, 353.09
438.89, 3.90, 352.72
439.57, 3.93, 352.29
440.16, 4.00, 351.92
440.73, 4.08, 351.56
441.48, 4.16, 351.08
442.26, 4.26, 350.58
449.00, 3.92, 346.33
436.81, 3.80, 353.92
437.23, 3.82, 353.64
437.70, 3.84, 353.34
438.20, 3.87, 353.01
438.78, 3.90, 352.64
439.47, 3.93, 352.19
440.05, 4.00, 351.81
440.63, 4.08, 351.44
441.39, 4.16, 350.94
442.18, 4.26, 350.43
448.75, 3.92, 346.16
449.18, 4.17, 345.88
436.73, 3.81, 353.85
437.15, 3.82, 353.57
437.60, 3.85, 353.27
438.10, 3.88, 352.94
438.66, 3.91, 352.56
439.35, 3.94, 352.10
439.95, 4.00, 351.70
440.52, 4.08, 351.32
441.28, 4.16, 350.81
442.76, 4.19, 349.82
448.51, 3.93, 345.99
448.92, 4.18, 345.71
436.65, 3.81, 353.78
437.06, 3.83, 353.50
437.51, 3.85, 353.19
438.00, 3.88, 352.86
438.55, 3.91, 352.48
439.22, 3.94, 352.02
439.84, 4.00, 351.60
440.42, 4.08, 351.20
441.17, 4.16, 350.68
442.86, 4.17, 349.53
448.26, 3.93, 345.83
448.91, 4.16, 345.38
449.19, 4.44, 345.19
436.56, 3.81, 353.72
436.97, 3.83, 353.44
¯437.41, 3.86, 353.12
437.89, 3.89, 352.78
438.44, 3.92, 352.40
439.10, 3.95, 351.94
439.73, 4.00, 351.49
440.31, 4.08, 351.08
441.06, 4.16, 350.55
442.65, 4.18, 349.44
448.07, 3.93, 345.64
448.78, 4.16, 345.14
449.05, 4.43, 344.94
436.48, 3.82, 353.66
436.88, 3.84, 353.37
437.31, 3.86, 353.06
437.79, 3.89, 352.71
438.32, 3.92, 352.33
438.97, 3.95, 351.86
439.63, 4.00, 351.38
440.21, 4.08, 350.97
440.95, 4.16, 350.43
442.44, 4.19, 349.36
448.08, 3.91, 345.30
448.64, 4.15, 344.89
448.91, 4.42, 344.69
449.19, 4.71, 344.48
436.40, 3.82, 353.59
436.79, 3.84, 353.31
437.21, 3.87, 352.99
437.69, 3.89, 352.64
438.21, 3.93, 352.25
438.84, 3.96, 351.78
439.53, 4.00, 351.27
440.10, 4.08, 350.85
440.83, 4.16, 350.31
442.22, 4.19, 349.28
443.44, 4.28, 348.38
448.51, 4.14, 344.64
448.77, 4.42, 344.43
449.05, 4.70, 344.22
436.31, 3.83, 353.53
436.69, 3.85, 353.25
437.11, 3.87, 352.93
437.58, 3.90, 352.57
438.09, 3.93, 352.18
438.72, 3.96, 351.71
439.42, 4.00, 351.18
439.99, 4.08, 350.74
440.71, 4.16, 350.19
442.00, 4.20, 349.21
443.18, 4.29, 348.31
448.37, 4.14, 344.39
¯448.63, 4.41, 344.18
448.91, 4.69, 343.97
449.20, 4.98, 343.74
436.23, 3.83, 353.48
436.60, 3.85, 353.19
437.01, 3.88, 352.87
437.47, 3.90, 352.50
437.98, 3.94, 352.11
438.59, 3.97, 351.64
439.27, 4.01, 351.10
439.88, 4.08, 350.63
440.59, 4.16, 350.08
441.78, 4.21, 349.15
443.01, 4.29, 348.20
448.23, 4.13, 344.14
448.49, 4.40, 343.93
448.81, 4.68, 343.67
449.08, 4.97, 343.46
449.21, 5.27, 343.35
436.14, 3.83, 353.42
436.50, 3.86, 353.13
436.91, 3.88, 352.81
437.36, 3.91, 352.44
437.86, 3.94, 352.05
438.46, 3.97, 351.57
439.12, 4.01, 351.04
439.76, 4.08, 350.53
440.47, 4.15, 349.96
441.56, 4.21, 349.09
442.83, 4.29, 348.08
448.09, 4.12, 343.89
448.43, 4.39, 343.61
448.83, 4.67, 343.29
448.95, 4.96, 343.18
449.08, 5.27, 343.07
436.05, 3.84, 353.36
436.41, 3.86, 353.07
436.81, 3.88, 352.75
437.25, 3.91, 352.38
437.74, 3.94, 351.98
438.32, 3.98, 351.51
438.98, 4.02, 350.97
439.65, 4.08, 350.42
440.34, 4.15, 349.85
441.33, 4.22, 349.04
442.65, 4.29, 347.96
448.05, 4.10, 343.56
448.55, 4.36, 343.14
448.70, 4.66, 343.01
448.83, 4.95, 342.90
435.96, 3.84, 353.31
¯436.31, 3.86, 353.02
436.70, 3.89, 352.69
437.14, 3.92, 352.32
437.63, 3.95, 351.92
438.19, 3.98, 351.44
438.83, 4.02, 350.91
439.53, 4.07, 350.32
440.21, 4.15, 349.75
441.10, 4.23, 348.99
442.47, 4.29, 347.85
443.23, 4.44, 347.21
448.45, 4.35, 342.84
448.57, 4.64, 342.73
448.70, 4.94, 342.61
435.87, 3.85, 353.26
436.22, 3.87, 352.96
436.60, 3.89, 352.64
437.03, 3.92, 352.27
437.51, 3.95, 351.85
438.05, 3.99, 351.38
438.68, 4.03, 350.85
439.40, 4.07, 350.23
440.08, 4.15, 349.64
440.87, 4.23, 348.96
442.28, 4.29, 347.74
443.06, 4.43, 347.07
448.32, 4.34, 342.57
448.45, 4.63, 342.45
435.78, 3.85, 353.21
436.12, 3.87, 352.91
436.49, 3.90, 352.58
436.91, 3.92, 352.21
437.38, 3.96, 351.80
437.92, 3.99, 351.33
438.53, 4.03, 350.79
439.23, 4.08, 350.17
439.94, 4.15, 349.55
440.67, 4.24, 348.90
442.10, 4.28, 347.64
442.89, 4.43, 346.94
448.19, 4.32, 342.28
448.32, 4.62, 342.16
435.69, 3.85, 353.16
436.02, 3.88, 352.86
436.39, 3.90, 352.53
436.80, 3.93, 352.16
437.26, 3.96, 351.75
437.78, 4.00, 351.27
438.38, 4.04, 350.73
439.07, 4.08, 350.11
439.78, 4.15, 349.47
¯440.50, 4.24, 348.81
441.93, 4.28, 347.53
442.71, 4.42, 346.82
443.28, 4.60, 346.30
435.60, 3.86, 353.12
435.93, 3.88, 352.82
436.28, 3.90, 352.48
436.69, 3.93, 352.11
437.14, 3.96, 351.69
437.65, 4.00, 351.22
438.23, 4.04, 350.68
438.90, 4.09, 350.06
439.63, 4.15, 349.38
440.33, 4.24, 348.73
441.75, 4.28, 347.42
442.54, 4.42, 346.69
443.09, 4.60, 346.17
435.51, 3.86, 353.07
435.83, 3.88, 352.77
436.18, 3.91, 352.44
436.57, 3.94, 352.06
437.01, 3.97, 351.64
437.51, 4.00, 351.17
438.08, 4.04, 350.63
438.74, 4.09, 350.01
439.48, 4.15, 349.31
440.17, 4.23, 348.65
441.58, 4.27, 347.32
442.36, 4.41, 346.56
442.91, 4.59, 346.04
435.41, 3.86, 353.03
435.73, 3.89, 352.72
436.07, 3.91, 352.39
436.46, 3.94, 352.02
436.89, 3.97, 351.60
437.37, 4.01, 351.13
437.93, 4.05, 350.58
438.57, 4.09, 349.96
439.29, 4.15, 349.26
440.00, 4.23, 348.57
441.39, 4.27, 347.22
442.19, 4.41, 346.44
442.72, 4.59, 345.91
435.32, 3.87, 352.99
435.63, 3.89, 352.68
435.97, 3.91, 352.35
436.34, 3.94, 351.97
436.76, 3.97, 351.55
437.23, 4.01, 351.09
437.78, 4.05, 350.54
438.40, 4.10, 349.92
¯439.09, 4.16, 349.23
439.83, 4.23, 348.50
441.09, 4.28, 347.24
442.01, 4.40, 346.32
442.54, 4.58, 345.79
443.26, 4.77, 345.06
435.22, 3.87, 352.95
435.53, 3.89, 352.64
435.86, 3.92, 352.30
436.23, 3.95, 351.93
436.64, 3.98, 351.51
437.09, 4.02, 351.05
437.63, 4.05, 350.50
438.24, 4.10, 349.88
438.90, 4.16, 349.20
439.66, 4.23, 348.42
440.80, 4.29, 347.26
441.82, 4.40, 346.22
442.36, 4.57, 345.66
443.05, 4.76, 344.95
435.13, 3.88, 352.92
435.43, 3.90, 352.60
435.75, 3.92, 352.26
436.11, 3.95, 351.89
436.51, 3.98, 351.47
436.95, 4.02, 351.01
437.48, 4.06, 350.46
438.07, 4.10, 349.84
438.72, 4.16, 349.16
439.49, 4.23, 348.35
440.52, 4.29, 347.28
441.62, 4.39, 346.12
442.18, 4.56, 345.53
442.83, 4.75, 344.84
435.03, 3.88, 352.88
435.33, 3.90, 352.57
435.65, 3.92, 352.22
436.00, 3.95, 351.85
436.39, 3.98, 351.43
436.81, 4.02, 350.98
437.33, 4.06, 350.42
437.91, 4.11, 349.80
438.53, 4.17, 349.13
439.29, 4.23, 348.32
440.25, 4.30, 347.29
441.43, 4.38, 346.03
442.00, 4.55, 345.41
442.62, 4.74, 344.73
434.94, 3.88, 352.85
435.22, 3.90, 352.53
435.54, 3.93, 352.19
¯435.88, 3.95, 351.81
436.26, 3.99, 351.40
436.67, 4.03, 350.94
437.17, 4.06, 350.39
437.74, 4.11, 349.77
438.35, 4.17, 349.10
439.07, 4.23, 348.31
439.98, 4.31, 347.31
441.10, 4.39, 346.07
441.82, 4.54, 345.29
442.40, 4.73, 344.63
434.84, 3.89, 352.81
435.12, 3.91, 352.50
435.43, 3.93, 352.15
435.77, 3.96, 351.78
436.13, 3.99, 351.36
436.54, 4.03, 350.91
437.02, 4.07, 350.37
437.58, 4.11, 349.74
438.16, 4.17, 349.08
438.86, 4.24, 348.29
439.71, 4.31, 347.33
440.77, 4.40, 346.14
441.63, 4.54, 345.16
442.19, 4.72, 344.53
443.12, 4.92, 343.47
434.75, 3.89, 352.78
435.02, 3.91, 352.47
435.32, 3.93, 352.12
435.65, 3.96, 351.74
436.01, 3.99, 351.33
436.40, 4.03, 350.88
436.86, 4.07, 350.34
437.41, 4.11, 349.71
437.98, 4.17, 349.05
438.65, 4.24, 348.28
439.45, 4.32, 347.36
440.45, 4.40, 346.20
441.45, 4.53, 345.04
441.99, 4.71, 344.41
442.84, 4.91, 343.42
434.66, 3.89, 352.75
434.92, 3.91, 352.44
435.21, 3.94, 352.10
435.54, 3.96, 351.71
435.88, 4.00, 351.30
436.27, 4.03, 350.85
436.71, 4.07, 350.32
437.24, 4.12, 349.69
437.80, 4.17, 349.03
438.44, 4.24, 348.28
¯439.21, 4.32, 347.36
440.13, 4.41, 346.27
441.18, 4.52, 345.03
441.80, 4.70, 344.28
442.56, 4.90, 343.37
443.16, 5.13, 342.65
434.57, 3.89, 352.72
434.82, 3.92, 352.41
435.10, 3.94, 352.07
435.42, 3.97, 351.68
435.76, 4.00, 351.27
436.13, 4.04, 350.82
436.56, 4.08, 350.30
437.08, 4.12, 349.67
437.62, 4.18, 349.01
438.23, 4.24, 348.27
438.98, 4.32, 347.36
439.84, 4.41, 346.32
440.88, 4.52, 345.05
441.61, 4.69, 344.16
442.29, 4.89, 343.33
442.88, 5.12, 342.60
445.08, 5.36, 339.92
434.16, 3.99, 353.07
434.71, 3.92, 352.39
434.99, 3.94, 352.04
435.30, 3.97, 351.66
435.63, 4.00, 351.25
436.00, 4.04, 350.79
436.41, 4.08, 350.28
436.91, 4.12, 349.66
437.44, 4.18, 349.00
438.03, 4.25, 348.26
438.75, 4.32, 347.37
439.55, 4.41, 346.37
440.56, 4.52, 345.11
441.41, 4.68, 344.04
442.02, 4.88, 343.28
442.60, 5.11, 342.54
443.19, 5.35, 341.78
445.26, 5.64, 339.20
434.07, 4.00, 353.04
434.61, 3.92, 352.36
434.88, 3.95, 352.02
435.18, 3.97, 351.64
435.51, 4.00, 351.22
435.86, 4.04, 350.77
436.26, 4.08, 350.26
436.74, 4.12, 349.65
437.26, 4.18, 348.99
437.83, 4.25, 348.25
¯438.52, 4.32, 347.38
439.28, 4.42, 346.40
440.23, 4.52, 345.19
441.10, 4.67, 344.08
441.75, 4.87, 343.24
442.32, 5.09, 342.49
442.90, 5.34, 341.73
444.87, 5.62, 339.21
433.98, 4.00, 353.02
434.19, 4.02, 352.75
434.77, 3.95, 352.00
435.06, 3.97, 351.62
435.38, 4.01, 351.20
435.73, 4.04, 350.75
436.11, 4.08, 350.25
436.58, 4.13, 349.63
437.07, 4.18, 348.99
437.64, 4.25, 348.25
438.29, 4.32, 347.39
439.03, 4.42, 346.42
439.91, 4.53, 345.27
440.78, 4.67, 344.13
441.48, 4.86, 343.20
442.05, 5.08, 342.44
442.61, 5.32, 341.68
443.99, 5.60, 339.87
433.90, 4.00, 352.99
434.10, 4.03, 352.72
434.66, 3.95, 351.98
434.95, 3.98, 351.60
435.25, 4.01, 351.19
435.59, 4.04, 350.73
435.97, 4.09, 350.23
436.42, 4.13, 349.63
436.89, 4.18, 348.98
437.44, 4.25, 348.25
438.07, 4.32, 347.40
438.78, 4.42, 346.45
439.59, 4.53, 345.35
440.47, 4.67, 344.17
441.20, 4.85, 343.18
441.76, 5.07, 342.41
442.33, 5.31, 341.63
443.07, 5.57, 340.62
433.81, 4.00, 352.97
434.00, 4.03, 352.70
434.22, 4.05, 352.40
434.83, 3.98, 351.58
435.13, 4.01, 351.17
435.46, 4.05, 350.71
435.82, 4.09, 350.21
¯436.25, 4.13, 349.62
436.72, 4.19, 348.98
437.25, 4.25, 348.25
437.85, 4.32, 347.42
438.53, 4.42, 346.47
439.31, 4.53, 345.40
440.17, 4.66, 344.22
440.92, 4.84, 343.17
441.49, 5.05, 342.37
442.04, 5.29, 341.59
442.72, 5.55, 340.63
444.20, 5.87, 338.58
433.73, 4.00, 352.95
433.91, 4.03, 352.68
434.12, 4.05, 352.38
434.71, 3.98, 351.56
435.00, 4.01, 351.16
435.32, 4.05, 350.70
435.68, 4.09, 350.20
436.09, 4.13, 349.62
436.54, 4.19, 348.98
437.05, 4.25, 348.26
437.63, 4.32, 347.43
438.29, 4.41, 346.50
439.04, 4.52, 345.44
439.86, 4.66, 344.28
440.62, 4.83, 343.20
441.20, 5.04, 342.36
441.76, 5.28, 341.54
442.38, 5.53, 340.65
443.27, 5.83, 339.36
433.64, 4.00, 352.93
433.82, 4.03, 352.66
434.02, 4.06, 352.36
434.60, 3.98, 351.55
434.88, 4.02, 351.14
435.19, 4.05, 350.69
435.54, 4.09, 350.19
435.93, 4.13, 349.61
436.36, 4.19, 348.99
436.86, 4.25, 348.27
437.42, 4.32, 347.45
438.05, 4.41, 346.53
438.78, 4.52, 345.48
439.52, 4.66, 344.39
440.29, 4.82, 343.26
440.91, 5.03, 342.36
441.48, 5.26, 341.50
442.06, 5.52, 340.64
442.87, 5.80, 339.43
433.55, 4.00, 352.91
¯433.73, 4.03, 352.65
433.93, 4.06, 352.35
434.15, 4.09, 352.02
434.75, 4.02, 351.13
435.05, 4.05, 350.69
435.39, 4.09, 350.18
435.77, 4.14, 349.61
436.19, 4.19, 348.99
436.67, 4.25, 348.28
437.22, 4.32, 347.46
437.82, 4.41, 346.57
438.52, 4.52, 345.52
439.23, 4.65, 344.45
439.98, 4.81, 343.32
440.62, 5.01, 342.36
441.20, 5.24, 341.47
441.77, 5.50, 340.60
442.52, 5.78, 339.46
443.51, 6.11, 337.96
433.47, 4.00, 352.89
433.63, 4.03, 352.63
433.83, 4.06, 352.33
434.04, 4.09, 352.00
434.63, 4.02, 351.13
434.92, 4.05, 350.68
435.25, 4.09, 350.18
435.62, 4.14, 349.62
436.02, 4.19, 349.00
436.48, 4.25, 348.30
437.01, 4.32, 347.49
437.58, 4.41, 346.60
438.26, 4.51, 345.57
438.95, 4.65, 344.49
439.67, 4.81, 343.39
440.33, 5.00, 342.36
440.91, 5.23, 341.46
441.48, 5.48, 340.57
442.16, 5.76, 339.49
443.03, 6.08, 338.13
433.38, 4.01, 352.87
433.54, 4.03, 352.61
433.73, 4.06, 352.32
433.94, 4.09, 351.99
434.17, 4.12, 351.63
434.79, 4.06, 350.68
435.10, 4.09, 350.18
435.46, 4.14, 349.62
435.85, 4.19, 349.01
436.29, 4.25, 348.31
436.80, 4.32, 347.51
437.36, 4.41, 346.63
¯438.00, 4.51, 345.61
438.68, 4.64, 344.54
439.38, 4.80, 343.44
440.05, 4.99, 342.36
440.61, 5.21, 341.47
441.18, 5.46, 340.54
441.81, 5.73, 339.52
442.61, 6.05, 338.24
433.29, 4.01, 352.85
433.45, 4.03, 352.60
433.64, 4.06, 352.30
433.84, 4.09, 351.98
434.06, 4.12, 351.62
434.66, 4.06, 350.67
434.96, 4.10, 350.18
435.31, 4.14, 349.62
435.68, 4.19, 349.02
436.10, 4.25, 348.33
436.59, 4.32, 347.54
437.14, 4.41, 346.66
437.76, 4.51, 345.66
438.41, 4.63, 344.59
439.10, 4.79, 343.48
439.73, 4.97, 342.44
440.31, 5.19, 341.48
440.89, 5.44, 340.52
441.47, 5.71, 339.55
442.20, 6.02, 338.35
433.21, 4.01, 352.84
433.36, 4.03, 352.59
433.54, 4.06, 352.29
433.73, 4.09, 351.97
433.95, 4.12, 351.61
434.19, 4.15, 351.21
434.82, 4.10, 350.18
435.15, 4.14, 349.63
435.51, 4.19, 349.03
435.92, 4.25, 348.35
436.39, 4.32, 347.57
436.92, 4.40, 346.68
437.51, 4.50, 345.71
438.14, 4.63, 344.65
438.81, 4.78, 343.53
439.42, 4.96, 342.51
440.01, 5.18, 341.50
440.60, 5.42, 340.50
441.16, 5.69, 339.54
441.81, 5.99, 338.43
433.12, 4.01, 352.83
433.27, 4.04, 352.58
433.44, 4.06, 352.28
¯433.63, 4.09, 351.96
433.84, 4.12, 351.61
434.07, 4.15, 351.21
434.68, 4.10, 350.19
435.00, 4.14, 349.64
435.35, 4.19, 349.04
435.74, 4.25, 348.37
436.19, 4.32, 347.60
436.71, 4.40, 346.71
437.27, 4.50, 345.75
437.88, 4.62, 344.72
438.53, 4.77, 343.59
439.13, 4.95, 342.56
439.72, 5.16, 341.51
440.31, 5.40, 340.48
440.86, 5.67, 339.52
441.45, 5.96, 338.48
433.04, 4.01, 352.81
433.18, 4.04, 352.56
433.35, 4.06, 352.27
433.53, 4.09, 351.95
433.73, 4.12, 351.60
433.95, 4.15, 351.21
434.20, 4.19, 350.77
434.85, 4.14, 349.65
435.19, 4.19, 349.05
435.56, 4.25, 348.40
436.00, 4.32, 347.63
436.50, 4.40, 346.75
437.04, 4.50, 345.80
437.61, 4.62, 344.79
438.25, 4.76, 343.65
438.84, 4.94, 342.60
439.44, 5.14, 341.53
440.03, 5.38, 340.47
440.55, 5.64, 339.51
441.13, 5.94, 338.47
432.95, 4.01, 352.80
433.09, 4.04, 352.56
433.25, 4.06, 352.26
433.43, 4.09, 351.94
433.62, 4.12, 351.60
433.84, 4.15, 351.20
434.08, 4.19, 350.77
434.70, 4.14, 349.66
435.04, 4.19, 349.06
435.39, 4.25, 348.41
435.80, 4.32, 347.67
436.28, 4.40, 346.80
436.81, 4.49, 345.84
437.36, 4.61, 344.85
¯437.98, 4.75, 343.71
438.56, 4.92, 342.65
439.15, 5.13, 341.56
439.72, 5.36, 340.50
440.25, 5.62, 339.50
440.81, 5.91, 338.46
441.57, 6.24, 337.06
432.87, 4.01, 352.80
433.00, 4.04, 352.55
433.16, 4.06, 352.26
433.33, 4.09, 351.94
433.51, 4.12, 351.60
433.72, 4.15, 351.20
433.95, 4.19, 350.77
434.55, 4.14, 349.68
