ŸVERSION 0.7
FIELDS x y z
SIZE 8 8 8
TYPE F F F
COUNT 1 1 1
WIDTH 2271
HEIGHT 1
VIEWPOINT 439.14, 14.95, 252.44 1 443.80, 9.17, 271.68
POINTS 2271
DATA ascii
438.13, 7.12, 270.23
437.96, 7.12, 270.31
437.78, 7.11, 270.39
437.59, 7.11, 270.48
437.39, 7.10, 270.57
437.17, 7.10, 270.66
436.94, 7.10, 270.77
436.69, 7.09, 270.88
436.41, 7.08, 271.01
436.10, 7.07, 271.15
435.77, 7.06, 271.30
435.41, 7.05, 271.45
435.04, 7.05, 271.62
434.64, 7.05, 271.80
434.20, 7.05, 272.00
433.79, 7.07, 272.19
433.33, 7.08, 272.40
432.79, 7.09, 272.64
432.06, 7.08, 272.97
431.23, 7.07, 273.34
¯430.43, 7.08, 273.70
428.12, 6.87, 274.74
427.51, 6.97, 275.02
427.51, 7.18, 275.02
427.51, 7.39, 275.03
427.51, 7.59, 275.03
427.51, 7.80, 275.04
427.51, 8.00, 275.05
427.51, 8.21, 275.05
427.51, 8.41, 275.06
427.51, 8.62, 275.07
438.16, 7.12, 270.29
437.99, 7.11, 270.37
437.81, 7.11, 270.45
437.62, 7.10, 270.54
437.42, 7.10, 270.63
437.20, 7.10, 270.73
436.97, 7.09, 270.84
436.72, 7.09, 270.96
436.44, 7.08, 271.09
436.14, 7.07, 271.23
435.80, 7.06, 271.38
435.45, 7.05, 271.55
435.09, 7.05, 271.72
434.69, 7.05, 271.90
434.25, 7.04, 272.11
433.85, 7.06, 272.29
433.39, 7.08, 272.51
432.85, 7.09, 272.76
432.13, 7.08, 273.09
431.33, 7.07, 273.47
430.57, 7.09, 273.82
428.29, 6.88, 274.88
427.51, 6.95, 275.24
427.51, 7.16, 275.25
427.51, 7.37, 275.25
427.51, 7.58, 275.26
427.51, 7.79, 275.27
427.51, 7.99, 275.27
427.51, 8.20, 275.28
427.51, 8.40, 275.29
427.51, 8.61, 275.29
438.18, 7.12, 270.35
438.02, 7.11, 270.43
437.84, 7.11, 270.51
437.65, 7.10, 270.60
437.45, 7.10, 270.70
437.23, 7.09, 270.80
437.00, 7.09, 270.91
436.75, 7.08, 271.03
436.47, 7.07, 271.17
¯436.17, 7.06, 271.31
435.84, 7.05, 271.47
435.49, 7.05, 271.64
435.13, 7.04, 271.81
434.74, 7.04, 272.00
434.30, 7.04, 272.21
433.91, 7.06, 272.40
433.46, 7.08, 272.61
432.92, 7.09, 272.87
432.20, 7.08, 273.22
431.45, 7.08, 273.58
430.70, 7.10, 273.94
428.45, 6.88, 275.02
427.51, 6.94, 275.47
427.51, 7.15, 275.48
427.51, 7.35, 275.48
427.51, 7.56, 275.49
427.51, 7.77, 275.50
427.51, 7.98, 275.50
427.51, 8.19, 275.51
427.51, 8.39, 275.51
427.51, 8.60, 275.52
438.21, 7.12, 270.40
438.04, 7.11, 270.49
437.87, 7.11, 270.57
437.68, 7.10, 270.67
437.48, 7.10, 270.77
437.26, 7.09, 270.87
437.04, 7.09, 270.98
436.78, 7.08, 271.11
436.51, 7.07, 271.25
436.21, 7.06, 271.39
435.88, 7.05, 271.56
435.54, 7.04, 271.73
435.18, 7.04, 271.90
434.78, 7.04, 272.10
434.36, 7.04, 272.31
433.96, 7.06, 272.51
433.53, 7.08, 272.72
432.99, 7.09, 272.99
432.28, 7.08, 273.34
431.57, 7.08, 273.69
430.83, 7.10, 274.06
428.62, 6.89, 275.15
427.51, 6.92, 275.70
427.51, 7.13, 275.71
427.51, 7.34, 275.71
427.51, 7.55, 275.72
427.51, 7.76, 275.73
427.51, 7.97, 275.73
427.51, 8.17, 275.74
¯427.51, 8.38, 275.74
427.51, 8.59, 275.75
438.24, 7.11, 270.46
438.07, 7.11, 270.54
437.90, 7.10, 270.63
437.71, 7.10, 270.73
437.51, 7.09, 270.83
437.30, 7.09, 270.94
437.07, 7.08, 271.06
436.82, 7.08, 271.18
436.54, 7.07, 271.32
436.24, 7.06, 271.48
435.93, 7.05, 271.64
435.58, 7.04, 271.82
435.22, 7.04, 272.00
434.83, 7.04, 272.20
434.41, 7.04, 272.41
434.02, 7.06, 272.61
433.60, 7.08, 272.83
433.06, 7.09, 273.11
432.34, 7.07, 273.47
431.67, 7.09, 273.81
430.96, 7.11, 274.18
428.78, 6.90, 275.29
427.51, 6.90, 275.94
427.51, 7.11, 275.94
427.51, 7.32, 275.95
427.51, 7.53, 275.95
427.51, 7.74, 275.96
427.51, 7.95, 275.97
427.51, 8.16, 275.97
427.51, 8.37, 275.98
427.51, 8.58, 275.98
438.27, 7.11, 270.52
438.10, 7.11, 270.60
437.93, 7.10, 270.70
437.74, 7.10, 270.79
437.54, 7.09, 270.90
437.33, 7.09, 271.01
437.11, 7.08, 271.13
436.85, 7.07, 271.26
436.58, 7.06, 271.40
436.29, 7.05, 271.56
435.97, 7.05, 271.72
435.63, 7.04, 271.90
435.27, 7.04, 272.09
434.88, 7.03, 272.30
434.47, 7.04, 272.51
434.08, 7.06, 272.72
433.66, 7.08, 272.94
433.13, 7.09, 273.22
¯432.37, 7.06, 273.62
431.75, 7.08, 273.95
431.09, 7.12, 274.29
428.96, 6.91, 275.41
427.51, 6.87, 276.17
427.51, 7.09, 276.18
427.51, 7.30, 276.18
427.51, 7.51, 276.19
427.51, 7.73, 276.20
427.51, 7.94, 276.20
427.51, 8.15, 276.21
427.51, 8.36, 276.21
427.51, 8.57, 276.22
438.30, 7.11, 270.57
438.13, 7.11, 270.66
437.96, 7.10, 270.76
437.77, 7.09, 270.86
437.57, 7.09, 270.96
437.37, 7.08, 271.08
437.14, 7.08, 271.20
436.89, 7.07, 271.33
436.62, 7.06, 271.48
436.33, 7.05, 271.64
436.02, 7.05, 271.81
435.68, 7.04, 271.99
435.32, 7.03, 272.19
434.93, 7.03, 272.39
434.53, 7.03, 272.61
434.15, 7.05, 272.82
433.73, 7.08, 273.05
433.20, 7.08, 273.33
432.39, 7.05, 273.77
431.82, 7.08, 274.08
431.22, 7.12, 274.41
429.19, 6.93, 275.50
428.39, 7.00, 275.94
427.51, 7.07, 276.42
427.51, 7.28, 276.42
427.51, 7.50, 276.43
427.51, 7.71, 276.44
427.51, 7.92, 276.44
427.51, 8.14, 276.45
427.51, 8.35, 276.45
427.51, 8.56, 276.46
438.33, 7.11, 270.63
438.16, 7.10, 270.72
437.99, 7.10, 270.82
437.81, 7.09, 270.92
437.61, 7.09, 271.03
437.40, 7.08, 271.14
437.18, 7.08, 271.27
¯436.93, 7.07, 271.41
436.66, 7.06, 271.56
436.38, 7.05, 271.72
436.07, 7.04, 271.89
435.73, 7.04, 272.08
435.37, 7.03, 272.28
434.98, 7.03, 272.49
434.59, 7.03, 272.71
434.21, 7.05, 272.92
433.79, 7.07, 273.16
433.27, 7.08, 273.45
432.42, 7.03, 273.92
431.90, 7.08, 274.21
431.36, 7.13, 274.52
429.42, 6.95, 275.59
429.55, 7.16, 275.53
429.55, 7.35, 275.53
429.56, 7.54, 275.53
427.51, 7.48, 276.67
427.51, 7.69, 276.68
427.51, 7.91, 276.69
427.51, 8.12, 276.69
427.51, 8.34, 276.70
427.51, 8.55, 276.70
438.36, 7.11, 270.68
438.19, 7.10, 270.78
438.02, 7.10, 270.87
437.84, 7.09, 270.98
437.64, 7.08, 271.09
437.44, 7.08, 271.21
437.21, 7.07, 271.34
436.96, 7.06, 271.48
436.70, 7.06, 271.63
436.42, 7.05, 271.79
436.11, 7.04, 271.97
435.78, 7.03, 272.16
435.41, 7.03, 272.37
435.03, 7.02, 272.59
434.65, 7.03, 272.81
434.27, 7.05, 273.03
433.86, 7.07, 273.27
433.30, 7.07, 273.59
432.45, 7.02, 274.07
431.98, 7.07, 274.34
431.49, 7.14, 274.63
429.91, 7.02, 275.53
429.92, 7.20, 275.53
429.93, 7.39, 275.53
429.94, 7.57, 275.53
427.51, 7.46, 276.92
427.51, 7.68, 276.93
¯427.51, 7.89, 276.93
427.51, 8.11, 276.94
427.51, 8.33, 276.94
427.51, 8.54, 276.95
438.39, 7.10, 270.74
438.23, 7.10, 270.83
438.06, 7.09, 270.93
437.87, 7.09, 271.04
437.68, 7.08, 271.16
437.47, 7.08, 271.28
437.25, 7.07, 271.41
437.01, 7.06, 271.55
436.75, 7.06, 271.71
436.47, 7.05, 271.87
436.16, 7.04, 272.05
435.83, 7.03, 272.25
435.46, 7.02, 272.46
435.09, 7.02, 272.69
434.71, 7.03, 272.91
434.33, 7.05, 273.13
433.92, 7.07, 273.37
433.33, 7.06, 273.72
432.49, 7.01, 274.22
432.06, 7.07, 274.47
431.62, 7.14, 274.74
430.27, 7.06, 275.53
430.28, 7.24, 275.53
430.29, 7.42, 275.53
430.06, 7.57, 275.67
427.51, 7.44, 277.17
427.51, 7.66, 277.18
427.51, 7.88, 277.18
427.51, 8.10, 277.19
427.51, 8.31, 277.19
427.51, 8.53, 277.20
438.42, 7.10, 270.79
438.26, 7.10, 270.89
438.09, 7.09, 270.99
437.91, 7.09, 271.10
437.72, 7.08, 271.22
437.51, 7.07, 271.34
437.29, 7.07, 271.48
437.05, 7.06, 271.62
436.79, 7.05, 271.78
436.51, 7.05, 271.95
436.21, 7.04, 272.13
435.88, 7.03, 272.33
435.52, 7.02, 272.55
435.14, 7.02, 272.78
434.77, 7.03, 273.01
434.40, 7.05, 273.23
¯433.99, 7.07, 273.48
433.37, 7.05, 273.86
432.54, 7.00, 274.36
432.14, 7.07, 274.60
431.71, 7.14, 274.87
430.62, 7.10, 275.53
430.62, 7.28, 275.53
430.63, 7.46, 275.53
430.18, 7.57, 275.81
427.51, 7.43, 277.42
427.51, 7.65, 277.43
427.51, 7.86, 277.43
427.51, 8.08, 277.44
427.51, 8.30, 277.45
427.51, 8.52, 277.45
438.45, 7.10, 270.85
438.29, 7.10, 270.95
438.13, 7.09, 271.05
437.95, 7.08, 271.16
437.75, 7.08, 271.28
437.55, 7.07, 271.41
437.33, 7.06, 271.55
437.09, 7.06, 271.69
436.84, 7.05, 271.85
436.56, 7.04, 272.02
436.26, 7.04, 272.21
435.93, 7.03, 272.42
435.57, 7.02, 272.64
435.19, 7.01, 272.88
434.83, 7.03, 273.10
434.46, 7.04, 273.33
434.04, 7.06, 273.60
433.40, 7.04, 274.00
432.62, 7.00, 274.48
432.22, 7.07, 274.73
431.79, 7.14, 275.00
430.95, 7.14, 275.53
430.96, 7.32, 275.53
430.96, 7.49, 275.53
430.30, 7.57, 275.94
427.51, 7.41, 277.68
427.51, 7.63, 277.69
427.51, 7.85, 277.69
427.51, 8.07, 277.70
427.51, 8.29, 277.70
427.51, 8.51, 277.71
438.48, 7.10, 270.90
438.33, 7.09, 271.00
438.16, 7.09, 271.11
437.98, 7.08, 271.22
437.79, 7.08, 271.34
¯437.59, 7.07, 271.48
437.37, 7.06, 271.61
437.14, 7.06, 271.76
436.88, 7.05, 271.93
436.61, 7.04, 272.10
436.31, 7.03, 272.29
435.98, 7.03, 272.50
435.63, 7.02, 272.73
435.25, 7.01, 272.97
434.89, 7.02, 273.20
434.53, 7.04, 273.44
434.09, 7.06, 273.71
433.44, 7.03, 274.13
432.69, 7.00, 274.61
432.30, 7.06, 274.86
431.87, 7.13, 275.14
431.27, 7.18, 275.53
431.27, 7.35, 275.53
431.28, 7.52, 275.53
430.42, 7.57, 276.08
427.51, 7.39, 277.94
427.51, 7.61, 277.95
427.51, 7.83, 277.95
427.51, 8.06, 277.96
427.51, 8.28, 277.96
427.51, 8.50, 277.97
438.52, 7.10, 270.96
438.36, 7.09, 271.06
438.20, 7.09, 271.17
438.02, 7.08, 271.28
437.83, 7.07, 271.41
437.63, 7.07, 271.54
437.41, 7.06, 271.68
437.18, 7.06, 271.83
436.93, 7.05, 272.00
436.66, 7.04, 272.18
436.36, 7.03, 272.37
436.04, 7.02, 272.58
435.68, 7.01, 272.82
435.31, 7.01, 273.07
434.96, 7.02, 273.30
434.58, 7.04, 273.54
434.15, 7.05, 273.83
433.48, 7.02, 274.27
432.77, 6.99, 274.73
432.38, 7.06, 274.99
431.96, 7.13, 275.27
431.57, 7.22, 275.53
431.58, 7.39, 275.53
431.59, 7.55, 275.53
430.55, 7.57, 276.21
¯427.51, 7.37, 278.21
427.51, 7.59, 278.21
427.51, 7.82, 278.22
427.51, 8.04, 278.22
427.51, 8.26, 278.23
427.51, 8.49, 278.23
438.55, 7.10, 271.01
438.40, 7.09, 271.11
438.23, 7.08, 271.22
438.06, 7.08, 271.34
437.87, 7.07, 271.47
437.67, 7.07, 271.60
437.46, 7.06, 271.75
437.23, 7.05, 271.90
436.98, 7.05, 272.07
436.71, 7.04, 272.25
436.42, 7.03, 272.45
436.09, 7.02, 272.67
435.74, 7.01, 272.91
435.36, 7.00, 273.16
435.02, 7.02, 273.39
434.64, 7.03, 273.65
434.21, 7.04, 273.94
433.52, 7.00, 274.41
432.85, 6.99, 274.86
432.46, 7.06, 275.12
432.04, 7.13, 275.41
431.87, 7.25, 275.53
431.87, 7.42, 275.53
431.81, 7.57, 275.57
430.67, 7.57, 276.35
427.51, 7.35, 278.48
427.51, 7.57, 278.48
427.51, 7.80, 278.49
427.51, 8.03, 278.49
427.51, 8.25, 278.50
427.51, 8.48, 278.50
438.59, 7.09, 271.06
438.43, 7.09, 271.17
438.27, 7.08, 271.28
438.10, 7.08, 271.40
437.91, 7.07, 271.53
437.71, 7.07, 271.67
437.50, 7.06, 271.81
437.28, 7.05, 271.97
437.03, 7.05, 272.14
436.76, 7.04, 272.33
436.47, 7.03, 272.53
436.15, 7.02, 272.75
435.80, 7.01, 272.99
435.42, 7.00, 273.26
¯435.08, 7.02, 273.49
434.69, 7.03, 273.76
434.27, 7.04, 274.06
433.56, 6.99, 274.54
432.93, 6.99, 274.98
432.55, 7.05, 275.25
432.10, 7.12, 275.56
431.97, 7.25, 275.65
431.98, 7.42, 275.65
431.92, 7.57, 275.69
430.79, 7.57, 276.48
427.51, 7.33, 278.75
427.51, 7.56, 278.76
427.51, 7.78, 278.76
427.51, 8.01, 278.77
427.51, 8.24, 278.77
427.51, 8.47, 278.78
438.62, 7.09, 271.11
438.47, 7.09, 271.22
438.31, 7.08, 271.34
438.14, 7.08, 271.46
437.95, 7.07, 271.59
437.76, 7.06, 271.73
437.55, 7.06, 271.88
437.32, 7.05, 272.04
437.08, 7.04, 272.21
436.81, 7.04, 272.40
436.52, 7.03, 272.61
436.21, 7.02, 272.83
435.86, 7.01, 273.08
435.48, 7.00, 273.35
435.14, 7.01, 273.59
434.75, 7.02, 273.87
434.32, 7.03, 274.17
433.61, 6.98, 274.68
433.01, 6.98, 275.11
432.63, 7.05, 275.38
432.16, 7.11, 275.71
432.07, 7.25, 275.78
432.07, 7.42, 275.78
432.03, 7.57, 275.81
430.92, 7.57, 276.61
429.54, 7.57, 277.59
427.51, 7.54, 279.04
427.51, 7.77, 279.04
427.51, 8.00, 279.04
427.51, 8.23, 279.05
427.51, 8.46, 279.05
438.66, 7.09, 271.17
438.51, 7.09, 271.28
438.35, 7.08, 271.39
¯438.18, 7.07, 271.52
438.00, 7.07, 271.65
437.80, 7.06, 271.79
437.59, 7.06, 271.94
437.37, 7.05, 272.11
437.13, 7.04, 272.28
436.87, 7.03, 272.47
436.58, 7.03, 272.68
436.27, 7.02, 272.91
435.92, 7.01, 273.16
435.54, 7.00, 273.44
435.19, 7.00, 273.70
434.81, 7.01, 273.98
434.37, 7.02, 274.30
433.65, 6.97, 274.82
433.09, 6.98, 275.23
432.69, 7.04, 275.52
432.22, 7.10, 275.87
432.16, 7.25, 275.91
432.17, 7.41, 275.91
432.14, 7.57, 275.93
431.04, 7.57, 276.74
429.68, 7.57, 277.73
427.51, 7.52, 279.32
427.51, 7.75, 279.32
427.51, 7.98, 279.33
427.51, 8.21, 279.33
427.51, 8.44, 279.34
438.69, 7.09, 271.22
438.54, 7.08, 271.33
438.39, 7.08, 271.45
438.22, 7.07, 271.57
438.04, 7.07, 271.71
437.85, 7.06, 271.85
437.64, 7.05, 272.01
437.42, 7.05, 272.17
437.18, 7.04, 272.35
436.92, 7.03, 272.55
436.64, 7.02, 272.76
436.32, 7.01, 272.99
435.98, 7.00, 273.25
435.61, 6.99, 273.53
435.25, 7.00, 273.80
434.87, 7.01, 274.08
434.41, 7.01, 274.42
433.70, 6.96, 274.96
433.17, 6.97, 275.35
432.75, 7.03, 275.67
432.28, 7.09, 276.02
432.26, 7.25, 276.04
432.26, 7.41, 276.04
¯432.25, 7.57, 276.05
431.16, 7.57, 276.87
429.82, 7.57, 277.87
427.51, 7.50, 279.61
427.51, 7.73, 279.61
427.51, 7.97, 279.62
427.51, 8.20, 279.62
427.51, 8.43, 279.63
438.73, 7.09, 271.27
438.58, 7.08, 271.38
438.43, 7.08, 271.50
438.26, 7.07, 271.63
438.08, 7.07, 271.77
437.89, 7.06, 271.91
437.69, 7.05, 272.07
437.47, 7.05, 272.24
437.23, 7.04, 272.42
436.97, 7.03, 272.62
436.69, 7.02, 272.84
436.38, 7.01, 273.07
436.05, 7.00, 273.33
435.67, 6.99, 273.62
435.31, 6.99, 273.90
434.93, 7.00, 274.19
434.46, 7.00, 274.55
433.75, 6.95, 275.09
433.24, 6.97, 275.49
432.81, 7.02, 275.82
432.35, 7.08, 276.17
432.35, 7.24, 276.17
432.36, 7.41, 276.17
432.36, 7.57, 276.18
431.29, 7.57, 277.00
429.96, 7.57, 278.01
427.51, 7.48, 279.90
427.51, 7.71, 279.91
427.51, 7.95, 279.91
427.51, 8.19, 279.91
427.51, 8.42, 279.92
438.77, 7.09, 271.32
438.62, 7.08, 271.44
438.47, 7.08, 271.56
438.30, 7.07, 271.69
438.13, 7.06, 271.83
437.94, 7.06, 271.97
437.74, 7.05, 272.13
437.52, 7.05, 272.30
437.28, 7.04, 272.49
437.03, 7.03, 272.69
436.75, 7.02, 272.91
436.44, 7.01, 273.15
¯436.11, 7.00, 273.42
435.74, 6.99, 273.71
435.36, 6.99, 274.00
434.99, 7.00, 274.30
434.51, 6.99, 274.67
433.80, 6.94, 275.23
433.30, 6.96, 275.63
432.88, 7.01, 275.96
432.45, 7.08, 276.30
432.45, 7.24, 276.30
432.45, 7.40, 276.30
432.45, 7.57, 276.31
431.41, 7.57, 277.12
430.11, 7.57, 278.15
427.51, 7.46, 280.20
427.51, 7.70, 280.21
427.51, 7.93, 280.21
427.51, 8.17, 280.21
427.51, 8.41, 280.22
438.81, 7.08, 271.37
438.66, 7.08, 271.49
438.51, 7.07, 271.61
438.35, 7.07, 271.74
438.17, 7.06, 271.88
437.99, 7.06, 272.03
437.79, 7.05, 272.20
437.57, 7.04, 272.37
437.34, 7.04, 272.56
437.08, 7.03, 272.76
436.81, 7.02, 272.99
436.51, 7.01, 273.23
436.17, 7.00, 273.50
435.81, 6.99, 273.79
435.42, 6.98, 274.10
435.05, 6.99, 274.41
434.56, 6.98, 274.80
433.85, 6.93, 275.37
433.36, 6.95, 275.77
432.94, 7.00, 276.11
432.54, 7.07, 276.43
432.55, 7.24, 276.43
432.55, 7.40, 276.43
432.55, 7.57, 276.44
431.54, 7.57, 277.25
430.25, 7.57, 278.29
427.51, 7.44, 280.51
427.51, 7.68, 280.51
427.51, 7.92, 280.52
427.51, 8.16, 280.52
427.51, 8.40, 280.52
438.85, 7.08, 271.42
¯438.70, 7.08, 271.54
438.55, 7.07, 271.66
438.39, 7.07, 271.80
438.22, 7.06, 271.94
438.03, 7.06, 272.09
437.84, 7.05, 272.26
437.62, 7.04, 272.43
437.39, 7.04, 272.63
437.14, 7.03, 272.83
436.87, 7.02, 273.06
436.57, 7.01, 273.31
436.24, 7.00, 273.58
435.88, 6.99, 273.88
435.48, 6.98, 274.20
435.11, 6.99, 274.51
434.62, 6.97, 274.92
433.94, 6.92, 275.48
433.43, 6.94, 275.91
433.00, 6.99, 276.26
432.64, 7.07, 276.56
432.64, 7.23, 276.56
432.64, 7.40, 276.57
432.64, 7.56, 276.57
431.67, 7.57, 277.38
430.39, 7.57, 278.43
427.51, 7.41, 280.82
427.51, 7.66, 280.82
427.51, 7.90, 280.83
427.51, 8.14, 280.83
427.51, 8.39, 280.83
438.89, 7.08, 271.47
438.74, 7.08, 271.59
438.60, 7.07, 271.72
438.44, 7.07, 271.85
438.27, 7.06, 272.00
438.08, 7.05, 272.15
437.89, 7.05, 272.32
437.67, 7.04, 272.50
437.45, 7.03, 272.69
437.20, 7.03, 272.90
436.93, 7.02, 273.13
436.63, 7.01, 273.38
436.30, 7.00, 273.66
435.94, 6.98, 273.97
435.55, 6.97, 274.31
435.18, 6.98, 274.62
434.67, 6.96, 275.05
434.03, 6.92, 275.59
433.49, 6.93, 276.05
433.07, 6.98, 276.41
432.74, 7.07, 276.69
¯432.74, 7.23, 276.69
432.74, 7.40, 276.70
432.74, 7.56, 276.70
431.79, 7.57, 277.50
430.53, 7.57, 278.57
427.51, 7.39, 281.14
427.51, 7.64, 281.14
427.51, 7.88, 281.14
427.51, 8.13, 281.15
427.51, 8.37, 281.15
438.93, 7.08, 271.52
438.79, 7.08, 271.64
438.64, 7.07, 271.77
438.48, 7.07, 271.91
438.31, 7.06, 272.05
438.13, 7.05, 272.21
437.94, 7.05, 272.38
437.73, 7.04, 272.56
437.50, 7.03, 272.76
437.26, 7.02, 272.97
436.99, 7.02, 273.21
436.69, 7.01, 273.46
436.37, 6.99, 273.74
436.02, 6.98, 274.05
435.62, 6.97, 274.40
435.24, 6.97, 274.73
434.73, 6.95, 275.17
434.13, 6.92, 275.69
433.56, 6.92, 276.19
433.14, 6.97, 276.56
432.83, 7.06, 276.82
432.83, 7.23, 276.83
432.83, 7.39, 276.83
432.83, 7.56, 276.83
431.92, 7.57, 277.62
430.68, 7.57, 278.71
427.51, 7.37, 281.46
427.51, 7.62, 281.47
427.51, 7.87, 281.47
427.51, 8.11, 281.47
427.51, 8.36, 281.48
438.97, 7.08, 271.57
438.83, 7.07, 271.69
438.68, 7.07, 271.82
438.53, 7.06, 271.96
438.36, 7.06, 272.11
438.18, 7.05, 272.27
437.99, 7.05, 272.44
437.78, 7.04, 272.62
437.56, 7.03, 272.82
437.31, 7.02, 273.04
¯437.05, 7.01, 273.28
436.76, 7.00, 273.54
436.44, 6.99, 273.82
436.09, 6.98, 274.14
435.69, 6.97, 274.49
435.31, 6.97, 274.83
434.78, 6.94, 275.30
434.22, 6.92, 275.80
433.64, 6.91, 276.32
433.20, 6.96, 276.71
432.93, 7.06, 276.95
432.93, 7.22, 276.96
432.93, 7.39, 276.96
432.93, 7.55, 276.96
432.05, 7.57, 277.75
430.82, 7.57, 278.84
427.51, 7.35, 281.79
427.51, 7.60, 281.80
427.51, 7.85, 281.80
427.51, 8.10, 281.80
427.51, 8.35, 281.81
439.01, 7.08, 271.62
438.87, 7.07, 271.74
438.73, 7.07, 271.87
438.57, 7.06, 272.01
438.41, 7.06, 272.16
438.23, 7.05, 272.33
438.04, 7.04, 272.50
437.84, 7.04, 272.69
437.61, 7.03, 272.89
437.37, 7.02, 273.11
437.11, 7.01, 273.35
436.82, 7.00, 273.61
436.51, 6.99, 273.90
436.16, 6.98, 274.22
435.77, 6.97, 274.57
435.37, 6.96, 274.94
434.85, 6.93, 275.41
434.32, 6.92, 275.90
433.74, 6.91, 276.43
433.27, 6.95, 276.86
433.02, 7.05, 277.09
433.02, 7.22, 277.09
433.03, 7.38, 277.09
433.03, 7.55, 277.09
432.18, 7.57, 277.87
430.96, 7.57, 278.98
427.51, 7.32, 282.13
427.51, 7.58, 282.14
427.51, 7.83, 282.14
427.51, 8.08, 282.14
¯427.51, 8.34, 282.14
439.05, 7.08, 271.66
438.92, 7.07, 271.79
438.77, 7.07, 271.92
438.62, 7.06, 272.07
438.46, 7.06, 272.22
438.28, 7.05, 272.38
438.09, 7.04, 272.56
437.89, 7.04, 272.75
437.67, 7.03, 272.95
437.43, 7.02, 273.18
437.17, 7.01, 273.42
436.89, 7.00, 273.69
436.58, 6.99, 273.98
436.23, 6.98, 274.30
435.85, 6.96, 274.66
435.44, 6.95, 275.04
434.94, 6.93, 275.51
434.41, 6.92, 276.01
433.85, 6.91, 276.54
433.34, 6.94, 277.01
433.12, 7.05, 277.22
433.12, 7.21, 277.22
433.12, 7.38, 277.22
433.12, 7.54, 277.22
432.30, 7.57, 277.99
431.11, 7.57, 279.11
429.61, 7.57, 280.51
427.51, 7.55, 282.48
427.51, 7.81, 282.49
427.51, 8.07, 282.49
427.51, 8.32, 282.49
439.09, 7.08, 271.71
438.96, 7.07, 271.84
438.82, 7.07, 271.97
438.67, 7.06, 272.12
438.51, 7.06, 272.27
438.33, 7.05, 272.44
438.15, 7.04, 272.62
437.95, 7.04, 272.81
437.73, 7.03, 273.02
437.49, 7.02, 273.24
437.24, 7.01, 273.49
436.96, 7.00, 273.76
436.65, 6.99, 274.06
436.31, 6.98, 274.39
435.93, 6.96, 274.75
435.51, 6.95, 275.15
435.03, 6.93, 275.61
434.51, 6.92, 276.11
433.95, 6.91, 276.65
¯433.42, 6.93, 277.16
433.22, 7.04, 277.35
433.22, 7.21, 277.35
433.22, 7.38, 277.35
433.22, 7.54, 277.35
432.43, 7.57, 278.11
431.25, 7.57, 279.24
429.77, 7.57, 280.66
427.51, 7.53, 282.84
427.51, 7.79, 282.84
427.51, 8.05, 282.84
427.51, 8.31, 282.84
439.14, 7.08, 271.76
439.01, 7.07, 271.89
438.87, 7.07, 272.02
438.72, 7.06, 272.17
438.56, 7.05, 272.33
438.39, 7.05, 272.50
438.20, 7.04, 272.68
438.00, 7.03, 272.87
437.79, 7.03, 273.08
437.56, 7.02, 273.31
437.30, 7.01, 273.56
437.02, 7.00, 273.83
436.72, 6.99, 274.13
436.38, 6.97, 274.47
436.01, 6.96, 274.84
435.59, 6.94, 275.25
435.13, 6.93, 275.70
434.61, 6.92, 276.21
434.06, 6.91, 276.75
433.46, 6.91, 277.33
433.19, 7.01, 277.61
433.19, 7.18, 277.61
433.19, 7.34, 277.61
433.19, 7.51, 277.61
432.56, 7.57, 278.23
431.40, 7.57, 279.37
429.94, 7.57, 280.81
427.51, 7.51, 283.20
427.51, 7.77, 283.20
427.51, 8.03, 283.20
427.51, 8.30, 283.21
439.18, 7.08, 271.80
439.05, 7.07, 271.93
438.91, 7.07, 272.07
438.77, 7.06, 272.22
438.61, 7.05, 272.38
438.44, 7.05, 272.55
438.26, 7.04, 272.73
438.06, 7.03, 272.93
¯437.85, 7.02, 273.15
437.62, 7.02, 273.38
437.37, 7.01, 273.63
437.09, 7.00, 273.91
436.79, 6.98, 274.21
436.46, 6.97, 274.55
436.09, 6.96, 274.92
435.67, 6.94, 275.34
435.22, 6.93, 275.80
434.71, 6.92, 276.31
434.16, 6.91, 276.86
433.55, 6.90, 277.48
432.96, 6.93, 278.07
433.13, 7.14, 277.91
433.13, 7.31, 277.91
433.13, 7.48, 277.91
432.69, 7.57, 278.35
431.54, 7.57, 279.50
430.11, 7.57, 280.95
427.51, 7.48, 283.57
427.51, 7.75, 283.57
427.51, 8.02, 283.58
427.51, 8.28, 283.58
439.23, 7.07, 271.85
439.10, 7.07, 271.98
438.96, 7.06, 272.12
438.82, 7.06, 272.27
438.66, 7.05, 272.43
438.49, 7.05, 272.61
438.31, 7.04, 272.79
438.12, 7.03, 272.99
437.91, 7.02, 273.21
437.68, 7.01, 273.44
437.43, 7.01, 273.70
437.16, 6.99, 273.98
436.86, 6.98, 274.29
436.53, 6.97, 274.63
436.17, 6.96, 275.01
435.76, 6.94, 275.43
435.31, 6.93, 275.89
434.81, 6.91, 276.41
434.27, 6.91, 276.97
433.65, 6.90, 277.60
433.06, 6.92, 278.22
433.06, 7.09, 278.21
433.06, 7.27, 278.21
433.06, 7.44, 278.22
432.82, 7.57, 278.46
431.69, 7.57, 279.63
430.27, 7.57, 281.10
427.51, 7.46, 283.95
¯427.51, 7.73, 283.96
427.51, 8.00, 283.96
427.51, 8.27, 283.96
439.27, 7.07, 271.89
439.15, 7.07, 272.03
439.01, 7.06, 272.17
438.87, 7.06, 272.32
438.71, 7.05, 272.48
438.55, 7.05, 272.66
438.37, 7.04, 272.85
438.18, 7.03, 273.05
437.97, 7.02, 273.27
437.75, 7.01, 273.51
437.50, 7.00, 273.77
437.23, 6.99, 274.05
436.94, 6.98, 274.36
436.61, 6.97, 274.71
436.25, 6.96, 275.09
435.85, 6.94, 275.52
435.41, 6.93, 275.98
434.91, 6.91, 276.51
434.38, 6.91, 277.07
433.77, 6.90, 277.71
433.15, 6.91, 278.37
433.00, 7.05, 278.53
433.00, 7.23, 278.53
433.00, 7.40, 278.53
432.96, 7.57, 278.58
431.84, 7.57, 279.76
430.44, 7.57, 281.24
427.51, 7.44, 284.34
427.51, 7.71, 284.35
427.51, 7.98, 284.35
427.51, 8.25, 284.35
439.32, 7.07, 271.94
439.19, 7.07, 272.07
439.06, 7.06, 272.22
438.92, 7.06, 272.37
438.76, 7.05, 272.54
438.60, 7.04, 272.71
438.43, 7.04, 272.90
438.24, 7.03, 273.11
438.03, 7.02, 273.33
437.81, 7.01, 273.57
437.57, 7.00, 273.83
437.30, 6.99, 274.12
437.01, 6.98, 274.44
436.69, 6.97, 274.79
436.33, 6.95, 275.17
435.94, 6.94, 275.60
435.50, 6.93, 276.07
¯435.01, 6.91, 276.60
434.48, 6.91, 277.18
433.88, 6.90, 277.83
433.25, 6.90, 278.52
432.93, 7.00, 278.86
432.93, 7.18, 278.87
432.93, 7.36, 278.87
432.93, 7.54, 278.87
431.99, 7.57, 279.89
430.60, 7.57, 281.39
427.51, 7.41, 284.75
427.51, 7.69, 284.75
427.51, 7.96, 284.75
427.51, 8.24, 284.75
439.36, 7.07, 271.98
439.24, 7.07, 272.12
439.11, 7.06, 272.26
438.97, 7.06, 272.42
438.82, 7.05, 272.59
438.66, 7.04, 272.77
438.48, 7.04, 272.96
438.30, 7.03, 273.17
438.09, 7.02, 273.39
437.87, 7.01, 273.63
437.64, 7.00, 273.90
437.37, 6.99, 274.19
437.09, 6.98, 274.51
436.77, 6.97, 274.86
436.41, 6.95, 275.26
436.03, 6.94, 275.69
435.60, 6.93, 276.16
435.11, 6.91, 276.70
434.59, 6.90, 277.28
434.00, 6.90, 277.94
433.34, 6.89, 278.67
432.56, 6.88, 279.54
432.86, 7.14, 279.21
432.86, 7.32, 279.21
432.86, 7.51, 279.21
432.13, 7.57, 280.02
430.77, 7.57, 281.53
427.51, 7.38, 285.16
427.51, 7.66, 285.16
427.51, 7.94, 285.16
427.51, 8.22, 285.16
439.41, 7.07, 272.02
439.29, 7.07, 272.16
439.16, 7.06, 272.31
439.02, 7.05, 272.47
438.87, 7.05, 272.64
438.71, 7.04, 272.82
¯438.54, 7.04, 273.01
438.36, 7.03, 273.22
438.16, 7.02, 273.45
437.94, 7.01, 273.70
437.70, 7.00, 273.97
437.45, 6.99, 274.26
437.16, 6.98, 274.58
436.85, 6.96, 274.94
436.50, 6.95, 275.34
436.12, 6.94, 275.77
435.70, 6.93, 276.25
435.22, 6.91, 276.80
434.70, 6.90, 277.38
434.12, 6.90, 278.05
433.44, 6.88, 278.82
432.69, 6.88, 279.68
432.78, 7.09, 279.57
432.78, 7.28, 279.57
432.78, 7.47, 279.57
432.28, 7.57, 280.14
430.94, 7.57, 281.67
427.51, 7.36, 285.58
427.51, 7.64, 285.58
427.51, 7.92, 285.58
427.51, 8.21, 285.58
439.46, 7.07, 272.07
439.34, 7.07, 272.21
439.21, 7.06, 272.36
439.07, 7.05, 272.52
438.93, 7.05, 272.69
438.77, 7.04, 272.87
438.60, 7.03, 273.07
438.42, 7.03, 273.28
438.22, 7.02, 273.51
438.01, 7.01, 273.76
437.77, 7.00, 274.03
437.52, 6.99, 274.33
437.24, 6.98, 274.66
436.93, 6.96, 275.02
436.59, 6.95, 275.42
436.21, 6.94, 275.85
435.80, 6.92, 276.34
435.32, 6.91, 276.89
434.82, 6.90, 277.48
434.24, 6.89, 278.16
433.54, 6.88, 278.97
432.82, 6.88, 279.82
432.70, 7.04, 279.95
432.70, 7.23, 279.95
432.70, 7.43, 279.95
432.43, 7.57, 280.27
¯431.11, 7.57, 281.81
427.51, 7.33, 286.02
427.51, 7.62, 286.02
427.51, 7.90, 286.02
427.51, 8.19, 286.02
439.50, 7.07, 272.11
439.39, 7.06, 272.25
439.26, 7.06, 272.40
439.12, 7.05, 272.56
438.98, 7.05, 272.74
438.83, 7.04, 272.92
438.66, 7.03, 273.12
438.48, 7.03, 273.34
438.29, 7.02, 273.57
438.07, 7.01, 273.82
437.84, 7.00, 274.09
437.59, 6.99, 274.40
437.32, 6.98, 274.73
437.01, 6.96, 275.09
436.67, 6.95, 275.50
436.31, 6.94, 275.94
435.89, 6.92, 276.43
435.43, 6.91, 276.99
434.93, 6.90, 277.58
434.36, 6.89, 278.26
433.66, 6.87, 279.10
432.94, 6.87, 279.96
432.02, 6.85, 281.06
432.62, 7.19, 280.34
432.62, 7.38, 280.34
432.58, 7.57, 280.39
431.28, 7.57, 281.96
427.51, 7.30, 286.47
427.51, 7.59, 286.47
427.51, 7.88, 286.47
427.51, 8.17, 286.47
439.55, 7.07, 272.15
439.44, 7.06, 272.29
439.31, 7.06, 272.45
439.18, 7.05, 272.61
439.04, 7.05, 272.78
438.88, 7.04, 272.97
438.72, 7.03, 273.17
438.54, 7.02, 273.39
438.35, 7.02, 273.63
438.14, 7.01, 273.88
437.92, 7.00, 274.16
437.67, 6.99, 274.46
437.39, 6.97, 274.80
437.09, 6.96, 275.17
436.76, 6.95, 275.57
¯436.40, 6.94, 276.02
435.99, 6.92, 276.52
435.54, 6.91, 277.08
435.04, 6.90, 277.68
434.48, 6.89, 278.37
433.79, 6.87, 279.22
433.08, 6.87, 280.10
432.16, 6.85, 281.22
432.54, 7.14, 280.76
432.54, 7.34, 280.76
432.54, 7.54, 280.76
427.51, 6.97, 286.93
427.51, 7.27, 286.93
427.51, 7.57, 286.93
427.51, 7.86, 286.93
427.51, 8.16, 286.93
439.60, 7.07, 272.19
439.49, 7.06, 272.34
439.36, 7.06, 272.49
439.23, 7.05, 272.66
439.09, 7.05, 272.83
438.94, 7.04, 273.02
438.78, 7.03, 273.23
438.60, 7.02, 273.44
438.42, 7.02, 273.68
438.21, 7.01, 273.94
437.99, 7.00, 274.22
437.74, 6.98, 274.53
437.47, 6.97, 274.87
437.18, 6.96, 275.24
436.85, 6.95, 275.65
436.50, 6.94, 276.10
436.10, 6.92, 276.60
435.64, 6.91, 277.17
435.16, 6.90, 277.78
434.61, 6.89, 278.48
433.92, 6.87, 279.33
433.21, 6.87, 280.23
432.31, 6.85, 281.36
432.45, 7.09, 281.19
432.45, 7.29, 281.19
432.45, 7.50, 281.19
427.51, 6.94, 287.40
427.51, 7.24, 287.40
427.51, 7.54, 287.40
427.51, 7.84, 287.40
427.51, 8.14, 287.40
439.65, 7.07, 272.23
439.54, 7.06, 272.38
439.42, 7.06, 272.54
439.29, 7.05, 272.70
¯439.15, 7.04, 272.88
439.00, 7.04, 273.07
438.84, 7.03, 273.28
438.67, 7.02, 273.50
438.48, 7.01, 273.74
438.28, 7.00, 274.00
438.06, 6.99, 274.28
437.82, 6.98, 274.59
437.55, 6.97, 274.94
437.26, 6.96, 275.31
436.94, 6.95, 275.72
436.59, 6.94, 276.18
436.20, 6.92, 276.69
435.75, 6.91, 277.26
435.27, 6.90, 277.88
434.73, 6.89, 278.58
434.06, 6.87, 279.45
433.34, 6.86, 280.37
432.47, 6.85, 281.50
432.35, 7.03, 281.64
432.35, 7.24, 281.64
432.35, 7.45, 281.64
427.51, 7.21, 287.89
427.51, 7.51, 287.89
427.51, 7.82, 287.89
427.51, 8.12, 287.89
439.90, 7.21, 272.01
439.59, 7.06, 272.42
439.47, 7.06, 272.58
439.34, 7.05, 272.75
439.20, 7.04, 272.93
439.06, 7.04, 273.12
438.90, 7.03, 273.33
438.73, 7.02, 273.55
438.55, 7.01, 273.79
438.35, 7.00, 274.06
438.13, 6.99, 274.34
437.90, 6.98, 274.66
437.63, 6.97, 275.00
437.35, 6.96, 275.39
437.03, 6.95, 275.80
436.69, 6.93, 276.26
436.30, 6.92, 276.77
435.86, 6.91, 277.35
435.39, 6.90, 277.98
434.85, 6.89, 278.68
434.19, 6.87, 279.56
433.47, 6.86, 280.51
432.62, 6.84, 281.63
431.63, 6.83, 282.95
430.81, 6.90, 284.02
¯429.43, 6.90, 285.86
439.95, 7.21, 272.04
439.84, 7.21, 272.18
439.52, 7.06, 272.62
439.40, 7.05, 272.79
439.26, 7.04, 272.97
439.12, 7.04, 273.17
438.96, 7.03, 273.38
438.80, 7.02, 273.60
438.62, 7.01, 273.85
438.42, 7.00, 274.12
438.21, 6.99, 274.41
437.97, 6.98, 274.72
437.72, 6.97, 275.07
437.43, 6.96, 275.46
437.13, 6.95, 275.87
436.79, 6.93, 276.33
436.40, 6.92, 276.85
435.97, 6.91, 277.44
435.50, 6.90, 278.07
434.98, 6.89, 278.79
434.33, 6.87, 279.67
433.61, 6.85, 280.64
432.78, 6.84, 281.77
431.79, 6.83, 283.11
430.95, 6.89, 284.25
429.56, 6.88, 286.13
439.99, 7.21, 272.08
439.89, 7.21, 272.22
439.79, 7.20, 272.37
439.45, 7.05, 272.84
439.32, 7.04, 273.02
439.18, 7.04, 273.22
439.03, 7.03, 273.43
438.86, 7.02, 273.66
438.69, 7.01, 273.90
438.49, 7.00, 274.17
438.28, 6.99, 274.47
438.05, 6.98, 274.79
437.80, 6.97, 275.14
437.52, 6.96, 275.52
437.22, 6.95, 275.94
436.88, 6.93, 276.41
436.51, 6.92, 276.94
436.08, 6.91, 277.53
435.62, 6.90, 278.17
435.11, 6.89, 278.89
434.46, 6.87, 279.78
433.76, 6.85, 280.76
432.94, 6.84, 281.90
431.97, 6.83, 283.25
¯431.09, 6.88, 284.48
429.70, 6.87, 286.41
440.04, 7.21, 272.12
439.94, 7.21, 272.26
439.84, 7.20, 272.41
439.70, 7.18, 272.60
439.38, 7.04, 273.06
439.24, 7.03, 273.26
439.09, 7.03, 273.48
438.93, 7.02, 273.71
438.75, 7.01, 273.96
438.56, 7.00, 274.23
438.36, 6.99, 274.52
438.13, 6.98, 274.85
437.88, 6.97, 275.20
437.61, 6.96, 275.59
437.31, 6.94, 276.02
436.98, 6.93, 276.49
436.61, 6.92, 277.02
436.19, 6.90, 277.61
435.74, 6.89, 278.26
435.23, 6.89, 278.99
434.60, 6.87, 279.89
433.90, 6.85, 280.89
433.10, 6.84, 282.03
432.15, 6.83, 283.39
431.23, 6.87, 284.71
429.89, 6.86, 286.62
440.09, 7.21, 272.15
439.99, 7.21, 272.29
439.89, 7.20, 272.45
439.78, 7.20, 272.61
439.65, 7.19, 272.79
439.30, 7.03, 273.31
439.15, 7.03, 273.53
439.00, 7.02, 273.76
438.82, 7.01, 274.01
438.64, 7.00, 274.28
438.43, 6.99, 274.58
438.21, 6.98, 274.91
437.96, 6.97, 275.27
437.70, 6.96, 275.66
437.41, 6.94, 276.09
437.08, 6.93, 276.56
436.72, 6.92, 277.10
436.31, 6.90, 277.70
435.86, 6.89, 278.36
435.36, 6.89, 279.09
434.74, 6.86, 280.00
434.05, 6.85, 281.00
433.26, 6.84, 282.16
¯432.33, 6.83, 283.53
431.34, 6.85, 284.98
430.08, 6.86, 286.83
440.14, 7.21, 272.19
440.04, 7.21, 272.33
439.94, 7.20, 272.49
439.83, 7.19, 272.65
439.71, 7.19, 272.83
439.59, 7.18, 273.02
439.22, 7.03, 273.57
439.06, 7.02, 273.81
438.89, 7.01, 274.06
438.71, 7.00, 274.34
438.51, 6.99, 274.64
438.29, 6.98, 274.97
438.05, 6.97, 275.33
437.79, 6.95, 275.73
437.50, 6.94, 276.16
437.18, 6.93, 276.64
436.83, 6.92, 277.18
436.42, 6.90, 277.78
435.98, 6.89, 278.45
435.49, 6.89, 279.19
434.88, 6.86, 280.11
434.20, 6.85, 281.12
433.43, 6.84, 282.29
432.52, 6.83, 283.66
431.47, 6.83, 285.23
430.27, 6.85, 287.04
440.19, 7.21, 272.22
440.09, 7.21, 272.37
439.99, 7.20, 272.52
439.88, 7.19, 272.69
439.77, 7.19, 272.87
439.65, 7.18, 273.06
439.51, 7.17, 273.26
439.13, 7.02, 273.86
438.96, 7.01, 274.11
438.78, 7.00, 274.39
438.59, 6.99, 274.70
438.37, 6.98, 275.03
438.13, 6.96, 275.40
437.88, 6.95, 275.79
437.60, 6.94, 276.22
437.29, 6.93, 276.71
436.93, 6.92, 277.25
436.54, 6.90, 277.87
436.10, 6.89, 278.54
435.62, 6.89, 279.29
435.02, 6.86, 280.21
434.35, 6.85, 281.24
¯433.59, 6.84, 282.42
432.70, 6.83, 283.80
431.65, 6.83, 285.42
430.47, 6.84, 287.25
440.24, 7.21, 272.25
440.14, 7.20, 272.40
440.04, 7.20, 272.56
439.94, 7.19, 272.73
439.83, 7.19, 272.91
439.70, 7.18, 273.10
439.57, 7.17, 273.31
439.43, 7.17, 273.53
439.04, 7.01, 274.16
438.86, 7.00, 274.45
438.66, 6.99, 274.75
438.45, 6.98, 275.09
438.22, 6.96, 275.46
437.97, 6.95, 275.85
437.70, 6.94, 276.29
437.39, 6.93, 276.78
437.04, 6.92, 277.33
436.65, 6.90, 277.95
436.22, 6.89, 278.63
435.75, 6.88, 279.38
435.16, 6.86, 280.32
434.51, 6.85, 281.35
433.76, 6.84, 282.54
432.89, 6.83, 283.93
431.85, 6.83, 285.58
430.66, 6.84, 287.46
429.71, 6.95, 288.97
429.68, 7.25, 289.02
429.64, 7.54, 289.07
440.29, 7.21, 272.29
440.19, 7.20, 272.44
440.10, 7.20, 272.60
439.99, 7.19, 272.77
439.88, 7.19, 272.95
439.76, 7.18, 273.14
439.64, 7.17, 273.35
439.50, 7.17, 273.58
439.35, 7.16, 273.82
438.93, 7.00, 274.50
438.74, 6.99, 274.81
438.54, 6.97, 275.15
438.31, 6.96, 275.52
438.06, 6.95, 275.92
437.79, 6.94, 276.36
437.49, 6.93, 276.85
437.15, 6.92, 277.41
436.77, 6.90, 278.03
¯436.35, 6.89, 278.72
435.88, 6.88, 279.48
435.30, 6.86, 280.42
434.67, 6.85, 281.46
433.93, 6.84, 282.66
433.07, 6.83, 284.07
432.05, 6.82, 285.74
430.86, 6.83, 287.67
429.99, 6.96, 289.09
429.96, 7.25, 289.14
429.92, 7.55, 289.20
440.34, 7.21, 272.32
440.25, 7.20, 272.47
440.15, 7.20, 272.63
440.05, 7.19, 272.80
439.94, 7.19, 272.98
439.82, 7.18, 273.18
439.70, 7.17, 273.39
439.56, 7.17, 273.62
439.42, 7.16, 273.87
439.26, 7.15, 274.13
439.07, 7.13, 274.44
438.62, 6.97, 275.21
438.40, 6.96, 275.58
438.16, 6.95, 275.98
437.89, 6.94, 276.43
437.59, 6.93, 276.92
437.26, 6.92, 277.48
436.89, 6.90, 278.11
436.47, 6.89, 278.81
436.01, 6.88, 279.58
435.45, 6.86, 280.52
434.82, 6.85, 281.57
434.11, 6.84, 282.78
433.26, 6.83, 284.20
432.25, 6.82, 285.90
431.06, 6.83, 287.88
430.27, 6.96, 289.21
430.23, 7.26, 289.27
430.20, 7.55, 289.32
440.39, 7.21, 272.35
440.30, 7.20, 272.50
440.20, 7.20, 272.67
440.11, 7.19, 272.84
440.00, 7.19, 273.02
439.88, 7.18, 273.22
439.76, 7.17, 273.43
439.63, 7.16, 273.66
439.48, 7.16, 273.91
439.33, 7.15, 274.18
439.16, 7.14, 274.48
¯438.97, 7.13, 274.80
438.49, 6.96, 275.64
438.25, 6.95, 276.04
437.99, 6.94, 276.49
437.70, 6.93, 276.99
437.37, 6.92, 277.56
437.00, 6.90, 278.19
436.60, 6.89, 278.90
436.15, 6.88, 279.67
435.59, 6.86, 280.63
434.98, 6.85, 281.68
434.28, 6.84, 282.89
433.45, 6.83, 284.33
432.45, 6.82, 286.05
431.26, 6.82, 288.09
430.54, 6.97, 289.33
430.51, 7.26, 289.39
430.47, 7.56, 289.44
440.44, 7.21, 272.38
440.35, 7.20, 272.54
440.26, 7.20, 272.70
440.16, 7.19, 272.87
440.06, 7.19, 273.06
439.94, 7.18, 273.26
439.82, 7.17, 273.47
439.69, 7.16, 273.71
439.55, 7.16, 273.96
439.40, 7.15, 274.23
439.23, 7.14, 274.52
439.05, 7.13, 274.85
438.85, 7.11, 275.21
438.63, 7.10, 275.60
438.09, 6.94, 276.56
437.80, 6.93, 277.06
437.48, 6.92, 277.63
437.12, 6.90, 278.27
436.72, 6.89, 278.98
436.28, 6.88, 279.76
435.74, 6.86, 280.73
435.14, 6.85, 281.79
434.46, 6.84, 283.01
433.64, 6.83, 284.46
432.65, 6.82, 286.21
431.47, 6.82, 288.31
440.49, 7.21, 272.42
440.40, 7.20, 272.57
440.31, 7.20, 272.73
440.22, 7.19, 272.91
440.12, 7.18, 273.10
440.01, 7.18, 273.30
439.89, 7.17, 273.51
¯439.76, 7.16, 273.75
439.62, 7.15, 274.00
439.47, 7.15, 274.27
439.31, 7.14, 274.57
439.13, 7.13, 274.90
438.93, 7.11, 275.26
438.72, 7.10, 275.65
438.48, 7.09, 276.08
438.17, 7.05, 276.66
437.60, 6.92, 277.70
437.24, 6.90, 278.35
436.85, 6.89, 279.07
436.42, 6.88, 279.86
435.89, 6.86, 280.83
435.30, 6.85, 281.89
434.63, 6.84, 283.12
433.83, 6.83, 284.59
432.85, 6.82, 286.37
431.68, 6.81, 288.51
430.83, 6.93, 290.05
440.54, 7.21, 272.45
440.46, 7.20, 272.60
440.37, 7.20, 272.77
440.28, 7.19, 272.94
440.18, 7.18, 273.13
440.07, 7.18, 273.34
439.95, 7.17, 273.55
439.83, 7.16, 273.79
439.69, 7.15, 274.04
439.54, 7.15, 274.32
439.38, 7.14, 274.62
439.21, 7.12, 274.95
439.02, 7.11, 275.31
438.81, 7.10, 275.71
438.58, 7.09, 276.14
438.32, 7.08, 276.62
438.03, 7.07, 277.16
437.62, 7.01, 277.95
436.98, 6.89, 279.16
436.55, 6.88, 279.95
436.04, 6.86, 280.92
435.46, 6.85, 282.00
434.81, 6.84, 283.23
434.02, 6.83, 284.72
433.06, 6.82, 286.52
431.91, 6.81, 288.68
431.18, 6.95, 290.05
431.13, 7.25, 290.14
440.59, 7.21, 272.48
440.51, 7.20, 272.63
440.42, 7.20, 272.80
¯440.33, 7.19, 272.98
440.23, 7.18, 273.17
440.13, 7.18, 273.37
440.02, 7.17, 273.59
439.89, 7.16, 273.83
439.76, 7.15, 274.09
439.62, 7.14, 274.36
439.46, 7.14, 274.67
439.29, 7.12, 275.00
439.10, 7.11, 275.36
438.90, 7.10, 275.76
438.67, 7.09, 276.20
438.42, 7.08, 276.69
438.14, 7.07, 277.23
437.82, 7.05, 277.85
437.46, 7.04, 278.55
436.69, 6.88, 280.04
436.19, 6.86, 281.02
435.63, 6.85, 282.10
434.99, 6.84, 283.34
434.21, 6.83, 284.85
433.27, 6.82, 286.68
432.15, 6.81, 288.84
440.64, 7.21, 272.51
440.56, 7.20, 272.66
440.48, 7.20, 272.83
440.39, 7.19, 273.01
440.30, 7.18, 273.20
440.19, 7.18, 273.41
440.08, 7.17, 273.63
439.96, 7.16, 273.87
439.83, 7.15, 274.13
439.69, 7.14, 274.41
439.54, 7.13, 274.71
439.37, 7.12, 275.05
439.19, 7.11, 275.41
438.99, 7.10, 275.82
438.77, 7.09, 276.26
438.52, 7.08, 276.75
438.25, 7.07, 277.30
437.94, 7.05, 277.92
437.58, 7.04, 278.63
437.18, 7.02, 279.42
436.74, 7.01, 280.31
435.79, 6.85, 282.20
435.17, 6.84, 283.45
434.40, 6.83, 284.97
433.47, 6.81, 286.83
432.39, 6.81, 289.00
440.70, 7.21, 272.54
440.62, 7.20, 272.69
¯440.54, 7.20, 272.86
440.45, 7.19, 273.04
440.36, 7.18, 273.24
440.26, 7.18, 273.44
440.15, 7.17, 273.67
440.03, 7.16, 273.91
439.90, 7.15, 274.17
439.77, 7.14, 274.45
439.62, 7.13, 274.76
439.45, 7.12, 275.10
439.28, 7.11, 275.46
439.08, 7.10, 275.87
438.86, 7.09, 276.31
438.62, 7.08, 276.81
438.35, 7.07, 277.36
438.05, 7.05, 277.99
437.70, 7.04, 278.70
437.32, 7.02, 279.50
436.88, 7.01, 280.40
436.35, 6.99, 281.48
435.35, 6.84, 283.56
434.60, 6.83, 285.10
433.68, 6.81, 286.98
432.62, 6.81, 289.16
440.75, 7.21, 272.56
440.67, 7.20, 272.72
440.59, 7.20, 272.89
440.51, 7.19, 273.08
440.42, 7.18, 273.27
440.32, 7.18, 273.48
440.21, 7.17, 273.70
440.10, 7.16, 273.95
439.98, 7.15, 274.21
439.84, 7.14, 274.49
439.70, 7.13, 274.80
439.54, 7.12, 275.14
439.36, 7.11, 275.51
439.17, 7.10, 275.92
438.96, 7.09, 276.37
438.73, 7.08, 276.86
438.46, 7.07, 277.42
438.17, 7.05, 278.05
437.83, 7.04, 278.78
437.45, 7.02, 279.57
437.02, 7.01, 280.49
436.51, 6.99, 281.58
435.94, 6.99, 282.78
434.79, 6.83, 285.23
433.90, 6.81, 287.13
432.86, 6.81, 289.33
440.80, 7.21, 272.59
¯440.73, 7.20, 272.75
440.65, 7.19, 272.92
440.57, 7.19, 273.11
440.48, 7.18, 273.30
440.38, 7.18, 273.51
440.28, 7.17, 273.74
440.17, 7.16, 273.98
440.05, 7.15, 274.25
439.92, 7.14, 274.53
439.78, 7.13, 274.85
439.62, 7.12, 275.19
439.45, 7.11, 275.56
439.26, 7.10, 275.97
439.06, 7.09, 276.42
438.83, 7.08, 276.92
438.57, 7.07, 277.48
438.28, 7.05, 278.12
437.95, 7.04, 278.85
437.59, 7.02, 279.65
437.17, 7.01, 280.57
436.66, 6.99, 281.68
436.11, 6.98, 282.88
435.44, 6.97, 284.35
434.11, 6.81, 287.27
433.10, 6.81, 289.49
440.86, 7.21, 272.62
440.78, 7.20, 272.78
440.71, 7.19, 272.95
440.63, 7.19, 273.14
440.54, 7.18, 273.34
440.45, 7.18, 273.55
440.35, 7.17, 273.77
440.24, 7.16, 274.02
440.12, 7.15, 274.29
439.99, 7.14, 274.57
439.86, 7.13, 274.89
439.70, 7.12, 275.24
439.54, 7.11, 275.61
439.36, 7.10, 276.02
439.16, 7.09, 276.47
438.93, 7.08, 276.98
438.68, 7.07, 277.55
438.40, 7.05, 278.19
438.08, 7.04, 278.92
437.72, 7.02, 279.73
437.31, 7.01, 280.66
436.82, 6.99, 281.78
436.28, 6.98, 282.99
435.63, 6.97, 284.48
434.33, 6.81, 287.41
433.35, 6.81, 289.65
¯440.91, 7.21, 272.65
440.84, 7.20, 272.81
440.77, 7.19, 272.98
440.69, 7.19, 273.17
440.60, 7.18, 273.37
440.51, 7.18, 273.58
440.41, 7.17, 273.81
440.31, 7.16, 274.06
440.19, 7.15, 274.33
440.07, 7.14, 274.61
439.94, 7.13, 274.93
439.79, 7.12, 275.28
439.63, 7.11, 275.66
439.45, 7.10, 276.07
439.26, 7.09, 276.53
439.04, 7.08, 277.03
438.80, 7.07, 277.61
438.52, 7.05, 278.25
438.21, 7.03, 278.99
437.86, 7.02, 279.80
437.46, 7.01, 280.74
436.97, 6.99, 281.88
436.45, 6.98, 283.09
435.81, 6.97, 284.60
435.03, 6.96, 286.43
433.59, 6.81, 289.81
440.96, 7.20, 272.67
440.90, 7.20, 272.84
440.82, 7.19, 273.01
440.75, 7.19, 273.20
440.67, 7.18, 273.40
440.58, 7.17, 273.61
440.48, 7.17, 273.84
440.38, 7.16, 274.09
440.27, 7.15, 274.36
440.15, 7.14, 274.65
440.02, 7.13, 274.97
439.87, 7.12, 275.32
439.72, 7.11, 275.70
439.54, 7.10, 276.12
439.36, 7.09, 276.58
439.14, 7.08, 277.09
438.91, 7.07, 277.66
438.64, 7.05, 278.32
438.33, 7.03, 279.06
437.99, 7.02, 279.88
437.60, 7.01, 280.83
437.13, 6.99, 281.97
436.63, 6.98, 283.20
436.00, 6.97, 284.72
435.23, 6.95, 286.57
¯433.84, 6.81, 289.97
441.02, 7.20, 272.70
440.95, 7.20, 272.86
440.88, 7.19, 273.04
440.81, 7.19, 273.23
440.73, 7.18, 273.43
440.64, 7.17, 273.64
440.55, 7.17, 273.88
440.45, 7.16, 274.13
440.34, 7.15, 274.40
440.23, 7.14, 274.69
440.10, 7.13, 275.01
439.96, 7.12, 275.36
439.81, 7.11, 275.75
439.64, 7.10, 276.17
439.46, 7.09, 276.63
439.25, 7.08, 277.14
439.02, 7.07, 277.72
438.76, 7.05, 278.38
438.46, 7.03, 279.13
438.13, 7.02, 279.95
437.75, 7.01, 280.91
437.29, 6.99, 282.06
436.80, 6.98, 283.30
436.19, 6.97, 284.84
435.44, 6.95, 286.71
434.57, 6.95, 288.91
441.07, 7.20, 272.72
441.01, 7.20, 272.89
440.94, 7.19, 273.07
440.87, 7.19, 273.26
440.79, 7.18, 273.46
440.71, 7.17, 273.68
440.62, 7.17, 273.91
440.52, 7.16, 274.16
440.42, 7.15, 274.44
440.30, 7.14, 274.73
440.18, 7.13, 275.05
440.05, 7.12, 275.40
439.90, 7.11, 275.79
439.73, 7.10, 276.21
439.56, 7.09, 276.68
439.36, 7.08, 277.20
439.13, 7.07, 277.78
438.88, 7.05, 278.44
438.59, 7.03, 279.19
438.27, 7.02, 280.02
437.90, 7.01, 280.99
437.45, 6.99, 282.15
436.97, 6.98, 283.41
436.38, 6.97, 284.96
¯435.65, 6.95, 286.85
434.80, 6.95, 289.06
441.13, 7.20, 272.75
441.07, 7.20, 272.91
441.00, 7.19, 273.09
440.93, 7.19, 273.28
440.86, 7.18, 273.49
440.78, 7.17, 273.71
440.69, 7.17, 273.94
440.59, 7.16, 274.19
440.49, 7.15, 274.47
440.38, 7.14, 274.76
440.26, 7.13, 275.09
440.13, 7.12, 275.45
439.99, 7.11, 275.83
439.83, 7.10, 276.26
439.66, 7.09, 276.73
439.46, 7.08, 277.25
439.25, 7.07, 277.84
439.00, 7.05, 278.50
438.72, 7.03, 279.26
438.41, 7.02, 280.10
438.05, 7.01, 281.08
437.62, 6.99, 282.24
437.15, 6.98, 283.51
436.57, 6.97, 285.08
435.86, 6.95, 286.98
435.04, 6.95, 289.21
441.18, 7.20, 272.77
441.12, 7.20, 272.94
441.06, 7.19, 273.12
440.99, 7.19, 273.31
440.92, 7.18, 273.51
440.84, 7.17, 273.73
440.76, 7.17, 273.97
440.67, 7.16, 274.23
440.57, 7.15, 274.50
440.46, 7.14, 274.80
440.35, 7.13, 275.13
440.22, 7.12, 275.48
440.08, 7.11, 275.87
439.93, 7.10, 276.30
439.76, 7.09, 276.77
439.57, 7.08, 277.30
439.36, 7.07, 277.89
439.12, 7.05, 278.56
438.85, 7.03, 279.33
438.55, 7.02, 280.17
438.20, 7.01, 281.16
437.78, 6.99, 282.33
437.33, 6.98, 283.61
¯436.76, 6.97, 285.20
436.08, 6.95, 287.11
435.28, 6.95, 289.36
441.24, 7.20, 272.79
441.18, 7.20, 272.96
441.12, 7.19, 273.14
441.06, 7.19, 273.34
440.98, 7.18, 273.54
440.91, 7.17, 273.76
440.83, 7.17, 274.00
440.74, 7.16, 274.26
440.64, 7.15, 274.54
440.54, 7.14, 274.84
440.43, 7.13, 275.17
440.31, 7.12, 275.52
440.17, 7.11, 275.92
440.03, 7.10, 276.35
439.86, 7.09, 276.82
439.68, 7.08, 277.35
439.48, 7.07, 277.94
439.25, 7.05, 278.62
438.98, 7.03, 279.39
438.69, 7.02, 280.24
438.35, 7.01, 281.24
437.95, 6.99, 282.42
437.50, 6.98, 283.71
436.95, 6.97, 285.31
436.29, 6.95, 287.24
435.52, 6.95, 289.50
441.30, 7.20, 272.82
441.24, 7.20, 272.99
441.18, 7.19, 273.17
441.12, 7.19, 273.36
441.05, 7.18, 273.57
440.98, 7.17, 273.79
440.90, 7.17, 274.03
440.81, 7.16, 274.29
440.72, 7.15, 274.57
440.62, 7.14, 274.87
440.51, 7.13, 275.20
440.40, 7.12, 275.56
440.27, 7.11, 275.96
440.12, 7.10, 276.39
439.97, 7.09, 276.87
439.79, 7.08, 277.40
439.59, 7.07, 278.00
439.37, 7.05, 278.68
439.12, 7.03, 279.45
438.83, 7.02, 280.31
438.50, 7.01, 281.32
438.11, 6.99, 282.51
¯437.68, 6.98, 283.81
437.15, 6.96, 285.43
436.51, 6.95, 287.37
435.76, 6.95, 289.65
441.35, 7.20, 272.84
441.30, 7.20, 273.01
441.24, 7.19, 273.19
441.18, 7.19, 273.39
441.11, 7.18, 273.60
441.04, 7.17, 273.82
440.97, 7.17, 274.06
440.89, 7.16, 274.32
440.80, 7.15, 274.60
440.70, 7.14, 274.90
440.60, 7.13, 275.24
440.48, 7.12, 275.60
440.36, 7.11, 276.00
440.22, 7.10, 276.43
440.07, 7.09, 276.91
439.90, 7.08, 277.45
439.71, 7.07, 278.05
439.50, 7.05, 278.73
439.25, 7.03, 279.51
438.98, 7.02, 280.38
438.65, 7.00, 281.40
438.28, 6.99, 282.59
437.86, 6.98, 283.91
437.35, 6.96, 285.54
436.73, 6.95, 287.49
436.00, 6.95, 289.80
441.41, 7.20, 272.86
441.36, 7.20, 273.03
441.30, 7.19, 273.22
441.24, 7.19, 273.41
441.18, 7.18, 273.62
441.11, 7.17, 273.85
441.04, 7.17, 274.09
440.96, 7.16, 274.35
440.88, 7.15, 274.63
440.78, 7.14, 274.94
440.68, 7.13, 275.27
440.57, 7.12, 275.63
440.45, 7.11, 276.03
440.32, 7.10, 276.47
440.17, 7.09, 276.95
440.01, 7.08, 277.49
439.83, 7.07, 278.10
439.62, 7.05, 278.79
439.38, 7.04, 279.58
439.12, 7.02, 280.45
438.81, 7.00, 281.48
¯438.45, 6.99, 282.68
438.04, 6.98, 284.01
437.55, 6.96, 285.65
436.95, 6.95, 287.62
436.25, 6.95, 289.94
441.47, 7.20, 272.88
441.42, 7.20, 273.05
441.36, 7.19, 273.24
441.31, 7.19, 273.43
441.25, 7.18, 273.65
441.18, 7.17, 273.87
441.11, 7.17, 274.12
441.04, 7.16, 274.38
440.95, 7.15, 274.66
440.87, 7.14, 274.97
440.77, 7.13, 275.31
440.66, 7.12, 275.67
440.55, 7.11, 276.07
440.42, 7.10, 276.51
440.28, 7.09, 277.00
440.12, 7.08, 277.54
439.95, 7.07, 278.15
439.75, 7.05, 278.84
439.52, 7.04, 279.63
439.26, 7.02, 280.51
438.96, 7.00, 281.56
438.62, 6.99, 282.76
438.23, 6.98, 284.11
437.75, 6.96, 285.77
437.17, 6.95, 287.75
436.50, 6.95, 290.09
441.52, 7.20, 272.90
441.48, 7.20, 273.07
441.43, 7.19, 273.26
441.37, 7.19, 273.46
441.31, 7.18, 273.67
441.25, 7.17, 273.90
441.18, 7.17, 274.14
441.11, 7.16, 274.41
441.03, 7.15, 274.69
440.95, 7.14, 275.00
440.85, 7.13, 275.34
440.75, 7.12, 275.70
440.64, 7.11, 276.11
440.52, 7.10, 276.55
440.39, 7.09, 277.04
440.24, 7.08, 277.58
440.07, 7.07, 278.20
439.87, 7.05, 278.90
439.65, 7.04, 279.69
439.41, 7.02, 280.58
¯439.12, 7.00, 281.63
438.79, 6.99, 282.84
438.41, 6.98, 284.20
437.95, 6.96, 285.88
437.40, 6.95, 287.87
436.75, 6.95, 290.23
441.58, 7.20, 272.92
441.54, 7.20, 273.10
441.49, 7.19, 273.28
441.44, 7.19, 273.48
441.38, 7.18, 273.69
441.32, 7.17, 273.92
441.26, 7.17, 274.17
441.19, 7.16, 274.43
441.11, 7.15, 274.72
441.03, 7.14, 275.03
440.94, 7.13, 275.37
440.84, 7.12, 275.74
440.74, 7.11, 276.14
440.62, 7.10, 276.59
440.49, 7.09, 277.08
440.35, 7.08, 277.63
440.19, 7.07, 278.25
440.00, 7.05, 278.95
439.79, 7.04, 279.75
439.56, 7.02, 280.64
439.28, 7.00, 281.71
438.96, 6.99, 282.92
438.60, 6.98, 284.30
438.15, 6.96, 285.99
437.63, 6.95, 287.99
437.00, 6.95, 290.38
441.64, 7.20, 272.94
441.60, 7.20, 273.11
441.55, 7.19, 273.30
441.50, 7.19, 273.50
441.45, 7.18, 273.72
441.39, 7.17, 273.94
441.33, 7.17, 274.19
441.26, 7.16, 274.46
441.19, 7.15, 274.75
441.11, 7.14, 275.06
441.03, 7.13, 275.40
440.93, 7.12, 275.77
440.83, 7.11, 276.18
440.72, 7.10, 276.62
440.60, 7.09, 277.12
440.46, 7.08, 277.67
440.31, 7.07, 278.29
440.13, 7.05, 279.00
439.93, 7.04, 279.81
¯439.70, 7.02, 280.71
439.44, 7.00, 281.78
439.13, 6.99, 283.01
438.78, 6.97, 284.40
438.36, 6.96, 286.10
437.85, 6.95, 288.12
437.25, 6.95, 290.52
441.70, 7.20, 272.96
441.66, 7.20, 273.13
441.61, 7.19, 273.32
441.56, 7.19, 273.52
441.51, 7.18, 273.74
441.46, 7.17, 273.97
441.40, 7.17, 274.22
441.34, 7.16, 274.49
441.27, 7.15, 274.77
441.20, 7.14, 275.09
441.11, 7.13, 275.43
441.03, 7.12, 275.80
440.93, 7.11, 276.21
440.82, 7.10, 276.66
440.71, 7.09, 277.16
440.57, 7.08, 277.71
440.43, 7.07, 278.34
440.26, 7.05, 279.05
440.07, 7.04, 279.86
439.85, 7.02, 280.77
439.60, 7.00, 281.85
439.30, 6.98, 283.08
438.97, 6.97, 284.49
438.56, 6.96, 286.21
438.08, 6.95, 288.24
437.51, 6.95, 290.66
441.76, 7.20, 272.98
441.72, 7.20, 273.15
441.67, 7.19, 273.34
441.63, 7.19, 273.54
441.58, 7.18, 273.76
441.53, 7.17, 273.99
441.47, 7.17, 274.24
441.41, 7.16, 274.51
441.35, 7.15, 274.80
441.28, 7.14, 275.11
441.20, 7.13, 275.46
441.12, 7.12, 275.83
441.03, 7.11, 276.24
440.93, 7.10, 276.70
440.81, 7.09, 277.20
440.69, 7.08, 277.75
440.55, 7.07, 278.38
440.39, 7.05, 279.10
¯440.21, 7.04, 279.91
440.00, 7.02, 280.83
439.76, 7.00, 281.92
439.48, 6.98, 283.17
439.16, 6.97, 284.59
438.77, 6.96, 286.32
438.32, 6.95, 288.36
437.77, 6.95, 290.80
441.81, 7.20, 272.99
441.78, 7.20, 273.17
441.74, 7.19, 273.36
441.70, 7.19, 273.56
441.65, 7.18, 273.78
441.60, 7.17, 274.01
441.55, 7.17, 274.26
441.49, 7.16, 274.53
441.43, 7.15, 274.83
441.36, 7.14, 275.14
441.29, 7.13, 275.49
441.21, 7.12, 275.86
441.12, 7.11, 276.28
441.03, 7.10, 276.73
440.92, 7.09, 277.23
440.80, 7.08, 277.79
440.67, 7.07, 278.43
440.52, 7.05, 279.14
440.35, 7.04, 279.97
440.15, 7.02, 280.89
439.92, 7.00, 281.99
439.65, 6.98, 283.25
439.35, 6.97, 284.68
438.98, 6.96, 286.43
438.55, 6.95, 288.47
438.03, 6.95, 290.95
441.87, 7.20, 273.01
441.84, 7.20, 273.19
441.80, 7.19, 273.38
441.76, 7.19, 273.58
441.72, 7.18, 273.80
441.67, 7.17, 274.03
441.62, 7.17, 274.28
441.57, 7.16, 274.56
441.51, 7.15, 274.85
441.45, 7.14, 275.16
441.38, 7.13, 275.52
441.30, 7.12, 275.89
441.22, 7.11, 276.31
441.13, 7.10, 276.76
441.03, 7.09, 277.27
440.92, 7.08, 277.83
440.79, 7.07, 278.47
¯440.65, 7.05, 279.19
440.49, 7.04, 280.02
440.30, 7.02, 280.95
440.08, 7.00, 282.06
439.83, 6.98, 283.32
439.54, 6.97, 284.77
439.19, 6.95, 286.54
