žVERSION 0.7
FIELDS x y z
SIZE 8 8 8
TYPE F F F
COUNT 1 1 1
WIDTH 2271
HEIGHT 1
VIEWPOINT 341.05, 6.98, 312.00 1 331.50, 2.36, 329.68
POINTS 2271
DATA ascii
341.87, 0.42, 343.16
341.87, 0.65, 343.15
341.97, 0.86, 343.34
342.23, 1.05, 343.82
343.88, 1.09, 346.90
343.77, 1.38, 346.69
343.77, 1.65, 346.68
343.84, 1.92, 346.79
335.91, 0.38, 331.88
335.96, 0.42, 331.97
336.05, 0.43, 332.14
336.17, 0.44, 332.34
336.29, 0.44, 332.57
336.42, 0.45, 332.80
336.56, 0.46, 333.06
336.72, 0.47, 333.35
336.89, 0.48, 333.65
¯337.08, 0.49, 333.99
337.26, 0.50, 334.33
337.49, 0.52, 334.74
337.69, 0.55, 335.10
337.96, 0.56, 335.60
338.32, 0.56, 336.25
338.69, 0.58, 336.91
339.49, 0.49, 338.38
340.10, 0.49, 339.49
341.43, 0.34, 341.90
341.93, 0.45, 342.81
341.93, 0.67, 342.81
342.05, 0.87, 343.00
342.33, 1.06, 343.50
344.08, 1.09, 346.69
343.97, 1.38, 346.48
343.97, 1.65, 346.47
344.04, 1.92, 346.58
335.92, 0.41, 331.76
336.00, 0.43, 331.90
336.11, 0.43, 332.10
336.23, 0.44, 332.30
336.35, 0.44, 332.52
336.49, 0.45, 332.76
336.63, 0.46, 333.02
336.79, 0.47, 333.30
336.96, 0.48, 333.60
337.15, 0.49, 333.93
337.35, 0.50, 334.27
337.57, 0.52, 334.67
337.77, 0.55, 335.03
338.04, 0.57, 335.50
338.42, 0.57, 336.16
338.79, 0.58, 336.82
339.62, 0.49, 338.29
340.24, 0.49, 339.38
341.58, 0.35, 341.75
341.99, 0.47, 342.47
342.00, 0.69, 342.48
342.12, 0.89, 342.68
342.42, 1.07, 343.20
344.28, 1.09, 346.48
344.17, 1.38, 346.28
344.17, 1.65, 346.27
344.24, 1.92, 346.38
335.96, 0.42, 331.69
336.06, 0.43, 331.87
336.17, 0.43, 332.06
336.29, 0.44, 332.26
336.42, 0.44, 332.48
336.55, 0.45, 332.71
¯336.70, 0.46, 332.97
336.86, 0.47, 333.25
337.04, 0.48, 333.54
337.23, 0.49, 333.88
337.43, 0.50, 334.22
337.66, 0.52, 334.60
337.87, 0.55, 334.97
338.13, 0.57, 335.41
338.52, 0.57, 336.07
338.89, 0.59, 336.72
339.70, 0.50, 338.11
340.38, 0.49, 339.28
341.74, 0.35, 341.61
342.05, 0.49, 342.15
342.07, 0.70, 342.17
342.19, 0.90, 342.36
343.70, 0.92, 344.95
344.48, 1.09, 346.28
344.36, 1.37, 346.08
344.36, 1.64, 346.06
344.43, 1.91, 346.17
336.01, 0.42, 331.66
336.12, 0.43, 331.83
336.23, 0.43, 332.02
336.35, 0.44, 332.22
336.48, 0.44, 332.44
336.62, 0.45, 332.67
336.77, 0.46, 332.92
336.94, 0.47, 333.19
337.11, 0.48, 333.49
337.31, 0.49, 333.82
337.52, 0.50, 334.16
337.74, 0.52, 334.53
337.97, 0.55, 334.91
338.22, 0.58, 335.33
338.61, 0.57, 335.98
338.99, 0.59, 336.62
339.77, 0.52, 337.91
340.52, 0.49, 339.17
341.90, 0.35, 341.47
342.11, 0.51, 341.83
342.14, 0.72, 341.87
342.25, 0.92, 342.05
343.82, 0.93, 344.66
344.67, 1.09, 346.08
344.56, 1.37, 345.88
344.56, 1.64, 345.86
344.62, 1.91, 345.96
336.07, 0.42, 331.62
336.17, 0.43, 331.79
336.29, 0.43, 331.98
¯336.41, 0.44, 332.18
336.55, 0.44, 332.39
336.68, 0.45, 332.62
336.84, 0.46, 332.87
337.01, 0.47, 333.14
337.19, 0.48, 333.43
337.39, 0.49, 333.76
337.60, 0.50, 334.10
337.82, 0.52, 334.46
338.06, 0.55, 334.85
338.31, 0.58, 335.25
338.70, 0.58, 335.88
339.09, 0.59, 336.52
339.83, 0.53, 337.72
340.65, 0.49, 339.06
342.06, 0.35, 341.34
342.21, 0.53, 341.59
342.22, 0.74, 341.59
342.32, 0.93, 341.75
343.94, 0.94, 344.37
344.87, 1.09, 345.88
344.75, 1.37, 345.68
344.75, 1.64, 345.66
344.81, 1.91, 345.76
336.12, 0.42, 331.58
336.23, 0.43, 331.75
336.35, 0.43, 331.94
336.47, 0.44, 332.13
336.61, 0.45, 332.35
336.75, 0.45, 332.57
336.91, 0.46, 332.82
337.08, 0.47, 333.09
337.26, 0.48, 333.38
337.46, 0.49, 333.70
337.68, 0.50, 334.04
337.90, 0.52, 334.39
338.16, 0.54, 334.79
338.39, 0.58, 335.16
338.76, 0.59, 335.74
339.19, 0.59, 336.42
339.89, 0.55, 337.52
340.79, 0.49, 338.95
342.22, 0.35, 341.21
343.04, 0.39, 342.51
343.04, 0.62, 342.50
342.92, 0.87, 342.30
344.06, 0.94, 344.09
345.06, 1.09, 345.68
344.94, 1.37, 345.48
344.94, 1.64, 345.46
345.00, 1.90, 345.56
¯336.18, 0.42, 331.54
336.29, 0.43, 331.71
336.40, 0.43, 331.89
336.53, 0.44, 332.09
336.67, 0.45, 332.30
336.81, 0.45, 332.52
336.97, 0.46, 332.77
337.15, 0.47, 333.03
337.33, 0.48, 333.32
337.54, 0.49, 333.64
337.77, 0.50, 333.98
337.99, 0.52, 334.32
338.26, 0.54, 334.74
338.49, 0.58, 335.09
338.82, 0.60, 335.60
339.29, 0.60, 336.32
339.94, 0.56, 337.33
340.92, 0.49, 338.83
342.37, 0.35, 341.07
343.10, 0.42, 342.19
343.10, 0.64, 342.18
342.97, 0.88, 341.97
344.17, 0.95, 343.81
345.26, 1.09, 345.48
345.13, 1.37, 345.28
345.13, 1.63, 345.26
345.19, 1.90, 345.36
336.23, 0.42, 331.51
336.34, 0.43, 331.67
336.46, 0.43, 331.85
336.59, 0.44, 332.05
336.73, 0.45, 332.25
336.88, 0.45, 332.48
337.04, 0.46, 332.71
337.22, 0.47, 332.98
337.41, 0.48, 333.26
337.62, 0.49, 333.58
337.85, 0.50, 333.92
338.07, 0.52, 334.26
338.34, 0.54, 334.67
338.59, 0.58, 335.03
338.89, 0.61, 335.48
339.38, 0.60, 336.22
340.00, 0.58, 337.14
341.64, 0.35, 339.60
342.52, 0.35, 340.93
343.16, 0.44, 341.87
343.15, 0.66, 341.86
343.08, 0.89, 341.75
344.28, 0.96, 343.54
345.45, 1.09, 345.29
¯345.32, 1.36, 345.09
345.32, 1.63, 345.07
345.38, 1.89, 345.16
336.28, 0.42, 331.47
336.40, 0.43, 331.63
336.52, 0.43, 331.81
336.65, 0.44, 332.00
336.79, 0.45, 332.21
336.94, 0.45, 332.43
337.10, 0.46, 332.66
337.28, 0.47, 332.92
337.48, 0.48, 333.21
337.69, 0.49, 333.51
337.92, 0.50, 333.86
338.16, 0.52, 334.20
338.43, 0.54, 334.59
338.69, 0.58, 334.96
338.98, 0.61, 335.39
339.48, 0.60, 336.12
340.05, 0.60, 336.95
341.77, 0.35, 339.48
342.68, 0.35, 340.79
343.82, 0.34, 342.46
344.24, 0.50, 343.07
344.28, 0.74, 343.11
344.40, 0.96, 343.28
345.64, 1.08, 345.09
345.51, 1.36, 344.89
345.50, 1.63, 344.87
345.57, 1.89, 344.96
336.34, 0.42, 331.43
336.45, 0.43, 331.59
336.57, 0.43, 331.76
336.71, 0.44, 331.95
336.85, 0.45, 332.16
337.01, 0.45, 332.38
337.17, 0.46, 332.61
337.35, 0.47, 332.87
337.55, 0.48, 333.15
337.76, 0.49, 333.45
338.00, 0.50, 333.79
338.24, 0.52, 334.13
338.51, 0.54, 334.51
338.78, 0.57, 334.90
339.06, 0.61, 335.30
339.56, 0.61, 336.01
340.09, 0.61, 336.76
341.91, 0.35, 339.35
342.83, 0.35, 340.65
343.97, 0.34, 342.28
344.35, 0.51, 342.80
¯344.39, 0.75, 342.85
344.51, 0.97, 343.03
345.84, 1.08, 344.90
345.70, 1.36, 344.70
345.69, 1.63, 344.68
345.75, 1.89, 344.76
336.39, 0.42, 331.39
336.50, 0.43, 331.55
336.63, 0.43, 331.72
336.76, 0.44, 331.91
336.91, 0.45, 332.11
337.07, 0.45, 332.33
337.23, 0.46, 332.55
337.42, 0.47, 332.81
337.62, 0.48, 333.09
337.83, 0.49, 333.39
338.08, 0.50, 333.72
338.33, 0.52, 334.07
338.59, 0.54, 334.43
338.88, 0.57, 334.83
339.15, 0.61, 335.21
339.61, 0.62, 335.84
340.14, 0.63, 336.57
342.05, 0.35, 339.22
342.97, 0.35, 340.50
344.13, 0.35, 342.10
344.45, 0.52, 342.54
344.49, 0.75, 342.59
344.63, 0.97, 342.78
346.03, 1.08, 344.71
345.89, 1.36, 344.50
345.88, 1.62, 344.48
345.94, 1.88, 344.56
346.21, 2.15, 344.93
336.44, 0.42, 331.35
336.56, 0.43, 331.51
336.68, 0.43, 331.67
336.82, 0.44, 331.86
336.97, 0.45, 332.06
337.13, 0.45, 332.28
337.30, 0.46, 332.50
337.48, 0.47, 332.75
337.69, 0.48, 333.03
337.91, 0.49, 333.32
338.15, 0.50, 333.65
338.41, 0.52, 334.00
338.67, 0.55, 334.35
338.98, 0.57, 334.77
339.26, 0.61, 335.14
339.66, 0.63, 335.68
340.23, 0.63, 336.46
¯342.18, 0.35, 339.09
343.12, 0.35, 340.36
344.28, 0.35, 341.92
344.55, 0.53, 342.28
344.60, 0.76, 342.34
344.74, 0.98, 342.53
346.22, 1.08, 344.52
346.07, 1.35, 344.31
346.06, 1.62, 344.29
346.12, 1.88, 344.37
346.39, 2.14, 344.72
336.49, 0.42, 331.30
336.61, 0.43, 331.46
336.74, 0.43, 331.63
336.88, 0.44, 331.81
337.03, 0.45, 332.01
337.19, 0.45, 332.23
337.36, 0.46, 332.45
337.55, 0.47, 332.69
337.76, 0.48, 332.97
337.98, 0.49, 333.26
338.23, 0.50, 333.58
338.49, 0.52, 333.93
338.76, 0.54, 334.28
339.07, 0.57, 334.70
339.36, 0.61, 335.07
339.71, 0.65, 335.53
340.33, 0.63, 336.35
342.31, 0.35, 338.96
343.26, 0.35, 340.21
344.43, 0.35, 341.75
344.65, 0.54, 342.03
344.70, 0.77, 342.09
344.85, 0.98, 342.28
346.41, 1.07, 344.34
346.26, 1.35, 344.12
346.24, 1.62, 344.10
346.31, 1.88, 344.17
346.57, 2.14, 344.51
336.54, 0.42, 331.26
336.66, 0.42, 331.42
336.79, 0.43, 331.58
336.93, 0.44, 331.76
337.09, 0.45, 331.96
337.25, 0.45, 332.17
337.42, 0.46, 332.39
337.61, 0.47, 332.63
337.82, 0.48, 332.90
338.05, 0.49, 333.19
338.30, 0.50, 333.51
338.57, 0.52, 333.86
¯338.84, 0.54, 334.21
339.16, 0.56, 334.62
339.46, 0.61, 335.00
339.79, 0.65, 335.43
340.42, 0.63, 336.23
342.44, 0.35, 338.83
343.40, 0.35, 340.06
344.58, 0.35, 341.58
344.74, 0.55, 341.78
344.80, 0.78, 341.84
344.96, 0.99, 342.04
346.61, 1.07, 344.15
346.44, 1.35, 343.93
346.43, 1.61, 343.91
346.49, 1.87, 343.98
346.75, 2.13, 344.30
336.59, 0.42, 331.22
336.72, 0.42, 331.38
336.85, 0.43, 331.54
336.99, 0.44, 331.72
337.14, 0.45, 331.91
337.31, 0.45, 332.12
337.49, 0.46, 332.34
337.68, 0.47, 332.57
337.89, 0.48, 332.84
338.12, 0.49, 333.13
338.37, 0.50, 333.44
338.65, 0.52, 333.80
338.93, 0.54, 334.14
339.24, 0.57, 334.53
339.56, 0.60, 334.92
339.88, 0.65, 335.32
340.49, 0.64, 336.09
342.57, 0.35, 338.69
343.54, 0.35, 339.91
344.73, 0.35, 341.41
345.59, 0.45, 342.47
345.57, 0.69, 342.44
345.07, 0.99, 341.80
346.80, 1.07, 343.97
346.63, 1.34, 343.74
346.61, 1.61, 343.71
346.67, 1.87, 343.78
346.93, 2.13, 344.10
336.64, 0.42, 331.18
336.77, 0.42, 331.33
336.90, 0.43, 331.49
337.04, 0.44, 331.67
337.20, 0.45, 331.86
337.37, 0.45, 332.07
337.55, 0.46, 332.28
¯337.74, 0.47, 332.51
337.95, 0.48, 332.78
338.19, 0.49, 333.06
338.44, 0.51, 333.37
338.73, 0.52, 333.72
339.01, 0.54, 334.07
339.32, 0.57, 334.44
339.66, 0.60, 334.85
339.98, 0.65, 335.25
340.53, 0.66, 335.91
341.98, 0.50, 337.69
343.54, 0.37, 339.59
344.88, 0.35, 341.23
345.69, 0.46, 342.21
345.66, 0.70, 342.17
345.44, 0.97, 341.90
346.99, 1.06, 343.78
346.81, 1.34, 343.55
346.79, 1.60, 343.52
346.85, 1.86, 343.59
347.10, 2.12, 343.89
336.69, 0.42, 331.13
336.82, 0.42, 331.28
336.95, 0.43, 331.45
337.10, 0.44, 331.62
337.26, 0.45, 331.81
337.43, 0.45, 332.01
337.61, 0.46, 332.23
337.80, 0.47, 332.45
338.02, 0.48, 332.71
338.26, 0.49, 333.00
338.51, 0.51, 333.30
338.80, 0.52, 333.64
339.09, 0.54, 333.99
339.41, 0.57, 334.36
339.76, 0.60, 334.78
340.09, 0.64, 335.17
340.56, 0.67, 335.73
341.96, 0.52, 337.40
342.21, 0.65, 337.70
345.03, 0.35, 341.06
346.32, 0.38, 342.60
346.32, 0.64, 342.59
346.44, 0.87, 342.73
347.18, 1.06, 343.60
346.99, 1.34, 343.37
346.97, 1.60, 343.34
347.03, 1.86, 343.39
347.28, 2.12, 343.68
336.74, 0.42, 331.09
336.87, 0.42, 331.24
¯337.01, 0.43, 331.40
337.15, 0.44, 331.57
337.31, 0.45, 331.75
337.49, 0.45, 331.96
337.67, 0.46, 332.17
337.86, 0.47, 332.39
338.08, 0.48, 332.65
338.32, 0.49, 332.93
338.58, 0.51, 333.23
338.88, 0.52, 333.57
339.18, 0.54, 333.92
339.49, 0.56, 334.28
339.85, 0.59, 334.70
340.19, 0.64, 335.09
340.59, 0.68, 335.55
341.93, 0.55, 337.11
342.18, 0.67, 337.40
342.45, 0.80, 337.71
346.39, 0.40, 342.29
346.39, 0.65, 342.28
346.51, 0.88, 342.42
347.37, 1.05, 343.42
347.18, 1.33, 343.18
347.16, 1.60, 343.15
347.21, 1.85, 343.20
347.46, 2.11, 343.48
336.78, 0.42, 331.04
336.92, 0.42, 331.19
337.06, 0.43, 331.35
337.20, 0.44, 331.52
337.36, 0.45, 331.70
337.54, 0.45, 331.90
337.73, 0.46, 332.11
337.93, 0.47, 332.33
338.15, 0.48, 332.58
338.39, 0.49, 332.86
338.65, 0.51, 333.16
338.95, 0.52, 333.49
339.26, 0.54, 333.84
339.58, 0.56, 334.20
339.95, 0.59, 334.63
340.29, 0.63, 335.01
340.67, 0.69, 335.43
341.91, 0.58, 336.84
342.16, 0.70, 337.12
342.42, 0.82, 337.41
342.69, 0.95, 337.72
346.45, 0.66, 341.98
346.58, 0.89, 342.12
347.57, 1.05, 343.24
347.36, 1.33, 342.99
¯347.34, 1.59, 342.96
347.39, 1.85, 343.01
347.63, 2.11, 343.28
336.83, 0.42, 331.00
336.97, 0.42, 331.15
337.11, 0.43, 331.30
337.26, 0.44, 331.47
337.42, 0.45, 331.64
337.60, 0.45, 331.84
337.79, 0.46, 332.06
337.99, 0.47, 332.27
338.21, 0.48, 332.52
338.46, 0.49, 332.79
338.72, 0.51, 333.09
339.02, 0.52, 333.41
339.34, 0.53, 333.77
339.66, 0.56, 334.12
340.03, 0.59, 334.53
340.40, 0.63, 334.93
340.78, 0.68, 335.35
341.89, 0.60, 336.58
342.13, 0.72, 336.84
342.38, 0.84, 337.12
342.65, 0.97, 337.41
342.94, 1.11, 337.72
346.65, 0.90, 341.83
347.76, 1.04, 343.06
347.54, 1.32, 342.81
347.52, 1.59, 342.77
347.57, 1.85, 342.82
347.80, 2.10, 343.07
336.88, 0.42, 330.95
337.01, 0.42, 331.10
337.16, 0.43, 331.25
337.31, 0.44, 331.42
337.47, 0.45, 331.59
337.65, 0.45, 331.79
337.85, 0.46, 332.00
338.05, 0.47, 332.21
338.27, 0.48, 332.45
338.52, 0.49, 332.72
338.79, 0.51, 333.01
339.09, 0.52, 333.33
339.42, 0.53, 333.69
339.75, 0.56, 334.04
340.11, 0.59, 334.43
340.50, 0.63, 334.85
340.89, 0.68, 335.26
341.86, 0.63, 336.32
342.10, 0.74, 336.57
342.35, 0.86, 336.84
¯342.62, 0.99, 337.12
342.89, 1.13, 337.42
343.19, 1.27, 337.73
347.95, 1.04, 342.88
347.73, 1.32, 342.62
347.70, 1.58, 342.58
347.75, 1.84, 342.63
347.98, 2.10, 342.87
336.92, 0.42, 330.91
337.06, 0.42, 331.05
337.21, 0.43, 331.20
337.36, 0.44, 331.36
337.52, 0.45, 331.53
337.71, 0.45, 331.73
337.91, 0.46, 331.94
338.11, 0.47, 332.15
338.33, 0.48, 332.38
338.58, 0.49, 332.65
338.86, 0.50, 332.94
339.16, 0.52, 333.25
339.50, 0.53, 333.61
339.83, 0.56, 333.96
340.20, 0.59, 334.35
340.60, 0.62, 334.77
340.99, 0.67, 335.18
341.84, 0.65, 336.07
342.08, 0.76, 336.31
342.32, 0.88, 336.57
342.58, 1.01, 336.84
342.85, 1.15, 337.12
343.14, 1.29, 337.42
343.45, 1.44, 337.74
349.34, 1.22, 343.94
349.41, 1.50, 344.01
349.29, 1.79, 343.88
350.03, 2.06, 344.65
336.97, 0.41, 330.86
337.11, 0.42, 331.00
337.26, 0.43, 331.15
337.41, 0.43, 331.31
337.58, 0.44, 331.48
337.76, 0.45, 331.67
337.96, 0.46, 331.87
338.17, 0.47, 332.09
338.39, 0.48, 332.32
338.65, 0.49, 332.58
338.92, 0.50, 332.86
339.23, 0.52, 333.17
339.57, 0.53, 333.52
339.91, 0.56, 333.88
340.29, 0.59, 334.26
¯340.70, 0.62, 334.68
341.10, 0.67, 335.09
341.84, 0.67, 335.85
342.02, 0.79, 336.03
342.26, 0.91, 336.28
342.51, 1.03, 336.53
342.78, 1.17, 336.80
343.06, 1.31, 337.09
343.36, 1.45, 337.39
343.68, 1.61, 337.71
349.41, 1.51, 343.60
349.33, 1.79, 343.51
350.01, 2.06, 344.20
337.02, 0.41, 330.81
337.16, 0.42, 330.95
337.31, 0.43, 331.10
337.46, 0.43, 331.26
337.63, 0.44, 331.43
337.81, 0.45, 331.61
338.02, 0.46, 331.81
338.23, 0.47, 332.03
338.45, 0.48, 332.25
338.71, 0.49, 332.50
338.99, 0.50, 332.79
339.30, 0.52, 333.09
339.64, 0.53, 333.44
340.00, 0.55, 333.79
340.37, 0.58, 334.17
340.80, 0.61, 334.60
341.21, 0.66, 335.00
341.88, 0.68, 335.67
342.02, 0.81, 335.81
342.18, 0.94, 335.97
342.42, 1.06, 336.21
342.68, 1.19, 336.47
342.96, 1.33, 336.74
343.25, 1.47, 337.02
343.55, 1.62, 337.33
350.65, 1.45, 344.44
350.61, 1.75, 344.39
350.24, 2.06, 344.01
337.06, 0.41, 330.76
337.20, 0.42, 330.90
337.35, 0.43, 331.05
337.51, 0.43, 331.21
337.68, 0.44, 331.37
337.87, 0.45, 331.55
338.07, 0.46, 331.75
338.29, 0.47, 331.96
338.52, 0.48, 332.19
338.77, 0.49, 332.43
¯339.05, 0.50, 332.71
339.36, 0.52, 333.01
339.71, 0.53, 333.35
340.08, 0.55, 333.71
340.46, 0.58, 334.08
340.88, 0.61, 334.50
341.31, 0.66, 334.91
341.91, 0.69, 335.50
342.05, 0.82, 335.63
342.20, 0.95, 335.77
342.35, 1.08, 335.92
342.59, 1.21, 336.15
342.85, 1.34, 336.40
343.13, 1.49, 336.67
343.43, 1.64, 336.96
343.74, 1.79, 337.26
350.64, 1.75, 344.01
337.10, 0.41, 330.72
337.25, 0.42, 330.85
337.40, 0.42, 331.00
337.56, 0.43, 331.15
337.73, 0.44, 331.31
337.92, 0.45, 331.49
338.12, 0.46, 331.69
338.35, 0.47, 331.90
338.58, 0.48, 332.12
338.83, 0.49, 332.36
339.12, 0.50, 332.63
339.43, 0.52, 332.93
339.78, 0.53, 333.26
340.16, 0.55, 333.62
340.54, 0.58, 333.99
340.97, 0.61, 334.40
341.42, 0.66, 334.82
341.94, 0.70, 335.32
342.08, 0.82, 335.46
342.23, 0.95, 335.59
342.38, 1.09, 335.73
342.54, 1.23, 335.88
342.76, 1.36, 336.08
343.03, 1.50, 336.33
343.31, 1.65, 336.60
343.61, 1.80, 336.89
350.85, 1.74, 343.80
351.29, 2.03, 344.20
337.15, 0.41, 330.67
337.29, 0.42, 330.80
337.45, 0.42, 330.95
337.61, 0.43, 331.10
337.78, 0.44, 331.26
337.97, 0.45, 331.43
¯338.18, 0.46, 331.62
338.40, 0.47, 331.83
338.64, 0.48, 332.05
338.89, 0.49, 332.29
339.18, 0.50, 332.56
339.50, 0.52, 332.85
339.85, 0.53, 333.18
340.23, 0.55, 333.54
340.63, 0.58, 333.90
341.06, 0.61, 334.30
341.84, 0.59, 335.03
341.97, 0.71, 335.15
342.12, 0.83, 335.28
342.26, 0.96, 335.41
342.41, 1.09, 335.55
342.57, 1.23, 335.69
342.73, 1.37, 335.83
342.92, 1.52, 336.01
343.20, 1.66, 336.27
343.49, 1.81, 336.53
344.05, 1.96, 337.05
351.28, 2.03, 343.78
337.19, 0.41, 330.62
337.34, 0.42, 330.75
337.49, 0.42, 330.89
337.66, 0.43, 331.04
337.83, 0.44, 331.20
338.02, 0.45, 331.37
338.23, 0.46, 331.56
338.46, 0.46, 331.77
338.69, 0.48, 331.98
338.95, 0.49, 332.21
339.24, 0.50, 332.48
339.56, 0.52, 332.77
339.91, 0.53, 333.09
340.31, 0.55, 333.45
340.71, 0.57, 333.81
341.15, 0.61, 334.21
341.87, 0.60, 334.86
342.01, 0.72, 334.98
342.15, 0.84, 335.11
342.29, 0.97, 335.24
342.44, 1.10, 335.37
342.60, 1.24, 335.51
342.75, 1.38, 335.65
342.92, 1.52, 335.79
343.09, 1.67, 335.94
343.37, 1.82, 336.20
343.67, 1.98, 336.46
351.27, 2.03, 343.36
337.23, 0.41, 330.57
¯337.38, 0.42, 330.70
337.54, 0.42, 330.84
337.71, 0.43, 330.99
337.88, 0.44, 331.14
338.07, 0.45, 331.31
338.28, 0.46, 331.50
338.51, 0.46, 331.70
338.75, 0.48, 331.91
339.01, 0.49, 332.14
339.30, 0.50, 332.40
339.62, 0.52, 332.68
339.98, 0.53, 333.00
340.38, 0.55, 333.35
340.79, 0.57, 333.72
341.23, 0.60, 334.11
341.90, 0.61, 334.70
342.04, 0.73, 334.82
342.18, 0.85, 334.94
342.32, 0.98, 335.06
342.47, 1.11, 335.19
342.62, 1.24, 335.32
342.78, 1.38, 335.46
342.95, 1.52, 335.60
343.11, 1.67, 335.75
343.29, 1.83, 335.90
343.55, 1.98, 336.12
344.40, 2.14, 336.87
337.28, 0.41, 330.52
337.42, 0.42, 330.65
337.58, 0.42, 330.78
337.75, 0.43, 330.93
337.93, 0.44, 331.09
338.12, 0.45, 331.25
338.33, 0.46, 331.43
338.56, 0.46, 331.63
338.81, 0.48, 331.84
339.07, 0.49, 332.07
339.36, 0.50, 332.32
339.69, 0.52, 332.60
340.05, 0.53, 332.91
340.45, 0.55, 333.26
340.87, 0.57, 333.62
341.32, 0.60, 334.01
341.93, 0.62, 334.54
342.07, 0.74, 334.65
342.21, 0.86, 334.77
342.35, 0.98, 334.89
342.50, 1.11, 335.02
342.65, 1.25, 335.15
342.81, 1.39, 335.28
342.97, 1.53, 335.41
¯343.14, 1.67, 335.55
343.31, 1.83, 335.70
343.49, 1.98, 335.85
343.73, 2.15, 336.05
337.32, 0.41, 330.47
337.47, 0.42, 330.59
337.63, 0.42, 330.73
337.80, 0.43, 330.87
337.98, 0.44, 331.03
338.17, 0.45, 331.19
338.38, 0.46, 331.36
338.62, 0.46, 331.56
338.87, 0.47, 331.77
339.13, 0.49, 332.00
339.42, 0.50, 332.24
339.75, 0.52, 332.52
340.11, 0.53, 332.82
340.51, 0.55, 333.16
340.95, 0.57, 333.53
341.40, 0.60, 333.91
341.96, 0.63, 334.38
342.10, 0.74, 334.49
342.24, 0.87, 334.61
342.38, 0.99, 334.72
342.53, 1.12, 334.84
342.68, 1.25, 334.97
342.84, 1.39, 335.10
343.00, 1.53, 335.23
343.16, 1.68, 335.37
343.34, 1.83, 335.52
343.54, 1.98, 335.68
343.75, 2.14, 335.85
337.36, 0.41, 330.42
337.51, 0.41, 330.54
337.67, 0.42, 330.67
337.84, 0.43, 330.82
338.03, 0.43, 330.97
338.22, 0.44, 331.13
338.43, 0.46, 331.30
338.67, 0.46, 331.49
338.92, 0.47, 331.70
339.19, 0.49, 331.92
339.48, 0.50, 332.16
339.81, 0.51, 332.43
340.17, 0.53, 332.73
340.58, 0.55, 333.07
341.03, 0.57, 333.43
341.49, 0.60, 333.81
341.99, 0.63, 334.22
342.12, 0.75, 334.33
342.27, 0.87, 334.45
¯342.43, 0.99, 334.57
342.59, 1.12, 334.70
342.76, 1.25, 334.84
342.93, 1.39, 334.98
343.11, 1.53, 335.12
343.30, 1.67, 335.27
343.49, 1.82, 335.43
343.69, 1.98, 335.59
343.95, 2.14, 335.79
345.33, 2.31, 336.92
337.40, 0.40, 330.37
337.55, 0.41, 330.49
337.71, 0.42, 330.62
337.89, 0.43, 330.76
338.08, 0.43, 330.91
338.27, 0.44, 331.07
338.48, 0.45, 331.24
338.72, 0.46, 331.42
338.98, 0.47, 331.63
339.24, 0.49, 331.85
339.54, 0.50, 332.08
339.87, 0.51, 332.35
340.24, 0.53, 332.64
340.65, 0.54, 332.97
341.11, 0.56, 333.34
341.94, 0.52, 334.01
342.09, 0.63, 334.12
342.24, 0.74, 334.24
342.39, 0.86, 334.36
342.55, 0.99, 334.49
342.72, 1.11, 334.62
342.89, 1.24, 334.75
343.07, 1.38, 334.89
343.25, 1.52, 335.04
343.44, 1.66, 335.18
343.64, 1.82, 335.34
343.87, 1.97, 335.52
344.15, 2.13, 335.74
344.88, 2.30, 336.32
337.44, 0.40, 330.32
337.59, 0.41, 330.44
337.75, 0.42, 330.56
337.93, 0.43, 330.70
338.12, 0.43, 330.85
338.32, 0.44, 331.00
338.53, 0.45, 331.17
338.77, 0.46, 331.35
339.03, 0.47, 331.56
339.30, 0.48, 331.77
339.60, 0.50, 332.00
339.92, 0.51, 332.26
¯340.30, 0.53, 332.55
340.71, 0.54, 332.87
341.17, 0.56, 333.24
342.00, 0.52, 333.88
342.21, 0.62, 334.04
342.36, 0.74, 334.16
342.52, 0.85, 334.28
342.68, 0.98, 334.41
342.85, 1.10, 334.54
343.03, 1.24, 334.67
343.21, 1.37, 334.81
343.40, 1.51, 334.95
343.59, 1.66, 335.10
343.80, 1.81, 335.26
344.07, 1.96, 335.47
344.36, 2.13, 335.69
344.66, 2.30, 335.92
337.48, 0.40, 330.27
337.63, 0.41, 330.38
337.80, 0.42, 330.51
337.97, 0.42, 330.64
338.17, 0.43, 330.79
338.37, 0.44, 330.94
338.58, 0.45, 331.11
338.82, 0.46, 331.28
339.08, 0.47, 331.48
339.36, 0.48, 331.70
339.66, 0.50, 331.92
339.98, 0.51, 332.17
340.36, 0.53, 332.46
340.78, 0.54, 332.78
341.24, 0.56, 333.13
342.03, 0.53, 333.74
342.31, 0.61, 333.94
342.49, 0.73, 334.08
342.65, 0.85, 334.20
342.81, 0.97, 334.32
342.99, 1.10, 334.45
343.16, 1.23, 334.58
343.35, 1.36, 334.72
343.54, 1.51, 334.86
343.74, 1.65, 335.01
344.00, 1.80, 335.20
344.28, 1.96, 335.41
344.58, 2.12, 335.63
344.89, 2.30, 335.87
337.52, 0.40, 330.22
337.67, 0.41, 330.33
337.84, 0.42, 330.45
338.02, 0.42, 330.58
338.21, 0.43, 330.73
¯338.41, 0.44, 330.88
338.63, 0.45, 331.04
338.87, 0.46, 331.21
339.13, 0.47, 331.41
339.41, 0.48, 331.62
339.71, 0.50, 331.84
340.04, 0.51, 332.09
340.42, 0.53, 332.37
340.84, 0.54, 332.68
341.31, 0.56, 333.03
342.07, 0.53, 333.59
342.34, 0.62, 333.79
342.61, 0.72, 333.99
342.78, 0.84, 334.11
342.95, 0.96, 334.24
343.12, 1.09, 334.36
343.30, 1.22, 334.49
343.49, 1.36, 334.63
343.68, 1.50, 334.77
343.93, 1.64, 334.95
344.20, 1.79, 335.15
344.49, 1.95, 335.36
344.79, 2.12, 335.58
345.11, 2.29, 335.81
337.56, 0.40, 330.16
337.71, 0.41, 330.27
337.88, 0.42, 330.39
338.06, 0.42, 330.52
338.25, 0.43, 330.66
338.46, 0.44, 330.81
338.68, 0.45, 330.97
338.92, 0.46, 331.14
339.18, 0.47, 331.33
339.47, 0.48, 331.54
339.77, 0.49, 331.76
340.10, 0.51, 332.00
340.48, 0.53, 332.27
340.90, 0.54, 332.58
341.37, 0.56, 332.92
342.10, 0.54, 333.45
342.37, 0.63, 333.64
342.65, 0.72, 333.85
342.91, 0.83, 334.03
343.08, 0.95, 334.15
343.26, 1.08, 334.28
343.44, 1.21, 334.41
343.63, 1.35, 334.54
343.85, 1.49, 334.70
344.12, 1.63, 334.89
344.40, 1.78, 335.09
344.70, 1.94, 335.30
¯345.01, 2.11, 335.52
345.34, 2.29, 335.76
337.60, 0.40, 330.11
337.75, 0.41, 330.22
337.92, 0.41, 330.34
338.10, 0.42, 330.46
338.30, 0.43, 330.60
338.51, 0.44, 330.75
338.73, 0.45, 330.91
338.96, 0.46, 331.07
339.23, 0.47, 331.26
339.52, 0.48, 331.47
339.83, 0.49, 331.68
340.16, 0.51, 331.92
340.53, 0.53, 332.18
340.96, 0.54, 332.48
341.43, 0.56, 332.82
342.13, 0.55, 333.31
342.40, 0.63, 333.49
342.68, 0.73, 333.69
342.98, 0.82, 333.91
343.21, 0.94, 334.06
343.39, 1.07, 334.19
343.58, 1.20, 334.32
343.78, 1.34, 334.46
344.05, 1.48, 334.64
344.32, 1.62, 334.83
344.61, 1.78, 335.03
344.92, 1.94, 335.24
345.24, 2.10, 335.46
345.56, 2.28, 335.68
337.64, 0.40, 330.06
337.79, 0.40, 330.16
337.96, 0.41, 330.28
338.14, 0.42, 330.40
338.34, 0.43, 330.54
338.55, 0.43, 330.69
338.77, 0.44, 330.84
339.01, 0.46, 331.00
339.27, 0.47, 331.18
339.57, 0.48, 331.39
339.88, 0.49, 331.60
340.22, 0.51, 331.83
340.59, 0.52, 332.09
341.02, 0.54, 332.38
341.90, 0.47, 332.99
342.16, 0.55, 333.16
342.43, 0.64, 333.35
342.71, 0.73, 333.54
343.01, 0.83, 333.75
343.33, 0.93, 333.97
¯343.53, 1.06, 334.10
343.72, 1.19, 334.23
343.97, 1.33, 334.39
344.24, 1.47, 334.58
344.53, 1.61, 334.77
344.81, 1.77, 334.96
345.10, 1.93, 335.16
345.41, 2.10, 335.36
337.68, 0.39, 330.00
337.83, 0.40, 330.11
338.00, 0.41, 330.22
338.18, 0.42, 330.34
338.38, 0.43, 330.48
338.59, 0.43, 330.62
338.82, 0.44, 330.77
339.06, 0.45, 330.93
339.32, 0.47, 331.11
339.62, 0.48, 331.31
339.93, 0.49, 331.52
340.27, 0.51, 331.74
340.65, 0.52, 331.99
341.08, 0.54, 332.28
341.93, 0.48, 332.86
342.18, 0.56, 333.02
342.45, 0.65, 333.20
342.74, 0.74, 333.39
343.04, 0.83, 333.59
343.36, 0.94, 333.80
343.67, 1.05, 334.01
343.90, 1.18, 334.16
344.15, 1.32, 334.32
344.41, 1.46, 334.49
344.68, 1.61, 334.67
344.97, 1.76, 334.86
345.27, 1.92, 335.06
345.58, 2.09, 335.26
327.32, 0.08, 326.10
327.09, 0.08, 326.05
326.85, 0.09, 326.00
326.59, 0.09, 325.95
326.31, 0.10, 325.89
326.03, 0.11, 325.83
325.75, 0.13, 325.77
325.43, 0.15, 325.70
325.09, 0.17, 325.63
324.73, 0.19, 325.55
324.33, 0.21, 325.46
323.90, 0.23, 325.37
323.42, 0.26, 325.27
322.89, 0.28, 325.16
322.29, 0.31, 325.03
¯321.53, 0.33, 324.87
320.66, 0.34, 324.68
319.50, 0.34, 324.43
317.93, 0.31, 324.10
314.22, 0.07, 323.32
311.23, 0.00, 322.69
327.30, 0.08, 326.18
327.08, 0.08, 326.13
326.83, 0.09, 326.08
326.57, 0.09, 326.03
326.29, 0.10, 325.97
326.02, 0.11, 325.92
325.73, 0.13, 325.86
325.41, 0.15, 325.80
325.07, 0.17, 325.73
324.71, 0.19, 325.65
324.31, 0.21, 325.57
323.87, 0.23, 325.49
323.39, 0.26, 325.39
322.85, 0.28, 325.28
322.26, 0.31, 325.16
321.49, 0.33, 325.01
320.59, 0.34, 324.83
319.42, 0.34, 324.60
317.79, 0.30, 324.27
314.03, 0.06, 323.53
311.11, 0.00, 322.94
327.29, 0.08, 326.25
327.06, 0.09, 326.21
326.82, 0.09, 326.16
326.56, 0.10, 326.11
326.28, 0.10, 326.06
326.00, 0.12, 326.01
325.71, 0.13, 325.95
325.39, 0.15, 325.89
325.05, 0.17, 325.83
324.68, 0.19, 325.76
324.28, 0.21, 325.69
323.85, 0.24, 325.60
323.36, 0.26, 325.51
322.82, 0.29, 325.41
322.22, 0.31, 325.30
321.45, 0.33, 325.15
320.53, 0.34, 324.98
319.35, 0.33, 324.76
317.62, 0.29, 324.44
313.86, 0.05, 323.74
311.00, 0.00, 323.21
327.28, 0.08, 326.33
327.05, 0.09, 326.29
326.81, 0.09, 326.24
¯326.55, 0.10, 326.20
326.27, 0.11, 326.15
325.99, 0.12, 326.10
325.69, 0.14, 326.05
325.37, 0.15, 325.99
325.03, 0.17, 325.93
324.66, 0.19, 325.87
324.26, 0.21, 325.80
323.83, 0.24, 325.72
323.33, 0.26, 325.63
322.79, 0.29, 325.54
322.18, 0.31, 325.43
321.40, 0.33, 325.30
320.48, 0.34, 325.13
319.27, 0.33, 324.92
317.45, 0.28, 324.61
313.73, 0.05, 323.96
310.89, 0.00, 323.47
327.27, 0.09, 326.40
327.04, 0.09, 326.36
326.80, 0.10, 326.32
326.53, 0.10, 326.28
326.25, 0.11, 326.24
325.97, 0.12, 326.19
325.67, 0.14, 326.14
325.36, 0.15, 326.09
325.01, 0.17, 326.03
324.64, 0.19, 325.97
324.24, 0.22, 325.91
323.80, 0.24, 325.84
323.31, 0.26, 325.76
322.76, 0.29, 325.67
322.14, 0.31, 325.57
321.35, 0.33, 325.44
320.42, 0.34, 325.29
319.19, 0.33, 325.09
317.28, 0.26, 324.78
313.59, 0.04, 324.19
310.78, 0.00, 323.73
327.26, 0.09, 326.48
327.03, 0.09, 326.44
326.79, 0.10, 326.41
326.52, 0.11, 326.37
326.25, 0.11, 326.32
325.97, 0.13, 326.28
325.66, 0.14, 326.24
325.34, 0.16, 326.19
325.00, 0.18, 326.14
324.63, 0.20, 326.08
324.22, 0.22, 326.02
323.78, 0.24, 325.95
¯323.28, 0.26, 325.88
322.73, 0.29, 325.80
322.11, 0.31, 325.70
321.30, 0.33, 325.58
320.37, 0.34, 325.44
319.08, 0.32, 325.25
317.10, 0.25, 324.96
313.40, 0.03, 324.41
310.67, 0.00, 324.00
327.25, 0.09, 326.55
327.02, 0.10, 326.52
326.78, 0.10, 326.49
326.51, 0.11, 326.45
326.24, 0.12, 326.41
325.96, 0.13, 326.37
325.66, 0.15, 326.33
325.34, 0.16, 326.29
324.99, 0.18, 326.24
324.61, 0.20, 326.19
324.20, 0.22, 326.13
323.75, 0.24, 326.07
323.25, 0.27, 326.00
322.70, 0.29, 325.93
322.07, 0.31, 325.84
321.26, 0.32, 325.73
320.31, 0.33, 325.60
318.97, 0.31, 325.41
316.84, 0.22, 325.12
313.19, 0.01, 324.63
310.57, 0.00, 324.27
327.24, 0.09, 326.63
327.01, 0.10, 326.60
326.77, 0.10, 326.57
326.51, 0.11, 326.54
326.24, 0.12, 326.50
325.96, 0.14, 326.47
325.66, 0.15, 326.43
325.33, 0.17, 326.39
324.99, 0.18, 326.34
324.61, 0.20, 326.30
324.19, 0.22, 326.24
323.73, 0.24, 326.19
323.23, 0.27, 326.12
322.68, 0.29, 326.05
322.04, 0.32, 325.97
321.21, 0.32, 325.87
320.25, 0.33, 325.75
318.86, 0.31, 325.58
316.57, 0.20, 325.30
313.03, 0.00, 324.86
310.47, 0.00, 324.54
¯327.23, 0.09, 326.70
327.01, 0.10, 326.68
326.76, 0.11, 326.65
326.50, 0.12, 326.62
326.24, 0.13, 326.59
325.95, 0.14, 326.56
325.65, 0.16, 326.52
325.33, 0.17, 326.49
324.98, 0.19, 326.45
324.61, 0.21, 326.41
324.18, 0.23, 326.36
323.72, 0.25, 326.31
323.21, 0.27, 326.25
322.65, 0.29, 326.19
322.00, 0.31, 326.11
321.17, 0.32, 326.02
320.20, 0.33, 325.91
318.76, 0.30, 325.75
316.26, 0.17, 325.47
312.94, 0.00, 325.10
310.38, 0.00, 324.82
327.23, 0.10, 326.78
327.00, 0.10, 326.76
326.75, 0.11, 326.73
326.50, 0.12, 326.71
326.23, 0.13, 326.68
325.95, 0.14, 326.65
325.65, 0.16, 326.62
325.33, 0.18, 326.59
324.98, 0.19, 326.55
324.61, 0.21, 326.51
324.16, 0.23, 326.47
323.70, 0.25, 326.42
323.20, 0.27, 326.37
322.64, 0.30, 326.32
321.95, 0.31, 326.25
321.12, 0.32, 326.16
320.13, 0.33, 326.07
318.65, 0.29, 325.92
315.88, 0.13, 325.65
312.85, 0.00, 325.35
310.28, 0.00, 325.09
327.22, 0.10, 326.85
326.99, 0.11, 326.83
326.75, 0.11, 326.81
326.50, 0.12, 326.79
326.23, 0.13, 326.77
325.95, 0.15, 326.74
325.65, 0.16, 326.72
325.33, 0.18, 326.69
324.98, 0.20, 326.66
¯324.60, 0.22, 326.62
324.15, 0.23, 326.58
323.69, 0.25, 326.54
323.19, 0.27, 326.50
322.63, 0.30, 326.45
321.90, 0.31, 326.38
321.07, 0.32, 326.31
320.04, 0.32, 326.22
318.55, 0.28, 326.09
315.66, 0.11, 325.84
312.77, 0.00, 325.59
310.19, 0.00, 325.37
327.22, 0.10, 326.93
326.99, 0.11, 326.91
326.75, 0.12, 326.89
326.50, 0.13, 326.88
326.23, 0.14, 326.85
325.95, 0.15, 326.83
325.65, 0.17, 326.81
325.33, 0.19, 326.79
324.98, 0.20, 326.76
324.59, 0.22, 326.73
324.14, 0.23, 326.70
323.68, 0.25, 326.66
323.18, 0.28, 326.62
322.60, 0.30, 326.58
321.85, 0.31, 326.52
321.01, 0.31, 326.46
319.95, 0.31, 326.38
318.44, 0.27, 326.27
315.45, 0.09, 326.05
312.70, 0.00, 325.84
310.11, 0.00, 325.65
327.21, 0.10, 327.01
326.98, 0.11, 326.99
326.75, 0.12, 326.98
326.50, 0.13, 326.96
326.23, 0.14, 326.94
325.95, 0.16, 326.92
325.66, 0.17, 326.91
325.33, 0.19, 326.89
324.99, 0.21, 326.86
324.58, 0.22, 326.84
324.14, 0.24, 326.81
323.67, 0.26, 326.78
323.17, 0.28, 326.75
322.56, 0.30, 326.71
321.80, 0.30, 326.66
320.96, 0.31, 326.61
319.85, 0.30, 326.54
318.27, 0.26, 326.44
¯315.21, 0.06, 326.25
312.62, 0.00, 326.09
310.02, 0.00, 325.93
327.21, 0.11, 327.08
326.99, 0.11, 327.07
326.75, 0.12, 327.06
326.50, 0.14, 327.04
326.24, 0.15, 327.03
325.96, 0.16, 327.02
325.66, 0.18, 327.00
325.34, 0.19, 326.98
324.99, 0.21, 326.97
324.58, 0.22, 326.95
324.13, 0.24, 326.92
323.67, 0.26, 326.90
323.16, 0.28, 326.87
322.52, 0.29, 326.84
321.76, 0.30, 326.80
320.91, 0.31, 326.76
319.76, 0.29, 326.70
318.08, 0.24, 326.62
314.92, 0.04, 326.46
312.55, 0.00, 326.34
309.94, 0.00, 326.21
327.21, 0.11, 327.16
326.99, 0.12, 327.15
326.75, 0.13, 327.14
326.51, 0.14, 327.13
326.24, 0.15, 327.12
325.96, 0.17, 327.11
325.66, 0.18, 327.10
325.34, 0.20, 327.08
324.98, 0.22, 327.07
324.57, 0.23, 327.05
324.12, 0.24, 327.04
323.66, 0.26, 327.02
323.15, 0.29, 327.00
322.47, 0.29, 326.97
321.71, 0.29, 326.94
320.84, 0.30, 326.91
319.67, 0.29, 326.86
317.88, 0.21, 326.80
314.77, 0.02, 326.68
312.48, 0.00, 326.60
309.86, 0.00, 326.50
327.21, 0.11, 327.23
326.99, 0.12, 327.23
326.76, 0.13, 327.22
326.51, 0.14, 327.21
326.24, 0.16, 327.21
325.96, 0.17, 327.20
¯325.67, 0.19, 327.19
325.35, 0.20, 327.18
324.98, 0.22, 327.17
324.57, 0.23, 327.16
324.12, 0.24, 327.15
323.66, 0.26, 327.14
323.13, 0.28, 327.12
322.43, 0.29, 327.10
321.67, 0.29, 327.08
320.78, 0.30, 327.06
319.58, 0.28, 327.03
317.69, 0.19, 326.98
314.68, 0.02, 326.91
312.42, 0.00, 326.85
309.79, 0.00, 326.78
327.21, 0.11, 327.31
326.99, 0.12, 327.31
326.76, 0.14, 327.30
326.51, 0.15, 327.30
326.25, 0.16, 327.29
325.97, 0.17, 327.29
325.67, 0.19, 327.29
325.35, 0.21, 327.28
324.98, 0.22, 327.28
324.56, 0.23, 327.27
324.12, 0.25, 327.26
323.65, 0.27, 327.26
323.10, 0.28, 327.25
322.40, 0.28, 327.24
321.63, 0.29, 327.23
320.72, 0.29, 327.22
319.49, 0.27, 327.20
317.49, 0.17, 327.17
314.60, 0.01, 327.14
312.37, 0.00, 327.11
309.72, 0.00, 327.07
327.22, 0.12, 327.38
327.00, 0.13, 327.38
326.77, 0.14, 327.38
326.52, 0.15, 327.38
326.25, 0.16, 327.38
325.97, 0.18, 327.38
325.68, 0.19, 327.38
325.35, 0.21, 327.38
324.97, 0.22, 327.38
324.56, 0.23, 327.38
324.11, 0.25, 327.38
323.65, 0.27, 327.38
323.07, 0.28, 327.37
322.36, 0.28, 327.37
321.59, 0.28, 327.37
¯320.66, 0.28, 327.37
319.39, 0.26, 327.37
317.29, 0.15, 327.37
314.52, 0.01, 327.37
312.31, 0.00, 327.36
309.65, 0.00, 327.36
327.22, 0.12, 327.46
327.00, 0.13, 327.46
326.77, 0.14, 327.46
326.52, 0.15, 327.47
326.26, 0.17, 327.47
325.98, 0.18, 327.47
325.69, 0.20, 327.47
325.35, 0.21, 327.48
324.97, 0.22, 327.48
324.56, 0.23, 327.49
324.11, 0.25, 327.49
323.65, 0.27, 327.49
323.03, 0.27, 327.50
322.32, 0.27, 327.51
321.54, 0.28, 327.52
320.60, 0.28, 327.53
319.29, 0.25, 327.54
317.10, 0.13, 327.57
314.45, 0.00, 327.60
312.26, 0.00, 327.62
309.59, 0.00, 327.65
327.23, 0.12, 327.53
327.01, 0.13, 327.54
326.78, 0.15, 327.54
326.53, 0.16, 327.55
326.27, 0.17, 327.56
325.99, 0.19, 327.56
325.69, 0.20, 327.57
325.35, 0.21, 327.58
324.97, 0.23, 327.58
324.56, 0.24, 327.59
324.11, 0.25, 327.60
323.64, 0.27, 327.61
323.00, 0.27, 327.63
322.29, 0.27, 327.64
321.49, 0.27, 327.66
320.55, 0.27, 327.68
319.18, 0.23, 327.72
316.90, 0.10, 327.77
314.39, 0.00, 327.83
312.22, 0.00, 327.88
309.53, 0.00, 327.94
327.23, 0.13, 327.61
327.02, 0.14, 327.62
326.79, 0.15, 327.63
¯326.54, 0.16, 327.63
326.28, 0.17, 327.64
326.00, 0.19, 327.65
325.70, 0.21, 327.66
325.35, 0.22, 327.67
324.97, 0.23, 327.69
324.56, 0.24, 327.70
324.11, 0.25, 327.72
323.61, 0.27, 327.73
322.98, 0.27, 327.76
322.25, 0.27, 327.78
321.45, 0.27, 327.81
320.49, 0.27, 327.84
319.08, 0.22, 327.89
316.71, 0.08, 327.98
314.33, 0.00, 328.07
312.17, 0.00, 328.14
309.47, 0.00, 328.24
327.24, 0.13, 327.69
327.03, 0.14, 327.70
326.79, 0.15, 327.71
326.55, 0.16, 327.72
326.28, 0.18, 327.73
326.01, 0.19, 327.74
325.71, 0.21, 327.76
325.36, 0.22, 327.77
324.98, 0.23, 327.79
324.56, 0.24, 327.81
324.12, 0.26, 327.83
323.59, 0.26, 327.86
322.95, 0.26, 327.89
322.22, 0.26, 327.92
321.40, 0.26, 327.96
320.44, 0.26, 328.00
318.97, 0.21, 328.08
316.49, 0.06, 328.20
314.30, 0.00, 328.30
312.13, 0.00, 328.40
309.42, 0.00, 328.53
327.25, 0.13, 327.76
327.03, 0.14, 327.77
326.80, 0.16, 327.79
326.56, 0.17, 327.80
326.30, 0.18, 327.82
326.02, 0.20, 327.83
325.71, 0.21, 327.85
325.36, 0.22, 327.87
324.98, 0.23, 327.89
324.57, 0.24, 327.92
324.12, 0.26, 327.94
323.57, 0.26, 327.98
¯322.92, 0.26, 328.02
322.20, 0.26, 328.06
321.36, 0.26, 328.11
320.38, 0.25, 328.17
318.84, 0.19, 328.26
316.40, 0.05, 328.41
314.27, 0.00, 328.54
312.10, 0.00, 328.67
309.37, 0.00, 328.83
327.26, 0.14, 327.84
327.04, 0.15, 327.85
326.81, 0.16, 327.87
326.57, 0.17, 327.88
326.31, 0.18, 327.90
326.03, 0.20, 327.92
325.71, 0.21, 327.94
325.37, 0.22, 327.97
324.99, 0.23, 328.00
324.57, 0.24, 328.03
324.12, 0.26, 328.06
323.55, 0.26, 328.10
322.90, 0.26, 328.15
322.15, 0.25, 328.20
321.29, 0.25, 328.26
320.28, 0.24, 328.33
318.69, 0.17, 328.45
316.32, 0.04, 328.62
314.25, 0.00, 328.77
312.06, 0.00, 328.93
309.32, 0.00, 329.13
327.27, 0.14, 327.91
327.05, 0.15, 327.93
326.82, 0.16, 327.95
326.58, 0.17, 327.97
326.32, 0.19, 327.99
326.04, 0.20, 328.01
325.72, 0.21, 328.04
325.37, 0.22, 328.07
324.99, 0.23, 328.10
324.58, 0.25, 328.13
324.11, 0.26, 328.17
323.53, 0.25, 328.22
322.88, 0.25, 328.28
322.09, 0.24, 328.34
321.23, 0.24, 328.42
320.16, 0.22, 328.51
318.57, 0.15, 328.64
316.24, 0.03, 328.84
314.22, 0.00, 329.01
312.03, 0.00, 329.20
309.28, 0.00, 329.43
¯327.28, 0.14, 327.98
327.07, 0.15, 328.00
326.84, 0.17, 328.03
326.59, 0.18, 328.05
326.33, 0.19, 328.07
326.05, 0.20, 328.10
325.73, 0.21, 328.13
325.38, 0.22, 328.17
325.00, 0.24, 328.20
324.59, 0.25, 328.24
324.10, 0.25, 328.29
323.52, 0.25, 328.35
322.87, 0.25, 328.41
322.04, 0.23, 328.49
321.16, 0.23, 328.57
320.05, 0.20, 328.68
318.44, 0.14, 328.84
316.16, 0.02, 329.06
314.20, 0.00, 329.25
312.00, 0.00, 329.46
309.24, 0.00, 329.73
327.29, 0.15, 328.06
327.08, 0.16, 328.08
326.85, 0.17, 328.11
326.61, 0.18, 328.13
326.35, 0.20, 328.16
326.06, 0.21, 328.19
325.74, 0.22, 328.23
325.39, 0.23, 328.26
325.01, 0.24, 328.30
324.60, 0.25, 328.35
324.09, 0.25, 328.41
323.51, 0.25, 328.47
322.86, 0.25, 328.54
321.98, 0.22, 328.64
321.10, 0.22, 328.73
319.93, 0.19, 328.86
318.31, 0.12, 329.04
316.09, 0.01, 329.28
314.19, 0.00, 329.49
311.98, 0.00, 329.73
309.21, 0.00, 330.03
327.30, 0.15, 328.13
327.09, 0.16, 328.16
326.87, 0.17, 328.19
326.62, 0.19, 328.21
326.37, 0.20, 328.25
326.07, 0.21, 328.28
325.75, 0.22, 328.32
325.40, 0.23, 328.36
325.03, 0.24, 328.41
¯324.62, 0.25, 328.46
324.08, 0.25, 328.52
323.50, 0.25, 328.59
322.84, 0.25, 328.67
321.93, 0.21, 328.78
321.03, 0.21, 328.89
319.81, 0.17, 329.04
318.12, 0.09, 329.25
316.02, 0.01, 329.50
314.17, 0.00, 329.73
311.96, 0.00, 330.00
309.17, 0.00, 330.33
327.32, 0.15, 328.21
327.11, 0.16, 328.23
326.88, 0.18, 328.26
326.64, 0.19, 328.30
326.39, 0.20, 328.33
326.08, 0.21, 328.37
325.76, 0.22, 328.41
325.42, 0.23, 328.46
325.04, 0.24, 328.51
324.63, 0.26, 328.56
324.07, 0.25, 328.64
323.49, 0.25, 328.72
322.80, 0.24, 328.81
321.88, 0.20, 328.93
320.96, 0.19, 329.06
319.70, 0.15, 329.23
317.94, 0.07, 329.46
315.97, 0.00, 329.73
314.16, 0.00, 329.97
311.94, 0.00, 330.27
309.15, 0.00, 330.64
327.34, 0.16, 328.28
327.13, 0.17, 328.31
326.90, 0.18, 328.34
326.66, 0.19, 328.38
326.40, 0.21, 328.42
326.09, 0.21, 328.46
325.78, 0.22, 328.51
325.43, 0.23, 328.56
325.06, 0.25, 328.61
324.62, 0.25, 328.67
324.07, 0.24, 328.76
323.48, 0.24, 328.84
322.74, 0.22, 328.95
321.83, 0.19, 329.08
320.88, 0.18, 329.22
319.59, 0.13, 329.41
317.83, 0.05, 329.67
315.97, 0.00, 329.94
¯314.15, 0.00, 330.21
311.93, 0.00, 330.53
309.12, 0.00, 330.94
327.36, 0.16, 328.35
327.15, 0.17, 328.39
326.92, 0.19, 328.42
326.68, 0.20, 328.46
326.42, 0.21, 328.50
326.11, 0.22, 328.55
325.79, 0.23, 328.60
325.45, 0.24, 328.65
325.07, 0.25, 328.71
324.62, 0.25, 328.78
324.07, 0.24, 328.87
323.48, 0.24, 328.97
322.69, 0.21, 329.09
321.78, 0.18, 329.24
320.81, 0.17, 329.39
319.50, 0.12, 329.60
317.78, 0.04, 329.87
315.97, 0.00, 330.16
314.15, 0.00, 330.45
311.92, 0.00, 330.81
309.10, 0.00, 331.25
327.37, 0.16, 328.43
327.17, 0.18, 328.46
326.94, 0.19, 328.50
326.71, 0.20, 328.54
326.43, 0.21, 328.59
326.12, 0.22, 328.64
325.81, 0.23, 328.69
325.46, 0.24, 328.75
325.09, 0.25, 328.81
324.62, 0.25, 328.89
324.06, 0.24, 328.99
323.48, 0.24, 329.09
322.63, 0.20, 329.24
321.73, 0.17, 329.39
320.74, 0.15, 329.56
319.41, 0.10, 329.79
317.74, 0.04, 330.08
315.97, 0.00, 330.38
314.15, 0.00, 330.69
311.91, 0.00, 331.08
309.09, 0.00, 331.56
327.39, 0.17, 328.50
327.19, 0.18, 328.54
326.96, 0.19, 328.58
326.73, 0.21, 328.62
326.45, 0.21, 328.67
326.14, 0.22, 328.73
¯325.82, 0.23, 328.78
325.48, 0.24, 328.85
325.11, 0.25, 328.92
324.62, 0.25, 329.01
324.06, 0.24, 329.11
323.47, 0.24, 329.22
322.58, 0.19, 329.38
321.68, 0.16, 329.55
320.67, 0.14, 329.73
319.32, 0.09, 329.98
317.70, 0.03, 330.28
315.97, 0.00, 330.60
314.15, 0.00, 330.94
311.90, 0.00, 331.35
309.08, 0.00, 331.87
327.41, 0.17, 328.57
327.21, 0.18, 328.61
326.99, 0.20, 328.65
326.75, 0.21, 328.70
326.47, 0.22, 328.76
326.16, 0.22, 328.82
325.84, 0.23, 328.88
325.50, 0.24, 328.94
325.13, 0.26, 329.02
324.62, 0.25, 329.12
324.06, 0.24, 329.23
323.47, 0.23, 329.34
322.53, 0.18, 329.53
321.63, 0.15, 329.71
320.60, 0.13, 329.91
319.24, 0.07, 330.18
317.66, 0.02, 330.49
315.98, 0.00, 330.82
314.15, 0.00, 331.18
311.90, 0.00, 331.62
309.07, 0.00, 332.18
327.44, 0.18, 328.64
327.23, 0.19, 328.68
327.01, 0.20, 328.73
326.77, 0.21, 328.78
326.49, 0.22, 328.84
326.18, 0.22, 328.90
325.86, 0.23, 328.97
325.52, 0.25, 329.04
325.14, 0.25, 329.12
324.63, 0.24, 329.23
324.07, 0.23, 329.34
323.43, 0.22, 329.48
322.49, 0.16, 329.68
321.57, 0.14, 329.87
320.53, 0.11, 330.09
¯319.18, 0.06, 330.37
317.63, 0.02, 330.70
315.99, 0.00, 331.04
314.16, 0.00, 331.42
311.91, 0.00, 331.89
327.46, 0.18, 328.71
327.25, 0.19, 328.76
327.03, 0.21, 328.81
326.79, 0.22, 328.86
326.50, 0.22, 328.92
326.20, 0.23, 328.99
325.88, 0.24, 329.06
325.54, 0.25, 329.14
325.15, 0.25, 329.22
324.63, 0.24, 329.34
324.07, 0.23, 329.46
323.40, 0.21, 329.61
322.44, 0.15, 329.83
321.52, 0.12, 330.03
320.49, 0.10, 330.26
319.11, 0.05, 330.57
317.59, 0.01, 330.91
316.01, 0.00, 331.26
314.17, 0.00, 331.67
311.91, 0.00, 332.17
327.48, 0.18, 328.78
327.28, 0.20, 328.83
327.06, 0.21, 328.88
326.81, 0.22, 328.94
326.53, 0.22, 329.01
326.22, 0.23, 329.08
325.90, 0.24, 329.15
325.57, 0.25, 329.23
325.15, 0.25, 329.33
324.64, 0.24, 329.45
324.08, 0.23, 329.58
323.36, 0.20, 329.75
322.40, 0.14, 329.98
321.48, 0.11, 330.19
320.44, 0.09, 330.44
319.05, 0.04, 330.77
317.57, 0.00, 331.12
316.02, 0.00, 331.48
314.19, 0.00, 331.91
311.93, 0.00, 332.44
327.50, 0.19, 328.86
327.30, 0.20, 328.91
327.08, 0.21, 328.96
326.83, 0.22, 329.02
326.55, 0.23, 329.09
326.24, 0.23, 329.17
¯325.93, 0.24, 329.24
325.59, 0.25, 329.33
325.16, 0.25, 329.43
324.65, 0.24, 329.56
324.08, 0.23, 329.70
323.33, 0.19, 329.89
322.36, 0.13, 330.13
321.45, 0.10, 330.36
320.40, 0.08, 330.62
319.03, 0.03, 330.96
317.56, 0.00, 331.32
316.04, 0.00, 331.70
314.20, 0.00, 332.15
311.94, 0.00, 332.71
327.53, 0.19, 328.93
327.32, 0.20, 328.98
327.11, 0.22, 329.03
326.85, 0.22, 329.10
326.57, 0.23, 329.17
326.27, 0.23, 329.25
325.95, 0.24, 329.34
325.61, 0.25, 329.42
325.17, 0.25, 329.54
324.66, 0.24, 329.67
324.09, 0.22, 329.82
323.30, 0.18, 330.03
322.33, 0.12, 330.28
321.42, 0.10, 330.52
320.36, 0.07, 330.80
319.02, 0.02, 331.15
317.59, 0.00, 331.52
316.06, 0.00, 331.92
314.22, 0.00, 332.40
311.96, 0.00, 332.99
327.55, 0.19, 329.00
327.35, 0.21, 329.05
327.13, 0.22, 329.11
326.87, 0.22, 329.18
326.59, 0.23, 329.26
326.29, 0.23, 329.34
325.97, 0.24, 329.43
325.64, 0.26, 329.52
325.19, 0.25, 329.64
324.67, 0.23, 329.78
324.10, 0.22, 329.94
323.28, 0.17, 330.16
322.30, 0.11, 330.43
321.39, 0.09, 330.69
320.33, 0.06, 330.98
319.01, 0.02, 331.34
317.61, 0.00, 331.72
¯316.09, 0.00, 332.14
314.25, 0.00, 332.64
311.98, 0.00, 333.26
327.58, 0.20, 329.07
327.38, 0.21, 329.12
327.16, 0.22, 329.19
326.90, 0.23, 329.26
326.62, 0.23, 329.34
326.32, 0.24, 329.43
326.00, 0.25, 329.52
325.66, 0.26, 329.62
325.20, 0.24, 329.75
324.68, 0.23, 329.90
324.09, 0.21, 330.07
323.28, 0.17, 330.30
322.28, 0.10, 330.59
321.36, 0.08, 330.85
320.29, 0.05, 331.16
319.01, 0.01, 331.53
317.64, 0.00, 331.92
316.12, 0.00, 332.36
314.28, 0.00, 332.89
312.00, 0.00, 333.54
327.60, 0.20, 329.14
327.40, 0.21, 329.19
327.18, 0.22, 329.26
326.92, 0.23, 329.34
326.64, 0.23, 329.42
326.34, 0.24, 329.51
326.03, 0.25, 329.61
325.67, 0.25, 329.71
325.21, 0.24, 329.85
324.70, 0.23, 330.01
324.09, 0.21, 330.19
323.27, 0.16, 330.44
322.26, 0.09, 330.74
321.34, 0.07, 331.02
320.25, 0.04, 331.35
319.00, 0.01, 331.72
317.67, 0.00, 332.12
316.15, 0.00, 332.58
314.31, 0.00, 333.13
312.03, 0.00, 333.81
327.63, 0.20, 329.20
327.43, 0.22, 329.27
327.20, 0.23, 329.34
326.95, 0.23, 329.42
326.67, 0.24, 329.50
326.37, 0.24, 329.60
326.05, 0.25, 329.70
325.69, 0.25, 329.81
¯325.23, 0.24, 329.96
324.72, 0.23, 330.12
324.09, 0.20, 330.32
323.26, 0.15, 330.57
322.24, 0.08, 330.90
321.32, 0.06, 331.19
320.22, 0.03, 331.53
319.00, 0.00, 331.91
317.70, 0.00, 332.32
316.18, 0.00, 332.80
314.34, 0.00, 333.38
312.07, 0.00, 334.09
327.66, 0.21, 329.27
327.46, 0.22, 329.34
327.23, 0.23, 329.41
326.97, 0.23, 329.50
326.70, 0.24, 329.59
326.40, 0.24, 329.68
326.08, 0.25, 329.79
325.71, 0.25, 329.91
325.25, 0.24, 330.06
324.74, 0.23, 330.23
324.09, 0.20, 330.44
323.26, 0.15, 330.71
322.23, 0.07, 331.05
321.30, 0.05, 331.36
320.19, 0.01, 331.72
319.02, 0.00, 332.10
317.74, 0.00, 332.52
316.22, 0.00, 333.02
314.38, 0.00, 333.62
312.10, 0.00, 334.37
327.69, 0.21, 329.34
327.49, 0.22, 329.41
327.26, 0.23, 329.49
327.00, 0.23, 329.57
326.73, 0.24, 329.67
326.43, 0.25, 329.77
326.11, 0.25, 329.88
325.73, 0.25, 330.01
325.27, 0.24, 330.16
324.77, 0.23, 330.34
324.09, 0.19, 330.57
323.26, 0.14, 330.85
322.22, 0.06, 331.21
321.28, 0.04, 331.53
320.16, 0.00, 331.91
319.05, 0.00, 332.29
317.78, 0.00, 332.72
316.26, 0.00, 333.24
314.42, 0.00, 333.87
¯312.14, 0.00, 334.64
327.72, 0.21, 329.41
327.52, 0.23, 329.48
327.28, 0.23, 329.56
327.03, 0.24, 329.65
326.76, 0.24, 329.75
326.46, 0.25, 329.85
326.14, 0.25, 329.97
325.75, 0.25, 330.11
325.30, 0.24, 330.27
324.79, 0.23, 330.45
324.10, 0.19, 330.69
323.27, 0.13, 330.99
322.21, 0.06, 331.36
321.26, 0.03, 331.70
320.18, 0.00, 332.08
319.09, 0.00, 332.47
317.82, 0.00, 332.92
316.30, 0.00, 333.46
314.46, 0.00, 334.11
312.19, 0.00, 334.92
327.74, 0.22, 329.48
327.55, 0.23, 329.55
327.31, 0.23, 329.64
327.06, 0.24, 329.73
326.79, 0.24, 329.83
326.49, 0.25, 329.94
326.17, 0.26, 330.05
325.77, 0.25, 330.20
325.32, 0.24, 330.37
324.82, 0.23, 330.55
324.10, 0.18, 330.82
323.27, 0.13, 331.13
322.20, 0.05, 331.52
321.25, 0.02, 331.87
320.22, 0.00, 332.25
319.14, 0.00, 332.65
317.86, 0.00, 333.12
316.35, 0.00, 333.68
314.51, 0.00, 334.36
312.23, 0.00, 335.19
327.78, 0.22, 329.54
327.57, 0.23, 329.62
327.34, 0.24, 329.71
327.09, 0.24, 329.81
326.82, 0.25, 329.91
326.53, 0.25, 330.02
326.21, 0.26, 330.14
325.80, 0.25, 330.30
325.35, 0.24, 330.47
324.85, 0.23, 330.66
¯324.11, 0.17, 330.95
323.26, 0.12, 331.27
322.19, 0.04, 331.68
321.24, 0.01, 332.05
320.26, 0.00, 332.42
319.18, 0.00, 332.83
317.91, 0.00, 333.32
316.39, 0.00, 333.90
314.56, 0.00, 334.60
312.29, 0.00, 335.47
316.46, 1.35, 333.85
316.45, 1.58, 333.85
316.44, 1.80, 333.85
316.42, 2.02, 333.85
316.41, 2.24, 333.85
316.40, 2.46, 333.85
316.39, 2.69, 333.85
316.38, 2.91, 333.85
327.81, 0.22, 329.61
327.60, 0.23, 329.69
327.37, 0.24, 329.78
327.12, 0.24, 329.88
326.85, 0.25, 329.99
326.56, 0.25, 330.10
326.23, 0.26, 330.23
325.83, 0.25, 330.39
325.38, 0.24, 330.57
324.87, 0.22, 330.77
324.12, 0.17, 331.07
323.27, 0.11, 331.41
322.19, 0.03, 331.84
321.28, 0.01, 332.20
320.31, 0.00, 332.59
319.23, 0.00, 333.01
317.96, 0.00, 333.52
316.45, 0.00, 334.12
314.61, 0.00, 334.84
312.34, 0.00, 335.74
317.06, 1.39, 333.85
317.05, 1.60, 333.85
317.04, 1.82, 333.85
316.97, 2.03, 333.87
316.96, 2.25, 333.87
316.95, 2.46, 333.87
316.94, 2.68, 333.87
316.93, 2.90, 333.87
327.84, 0.23, 329.68
327.63, 0.23, 329.76
327.40, 0.24, 329.86
327.15, 0.24, 329.96
326.88, 0.25, 330.07
¯326.60, 0.26, 330.19
326.26, 0.26, 330.32
325.86, 0.25, 330.49
325.41, 0.24, 330.67
324.89, 0.22, 330.89
324.14, 0.16, 331.20
323.27, 0.10, 331.56
322.19, 0.02, 332.00
321.32, 0.01, 332.36
320.36, 0.00, 332.75
319.28, 0.00, 333.20
318.01, 0.00, 333.72
316.50, 0.00, 334.34
314.67, 0.00, 335.09
316.99, 0.51, 334.12
316.53, 0.91, 334.31
317.62, 1.42, 333.85
317.61, 1.63, 333.85
317.60, 1.84, 333.85
317.54, 2.04, 333.87
317.53, 2.25, 333.87
317.52, 2.46, 333.87
317.51, 2.67, 333.87
317.50, 2.88, 333.87
327.87, 0.23, 329.74
327.66, 0.24, 329.83
327.43, 0.24, 329.93
327.19, 0.25, 330.03
326.92, 0.25, 330.15
326.63, 0.26, 330.27
326.29, 0.26, 330.41
325.89, 0.25, 330.59
325.44, 0.24, 330.77
324.90, 0.21, 331.00
324.15, 0.16, 331.32
323.27, 0.09, 331.70
322.22, 0.02, 332.15
321.36, 0.01, 332.51
320.41, 0.00, 332.92
319.33, 0.00, 333.38
318.07, 0.00, 333.91
316.56, 0.00, 334.55
314.73, 0.00, 335.33
317.54, 0.56, 334.12
317.22, 0.74, 334.26
317.10, 0.95, 334.31
318.16, 1.45, 333.85
318.15, 1.65, 333.85
318.14, 1.85, 333.85
318.08, 2.06, 333.87
318.07, 2.26, 333.87
¯318.06, 2.46, 333.87
318.05, 2.67, 333.87
318.04, 2.87, 333.87
327.90, 0.23, 329.81
327.69, 0.24, 329.90
327.47, 0.24, 330.00
327.22, 0.25, 330.11
326.95, 0.25, 330.23
326.67, 0.26, 330.35
326.33, 0.26, 330.50
325.92, 0.25, 330.68
325.48, 0.24, 330.88
324.92, 0.21, 331.12
324.17, 0.15, 331.45
323.28, 0.09, 331.84
322.26, 0.02, 332.29
321.40, 0.00, 332.67
320.46, 0.00, 333.09
319.38, 0.00, 333.56
318.12, 0.00, 334.11
316.62, 0.00, 334.77
314.79, 0.00, 335.57
318.07, 0.62, 334.12
317.22, 0.74, 334.49
317.70, 1.00, 334.28
317.70, 1.21, 334.27
318.66, 1.48, 333.85
318.65, 1.67, 333.85
318.64, 1.87, 333.85
318.58, 2.07, 333.87
318.57, 2.26, 333.87
318.57, 2.46, 333.87
318.56, 2.66, 333.87
318.55, 2.86, 333.87
327.94, 0.23, 329.87
327.73, 0.24, 329.97
327.50, 0.24, 330.07
327.25, 0.25, 330.18
326.99, 0.26, 330.30
326.71, 0.26, 330.43
326.36, 0.26, 330.59
325.95, 0.25, 330.77
325.51, 0.24, 330.98
324.95, 0.21, 331.23
324.19, 0.15, 331.58
323.29, 0.08, 331.99
322.31, 0.02, 332.43
321.45, 0.00, 332.82
320.51, 0.00, 333.25
319.44, 0.00, 333.74
318.18, 0.00, 334.31
¯316.68, 0.00, 334.99
318.57, 0.46, 334.12
318.06, 0.61, 334.35
318.15, 0.83, 334.31
318.05, 1.03, 334.35
319.07, 1.30, 333.88
319.07, 1.50, 333.88
319.07, 1.69, 333.87
319.07, 1.88, 333.87
319.07, 2.08, 333.87
