ŸVERSION 0.7
FIELDS x y z
SIZE 8 8 8
TYPE F F F
COUNT 1 1 1
WIDTH 2271
HEIGHT 1
VIEWPOINT 439.15, 14.95, 252.44 1 443.79, 9.17, 271.68
POINTS 2271
DATA ascii
437.46, 7.06, 271.74
437.23, 7.05, 271.89
436.98, 7.05, 272.06
436.71, 7.04, 272.24
436.42, 7.03, 272.44
436.10, 7.02, 272.65
435.75, 7.01, 272.89
435.37, 7.01, 273.14
435.03, 7.02, 273.37
434.64, 7.03, 273.63
434.22, 7.04, 273.92
433.54, 7.01, 274.38
432.86, 6.99, 274.84
432.47, 7.05, 275.10
432.05, 7.12, 275.38
431.84, 7.25, 275.53
431.85, 7.41, 275.53
431.84, 7.57, 275.54
430.70, 7.57, 276.30
427.51, 7.34, 278.45
427.51, 7.57, 278.46
427.51, 7.79, 278.46
427.51, 8.02, 278.47
427.51, 8.25, 278.47
427.51, 8.47, 278.48
438.59, 7.09, 271.05
438.43, 7.09, 271.16
438.27, 7.08, 271.27
438.10, 7.08, 271.39
437.91, 7.07, 271.52
437.72, 7.07, 271.65
437.50, 7.06, 271.80
437.28, 7.05, 271.96
437.03, 7.05, 272.13
¯436.76, 7.04, 272.31
436.47, 7.03, 272.51
436.16, 7.02, 272.73
435.81, 7.01, 272.97
435.43, 7.00, 273.24
435.09, 7.02, 273.47
434.70, 7.03, 273.74
434.27, 7.04, 274.04
433.58, 7.00, 274.51
432.94, 6.98, 274.96
432.55, 7.05, 275.23
432.11, 7.12, 275.53
431.96, 7.25, 275.64
431.97, 7.41, 275.64
431.95, 7.57, 275.66
430.82, 7.57, 276.44
427.51, 7.32, 278.73
427.51, 7.55, 278.73
427.51, 7.78, 278.73
427.51, 8.01, 278.74
427.51, 8.23, 278.74
427.51, 8.46, 278.75
438.62, 7.09, 271.11
438.47, 7.09, 271.21
438.31, 7.08, 271.33
438.14, 7.08, 271.45
437.95, 7.07, 271.58
437.76, 7.06, 271.72
437.55, 7.06, 271.87
437.32, 7.05, 272.03
437.08, 7.04, 272.20
436.82, 7.04, 272.39
436.53, 7.03, 272.59
436.21, 7.02, 272.81
435.87, 7.01, 273.06
435.49, 7.00, 273.33
435.14, 7.01, 273.57
434.76, 7.02, 273.85
434.33, 7.03, 274.15
433.63, 6.98, 274.65
433.02, 6.98, 275.08
432.63, 7.05, 275.36
432.17, 7.11, 275.69
432.06, 7.25, 275.77
432.06, 7.41, 275.77
432.06, 7.57, 275.78
430.95, 7.57, 276.57
429.58, 7.57, 277.54
427.51, 7.53, 279.01
427.51, 7.76, 279.01
427.51, 7.99, 279.02
¯427.51, 8.22, 279.02
427.51, 8.45, 279.03
438.66, 7.09, 271.16
438.51, 7.09, 271.27
438.35, 7.08, 271.38
438.18, 7.07, 271.51
438.00, 7.07, 271.64
437.80, 7.06, 271.78
437.60, 7.06, 271.93
437.37, 7.05, 272.09
437.13, 7.04, 272.27
436.87, 7.03, 272.46
436.58, 7.03, 272.67
436.27, 7.02, 272.90
435.93, 7.01, 273.15
435.55, 7.00, 273.42
435.20, 7.00, 273.68
434.81, 7.01, 273.96
434.39, 7.02, 274.27
433.67, 6.97, 274.79
433.10, 6.98, 275.21
432.70, 7.04, 275.50
432.23, 7.10, 275.84
432.15, 7.24, 275.90
432.16, 7.41, 275.90
432.16, 7.57, 275.90
431.07, 7.57, 276.70
429.72, 7.57, 277.68
427.51, 7.51, 279.29
427.51, 7.74, 279.30
427.51, 7.98, 279.30
427.51, 8.21, 279.31
427.51, 8.44, 279.31
438.69, 7.09, 271.21
438.54, 7.08, 271.32
438.39, 7.08, 271.44
438.22, 7.07, 271.56
438.04, 7.07, 271.70
437.85, 7.06, 271.84
437.64, 7.06, 271.99
437.42, 7.05, 272.16
437.18, 7.04, 272.34
436.92, 7.03, 272.53
436.64, 7.02, 272.74
436.33, 7.02, 272.98
435.99, 7.01, 273.23
435.61, 6.99, 273.51
435.25, 7.00, 273.78
434.87, 7.01, 274.06
434.43, 7.01, 274.39
433.72, 6.96, 274.92
¯433.18, 6.97, 275.33
432.76, 7.03, 275.64
432.29, 7.09, 275.99
432.25, 7.24, 276.03
432.25, 7.41, 276.03
432.25, 7.57, 276.03
431.19, 7.57, 276.83
429.86, 7.57, 277.82
427.51, 7.49, 279.58
427.51, 7.73, 279.58
427.51, 7.96, 279.59
427.51, 8.19, 279.59
427.51, 8.43, 279.60
438.73, 7.09, 271.26
438.58, 7.08, 271.37
438.43, 7.08, 271.49
438.26, 7.07, 271.62
438.08, 7.07, 271.76
437.89, 7.06, 271.90
437.69, 7.05, 272.06
437.47, 7.05, 272.23
437.23, 7.04, 272.41
436.98, 7.03, 272.60
436.69, 7.02, 272.82
436.39, 7.01, 273.06
436.05, 7.00, 273.31
435.68, 6.99, 273.60
435.31, 6.99, 273.88
434.93, 7.00, 274.17
434.48, 7.00, 274.52
433.77, 6.95, 275.06
433.25, 6.97, 275.46
432.82, 7.02, 275.79
432.34, 7.07, 276.16
432.34, 7.24, 276.16
432.35, 7.40, 276.16
432.35, 7.57, 276.16
431.32, 7.57, 276.95
430.00, 7.57, 277.96
427.51, 7.47, 279.87
427.51, 7.71, 279.88
427.51, 7.94, 279.88
427.51, 8.18, 279.89
427.51, 8.41, 279.89
438.77, 7.09, 271.31
438.62, 7.08, 271.43
438.47, 7.08, 271.55
438.30, 7.07, 271.68
438.13, 7.06, 271.81
437.94, 7.06, 271.96
437.74, 7.05, 272.12
¯437.52, 7.05, 272.29
437.29, 7.04, 272.48
437.03, 7.03, 272.68
436.75, 7.02, 272.90
436.45, 7.01, 273.13
436.11, 7.00, 273.40
435.74, 6.99, 273.69
435.37, 6.99, 273.98
434.99, 7.00, 274.28
434.53, 6.99, 274.64
433.82, 6.94, 275.20
433.31, 6.96, 275.60
432.88, 7.01, 275.94
432.44, 7.07, 276.29
432.44, 7.24, 276.29
432.44, 7.40, 276.29
432.44, 7.56, 276.29
431.44, 7.57, 277.08
430.14, 7.57, 278.10
427.51, 7.45, 280.17
427.51, 7.69, 280.18
427.51, 7.93, 280.18
427.51, 8.16, 280.19
427.51, 8.40, 280.19
438.81, 7.09, 271.36
438.66, 7.08, 271.48
438.51, 7.07, 271.60
438.35, 7.07, 271.73
438.17, 7.06, 271.87
437.99, 7.06, 272.02
437.79, 7.05, 272.18
437.57, 7.04, 272.36
437.34, 7.04, 272.54
437.09, 7.03, 272.75
436.81, 7.02, 272.97
436.51, 7.01, 273.21
436.18, 7.00, 273.48
435.81, 6.99, 273.77
435.43, 6.98, 274.08
435.05, 6.99, 274.38
434.58, 6.98, 274.77
433.87, 6.93, 275.34
433.37, 6.95, 275.74
432.95, 7.00, 276.08
432.53, 7.07, 276.42
432.54, 7.23, 276.42
432.54, 7.40, 276.42
432.54, 7.56, 276.42
431.57, 7.57, 277.21
430.28, 7.57, 278.24
427.51, 7.43, 280.48
¯427.51, 7.67, 280.48
427.51, 7.91, 280.49
427.51, 8.15, 280.49
427.51, 8.39, 280.49
438.84, 7.08, 271.41
438.70, 7.08, 271.53
438.55, 7.07, 271.65
438.39, 7.07, 271.79
438.22, 7.06, 271.93
438.03, 7.06, 272.08
437.84, 7.05, 272.24
437.62, 7.04, 272.42
437.39, 7.04, 272.61
437.14, 7.03, 272.82
436.87, 7.02, 273.04
436.57, 7.01, 273.29
436.24, 7.00, 273.56
435.88, 6.99, 273.86
435.49, 6.98, 274.18
435.12, 6.99, 274.49
434.63, 6.97, 274.89
433.95, 6.92, 275.45
433.44, 6.94, 275.88
433.01, 6.99, 276.23
432.63, 7.06, 276.55
432.63, 7.23, 276.55
432.63, 7.39, 276.55
432.63, 7.56, 276.55
431.69, 7.57, 277.33
430.43, 7.57, 278.38
427.51, 7.41, 280.79
427.51, 7.65, 280.79
427.51, 7.89, 280.80
427.51, 8.14, 280.80
427.51, 8.38, 280.80
438.88, 7.08, 271.46
438.74, 7.08, 271.58
438.59, 7.07, 271.71
438.43, 7.07, 271.84
438.26, 7.06, 271.99
438.08, 7.06, 272.14
437.89, 7.05, 272.31
437.68, 7.04, 272.48
437.45, 7.03, 272.68
437.20, 7.03, 272.89
436.93, 7.02, 273.12
436.63, 7.01, 273.37
436.31, 7.00, 273.64
435.95, 6.98, 273.95
435.55, 6.97, 274.28
435.18, 6.98, 274.60
¯434.69, 6.96, 275.02
434.04, 6.92, 275.56
433.50, 6.93, 276.02
433.08, 6.98, 276.38
432.73, 7.06, 276.68
432.73, 7.23, 276.68
432.73, 7.39, 276.68
432.73, 7.55, 276.68
431.82, 7.57, 277.45
430.57, 7.57, 278.51
427.51, 7.39, 281.11
427.51, 7.63, 281.11
427.51, 7.88, 281.11
427.51, 8.12, 281.12
427.51, 8.37, 281.12
438.92, 7.08, 271.51
438.79, 7.08, 271.63
438.64, 7.07, 271.76
438.48, 7.07, 271.90
438.31, 7.06, 272.04
438.13, 7.05, 272.20
437.94, 7.05, 272.37
437.73, 7.04, 272.55
437.50, 7.03, 272.74
437.26, 7.02, 272.96
436.99, 7.02, 273.19
436.70, 7.01, 273.44
436.38, 6.99, 273.72
436.02, 6.98, 274.03
435.63, 6.97, 274.37
435.25, 6.97, 274.70
434.74, 6.95, 275.14
434.14, 6.92, 275.67
433.56, 6.92, 276.16
433.14, 6.97, 276.53
432.82, 7.06, 276.81
432.82, 7.22, 276.81
432.82, 7.39, 276.81
432.82, 7.55, 276.81
431.95, 7.57, 277.58
430.71, 7.57, 278.65
427.51, 7.36, 281.43
427.51, 7.61, 281.43
427.51, 7.86, 281.44
427.51, 8.11, 281.44
427.51, 8.35, 281.44
438.97, 7.08, 271.56
438.83, 7.08, 271.68
438.68, 7.07, 271.81
438.53, 7.06, 271.95
438.36, 7.06, 272.10
¯438.18, 7.05, 272.26
437.99, 7.05, 272.43
437.78, 7.04, 272.61
437.56, 7.03, 272.81
437.32, 7.02, 273.03
437.05, 7.01, 273.26
436.76, 7.00, 273.52
436.44, 6.99, 273.80
436.09, 6.98, 274.12
435.70, 6.97, 274.46
435.31, 6.97, 274.81
434.80, 6.94, 275.26
434.23, 6.92, 275.77
433.65, 6.91, 276.29
433.21, 6.96, 276.68
432.92, 7.05, 276.94
432.92, 7.22, 276.94
432.92, 7.38, 276.94
432.92, 7.55, 276.95
432.07, 7.57, 277.70
430.85, 7.57, 278.79
427.51, 7.34, 281.76
427.51, 7.59, 281.76
427.51, 7.84, 281.77
427.51, 8.09, 281.77
427.51, 8.34, 281.77
439.01, 7.08, 271.61
438.87, 7.07, 271.73
438.73, 7.07, 271.86
438.57, 7.06, 272.00
438.41, 7.06, 272.15
438.23, 7.05, 272.31
438.04, 7.05, 272.49
437.84, 7.04, 272.67
437.61, 7.03, 272.88
437.37, 7.02, 273.09
437.11, 7.01, 273.33
436.83, 7.00, 273.59
436.51, 6.99, 273.88
436.16, 6.98, 274.20
435.78, 6.97, 274.55
435.38, 6.96, 274.91
434.86, 6.93, 275.39
434.33, 6.92, 275.87
433.75, 6.91, 276.40
433.28, 6.95, 276.83
433.01, 7.05, 277.07
433.01, 7.21, 277.07
433.02, 7.38, 277.08
433.02, 7.54, 277.08
432.20, 7.57, 277.82
¯431.00, 7.57, 278.92
429.49, 7.57, 280.30
427.51, 7.57, 282.10
427.51, 7.82, 282.11
427.51, 8.08, 282.11
427.51, 8.33, 282.11
439.05, 7.08, 271.65
438.92, 7.07, 271.78
438.77, 7.07, 271.91
438.62, 7.06, 272.05
438.46, 7.06, 272.21
438.28, 7.05, 272.37
438.09, 7.04, 272.55
437.89, 7.04, 272.74
437.67, 7.03, 272.94
437.43, 7.02, 273.16
437.18, 7.01, 273.40
436.89, 7.00, 273.67
436.58, 6.99, 273.96
436.24, 6.98, 274.28
435.85, 6.96, 274.64
435.45, 6.96, 275.02
434.95, 6.93, 275.48
434.42, 6.92, 275.98
433.86, 6.91, 276.51
433.35, 6.94, 276.98
433.11, 7.04, 277.20
433.11, 7.21, 277.21
433.11, 7.37, 277.21
433.11, 7.54, 277.21
432.33, 7.57, 277.94
431.14, 7.57, 279.05
429.65, 7.57, 280.44
427.51, 7.55, 282.45
427.51, 7.80, 282.45
427.51, 8.06, 282.45
427.51, 8.31, 282.46
439.09, 7.08, 271.70
438.96, 7.07, 271.83
438.82, 7.07, 271.96
438.67, 7.06, 272.11
438.51, 7.06, 272.26
438.33, 7.05, 272.43
438.15, 7.04, 272.60
437.95, 7.04, 272.80
437.73, 7.03, 273.00
437.50, 7.02, 273.23
437.24, 7.01, 273.47
436.96, 7.00, 273.74
436.65, 6.99, 274.04
436.31, 6.98, 274.36
¯435.93, 6.96, 274.73
435.52, 6.95, 275.13
435.04, 6.93, 275.58
434.52, 6.92, 276.08
433.96, 6.91, 276.62
433.42, 6.93, 277.13
433.21, 7.04, 277.34
433.21, 7.21, 277.34
433.21, 7.37, 277.34
433.21, 7.53, 277.34
432.46, 7.57, 278.06
431.29, 7.57, 279.18
429.82, 7.57, 280.59
427.51, 7.52, 282.80
427.51, 7.78, 282.81
427.51, 8.04, 282.81
427.51, 8.30, 282.81
439.14, 7.08, 271.75
439.00, 7.07, 271.88
438.86, 7.07, 272.01
438.72, 7.06, 272.16
438.56, 7.05, 272.32
438.39, 7.05, 272.48
438.20, 7.04, 272.66
438.00, 7.03, 272.86
437.79, 7.03, 273.07
437.56, 7.02, 273.30
437.30, 7.01, 273.54
437.03, 7.00, 273.82
436.72, 6.99, 274.12
436.38, 6.97, 274.45
436.01, 6.96, 274.81
435.59, 6.95, 275.22
435.13, 6.93, 275.68
434.62, 6.92, 276.18
434.06, 6.91, 276.72
433.48, 6.91, 277.29
433.19, 7.01, 277.58
433.19, 7.18, 277.58
433.19, 7.34, 277.58
433.19, 7.51, 277.58
432.59, 7.57, 278.18
431.43, 7.57, 279.31
429.98, 7.57, 280.74
427.51, 7.50, 283.16
427.51, 7.76, 283.17
427.51, 8.03, 283.17
427.51, 8.29, 283.17
439.18, 7.08, 271.79
439.05, 7.07, 271.92
438.91, 7.07, 272.06
¯438.76, 7.06, 272.21
438.61, 7.05, 272.37
438.44, 7.05, 272.54
438.26, 7.04, 272.72
438.06, 7.03, 272.92
437.85, 7.03, 273.13
437.62, 7.02, 273.36
437.37, 7.01, 273.61
437.09, 7.00, 273.89
436.79, 6.99, 274.19
436.46, 6.97, 274.53
436.09, 6.96, 274.90
435.68, 6.94, 275.31
435.22, 6.93, 275.77
434.72, 6.92, 276.28
434.17, 6.91, 276.83
433.56, 6.90, 277.44
432.97, 6.93, 278.03
433.13, 7.13, 277.87
433.13, 7.31, 277.88
433.13, 7.47, 277.88
432.72, 7.57, 278.30
431.57, 7.57, 279.44
430.14, 7.57, 280.88
427.51, 7.48, 283.54
427.51, 7.74, 283.54
427.51, 8.01, 283.54
427.51, 8.27, 283.54
439.22, 7.07, 271.84
439.10, 7.07, 271.97
438.96, 7.06, 272.11
438.81, 7.06, 272.26
438.66, 7.05, 272.42
438.49, 7.05, 272.59
438.31, 7.04, 272.78
438.12, 7.03, 272.98
437.91, 7.02, 273.19
437.68, 7.02, 273.43
437.43, 7.01, 273.68
437.16, 7.00, 273.96
436.87, 6.98, 274.27
436.54, 6.97, 274.61
436.17, 6.96, 274.98
435.76, 6.94, 275.40
435.32, 6.93, 275.86
434.82, 6.91, 276.38
434.28, 6.91, 276.94
433.67, 6.90, 277.57
433.07, 6.92, 278.18
433.07, 7.09, 278.18
433.07, 7.27, 278.18
¯433.07, 7.44, 278.18
432.85, 7.57, 278.41
431.72, 7.57, 279.57
430.31, 7.57, 281.03
427.51, 7.45, 283.92
427.51, 7.72, 283.92
427.51, 7.99, 283.92
427.51, 8.26, 283.92
439.27, 7.07, 271.88
439.14, 7.07, 272.02
439.01, 7.06, 272.16
438.86, 7.06, 272.31
438.71, 7.05, 272.47
438.54, 7.05, 272.65
438.37, 7.04, 272.83
438.18, 7.03, 273.04
437.97, 7.02, 273.25
437.75, 7.01, 273.49
437.50, 7.00, 273.75
437.23, 6.99, 274.03
436.94, 6.98, 274.34
436.61, 6.97, 274.69
436.25, 6.96, 275.07
435.85, 6.94, 275.49
435.41, 6.93, 275.95
434.92, 6.91, 276.48
434.38, 6.91, 277.04
433.78, 6.90, 277.68
433.16, 6.91, 278.33
433.00, 7.05, 278.50
433.00, 7.22, 278.50
433.00, 7.40, 278.50
432.98, 7.57, 278.53
431.87, 7.57, 279.70
430.48, 7.57, 281.17
427.51, 7.43, 284.31
427.51, 7.70, 284.31
427.51, 7.97, 284.31
427.51, 8.24, 284.31
439.31, 7.07, 271.93
439.19, 7.07, 272.06
439.06, 7.06, 272.21
438.91, 7.06, 272.36
438.76, 7.05, 272.52
438.60, 7.04, 272.70
438.42, 7.04, 272.89
438.24, 7.03, 273.09
438.03, 7.02, 273.31
437.81, 7.01, 273.55
437.57, 7.00, 273.82
437.30, 6.99, 274.10
¯437.01, 6.98, 274.42
436.69, 6.97, 274.76
436.33, 6.95, 275.15
435.94, 6.94, 275.58
435.51, 6.93, 276.04
435.02, 6.91, 276.57
434.49, 6.91, 277.14
433.90, 6.90, 277.79
433.26, 6.90, 278.48
432.94, 7.00, 278.83
432.94, 7.18, 278.83
432.93, 7.36, 278.83
432.93, 7.54, 278.83
432.01, 7.57, 279.83
430.64, 7.57, 281.32
427.51, 7.40, 284.71
427.51, 7.68, 284.71
427.51, 7.95, 284.71
427.51, 8.23, 284.71
439.36, 7.07, 271.97
439.24, 7.07, 272.11
439.11, 7.06, 272.25
438.97, 7.06, 272.41
438.82, 7.05, 272.57
438.65, 7.04, 272.75
438.48, 7.04, 272.94
438.30, 7.03, 273.15
438.09, 7.02, 273.38
437.87, 7.01, 273.62
437.64, 7.00, 273.88
437.37, 6.99, 274.17
437.09, 6.98, 274.49
436.77, 6.97, 274.84
436.42, 6.95, 275.23
436.03, 6.94, 275.66
435.60, 6.93, 276.14
435.12, 6.91, 276.67
434.60, 6.90, 277.25
434.01, 6.90, 277.90
433.35, 6.89, 278.63
432.57, 6.88, 279.49
432.86, 7.14, 279.18
432.86, 7.32, 279.18
432.86, 7.50, 279.18
432.16, 7.57, 279.96
430.81, 7.57, 281.46
427.51, 7.38, 285.12
427.51, 7.66, 285.12
427.51, 7.94, 285.12
427.51, 8.21, 285.12
439.41, 7.07, 272.01
¯439.28, 7.07, 272.15
439.16, 7.06, 272.30
439.02, 7.06, 272.46
438.87, 7.05, 272.63
438.71, 7.04, 272.81
438.54, 7.04, 273.00
438.36, 7.03, 273.21
438.16, 7.02, 273.43
437.94, 7.01, 273.68
437.70, 7.00, 273.95
437.45, 6.99, 274.24
437.16, 6.98, 274.56
436.85, 6.97, 274.92
436.50, 6.95, 275.31
436.12, 6.94, 275.74
435.70, 6.93, 276.22
435.22, 6.91, 276.77
434.71, 6.90, 277.35
434.13, 6.90, 278.01
433.45, 6.88, 278.78
432.70, 6.88, 279.63
432.79, 7.09, 279.53
432.79, 7.28, 279.54
432.79, 7.47, 279.54
432.31, 7.57, 280.08
430.97, 7.57, 281.60
427.51, 7.35, 285.54
427.51, 7.63, 285.54
427.51, 7.92, 285.54
427.51, 8.20, 285.54
439.45, 7.07, 272.06
439.33, 7.07, 272.20
439.21, 7.06, 272.35
439.07, 7.05, 272.50
438.92, 7.05, 272.67
438.77, 7.04, 272.86
438.60, 7.03, 273.05
438.42, 7.03, 273.26
438.22, 7.02, 273.49
438.01, 7.01, 273.74
437.77, 7.00, 274.01
437.52, 6.99, 274.31
437.24, 6.98, 274.63
436.93, 6.96, 275.00
436.59, 6.95, 275.40
436.22, 6.94, 275.83
435.80, 6.93, 276.31
435.33, 6.91, 276.86
434.82, 6.90, 277.45
434.25, 6.90, 278.12
433.55, 6.88, 278.93
¯432.83, 6.88, 279.77
432.71, 7.04, 279.91
432.71, 7.23, 279.91
432.71, 7.42, 279.91
432.46, 7.57, 280.21
431.14, 7.57, 281.74
427.51, 7.32, 285.97
427.51, 7.61, 285.97
427.51, 7.90, 285.98
427.51, 8.18, 285.98
439.50, 7.07, 272.10
439.38, 7.06, 272.24
439.26, 7.06, 272.39
439.12, 7.05, 272.55
438.98, 7.05, 272.72
438.82, 7.04, 272.91
438.66, 7.03, 273.11
438.48, 7.03, 273.32
438.28, 7.02, 273.55
438.07, 7.01, 273.80
437.84, 7.00, 274.08
437.59, 6.99, 274.38
437.32, 6.98, 274.71
437.01, 6.96, 275.07
436.68, 6.95, 275.47
436.31, 6.94, 275.91
435.90, 6.92, 276.40
435.43, 6.91, 276.95
434.93, 6.90, 277.55
434.37, 6.89, 278.22
433.67, 6.87, 279.06
432.96, 6.87, 279.91
432.04, 6.86, 281.00
432.63, 7.19, 280.30
432.63, 7.38, 280.30
432.61, 7.57, 280.33
431.31, 7.57, 281.88
427.51, 7.29, 286.42
427.51, 7.58, 286.42
427.51, 7.88, 286.42
427.51, 8.17, 286.42
439.55, 7.07, 272.14
439.43, 7.06, 272.28
439.31, 7.06, 272.44
439.17, 7.05, 272.60
439.03, 7.05, 272.77
438.88, 7.04, 272.96
438.72, 7.03, 273.16
438.54, 7.02, 273.38
438.35, 7.02, 273.61
438.14, 7.01, 273.86
¯437.92, 7.00, 274.14
437.67, 6.99, 274.44
437.40, 6.97, 274.78
437.09, 6.96, 275.15
436.76, 6.95, 275.55
436.40, 6.94, 275.99
436.00, 6.92, 276.49
435.54, 6.91, 277.05
435.05, 6.90, 277.65
434.49, 6.89, 278.33
433.80, 6.87, 279.18
433.09, 6.87, 280.05
432.18, 6.85, 281.16
432.55, 7.14, 280.71
432.55, 7.34, 280.71
432.55, 7.54, 280.71
427.51, 6.97, 286.88
427.51, 7.26, 286.88
427.51, 7.56, 286.88
427.51, 7.85, 286.88
427.51, 8.15, 286.88
439.60, 7.07, 272.18
439.48, 7.06, 272.33
439.36, 7.06, 272.48
439.23, 7.05, 272.64
439.09, 7.05, 272.82
438.94, 7.04, 273.01
438.78, 7.03, 273.21
438.60, 7.02, 273.43
438.41, 7.02, 273.67
438.21, 7.01, 273.92
437.99, 7.00, 274.20
437.74, 6.99, 274.51
437.47, 6.97, 274.85
437.18, 6.96, 275.22
436.85, 6.95, 275.63
436.50, 6.94, 276.07
436.10, 6.92, 276.57
435.65, 6.91, 277.14
435.16, 6.90, 277.75
434.61, 6.89, 278.44
433.93, 6.87, 279.29
433.22, 6.87, 280.19
432.33, 6.85, 281.30
432.46, 7.08, 281.14
432.46, 7.29, 281.14
432.46, 7.49, 281.14
427.51, 6.93, 287.36
427.51, 7.23, 287.36
427.51, 7.53, 287.35
427.51, 7.83, 287.35
¯427.51, 8.13, 287.35
439.65, 7.07, 272.22
439.53, 7.06, 272.37
439.41, 7.06, 272.52
439.28, 7.05, 272.69
439.14, 7.04, 272.87
439.00, 7.04, 273.06
438.84, 7.03, 273.26
438.67, 7.02, 273.48
438.48, 7.01, 273.72
438.28, 7.01, 273.98
438.06, 7.00, 274.27
437.82, 6.98, 274.58
437.55, 6.97, 274.92
437.26, 6.96, 275.29
436.94, 6.95, 275.70
436.59, 6.94, 276.15
436.20, 6.92, 276.66
435.76, 6.91, 277.23
435.28, 6.90, 277.85
434.74, 6.89, 278.54
434.07, 6.87, 279.40
433.35, 6.86, 280.32
432.48, 6.85, 281.44
432.36, 7.03, 281.59
432.36, 7.24, 281.59
432.36, 7.45, 281.59
427.51, 6.89, 287.85
427.51, 7.20, 287.84
427.51, 7.50, 287.84
427.51, 7.81, 287.84
427.51, 8.11, 287.84
439.88, 7.20, 272.02
439.58, 7.06, 272.41
439.46, 7.06, 272.57
439.34, 7.05, 272.74
439.20, 7.04, 272.91
439.06, 7.04, 273.11
438.90, 7.03, 273.31
438.73, 7.02, 273.54
438.55, 7.01, 273.78
438.35, 7.00, 274.04
438.13, 6.99, 274.33
437.89, 6.98, 274.64
437.63, 6.97, 274.98
437.35, 6.96, 275.36
437.04, 6.95, 275.77
436.69, 6.94, 276.23
436.30, 6.92, 276.74
435.87, 6.91, 277.32
435.39, 6.90, 277.94
¯434.86, 6.89, 278.64
434.20, 6.87, 279.52
433.48, 6.86, 280.46
432.64, 6.85, 281.58
431.64, 6.83, 282.89
430.83, 6.90, 283.96
429.45, 6.89, 285.79
439.94, 7.21, 272.03
439.79, 7.18, 272.24
439.52, 7.06, 272.61
439.39, 7.05, 272.78
439.26, 7.04, 272.96
439.12, 7.04, 273.16
438.96, 7.03, 273.36
438.79, 7.02, 273.59
438.61, 7.01, 273.83
438.42, 7.00, 274.10
438.21, 6.99, 274.39
437.97, 6.98, 274.70
437.72, 6.97, 275.05
437.43, 6.96, 275.43
437.13, 6.95, 275.85
436.79, 6.93, 276.31
436.41, 6.92, 276.82
435.98, 6.91, 277.41
435.51, 6.90, 278.04
434.99, 6.89, 278.75
434.34, 6.87, 279.63
433.62, 6.85, 280.59
432.80, 6.84, 281.71
431.81, 6.83, 283.04
430.97, 6.89, 284.19
429.58, 6.88, 286.07
439.99, 7.21, 272.07
439.89, 7.21, 272.21
439.71, 7.15, 272.46
439.45, 7.05, 272.82
439.32, 7.04, 273.01
439.18, 7.04, 273.20
439.02, 7.03, 273.41
438.86, 7.02, 273.64
438.68, 7.01, 273.89
438.49, 7.00, 274.16
438.28, 6.99, 274.45
438.05, 6.98, 274.77
437.80, 6.97, 275.12
437.52, 6.96, 275.50
437.22, 6.95, 275.92
436.89, 6.93, 276.38
436.51, 6.92, 276.91
436.09, 6.91, 277.50
¯435.62, 6.90, 278.14
435.11, 6.89, 278.85
434.47, 6.87, 279.74
433.77, 6.85, 280.72
432.96, 6.84, 281.84
431.99, 6.83, 283.19
431.10, 6.88, 284.42
429.72, 6.87, 286.33
440.04, 7.21, 272.11
439.94, 7.21, 272.25
439.83, 7.20, 272.40
439.51, 7.05, 272.87
439.38, 7.04, 273.05
439.24, 7.03, 273.25
439.09, 7.03, 273.46
438.93, 7.02, 273.69
438.75, 7.01, 273.94
438.56, 7.00, 274.21
438.36, 6.99, 274.51
438.13, 6.98, 274.83
437.88, 6.97, 275.18
437.61, 6.96, 275.57
437.31, 6.95, 275.99
436.98, 6.93, 276.46
436.61, 6.92, 276.99
436.20, 6.91, 277.58
435.74, 6.90, 278.23
435.24, 6.89, 278.95
434.61, 6.87, 279.85
433.91, 6.85, 280.84
433.12, 6.84, 281.98
432.17, 6.83, 283.33
431.24, 6.86, 284.65
429.91, 6.86, 286.54
440.09, 7.21, 272.14
439.99, 7.21, 272.28
439.88, 7.20, 272.44
439.77, 7.20, 272.60
439.60, 7.15, 272.86
439.30, 7.03, 273.30
439.15, 7.03, 273.51
438.99, 7.02, 273.74
438.82, 7.01, 273.99
438.63, 7.00, 274.27
438.43, 6.99, 274.56
438.21, 6.98, 274.89
437.96, 6.97, 275.25
437.70, 6.96, 275.64
437.41, 6.94, 276.06
437.08, 6.93, 276.54
436.72, 6.92, 277.07
¯436.31, 6.90, 277.67
435.86, 6.89, 278.32
435.37, 6.89, 279.05
434.75, 6.87, 279.95
434.06, 6.85, 280.96
433.28, 6.84, 282.11
432.35, 6.83, 283.46
431.38, 6.85, 284.88
430.10, 6.86, 286.75
440.13, 7.21, 272.18
440.04, 7.21, 272.32
439.94, 7.20, 272.47
439.83, 7.20, 272.64
439.71, 7.19, 272.82
439.57, 7.17, 273.02
439.21, 7.03, 273.56
439.06, 7.02, 273.79
438.89, 7.01, 274.05
438.71, 7.00, 274.32
438.51, 6.99, 274.62
438.29, 6.98, 274.95
438.05, 6.97, 275.31
437.79, 6.96, 275.70
437.50, 6.94, 276.13
437.18, 6.93, 276.61
436.83, 6.92, 277.15
436.42, 6.90, 277.75
435.98, 6.89, 278.42
435.49, 6.89, 279.15
434.89, 6.86, 280.06
434.21, 6.85, 281.07
433.44, 6.84, 282.24
432.53, 6.83, 283.60
431.49, 6.83, 285.16
430.29, 6.85, 286.96
440.18, 7.21, 272.21
440.09, 7.21, 272.36
439.99, 7.20, 272.51
439.88, 7.19, 272.68
439.76, 7.19, 272.86
439.64, 7.18, 273.05
439.51, 7.17, 273.25
439.13, 7.02, 273.84
438.96, 7.01, 274.10
438.78, 7.00, 274.38
438.58, 6.99, 274.68
438.37, 6.98, 275.01
438.13, 6.96, 275.38
437.88, 6.95, 275.77
437.60, 6.94, 276.20
437.29, 6.93, 276.68
¯436.93, 6.92, 277.22
436.54, 6.90, 277.84
436.10, 6.89, 278.51
435.62, 6.89, 279.25
435.03, 6.86, 280.17
434.36, 6.85, 281.19
433.60, 6.84, 282.37
432.71, 6.83, 283.74
431.67, 6.83, 285.34
430.49, 6.84, 287.17
440.23, 7.21, 272.24
440.14, 7.20, 272.39
440.04, 7.20, 272.55
439.93, 7.19, 272.72
439.82, 7.19, 272.90
439.70, 7.18, 273.09
439.57, 7.17, 273.29
439.43, 7.17, 273.52
439.03, 7.01, 274.15
438.85, 7.00, 274.43
438.66, 6.99, 274.74
438.45, 6.98, 275.07
438.22, 6.96, 275.44
437.97, 6.95, 275.83
437.69, 6.94, 276.27
437.39, 6.93, 276.76
437.04, 6.92, 277.30
436.65, 6.90, 277.92
436.23, 6.89, 278.60
435.75, 6.88, 279.34
435.17, 6.86, 280.27
434.52, 6.85, 281.31
433.77, 6.84, 282.48
432.90, 6.83, 283.87
431.87, 6.83, 285.50
430.68, 6.84, 287.38
429.69, 6.94, 288.95
429.65, 7.24, 289.01
429.61, 7.53, 289.06
440.28, 7.21, 272.28
440.19, 7.20, 272.43
440.09, 7.20, 272.58
439.99, 7.19, 272.75
439.88, 7.19, 272.93
439.76, 7.18, 273.13
439.63, 7.17, 273.34
439.49, 7.17, 273.56
439.34, 7.16, 273.80
438.93, 7.00, 274.48
438.74, 6.99, 274.79
438.53, 6.98, 275.13
¯438.31, 6.96, 275.50
438.06, 6.95, 275.89
437.79, 6.94, 276.34
437.49, 6.93, 276.83
437.15, 6.92, 277.38
436.77, 6.90, 278.00
436.35, 6.89, 278.69
435.88, 6.88, 279.44
435.31, 6.86, 280.37
434.67, 6.85, 281.42
433.94, 6.84, 282.60
433.08, 6.83, 284.00
432.07, 6.83, 285.66
430.88, 6.83, 287.59
429.97, 6.95, 289.08
429.93, 7.24, 289.13
429.89, 7.54, 289.18
440.33, 7.21, 272.31
440.24, 7.20, 272.46
440.15, 7.20, 272.62
440.04, 7.19, 272.79
439.94, 7.19, 272.97
439.82, 7.18, 273.17
439.69, 7.17, 273.38
439.56, 7.17, 273.60
439.41, 7.16, 273.85
439.25, 7.15, 274.12
439.02, 7.11, 274.50
438.62, 6.97, 275.19
438.39, 6.96, 275.56
438.15, 6.95, 275.96
437.89, 6.94, 276.40
437.59, 6.93, 276.90
437.26, 6.92, 277.45
436.89, 6.90, 278.08
436.47, 6.89, 278.77
436.02, 6.88, 279.54
435.45, 6.86, 280.48
434.83, 6.85, 281.52
434.12, 6.84, 282.72
433.27, 6.83, 284.14
432.26, 6.82, 285.82
431.08, 6.83, 287.80
430.24, 6.95, 289.20
430.21, 7.25, 289.25
430.17, 7.54, 289.31
440.38, 7.21, 272.34
440.29, 7.20, 272.49
440.20, 7.20, 272.66
440.10, 7.19, 272.83
439.99, 7.19, 273.01
¯439.88, 7.18, 273.21
439.76, 7.17, 273.42
439.62, 7.16, 273.65
439.48, 7.16, 273.90
439.32, 7.15, 274.16
439.15, 7.14, 274.46
438.97, 7.13, 274.78
438.48, 6.96, 275.61
438.25, 6.95, 276.02
437.99, 6.94, 276.47
437.70, 6.93, 276.97
437.37, 6.92, 277.53
437.00, 6.90, 278.16
436.60, 6.89, 278.86
436.15, 6.88, 279.63
435.60, 6.86, 280.58
434.99, 6.85, 281.63
434.29, 6.84, 282.83
433.46, 6.83, 284.27
432.46, 6.82, 285.97
431.28, 6.82, 288.01
430.52, 6.96, 289.32
430.48, 7.25, 289.37
430.45, 7.55, 289.43
440.43, 7.21, 272.38
440.35, 7.20, 272.53
440.25, 7.20, 272.69
440.16, 7.19, 272.86
440.05, 7.19, 273.05
439.94, 7.18, 273.25
439.82, 7.17, 273.46
439.69, 7.16, 273.69
439.55, 7.16, 273.94
439.39, 7.15, 274.21
439.23, 7.14, 274.51
439.05, 7.13, 274.83
438.85, 7.12, 275.19
438.58, 7.08, 275.65
438.09, 6.94, 276.53
437.80, 6.93, 277.04
437.48, 6.92, 277.60
437.12, 6.90, 278.24
436.72, 6.89, 278.95
436.28, 6.88, 279.73
435.74, 6.86, 280.68
435.15, 6.85, 281.74
434.46, 6.84, 282.95
433.64, 6.83, 284.40
432.67, 6.82, 286.13
431.49, 6.82, 288.22
440.48, 7.21, 272.41
¯440.40, 7.20, 272.56
440.31, 7.20, 272.72
440.21, 7.19, 272.90
440.11, 7.19, 273.08
440.00, 7.18, 273.28
439.88, 7.17, 273.50
439.76, 7.16, 273.73
439.62, 7.16, 273.98
439.47, 7.15, 274.26
439.30, 7.14, 274.56
439.12, 7.13, 274.88
438.93, 7.11, 275.24
438.71, 7.10, 275.63
438.48, 7.09, 276.06
438.11, 7.03, 276.73
437.60, 6.92, 277.67
437.24, 6.90, 278.32
436.85, 6.89, 279.03
436.42, 6.88, 279.82
435.89, 6.86, 280.78
435.31, 6.85, 281.84
434.64, 6.84, 283.06
433.83, 6.83, 284.53
432.87, 6.82, 286.28
431.70, 6.81, 288.42
440.53, 7.21, 272.44
440.45, 7.20, 272.59
440.36, 7.20, 272.76
440.27, 7.19, 272.93
440.17, 7.18, 273.12
440.06, 7.18, 273.32
439.95, 7.17, 273.54
439.82, 7.16, 273.77
439.69, 7.15, 274.03
439.54, 7.15, 274.30
439.38, 7.14, 274.60
439.20, 7.13, 274.93
439.01, 7.11, 275.29
438.80, 7.10, 275.69
438.57, 7.09, 276.12
438.32, 7.08, 276.60
438.03, 7.07, 277.14
437.36, 6.90, 278.39
436.98, 6.89, 279.12
436.55, 6.88, 279.91
436.04, 6.86, 280.88
435.47, 6.85, 281.95
434.82, 6.84, 283.17
434.03, 6.83, 284.65
433.07, 6.82, 286.44
431.93, 6.81, 288.58
¯431.14, 6.94, 290.05
431.13, 7.24, 290.08
431.06, 7.54, 290.19
440.59, 7.21, 272.47
440.51, 7.20, 272.62
440.42, 7.20, 272.79
440.33, 7.19, 272.97
440.23, 7.18, 273.16
440.12, 7.18, 273.36
440.01, 7.17, 273.58
439.89, 7.16, 273.81
439.76, 7.15, 274.07
439.61, 7.15, 274.35
439.46, 7.14, 274.65
439.29, 7.12, 274.98
439.10, 7.11, 275.34
438.89, 7.10, 275.74
438.67, 7.09, 276.18
438.42, 7.08, 276.66
438.14, 7.07, 277.20
437.82, 7.05, 277.82
437.46, 7.04, 278.52
436.69, 6.88, 280.00
436.19, 6.86, 280.97
435.63, 6.85, 282.05
434.99, 6.84, 283.28
434.22, 6.83, 284.78
433.28, 6.82, 286.59
432.16, 6.81, 288.75
440.64, 7.21, 272.50
440.56, 7.20, 272.65
440.48, 7.20, 272.82
440.39, 7.19, 273.00
440.29, 7.18, 273.19
440.19, 7.18, 273.40
440.08, 7.17, 273.62
439.96, 7.16, 273.85
439.83, 7.15, 274.11
439.69, 7.14, 274.39
439.53, 7.14, 274.70
439.37, 7.12, 275.03
439.18, 7.11, 275.39
438.98, 7.10, 275.79
438.76, 7.09, 276.23
438.52, 7.08, 276.72
438.24, 7.07, 277.27
437.93, 7.05, 277.89
437.58, 7.04, 278.59
437.18, 7.02, 279.38
436.74, 7.01, 280.26
435.79, 6.85, 282.15
¯435.17, 6.84, 283.39
434.41, 6.83, 284.91
433.49, 6.82, 286.75
432.40, 6.81, 288.91
440.69, 7.21, 272.53
440.61, 7.20, 272.68
440.53, 7.20, 272.85
440.44, 7.19, 273.03
440.35, 7.18, 273.22
440.25, 7.18, 273.43
440.14, 7.17, 273.65
440.03, 7.16, 273.89
439.90, 7.15, 274.15
439.76, 7.14, 274.43
439.61, 7.13, 274.74
439.45, 7.12, 275.08
439.27, 7.11, 275.44
439.07, 7.10, 275.85
438.86, 7.09, 276.29
438.62, 7.08, 276.78
438.35, 7.07, 277.33
438.05, 7.05, 277.95
437.70, 7.04, 278.67
437.32, 7.02, 279.46
436.88, 7.01, 280.35
436.36, 6.99, 281.43
435.35, 6.84, 283.50
434.60, 6.83, 285.03
433.70, 6.81, 286.90
432.64, 6.81, 289.07
440.74, 7.21, 272.55
440.67, 7.20, 272.71
440.59, 7.20, 272.88
440.50, 7.19, 273.06
440.41, 7.18, 273.26
440.31, 7.18, 273.47
440.21, 7.17, 273.69
440.09, 7.16, 273.93
439.97, 7.15, 274.19
439.84, 7.14, 274.48
439.69, 7.13, 274.79
439.53, 7.12, 275.13
439.36, 7.11, 275.49
439.17, 7.10, 275.90
438.96, 7.09, 276.34
438.72, 7.08, 276.84
438.46, 7.07, 277.39
438.16, 7.05, 278.02
437.83, 7.04, 278.74
437.45, 7.02, 279.54
437.02, 7.01, 280.44
¯436.51, 6.99, 281.53
435.95, 6.99, 282.72
434.80, 6.83, 285.16
433.91, 6.81, 287.05
432.88, 6.81, 289.23
440.80, 7.21, 272.58
440.72, 7.20, 272.74
440.64, 7.20, 272.91
440.56, 7.19, 273.10
440.47, 7.18, 273.29
440.38, 7.18, 273.50
440.27, 7.17, 273.73
440.16, 7.16, 273.97
440.04, 7.15, 274.23
439.91, 7.14, 274.52
439.77, 7.13, 274.83
439.61, 7.12, 275.17
439.45, 7.11, 275.54
439.26, 7.10, 275.95
439.05, 7.09, 276.40
438.83, 7.08, 276.90
438.57, 7.07, 277.46
438.28, 7.05, 278.09
437.95, 7.04, 278.81
437.58, 7.02, 279.61
437.17, 7.01, 280.53
436.66, 6.99, 281.63
436.12, 6.98, 282.83
435.45, 6.97, 284.28
434.12, 6.81, 287.19
433.12, 6.81, 289.39
440.85, 7.21, 272.61
440.78, 7.20, 272.77
440.70, 7.19, 272.94
440.62, 7.19, 273.13
440.53, 7.18, 273.32
440.44, 7.18, 273.53
440.34, 7.17, 273.76
440.23, 7.16, 274.01
440.12, 7.15, 274.27
439.99, 7.14, 274.56
439.85, 7.13, 274.87
439.70, 7.12, 275.22
439.53, 7.11, 275.59
439.35, 7.10, 276.00
439.15, 7.09, 276.45
438.93, 7.08, 276.95
438.68, 7.07, 277.52
438.40, 7.05, 278.15
438.08, 7.04, 278.88
437.72, 7.02, 279.69
¯437.31, 7.01, 280.61
436.82, 6.99, 281.73
436.28, 6.98, 282.93
435.63, 6.97, 284.41
434.34, 6.81, 287.33
433.36, 6.81, 289.55
440.90, 7.21, 272.64
440.83, 7.20, 272.80
440.76, 7.19, 272.97
440.68, 7.19, 273.16
440.60, 7.18, 273.36
440.51, 7.18, 273.57
440.41, 7.17, 273.80
440.30, 7.16, 274.04
440.19, 7.15, 274.31
440.07, 7.14, 274.60
439.93, 7.13, 274.91
439.78, 7.12, 275.26
439.62, 7.11, 275.63
439.44, 7.10, 276.05
439.25, 7.09, 276.50
439.03, 7.08, 277.01
438.79, 7.07, 277.58
438.52, 7.05, 278.22
438.20, 7.04, 278.95
437.85, 7.02, 279.77
437.46, 7.01, 280.70
436.97, 6.99, 281.82
436.45, 6.98, 283.04
435.82, 6.97, 284.53
435.04, 6.96, 286.35
433.60, 6.81, 289.71
440.96, 7.21, 272.66
440.89, 7.20, 272.83
440.82, 7.19, 273.00
440.74, 7.19, 273.19
440.66, 7.18, 273.39
440.57, 7.18, 273.60
440.48, 7.17, 273.83
440.37, 7.16, 274.08
440.26, 7.15, 274.35
440.14, 7.14, 274.64
440.01, 7.13, 274.96
439.87, 7.12, 275.30
439.71, 7.11, 275.68
439.54, 7.10, 276.10
439.35, 7.09, 276.55
439.14, 7.08, 277.06
438.90, 7.07, 277.64
438.64, 7.05, 278.28
438.33, 7.04, 279.02
¯437.99, 7.02, 279.84
437.60, 7.01, 280.78
437.13, 6.99, 281.92
436.63, 6.98, 283.14
436.00, 6.97, 284.66
435.24, 6.96, 286.49
433.85, 6.81, 289.87
441.01, 7.20, 272.69
440.95, 7.20, 272.85
440.88, 7.19, 273.03
440.80, 7.19, 273.22
440.72, 7.18, 273.42
440.64, 7.17, 273.63
440.54, 7.17, 273.86
440.44, 7.16, 274.11
440.34, 7.15, 274.38
440.22, 7.14, 274.67
440.09, 7.13, 275.00
439.95, 7.12, 275.34
439.80, 7.11, 275.72
439.63, 7.10, 276.14
439.45, 7.09, 276.60
439.25, 7.08, 277.12
439.02, 7.07, 277.69
438.75, 7.05, 278.35
438.46, 7.04, 279.09
438.13, 7.02, 279.91
437.75, 7.01, 280.87
437.29, 6.99, 282.01
436.80, 6.98, 283.25
436.19, 6.97, 284.78
435.45, 6.95, 286.63
434.57, 6.95, 288.82
441.07, 7.20, 272.71
441.00, 7.20, 272.88
440.94, 7.19, 273.06
440.86, 7.19, 273.24
440.79, 7.18, 273.45
440.70, 7.17, 273.66
440.61, 7.17, 273.90
440.52, 7.16, 274.15
440.41, 7.15, 274.42
440.30, 7.14, 274.71
440.17, 7.13, 275.04
440.04, 7.12, 275.39
439.89, 7.11, 275.77
439.73, 7.10, 276.19
439.55, 7.09, 276.65
439.35, 7.08, 277.17
439.13, 7.07, 277.75
438.88, 7.05, 278.41
¯438.59, 7.04, 279.16
438.27, 7.02, 279.99
437.90, 7.01, 280.95
437.45, 6.99, 282.10
436.97, 6.98, 283.35
436.38, 6.97, 284.89
435.65, 6.95, 286.77
434.81, 6.95, 288.97
441.12, 7.20, 272.74
441.06, 7.20, 272.90
440.99, 7.19, 273.08
440.92, 7.19, 273.27
440.85, 7.18, 273.47
440.77, 7.17, 273.69
440.68, 7.17, 273.93
440.59, 7.16, 274.18
440.49, 7.15, 274.46
440.38, 7.14, 274.75
440.26, 7.13, 275.07
440.13, 7.12, 275.43
439.98, 7.11, 275.81
439.82, 7.10, 276.24
439.65, 7.09, 276.70
439.46, 7.08, 277.22
439.24, 7.07, 277.81
439.00, 7.05, 278.47
438.72, 7.04, 279.22
438.41, 7.02, 280.06
438.05, 7.01, 281.03
437.61, 6.99, 282.19
437.15, 6.98, 283.45
436.57, 6.97, 285.01
435.87, 6.95, 286.90
435.04, 6.95, 289.12
441.18, 7.20, 272.76
441.12, 7.20, 272.93
441.05, 7.19, 273.11
440.99, 7.19, 273.30
440.91, 7.18, 273.50
440.83, 7.17, 273.72
440.75, 7.17, 273.96
440.66, 7.16, 274.21
440.56, 7.15, 274.49
440.46, 7.14, 274.78
440.34, 7.13, 275.11
440.21, 7.12, 275.47
440.07, 7.11, 275.85
439.92, 7.10, 276.28
439.75, 7.09, 276.75
439.57, 7.08, 277.27
439.36, 7.07, 277.86
¯439.12, 7.05, 278.53
438.85, 7.04, 279.29
438.55, 7.02, 280.13
438.19, 7.01, 281.11
437.78, 6.99, 282.28
437.32, 6.98, 283.55
436.76, 6.97, 285.13
436.08, 6.95, 287.03
435.28, 6.95, 289.26
441.23, 7.20, 272.78
441.18, 7.20, 272.95
441.11, 7.19, 273.13
441.05, 7.19, 273.32
440.98, 7.18, 273.53
440.90, 7.17, 273.75
440.82, 7.17, 273.99
440.73, 7.16, 274.24
440.64, 7.15, 274.52
440.54, 7.14, 274.82
440.42, 7.13, 275.15
440.30, 7.12, 275.50
440.17, 7.11, 275.90
440.02, 7.10, 276.32
439.86, 7.09, 276.80
439.68, 7.08, 277.32
439.47, 7.07, 277.92
439.24, 7.05, 278.59
438.98, 7.04, 279.35
438.69, 7.02, 280.20
438.35, 7.01, 281.19
437.94, 6.99, 282.37
437.50, 6.98, 283.65
436.95, 6.97, 285.24
436.29, 6.95, 287.16
435.52, 6.95, 289.41
441.29, 7.20, 272.81
441.23, 7.20, 272.98
441.17, 7.19, 273.16
441.11, 7.19, 273.35
441.04, 7.18, 273.56
440.97, 7.17, 273.78
440.89, 7.17, 274.02
440.81, 7.16, 274.28
440.71, 7.15, 274.56
440.62, 7.14, 274.85
440.51, 7.13, 275.18
440.39, 7.12, 275.54
440.26, 7.11, 275.94
440.12, 7.10, 276.37
439.96, 7.09, 276.84
439.78, 7.08, 277.37
¯439.59, 7.07, 277.97
439.36, 7.05, 278.64
439.11, 7.04, 279.42
438.83, 7.02, 280.27
438.50, 7.01, 281.27
438.11, 6.99, 282.46
437.68, 6.98, 283.75
437.15, 6.96, 285.36
436.51, 6.95, 287.29
435.76, 6.95, 289.56
441.35, 7.20, 272.83
441.29, 7.20, 273.00
441.23, 7.19, 273.18
441.17, 7.19, 273.38
441.11, 7.18, 273.58
441.04, 7.17, 273.81
440.96, 7.17, 274.05
440.88, 7.16, 274.31
440.79, 7.15, 274.59
440.70, 7.14, 274.89
440.59, 7.13, 275.22
440.48, 7.12, 275.58
440.35, 7.11, 275.97
440.21, 7.10, 276.41
440.06, 7.09, 276.89
439.89, 7.08, 277.42
439.70, 7.07, 278.02
439.49, 7.05, 278.70
439.24, 7.04, 279.48
438.97, 7.02, 280.34
438.65, 7.01, 281.35
438.27, 6.99, 282.54
437.86, 6.98, 283.85
437.34, 6.96, 285.47
436.73, 6.95, 287.41
436.00, 6.95, 289.70
441.40, 7.20, 272.85
441.35, 7.20, 273.02
441.30, 7.19, 273.20
441.24, 7.19, 273.40
441.17, 7.18, 273.61
441.10, 7.17, 273.83
441.03, 7.17, 274.07
440.95, 7.16, 274.34
440.87, 7.15, 274.62
440.78, 7.14, 274.92
440.67, 7.13, 275.25
440.57, 7.12, 275.62
440.44, 7.11, 276.01
440.31, 7.10, 276.45
440.17, 7.09, 276.93
¯440.00, 7.08, 277.47
439.82, 7.07, 278.07
439.61, 7.05, 278.76
439.38, 7.04, 279.54
439.11, 7.02, 280.40
438.80, 7.01, 281.43
438.44, 6.99, 282.63
438.04, 6.98, 283.95
437.54, 6.96, 285.58
436.95, 6.95, 287.54
436.25, 6.95, 289.85
441.46, 7.20, 272.87
441.41, 7.20, 273.04
441.36, 7.19, 273.23
441.30, 7.19, 273.42
441.24, 7.18, 273.63
441.17, 7.17, 273.86
441.10, 7.17, 274.10
441.03, 7.16, 274.36
440.95, 7.15, 274.65
440.86, 7.14, 274.95
440.76, 7.13, 275.29
440.65, 7.12, 275.65
440.54, 7.11, 276.05
440.41, 7.10, 276.49
440.27, 7.09, 276.97
440.12, 7.08, 277.51
439.94, 7.07, 278.12
439.74, 7.05, 278.81
439.51, 7.04, 279.60
439.26, 7.02, 280.47
438.96, 7.00, 281.51
438.61, 6.99, 282.71
438.22, 6.98, 284.05
437.74, 6.96, 285.70
437.17, 6.95, 287.67
436.50, 6.95, 289.99
441.52, 7.20, 272.89
441.47, 7.20, 273.06
441.42, 7.19, 273.25
441.36, 7.19, 273.45
441.30, 7.18, 273.66
441.24, 7.17, 273.88
441.17, 7.17, 274.13
441.10, 7.16, 274.39
441.02, 7.15, 274.68
440.94, 7.14, 274.98
440.85, 7.13, 275.32
440.74, 7.12, 275.69
440.63, 7.11, 276.09
440.51, 7.10, 276.53
¯440.38, 7.09, 277.01
440.23, 7.08, 277.56
440.06, 7.07, 278.17
439.87, 7.05, 278.86
439.65, 7.04, 279.66
439.40, 7.02, 280.54
439.11, 7.00, 281.58
438.78, 6.99, 282.79
438.40, 6.98, 284.14
437.94, 6.96, 285.81
437.39, 6.95, 287.79
436.74, 6.95, 290.13
441.57, 7.20, 272.91
441.53, 7.20, 273.09
441.48, 7.19, 273.27
441.43, 7.19, 273.47
441.37, 7.18, 273.68
441.31, 7.17, 273.91
441.25, 7.17, 274.15
441.18, 7.16, 274.42
441.10, 7.15, 274.71
441.02, 7.14, 275.01
440.93, 7.13, 275.35
440.83, 7.12, 275.72
440.73, 7.11, 276.12
440.61, 7.10, 276.57
440.48, 7.09, 277.06
440.34, 7.08, 277.60
440.18, 7.07, 278.22
439.99, 7.05, 278.92
439.78, 7.04, 279.71
439.55, 7.02, 280.60
439.27, 7.00, 281.66
438.95, 6.99, 282.87
438.59, 6.98, 284.24
438.15, 6.96, 285.92
437.62, 6.95, 287.91
437.00, 6.95, 290.28
441.63, 7.20, 272.93
441.59, 7.20, 273.10
441.54, 7.19, 273.29
441.49, 7.19, 273.49
441.44, 7.18, 273.70
441.38, 7.17, 273.93
441.32, 7.17, 274.18
441.25, 7.16, 274.45
441.18, 7.15, 274.73
441.10, 7.14, 275.04
441.02, 7.13, 275.38
440.93, 7.12, 275.75
440.82, 7.11, 276.16
¯440.71, 7.10, 276.60
440.59, 7.09, 277.10
440.45, 7.08, 277.65
440.30, 7.07, 278.26
440.12, 7.05, 278.97
439.92, 7.04, 279.77
439.69, 7.02, 280.67
439.43, 7.00, 281.73
439.12, 6.99, 282.96
438.77, 6.98, 284.34
438.35, 6.96, 286.03
437.85, 6.95, 288.04
437.25, 6.95, 290.42
441.69, 7.20, 272.95
441.65, 7.20, 273.12
441.60, 7.19, 273.31
441.56, 7.19, 273.51
441.51, 7.18, 273.73
441.45, 7.17, 273.96
441.39, 7.17, 274.20
441.33, 7.16, 274.47
441.26, 7.15, 274.76
441.19, 7.14, 275.07
441.10, 7.13, 275.41
441.02, 7.12, 275.78
440.92, 7.11, 276.19
440.81, 7.10, 276.64
440.70, 7.09, 277.13
440.57, 7.08, 277.69
440.42, 7.07, 278.31
440.25, 7.05, 279.02
440.06, 7.04, 279.82
439.84, 7.02, 280.73
439.59, 7.00, 281.80
439.29, 6.99, 283.04
438.96, 6.97, 284.43
438.56, 6.96, 286.14
438.08, 6.95, 288.16
437.50, 6.95, 290.56
441.75, 7.20, 272.97
441.71, 7.20, 273.14
441.67, 7.19, 273.33
441.62, 7.19, 273.53
441.57, 7.18, 273.75
441.52, 7.17, 273.98
441.47, 7.17, 274.23
441.40, 7.16, 274.50
441.34, 7.15, 274.79
441.27, 7.14, 275.10
441.19, 7.13, 275.44
441.11, 7.12, 275.81
¯441.02, 7.11, 276.22
440.92, 7.10, 276.67
440.80, 7.09, 277.17
440.68, 7.08, 277.73
440.54, 7.07, 278.35
440.38, 7.05, 279.06
440.20, 7.04, 279.88
439.99, 7.02, 280.79
439.75, 7.00, 281.88
439.47, 6.98, 283.11
439.15, 6.97, 284.53
438.76, 6.96, 286.25
438.31, 6.95, 288.28
437.76, 6.95, 290.71
441.81, 7.20, 272.98
441.77, 7.20, 273.16
441.73, 7.19, 273.35
441.69, 7.19, 273.55
441.64, 7.18, 273.77
441.59, 7.17, 274.00
441.54, 7.17, 274.25
441.48, 7.16, 274.52
441.42, 7.15, 274.81
441.35, 7.14, 275.12
441.28, 7.13, 275.47
441.20, 7.12, 275.84
441.11, 7.11, 276.26
441.02, 7.10, 276.71
440.91, 7.09, 277.21
440.79, 7.08, 277.77
440.66, 7.07, 278.40
440.51, 7.05, 279.11
440.34, 7.04, 279.93
440.14, 7.02, 280.85
439.91, 7.00, 281.95
439.64, 6.98, 283.19
439.34, 6.97, 284.62
438.97, 6.96, 286.36
438.54, 6.95, 288.39
438.02, 6.95, 290.85
441.87, 7.20, 273.00
441.83, 7.20, 273.18
441.79, 7.19, 273.37
441.75, 7.19, 273.57
441.71, 7.18, 273.79
441.66, 7.17, 274.02
441.61, 7.17, 274.27
441.56, 7.16, 274.54
441.50, 7.15, 274.83
441.44, 7.14, 275.15
441.37, 7.13, 275.50
¯441.29, 7.12, 275.87
441.21, 7.11, 276.29
441.12, 7.10, 276.74
441.02, 7.09, 277.24
440.91, 7.08, 277.81
440.78, 7.07, 278.44
440.64, 7.05, 279.16
440.48, 7.04, 279.98
440.29, 7.02, 280.91
440.07, 7.00, 282.01
439.82, 6.98, 283.27
439.53, 6.97, 284.71
439.18, 6.96, 286.47
438.77, 6.95, 288.51
438.28, 6.95, 290.99
441.92, 7.20, 273.01
441.89, 7.20, 273.19
441.86, 7.19, 273.38
441.82, 7.19, 273.59
441.78, 7.18, 273.81
441.73, 7.17, 274.04
441.69, 7.17, 274.29
441.64, 7.16, 274.57
441.58, 7.15, 274.86
441.52, 7.14, 275.17
441.46, 7.13, 275.53
441.39, 7.12, 275.90
441.31, 7.11, 276.32
441.22, 7.10, 276.77
441.13, 7.09, 277.28
441.02, 7.08, 277.84
440.91, 7.07, 278.48
440.77, 7.06, 279.20
440.62, 7.04, 280.03
440.44, 7.02, 280.97
440.23, 7.00, 282.08
440.00, 6.98, 283.35
439.73, 6.97, 284.80
439.40, 6.95, 286.58
439.01, 6.95, 288.63
438.54, 6.95, 291.13
441.98, 7.20, 273.03
441.95, 7.20, 273.21
441.92, 7.19, 273.40
441.88, 7.19, 273.60
441.85, 7.18, 273.82
441.80, 7.17, 274.06
441.76, 7.17, 274.31
441.71, 7.16, 274.59
441.66, 7.15, 274.88
441.61, 7.14, 275.20
¯441.55, 7.13, 275.55
441.48, 7.12, 275.93
441.41, 7.11, 276.35
441.33, 7.11, 276.80
441.24, 7.09, 277.31
441.14, 7.08, 277.88
441.03, 7.07, 278.52
440.90, 7.06, 279.25
440.76, 7.04, 280.08
440.59, 7.02, 281.03
440.40, 7.00, 282.15
440.18, 6.98, 283.43
439.92, 6.97, 284.90
439.61, 6.95, 286.68
439.25, 6.95, 288.75
438.81, 6.95, 291.27
442.04, 7.20, 273.04
442.01, 7.20, 273.22
441.98, 7.19, 273.42
441.95, 7.19, 273.62
441.91, 7.18, 273.84
441.88, 7.17, 274.08
441.84, 7.17, 274.33
441.79, 7.16, 274.61
441.74, 7.15, 274.90
441.69, 7.14, 275.22
441.64, 7.13, 275.58
441.57, 7.13, 275.95
441.51, 7.12, 276.37
441.43, 7.11, 276.83
441.35, 7.10, 277.34
441.26, 7.08, 277.92
441.15, 7.07, 278.56
441.04, 7.06, 279.29
440.90, 7.04, 280.13
440.75, 7.02, 281.08
440.56, 7.00, 282.21
440.36, 6.98, 283.50
440.12, 6.97, 284.99
439.83, 6.95, 286.79
439.49, 6.95, 288.86
439.08, 6.95, 291.41
442.10, 7.20, 273.06
442.08, 7.20, 273.24
442.05, 7.19, 273.43
442.02, 7.19, 273.64
441.98, 7.18, 273.86
441.95, 7.17, 274.10
441.91, 7.17, 274.35
441.87, 7.16, 274.63
441.83, 7.15, 274.92
¯441.78, 7.14, 275.24
441.73, 7.13, 275.60
441.67, 7.13, 275.98
441.61, 7.12, 276.40
441.54, 7.11, 276.86
441.46, 7.10, 277.38
441.38, 7.08, 277.95
441.28, 7.07, 278.60
441.17, 7.06, 279.33
441.04, 7.04, 280.18
440.90, 7.02, 281.14
440.73, 7.00, 282.28
440.54, 6.98, 283.58
440.31, 6.97, 285.07
440.04, 6.95, 286.89
439.73, 6.95, 288.98
439.35, 6.95, 291.55
442.16, 7.20, 273.07
442.14, 7.20, 273.25
442.11, 7.19, 273.45
442.08, 7.19, 273.65
442.05, 7.18, 273.87
442.02, 7.17, 274.11
441.99, 7.17, 274.37
441.95, 7.16, 274.65
441.91, 7.15, 274.94
441.86, 7.14, 275.26
441.82, 7.13, 275.62
441.76, 7.13, 276.00
441.71, 7.12, 276.43
441.64, 7.11, 276.89
441.57, 7.10, 277.41
441.49, 7.08, 277.98
441.40, 7.07, 278.63
441.30, 7.06, 279.37
441.19, 7.04, 280.22
441.06, 7.02, 281.19
440.90, 7.00, 282.34
440.72, 6.98, 283.65
440.51, 6.97, 285.16
440.26, 6.95, 287.04
439.81, 6.81, 290.31
442.22, 7.21, 273.08
442.20, 7.20, 273.27
442.18, 7.19, 273.46
442.15, 7.19, 273.67
442.12, 7.18, 273.89
442.09, 7.17, 274.13
442.06, 7.17, 274.39
442.03, 7.16, 274.67
441.99, 7.15, 274.96
¯441.95, 7.14, 275.28
441.91, 7.13, 275.64
441.86, 7.13, 276.03
441.81, 7.12, 276.45
441.75, 7.11, 276.92
441.68, 7.10, 277.44
441.61, 7.09, 278.02
441.53, 7.07, 278.67
441.44, 7.06, 279.41
441.33, 7.04, 280.27
441.21, 7.02, 281.24
441.07, 7.00, 282.40
440.90, 6.98, 283.72
440.72, 6.97, 285.25
440.35, 6.81, 288.21
440.07, 6.81, 290.43
439.87, 7.23, 291.93
439.86, 7.53, 291.93
439.85, 7.82, 291.93
442.28, 7.21, 273.09
442.26, 7.20, 273.28
442.24, 7.19, 273.47
442.22, 7.19, 273.68
442.19, 7.18, 273.90
442.17, 7.17, 274.14
442.14, 7.17, 274.40
442.11, 7.16, 274.68
442.07, 7.15, 274.98
442.04, 7.14, 275.30
442.00, 7.13, 275.66
441.95, 7.13, 276.05
441.91, 7.12, 276.48
441.85, 7.11, 276.94
441.80, 7.10, 277.46
441.73, 7.09, 278.05
441.66, 7.07, 278.70
441.57, 7.06, 279.45
441.48, 7.04, 280.31
441.37, 7.02, 281.29
441.24, 7.00, 282.46
441.09, 6.98, 283.79
440.80, 6.82, 286.42
440.59, 6.81, 288.31
440.62, 7.10, 287.92
440.60, 7.34, 288.01
440.59, 7.58, 288.10
440.57, 7.82, 288.20
442.34, 7.21, 273.11
442.32, 7.20, 273.29
442.31, 7.19, 273.48
442.28, 7.19, 273.69
¯442.26, 7.18, 273.92
442.24, 7.18, 274.16
442.21, 7.17, 274.42
442.19, 7.16, 274.70
442.16, 7.15, 275.00
442.12, 7.15, 275.32
442.09, 7.13, 275.68
442.05, 7.13, 276.07
442.01, 7.12, 276.50
441.96, 7.11, 276.97
441.91, 7.10, 277.49
441.85, 7.09, 278.08
441.79, 7.07, 278.74
441.71, 7.06, 279.49
441.63, 7.04, 280.35
441.53, 7.02, 281.34
441.41, 7.00, 282.52
441.18, 6.83, 284.86
441.02, 6.82, 286.51
440.83, 6.81, 288.40
440.89, 7.15, 287.66
440.87, 7.38, 287.75
440.86, 7.61, 287.84
440.84, 7.85, 287.93
442.40, 7.21, 273.12
442.39, 7.20, 273.30
442.37, 7.19, 273.50
442.35, 7.19, 273.71
442.33, 7.18, 273.93
442.31, 7.18, 274.17
442.29, 7.17, 274.43
442.27, 7.16, 274.71
442.24, 7.15, 275.02
442.21, 7.15, 275.34
442.18, 7.14, 275.70
442.15, 7.13, 276.09
442.11, 7.12, 276.52
442.07, 7.11, 276.99
442.02, 7.10, 277.52
441.97, 7.09, 278.11
441.91, 7.07, 278.77
441.85, 7.06, 279.52
441.77, 7.04, 280.39
441.69, 7.02, 281.39
441.58, 7.00, 282.58
441.38, 6.83, 284.93
441.24, 6.82, 286.60
441.07, 6.81, 288.50
441.15, 7.18, 287.41
441.14, 7.41, 287.49
441.12, 7.64, 287.58
¯442.46, 7.21, 273.13
442.45, 7.20, 273.31
442.44, 7.20, 273.51
442.42, 7.19, 273.72
442.40, 7.18, 273.94
442.39, 7.18, 274.18
442.37, 7.17, 274.45
442.35, 7.16, 274.73
442.32, 7.15, 275.03
442.30, 7.15, 275.36
442.27, 7.14, 275.72
442.24, 7.13, 276.11
442.21, 7.12, 276.54
442.18, 7.11, 277.02
442.14, 7.10, 277.54
442.09, 7.09, 278.13
442.04, 7.07, 278.80
441.99, 7.06, 279.56
441.92, 7.04, 280.43
441.85, 7.02, 281.44
441.69, 6.85, 283.59
441.59, 6.83, 284.99
441.46, 6.82, 286.68
441.32, 6.81, 288.60
441.38, 7.18, 287.57
441.37, 7.42, 287.56
441.36, 7.66, 287.55
442.53, 7.21, 273.13
442.51, 7.20, 273.32
442.50, 7.20, 273.52
442.49, 7.19, 273.73
442.47, 7.18, 273.95
442.46, 7.18, 274.20
442.44, 7.17, 274.46
442.43, 7.16, 274.74
442.41, 7.15, 275.05
442.39, 7.15, 275.37
442.36, 7.14, 275.74
442.34, 7.13, 276.13
442.31, 7.12, 276.56
442.28, 7.11, 277.04
442.25, 7.10, 277.57
442.21, 7.09, 278.16
442.17, 7.08, 278.83
442.12, 7.06, 279.59
442.07, 7.04, 280.47
442.01, 7.02, 281.48
441.88, 6.85, 283.64
441.79, 6.83, 285.05
441.68, 6.82, 286.75
441.56, 6.81, 288.70
¯441.41, 6.81, 291.02
442.59, 7.21, 273.14
442.58, 7.20, 273.33
442.57, 7.20, 273.53
442.56, 7.19, 273.74
442.55, 7.18, 273.96
442.53, 7.18, 274.21
442.52, 7.17, 274.47
442.51, 7.16, 274.76
442.49, 7.15, 275.06
442.47, 7.15, 275.39
442.46, 7.14, 275.75
442.44, 7.13, 276.15
442.42, 7.12, 276.58
442.39, 7.11, 277.06
442.37, 7.10, 277.59
442.34, 7.09, 278.19
442.30, 7.08, 278.86
442.26, 7.06, 279.62
442.22, 7.04, 280.50
442.13, 6.87, 282.43
442.07, 6.85, 283.69
441.99, 6.84, 285.11
441.91, 6.82, 286.82
441.81, 6.81, 288.79
441.69, 6.81, 291.14
442.65, 7.21, 273.15
442.64, 7.20, 273.34
442.63, 7.20, 273.53
442.63, 7.19, 273.75
442.62, 7.18, 273.97
442.61, 7.18, 274.22
442.60, 7.17, 274.48
442.59, 7.16, 274.77
442.58, 7.15, 275.07
442.56, 7.15, 275.40
442.55, 7.14, 275.77
442.53, 7.13, 276.16
442.52, 7.12, 276.60
442.50, 7.11, 277.08
442.48, 7.10, 277.61
442.46, 7.09, 278.21
442.43, 7.08, 278.89
442.40, 7.06, 279.65
442.37, 7.05, 280.54
442.30, 6.87, 282.48
442.25, 6.85, 283.73
442.20, 6.84, 285.17
442.13, 6.82, 286.88
442.06, 6.81, 288.88
441.97, 6.81, 291.26
¯442.71, 7.21, 273.16
442.70, 7.20, 273.34
442.70, 7.20, 273.54
442.69, 7.19, 273.75
442.69, 7.18, 273.98
442.68, 7.18, 274.23
442.68, 7.17, 274.49
442.67, 7.16, 274.78
442.66, 7.15, 275.09
442.65, 7.15, 275.42
442.64, 7.14, 275.78
442.63, 7.13, 276.18
442.62, 7.12, 276.61
442.61, 7.11, 277.10
442.60, 7.10, 277.63
442.58, 7.09, 278.23
442.56, 7.08, 278.91
442.54, 7.06, 279.68
442.51, 6.89, 281.42
442.48, 6.87, 282.52
442.44, 6.85, 283.78
442.41, 6.84, 285.22
442.36, 6.82, 286.95
442.31, 6.81, 288.98
442.25, 6.81, 291.37
442.18, 7.24, 293.12
442.17, 7.54, 293.12
442.77, 7.21, 273.16
442.77, 7.20, 273.35
442.77, 7.20, 273.55
442.76, 7.19, 273.76
442.76, 7.18, 273.99
442.76, 7.18, 274.24
442.75, 7.17, 274.50
442.75, 7.16, 274.79
442.75, 7.15, 275.10
442.74, 7.15, 275.43
442.74, 7.14, 275.80
442.73, 7.13, 276.19
442.73, 7.12, 276.63
442.72, 7.11, 277.11
442.71, 7.10, 277.65
442.70, 7.09, 278.25
442.69, 7.08, 278.94
442.68, 7.06, 279.71
442.67, 6.89, 281.45
442.65, 6.87, 282.56
442.64, 6.85, 283.82
442.62, 6.86, 285.15
442.61, 7.06, 285.19
442.60, 7.27, 285.19
¯442.59, 7.49, 285.13
442.58, 7.70, 285.13
442.57, 7.91, 285.13
442.57, 8.11, 285.13
442.56, 8.32, 285.13
442.55, 8.53, 285.13
442.54, 8.74, 285.13
442.83, 7.21, 273.17
442.83, 7.20, 273.36
442.83, 7.20, 273.56
442.83, 7.19, 273.77
442.83, 7.19, 274.00
442.83, 7.18, 274.24
442.83, 7.17, 274.51
442.83, 7.16, 274.80
442.83, 7.16, 275.11
442.83, 7.15, 275.44
442.83, 7.14, 275.81
442.83, 7.13, 276.21
442.83, 7.12, 276.64
442.83, 7.11, 277.13
442.83, 7.10, 277.67
442.83, 7.09, 278.28
442.83, 7.08, 278.96
442.83, 6.91, 280.53
442.83, 6.89, 281.48
442.83, 6.87, 282.60
442.83, 6.86, 283.87
442.82, 6.86, 285.19
442.82, 7.07, 285.19
442.81, 7.28, 285.19
442.80, 7.49, 285.19
442.79, 7.70, 285.19
442.78, 7.91, 285.19
442.77, 8.12, 285.19
442.76, 8.33, 285.19
442.76, 8.54, 285.19
442.75, 8.74, 285.19
442.89, 7.21, 273.17
442.90, 7.20, 273.36
442.90, 7.20, 273.56
442.90, 7.19, 273.78
442.90, 7.19, 274.00
442.91, 7.18, 274.25
