žVERSION 0.7
FIELDS x y z
SIZE 8 8 8
TYPE F F F
COUNT 1 1 1
WIDTH 2271
HEIGHT 1
VIEWPOINT 345.93, 8.38, 312.97 1 364.39, 4.95, 321.47
POINTS 2271
DATA ascii
375.46, 5.14, 314.00
375.52, 5.33, 313.97
375.57, 5.52, 313.93
368.00, 2.42, 317.58
368.27, 2.43, 317.45
368.56, 2.43, 317.31
368.87, 2.43, 317.16
369.20, 2.44, 317.00
369.53, 2.45, 316.84
369.88, 2.47, 316.67
370.27, 2.49, 316.48
370.70, 2.50, 316.27
371.12, 2.54, 316.07
371.57, 2.57, 315.85
372.05, 2.61, 315.62
372.66, 2.65, 315.32
373.29, 2.69, 315.01
373.72, 2.78, 314.80
374.06, 2.90, 314.63
374.42, 3.02, 314.45
374.51, 3.18, 314.39
374.60, 3.35, 314.34
374.70, 3.52, 314.28
374.81, 3.68, 314.22
374.96, 3.85, 314.13
375.03, 4.03, 314.08
375.08, 4.21, 314.05
375.13, 4.39, 314.01
375.18, 4.57, 313.98
375.23, 4.76, 313.94
375.27, 4.94, 313.90
375.32, 5.13, 313.87
375.37, 5.32, 313.83
375.42, 5.51, 313.79
367.95, 2.42, 317.51
368.22, 2.43, 317.38
368.50, 2.43, 317.24
368.81, 2.43, 317.08
369.14, 2.44, 316.92
369.47, 2.45, 316.75
369.82, 2.47, 316.58
370.20, 2.48, 316.39
370.64, 2.50, 316.17
371.05, 2.53, 315.96
371.49, 2.57, 315.74
371.97, 2.61, 315.50
372.57, 2.64, 315.20
373.22, 2.68, 314.88
373.62, 2.78, 314.67
¯373.96, 2.89, 314.49
374.11, 3.04, 314.41
374.20, 3.20, 314.35
374.29, 3.36, 314.30
374.38, 3.53, 314.24
374.47, 3.69, 314.18
374.57, 3.86, 314.12
374.68, 4.03, 314.06
374.83, 4.20, 313.97
374.98, 4.38, 313.88
375.04, 4.56, 313.84
375.09, 4.74, 313.80
375.14, 4.93, 313.77
375.18, 5.11, 313.73
375.23, 5.30, 313.69
375.28, 5.49, 313.65
367.90, 2.42, 317.44
368.16, 2.43, 317.31
368.44, 2.43, 317.16
368.75, 2.43, 317.01
369.08, 2.43, 316.84
369.41, 2.45, 316.67
369.75, 2.46, 316.49
370.14, 2.48, 316.29
370.58, 2.49, 316.07
370.98, 2.53, 315.86
371.41, 2.57, 315.64
371.88, 2.61, 315.39
372.49, 2.63, 315.08
373.15, 2.67, 314.74
373.52, 2.77, 314.54
373.73, 2.90, 314.43
373.81, 3.06, 314.37
373.90, 3.22, 314.32
373.98, 3.38, 314.26
374.07, 3.54, 314.20
374.16, 3.70, 314.15
374.25, 3.87, 314.09
374.34, 4.03, 314.03
374.43, 4.20, 313.97
374.55, 4.38, 313.90
374.69, 4.55, 313.81
374.84, 4.73, 313.72
374.99, 4.92, 313.63
375.05, 5.10, 313.59
375.09, 5.29, 313.55
375.14, 5.47, 313.52
367.85, 2.42, 317.37
368.11, 2.43, 317.24
368.39, 2.43, 317.09
368.69, 2.43, 316.93
¯369.01, 2.43, 316.76
369.35, 2.45, 316.58
369.69, 2.46, 316.40
370.08, 2.47, 316.19
370.51, 2.49, 315.96
370.91, 2.52, 315.75
371.33, 2.56, 315.53
371.80, 2.60, 315.28
372.40, 2.63, 314.96
373.08, 2.66, 314.60
373.37, 2.77, 314.44
373.44, 2.92, 314.39
373.53, 3.08, 314.33
373.61, 3.23, 314.28
373.69, 3.39, 314.22
373.77, 3.55, 314.17
373.86, 3.71, 314.11
373.94, 3.87, 314.05
374.03, 4.04, 314.00
374.12, 4.20, 313.94
374.21, 4.37, 313.88
374.30, 4.54, 313.82
374.42, 4.72, 313.74
374.56, 4.90, 313.65
374.71, 5.08, 313.56
374.86, 5.27, 313.47
375.00, 5.46, 313.38
367.80, 2.42, 317.30
368.05, 2.43, 317.17
368.33, 2.43, 317.02
368.62, 2.43, 316.85
368.95, 2.43, 316.68
369.28, 2.44, 316.50
369.63, 2.46, 316.31
370.02, 2.47, 316.09
370.45, 2.48, 315.86
370.83, 2.52, 315.65
371.25, 2.56, 315.42
371.71, 2.60, 315.17
372.31, 2.62, 314.84
372.99, 2.65, 314.47
373.09, 2.79, 314.40
373.17, 2.94, 314.35
373.25, 3.09, 314.30
373.33, 3.25, 314.24
373.41, 3.40, 314.19
373.49, 3.56, 314.13
373.57, 3.71, 314.08
373.65, 3.87, 314.02
373.73, 4.04, 313.96
373.82, 4.20, 313.91
¯373.90, 4.37, 313.85
373.99, 4.54, 313.79
374.08, 4.71, 313.73
374.16, 4.88, 313.67
374.29, 5.06, 313.59
374.43, 5.24, 313.50
374.57, 5.43, 313.40
367.74, 2.42, 317.24
368.00, 2.42, 317.10
368.27, 2.43, 316.95
368.56, 2.43, 316.78
368.88, 2.43, 316.60
369.22, 2.44, 316.41
369.57, 2.45, 316.21
369.96, 2.46, 316.00
370.38, 2.48, 315.76
370.76, 2.51, 315.55
371.16, 2.55, 315.32
371.62, 2.59, 315.06
372.21, 2.62, 314.73
372.72, 2.68, 314.44
372.80, 2.82, 314.38
372.89, 2.96, 314.33
372.97, 3.11, 314.27
373.06, 3.26, 314.21
373.13, 3.41, 314.15
373.21, 3.56, 314.10
373.28, 3.72, 314.05
373.36, 3.88, 313.99
373.44, 4.04, 313.93
373.52, 4.20, 313.88
373.60, 4.36, 313.82
373.69, 4.53, 313.76
373.77, 4.70, 313.70
373.86, 4.87, 313.64
373.94, 5.04, 313.58
374.03, 5.22, 313.52
374.16, 5.40, 313.43
367.69, 2.42, 317.17
367.94, 2.42, 317.03
368.21, 2.43, 316.87
368.50, 2.43, 316.71
368.81, 2.43, 316.53
369.16, 2.43, 316.33
369.51, 2.44, 316.12
369.90, 2.46, 315.90
370.32, 2.47, 315.66
370.69, 2.51, 315.44
371.08, 2.55, 315.21
371.53, 2.59, 314.95
372.12, 2.61, 314.61
¯372.44, 2.70, 314.42
372.52, 2.85, 314.37
372.59, 2.99, 314.31
372.67, 3.13, 314.25
372.75, 3.28, 314.20
372.84, 3.42, 314.14
372.92, 3.57, 314.08
373.01, 3.73, 314.02
373.09, 3.88, 313.96
373.16, 4.04, 313.90
373.24, 4.20, 313.85
373.32, 4.36, 313.79
373.40, 4.52, 313.73
373.48, 4.68, 313.67
373.56, 4.85, 313.61
373.64, 5.02, 313.55
373.73, 5.20, 313.49
373.81, 5.37, 313.43
367.63, 2.42, 317.11
367.88, 2.42, 316.96
368.15, 2.43, 316.81
368.43, 2.43, 316.64
368.74, 2.43, 316.45
369.06, 2.44, 316.27
369.45, 2.44, 316.03
369.83, 2.45, 315.81
370.25, 2.46, 315.56
370.61, 2.50, 315.34
371.00, 2.54, 315.11
371.44, 2.58, 314.84
372.03, 2.61, 314.50
372.17, 2.73, 314.41
372.24, 2.87, 314.35
372.31, 3.01, 314.30
372.39, 3.15, 314.24
372.47, 3.29, 314.18
372.54, 3.44, 314.13
372.62, 3.59, 314.07
372.70, 3.73, 314.01
372.79, 3.89, 313.95
372.87, 4.04, 313.89
372.95, 4.19, 313.83
373.04, 4.35, 313.76
373.12, 4.51, 313.71
373.19, 4.67, 313.65
373.27, 4.84, 313.59
373.35, 5.01, 313.53
373.43, 5.18, 313.47
373.51, 5.35, 313.41
367.58, 2.42, 317.04
367.82, 2.42, 316.90
¯368.08, 2.43, 316.74
368.37, 2.43, 316.56
368.67, 2.43, 316.38
368.94, 2.46, 316.22
369.39, 2.43, 315.94
369.77, 2.45, 315.71
370.18, 2.46, 315.46
370.53, 2.50, 315.24
370.92, 2.54, 315.01
371.35, 2.58, 314.74
371.83, 2.62, 314.44
371.90, 2.76, 314.39
371.97, 2.89, 314.34
372.04, 3.03, 314.28
372.12, 3.17, 314.23
372.19, 3.31, 314.17
372.26, 3.45, 314.12
372.34, 3.60, 314.06
372.41, 3.74, 314.00
372.49, 3.89, 313.94
372.57, 4.04, 313.88
372.65, 4.19, 313.82
372.73, 4.35, 313.76
372.82, 4.50, 313.70
372.90, 4.66, 313.63
372.99, 4.83, 313.57
373.07, 4.99, 313.51
373.15, 5.16, 313.45
373.23, 5.33, 313.39
367.52, 2.42, 316.98
367.76, 2.42, 316.83
368.02, 2.42, 316.67
368.30, 2.43, 316.49
368.57, 2.44, 316.32
368.84, 2.46, 316.16
369.33, 2.43, 315.85
369.70, 2.44, 315.62
370.10, 2.45, 315.37
370.46, 2.49, 315.14
370.84, 2.53, 314.90
371.26, 2.57, 314.63
371.58, 2.65, 314.43
371.65, 2.78, 314.38
371.72, 2.91, 314.32
371.78, 3.05, 314.27
371.85, 3.19, 314.22
371.92, 3.32, 314.16
371.99, 3.46, 314.11
372.06, 3.61, 314.05
372.14, 3.75, 313.99
372.21, 3.90, 313.94
¯372.28, 4.04, 313.88
372.36, 4.19, 313.82
372.44, 4.34, 313.76
372.52, 4.50, 313.70
372.60, 4.65, 313.63
372.68, 4.81, 313.57
372.76, 4.97, 313.51
372.85, 5.14, 313.44
372.93, 5.30, 313.37
367.46, 2.42, 316.92
367.70, 2.42, 316.77
367.96, 2.42, 316.60
368.23, 2.43, 316.43
368.48, 2.45, 316.26
368.74, 2.47, 316.10
369.26, 2.42, 315.77
369.63, 2.43, 315.53
370.03, 2.45, 315.27
370.38, 2.49, 315.05
370.76, 2.53, 314.80
371.17, 2.57, 314.53
371.34, 2.67, 314.41
371.40, 2.80, 314.36
371.47, 2.94, 314.31
371.53, 3.07, 314.26
371.60, 3.20, 314.20
371.66, 3.34, 314.15
371.73, 3.48, 314.10
371.80, 3.62, 314.04
371.87, 3.76, 313.99
371.94, 3.90, 313.93
372.01, 4.04, 313.87
372.08, 4.19, 313.81
372.15, 4.34, 313.76
372.23, 4.49, 313.70
372.30, 4.64, 313.64
372.38, 4.80, 313.57
372.46, 4.96, 313.51
372.54, 5.12, 313.45
372.62, 5.28, 313.38
367.41, 2.42, 316.86
367.64, 2.42, 316.70
367.89, 2.42, 316.54
368.15, 2.43, 316.37
368.39, 2.45, 316.21
368.65, 2.48, 316.04
369.20, 2.42, 315.68
369.56, 2.43, 315.44
369.95, 2.44, 315.18
370.30, 2.48, 314.95
370.67, 2.52, 314.70
¯371.07, 2.57, 314.43
371.10, 2.70, 314.40
371.16, 2.83, 314.35
371.23, 2.96, 314.30
371.29, 3.09, 314.25
371.35, 3.22, 314.19
371.42, 3.35, 314.14
371.48, 3.49, 314.09
371.54, 3.62, 314.03
371.61, 3.76, 313.98
371.68, 3.90, 313.92
371.74, 4.05, 313.87
371.81, 4.19, 313.81
371.88, 4.34, 313.75
371.95, 4.48, 313.69
372.02, 4.63, 313.63
372.10, 4.79, 313.57
372.17, 4.94, 313.51
372.25, 5.10, 313.45
372.33, 5.26, 313.39
367.35, 2.42, 316.80
367.58, 2.42, 316.64
367.83, 2.42, 316.47
368.07, 2.44, 316.31
368.30, 2.46, 316.15
368.55, 2.48, 315.98
369.12, 2.42, 315.60
369.49, 2.42, 315.35
369.88, 2.44, 315.09
370.22, 2.47, 314.85
370.59, 2.51, 314.60
370.93, 2.57, 314.36
371.00, 2.70, 314.31
371.02, 2.83, 314.28
371.05, 2.96, 314.25
371.08, 3.10, 314.22
371.11, 3.23, 314.18
371.17, 3.37, 314.13
371.24, 3.50, 314.08
371.30, 3.63, 314.02
371.36, 3.77, 313.97
371.42, 3.91, 313.92
371.49, 4.05, 313.86
371.55, 4.19, 313.81
371.62, 4.33, 313.75
371.69, 4.48, 313.69
371.76, 4.62, 313.63
371.83, 4.77, 313.57
371.90, 4.93, 313.51
371.97, 5.08, 313.45
372.04, 5.24, 313.39
¯367.29, 2.42, 316.74
367.52, 2.42, 316.58
367.76, 2.42, 316.41
367.98, 2.44, 316.26
368.21, 2.46, 316.10
368.45, 2.49, 315.92
368.96, 2.44, 315.57
369.42, 2.42, 315.26
369.80, 2.43, 314.99
370.14, 2.47, 314.76
370.50, 2.51, 314.50
370.80, 2.57, 314.28
370.89, 2.69, 314.21
370.92, 2.83, 314.18
370.95, 2.96, 314.15
370.97, 3.09, 314.12
371.00, 3.23, 314.09
371.03, 3.37, 314.06
371.05, 3.50, 314.03
371.08, 3.64, 314.00
371.12, 3.78, 313.96
371.18, 3.91, 313.91
371.24, 4.05, 313.86
371.30, 4.19, 313.80
371.37, 4.33, 313.75
371.43, 4.47, 313.69
371.50, 4.62, 313.63
371.56, 4.76, 313.57
371.63, 4.91, 313.51
371.70, 5.06, 313.45
371.77, 5.22, 313.39
367.23, 2.42, 316.68
367.46, 2.42, 316.52
367.68, 2.43, 316.36
367.89, 2.45, 316.20
368.12, 2.47, 316.04
368.36, 2.49, 315.87
368.81, 2.46, 315.55
369.35, 2.41, 315.17
369.72, 2.43, 314.90
370.06, 2.46, 314.66
370.40, 2.51, 314.41
370.67, 2.58, 314.21
370.79, 2.69, 314.12
370.82, 2.82, 314.09
370.84, 2.95, 314.06
370.87, 3.09, 314.03
370.90, 3.22, 314.00
370.92, 3.36, 313.97
370.95, 3.50, 313.94
370.97, 3.63, 313.91
¯371.00, 3.77, 313.88
371.03, 3.91, 313.85
371.05, 4.05, 313.82
371.08, 4.18, 313.79
371.12, 4.32, 313.74
371.18, 4.46, 313.69
371.25, 4.61, 313.63
371.31, 4.75, 313.57
371.37, 4.90, 313.52
371.44, 5.05, 313.46
371.50, 5.20, 313.40
367.17, 2.42, 316.62
367.39, 2.42, 316.46
367.60, 2.43, 316.31
367.81, 2.45, 316.15
368.03, 2.48, 315.99
368.26, 2.50, 315.82
368.66, 2.48, 315.52
369.28, 2.40, 315.08
369.64, 2.42, 314.81
369.97, 2.46, 314.57
370.27, 2.51, 314.34
370.54, 2.58, 314.14
370.69, 2.68, 314.02
370.72, 2.82, 313.99
370.74, 2.95, 313.96
370.77, 3.08, 313.93
370.79, 3.22, 313.90
370.82, 3.35, 313.87
370.84, 3.49, 313.84
370.87, 3.63, 313.81
370.90, 3.76, 313.78
370.92, 3.90, 313.75
370.95, 4.04, 313.72
370.97, 4.18, 313.69
371.00, 4.32, 313.66
371.03, 4.46, 313.62
371.05, 4.60, 313.59
371.08, 4.74, 313.56
371.13, 4.88, 313.52
371.19, 5.03, 313.46
371.25, 5.18, 313.40
367.11, 2.42, 316.57
367.33, 2.42, 316.40
367.52, 2.44, 316.26
367.72, 2.46, 316.10
367.94, 2.48, 315.94
368.17, 2.50, 315.76
368.51, 2.50, 315.50
369.20, 2.40, 315.00
369.56, 2.41, 314.72
¯369.89, 2.45, 314.48
370.15, 2.51, 314.28
370.41, 2.58, 314.07
370.59, 2.68, 313.93
370.62, 2.81, 313.90
370.64, 2.94, 313.87
370.67, 3.08, 313.84
370.69, 3.21, 313.81
370.72, 3.35, 313.78
370.74, 3.48, 313.75
370.77, 3.62, 313.72
370.79, 3.75, 313.68
370.82, 3.89, 313.65
370.84, 4.03, 313.62
370.87, 4.17, 313.59
370.89, 4.31, 313.56
370.92, 4.45, 313.53
370.95, 4.59, 313.50
370.97, 4.73, 313.46
371.00, 4.87, 313.43
371.03, 5.02, 313.40
371.05, 5.16, 313.37
367.04, 2.42, 316.51
367.25, 2.42, 316.35
367.44, 2.44, 316.21
367.63, 2.46, 316.05
367.85, 2.49, 315.89
368.07, 2.51, 315.71
368.37, 2.52, 315.48
369.11, 2.40, 314.92
369.48, 2.41, 314.64
369.78, 2.45, 314.40
370.02, 2.52, 314.21
370.28, 2.58, 314.00
370.49, 2.67, 313.84
370.52, 2.81, 313.81
370.54, 2.94, 313.77
370.56, 3.07, 313.74
370.59, 3.21, 313.71
370.61, 3.34, 313.68
370.64, 3.48, 313.65
370.66, 3.61, 313.62
370.69, 3.75, 313.59
370.71, 3.88, 313.56
370.74, 4.02, 313.53
370.76, 4.16, 313.49
370.79, 4.30, 313.46
370.81, 4.44, 313.43
370.84, 4.58, 313.40
370.87, 4.72, 313.37
370.89, 4.86, 313.33
¯370.92, 5.01, 313.30
370.95, 5.15, 313.27
366.98, 2.42, 316.46
367.17, 2.43, 316.31
367.35, 2.45, 316.16
367.55, 2.47, 316.01
367.76, 2.49, 315.84
367.98, 2.52, 315.66
368.22, 2.54, 315.47
368.94, 2.42, 314.91
369.40, 2.40, 314.55
369.66, 2.45, 314.34
369.90, 2.52, 314.14
370.16, 2.59, 313.94
370.39, 2.67, 313.74
370.41, 2.80, 313.71
370.44, 2.93, 313.68
370.46, 3.07, 313.65
370.49, 3.20, 313.62
370.51, 3.33, 313.59
370.54, 3.47, 313.56
370.56, 3.60, 313.53
370.58, 3.74, 313.49
370.61, 3.88, 313.46
370.63, 4.01, 313.43
370.66, 4.15, 313.40
370.68, 4.29, 313.37
370.71, 4.43, 313.33
370.73, 4.57, 313.30
370.76, 4.71, 313.27
370.79, 4.85, 313.24
370.81, 5.00, 313.20
370.84, 5.14, 313.17
366.92, 2.42, 316.41
367.10, 2.43, 316.26
367.27, 2.45, 316.12
367.46, 2.47, 315.96
367.67, 2.50, 315.79
367.88, 2.52, 315.61
368.12, 2.55, 315.42
368.77, 2.45, 314.90
369.32, 2.40, 314.46
369.55, 2.46, 314.27
369.78, 2.52, 314.08
370.03, 2.59, 313.87
370.29, 2.66, 313.65
370.31, 2.79, 313.62
370.34, 2.93, 313.59
370.36, 3.06, 313.56
370.39, 3.19, 313.53
370.41, 3.33, 313.49
¯370.43, 3.46, 313.46
370.46, 3.60, 313.43
370.48, 3.73, 313.40
370.51, 3.87, 313.37
370.53, 4.00, 313.34
370.56, 4.14, 313.30
370.58, 4.28, 313.27
370.60, 4.42, 313.24
370.63, 4.56, 313.21
370.65, 4.70, 313.17
370.68, 4.84, 313.14
370.71, 4.99, 313.11
370.73, 5.13, 313.07
366.84, 2.42, 316.36
367.02, 2.43, 316.21
367.19, 2.46, 316.07
367.38, 2.48, 315.91
367.58, 2.50, 315.74
367.79, 2.53, 315.57
368.02, 2.55, 315.38
368.60, 2.47, 314.90
369.21, 2.40, 314.40
369.43, 2.46, 314.21
369.66, 2.52, 314.01
369.90, 2.59, 313.81
370.16, 2.66, 313.59
370.22, 2.79, 313.53
370.24, 2.92, 313.50
370.26, 3.05, 313.46
370.29, 3.19, 313.43
370.31, 3.32, 313.40
370.33, 3.45, 313.37
370.36, 3.59, 313.34
370.38, 3.72, 313.31
370.40, 3.86, 313.27
370.43, 4.00, 313.24
370.45, 4.13, 313.21
370.48, 4.27, 313.18
370.50, 4.41, 313.14
370.52, 4.55, 313.11
370.55, 4.69, 313.08
370.57, 4.83, 313.04
370.60, 4.98, 313.01
370.62, 5.12, 312.97
366.77, 2.42, 316.32
366.95, 2.44, 316.16
367.11, 2.46, 316.02
367.29, 2.48, 315.87
367.49, 2.51, 315.70
367.70, 2.53, 315.52
367.92, 2.56, 315.33
¯368.44, 2.49, 314.89
369.10, 2.40, 314.34
369.31, 2.46, 314.15
369.54, 2.53, 313.95
369.78, 2.59, 313.74
370.03, 2.66, 313.52
370.12, 2.78, 313.44
370.14, 2.91, 313.40
370.16, 3.05, 313.37
370.18, 3.18, 313.34
370.21, 3.31, 313.31
370.23, 3.45, 313.28
370.25, 3.58, 313.24
370.28, 3.71, 313.21
370.30, 3.85, 313.18
370.32, 3.99, 313.15
370.35, 4.12, 313.11
370.37, 4.26, 313.08
370.40, 4.40, 313.05
370.42, 4.54, 313.01
370.44, 4.68, 312.98
370.47, 4.82, 312.95
370.49, 4.96, 312.91
370.52, 5.11, 312.88
366.70, 2.43, 316.27
366.87, 2.44, 316.12
367.04, 2.46, 315.98
367.21, 2.49, 315.82
367.40, 2.51, 315.65
367.60, 2.53, 315.47
367.82, 2.56, 315.28
368.28, 2.51, 314.89
368.99, 2.40, 314.28
369.20, 2.46, 314.09
369.42, 2.53, 313.89
369.65, 2.60, 313.68
369.90, 2.67, 313.46
370.02, 2.77, 313.34
370.04, 2.91, 313.31
370.06, 3.04, 313.28
370.08, 3.17, 313.25
370.11, 3.30, 313.22
370.13, 3.44, 313.18
370.15, 3.57, 313.15
370.18, 3.71, 313.12
370.20, 3.84, 313.09
370.22, 3.98, 313.05
370.24, 4.12, 313.02
370.27, 4.25, 312.99
370.29, 4.39, 312.95
370.32, 4.53, 312.92
¯370.34, 4.67, 312.88
370.36, 4.81, 312.85
370.39, 4.95, 312.82
370.41, 5.10, 312.78
366.62, 2.43, 316.23
366.80, 2.44, 316.08
366.96, 2.47, 315.93
367.13, 2.49, 315.78
367.31, 2.52, 315.61
367.51, 2.54, 315.43
367.72, 2.56, 315.24
368.12, 2.54, 314.89
368.85, 2.42, 314.25
369.08, 2.47, 314.03
369.30, 2.53, 313.83
369.53, 2.60, 313.62
369.77, 2.67, 313.40
369.92, 2.77, 313.25
369.94, 2.90, 313.22
369.96, 3.03, 313.19
369.98, 3.16, 313.16
370.01, 3.30, 313.12
370.03, 3.43, 313.09
370.05, 3.56, 313.06
370.07, 3.70, 313.02
370.10, 3.83, 312.99
370.12, 3.97, 312.96
370.14, 4.11, 312.92
370.16, 4.24, 312.89
370.19, 4.38, 312.86
370.21, 4.52, 312.82
370.23, 4.66, 312.79
370.26, 4.80, 312.75
370.28, 4.94, 312.72
370.31, 5.09, 312.68
366.55, 2.44, 316.19
366.72, 2.45, 316.04
366.88, 2.47, 315.88
367.04, 2.49, 315.73
367.22, 2.52, 315.57
367.42, 2.54, 315.39
367.62, 2.57, 315.19
367.96, 2.56, 314.89
368.66, 2.44, 314.26
368.97, 2.47, 313.97
369.18, 2.53, 313.77
369.40, 2.60, 313.56
369.64, 2.67, 313.34
369.82, 2.76, 313.16
369.84, 2.89, 313.13
369.86, 3.02, 313.10
¯369.88, 3.16, 313.06
369.91, 3.29, 313.03
369.93, 3.42, 313.00
369.95, 3.56, 312.97
369.97, 3.69, 312.93
369.99, 3.82, 312.90
370.02, 3.96, 312.86
370.04, 4.10, 312.83
370.06, 4.23, 312.80
370.08, 4.37, 312.76
370.11, 4.51, 312.73
370.13, 4.65, 312.69
370.15, 4.79, 312.66
370.18, 4.93, 312.62
370.20, 5.08, 312.59
366.48, 2.44, 316.15
366.64, 2.45, 315.99
366.80, 2.47, 315.84
366.96, 2.50, 315.69
367.13, 2.52, 315.52
367.32, 2.55, 315.34
367.53, 2.57, 315.15
367.80, 2.58, 314.89
368.48, 2.47, 314.27
368.86, 2.47, 313.91
369.06, 2.53, 313.71
369.28, 2.60, 313.50
369.51, 2.67, 313.28
369.72, 2.75, 313.07
369.74, 2.88, 313.04
369.76, 3.01, 313.01
369.78, 3.15, 312.97
369.81, 3.28, 312.94
369.83, 3.41, 312.91
369.85, 3.55, 312.87
369.87, 3.68, 312.84
369.89, 3.82, 312.81
369.91, 3.95, 312.77
369.94, 4.09, 312.74
369.96, 4.22, 312.70
369.98, 4.36, 312.67
370.00, 4.50, 312.63
370.03, 4.64, 312.60
370.05, 4.78, 312.56
370.07, 4.92, 312.53
370.09, 5.07, 312.49
366.40, 2.44, 316.11
366.57, 2.46, 315.95
366.73, 2.47, 315.80
366.88, 2.50, 315.64
367.05, 2.53, 315.48
¯367.23, 2.55, 315.30
367.43, 2.58, 315.11
367.65, 2.60, 314.89
368.30, 2.49, 314.28
368.75, 2.47, 313.85
368.95, 2.53, 313.65
369.16, 2.60, 313.44
369.38, 2.67, 313.22
369.62, 2.74, 312.98
369.64, 2.88, 312.95
369.66, 3.01, 312.91
369.68, 3.14, 312.88
369.71, 3.27, 312.85
369.73, 3.40, 312.81
369.75, 3.54, 312.78
369.77, 3.67, 312.75
369.79, 3.81, 312.71
369.81, 3.94, 312.68
369.83, 4.08, 312.64
369.86, 4.21, 312.61
369.88, 4.35, 312.57
369.90, 4.49, 312.54
369.92, 4.63, 312.50
369.94, 4.77, 312.47
369.97, 4.91, 312.43
369.99, 5.06, 312.40
366.33, 2.45, 316.07
366.49, 2.46, 315.91
366.65, 2.48, 315.75
366.80, 2.50, 315.60
366.97, 2.53, 315.43
367.14, 2.56, 315.26
367.33, 2.58, 315.07
367.54, 2.61, 314.86
368.12, 2.52, 314.30
368.63, 2.47, 313.80
368.83, 2.53, 313.60
369.04, 2.60, 313.38
369.26, 2.67, 313.16
369.49, 2.74, 312.92
369.54, 2.87, 312.86
369.56, 3.00, 312.82
369.59, 3.13, 312.79
369.61, 3.26, 312.76
369.63, 3.40, 312.72
369.65, 3.53, 312.69
369.67, 3.66, 312.65
369.69, 3.80, 312.62
369.71, 3.93, 312.59
369.73, 4.07, 312.55
369.75, 4.21, 312.52
¯369.78, 4.34, 312.48
369.80, 4.48, 312.44
369.82, 4.62, 312.41
369.84, 4.76, 312.37
369.86, 4.90, 312.34
369.89, 5.05, 312.30
366.26, 2.45, 316.03
366.41, 2.46, 315.88
366.57, 2.48, 315.71
366.72, 2.50, 315.56
366.88, 2.53, 315.39
367.05, 2.56, 315.22
367.24, 2.59, 315.03
367.44, 2.61, 314.82
367.95, 2.54, 314.32
368.52, 2.47, 313.74
368.72, 2.53, 313.54
368.92, 2.60, 313.33
369.13, 2.67, 313.10
369.36, 2.74, 312.87
369.45, 2.86, 312.77
369.47, 2.99, 312.73
369.49, 3.12, 312.70
369.51, 3.25, 312.67
369.53, 3.39, 312.63
369.55, 3.52, 312.60
369.57, 3.65, 312.56
369.59, 3.79, 312.53
369.61, 3.92, 312.49
369.63, 4.06, 312.46
369.65, 4.20, 312.42
369.67, 4.33, 312.39
369.69, 4.47, 312.35
369.72, 4.61, 312.31
369.74, 4.75, 312.28
369.76, 4.89, 312.24
369.78, 5.03, 312.20
366.18, 2.45, 316.00
366.34, 2.47, 315.84
366.49, 2.48, 315.67
366.64, 2.51, 315.52
366.80, 2.53, 315.35
366.97, 2.56, 315.17
367.14, 2.59, 314.99
367.34, 2.62, 314.78
367.78, 2.57, 314.33
368.41, 2.47, 313.68
368.60, 2.53, 313.48
368.80, 2.60, 313.27
369.01, 2.67, 313.05
369.23, 2.74, 312.81
¯369.35, 2.85, 312.68
369.37, 2.98, 312.64
369.39, 3.11, 312.61
369.41, 3.24, 312.57
369.43, 3.38, 312.54
369.45, 3.51, 312.50
369.47, 3.64, 312.47
369.49, 3.78, 312.43
369.51, 3.91, 312.40
369.53, 4.05, 312.36
369.55, 4.19, 312.33
369.57, 4.32, 312.29
369.59, 4.46, 312.25
369.61, 4.60, 312.22
369.64, 4.74, 312.18
369.66, 4.88, 312.14
369.68, 5.02, 312.11
366.11, 2.45, 315.96
366.26, 2.47, 315.80
366.42, 2.48, 315.63
366.56, 2.51, 315.48
366.72, 2.53, 315.31
366.88, 2.56, 315.13
367.05, 2.59, 314.95
367.24, 2.62, 314.74
367.61, 2.59, 314.35
368.28, 2.48, 313.66
368.49, 2.53, 313.43
368.68, 2.60, 313.22
368.88, 2.67, 312.99
369.10, 2.74, 312.75
369.25, 2.84, 312.59
369.27, 2.97, 312.55
369.29, 3.10, 312.52
369.31, 3.24, 312.48
369.33, 3.37, 312.45
369.35, 3.50, 312.41
369.37, 3.63, 312.38
369.39, 3.77, 312.34
369.41, 3.90, 312.31
369.43, 4.04, 312.27
369.45, 4.18, 312.23
369.47, 4.31, 312.20
369.49, 4.45, 312.16
369.51, 4.59, 312.12
369.53, 4.73, 312.09
369.55, 4.87, 312.05
369.58, 5.01, 312.01
366.04, 2.46, 315.93
366.18, 2.47, 315.77
366.34, 2.49, 315.60
¯366.48, 2.51, 315.44
366.63, 2.54, 315.27
366.79, 2.56, 315.09
366.96, 2.59, 314.90
367.14, 2.62, 314.70
367.45, 2.62, 314.38
368.08, 2.51, 313.69
368.37, 2.53, 313.38
368.56, 2.60, 313.16
368.76, 2.67, 312.94
368.97, 2.74, 312.70
369.15, 2.83, 312.50
369.17, 2.96, 312.46
369.19, 3.09, 312.43
369.21, 3.23, 312.39
369.23, 3.36, 312.36
369.25, 3.49, 312.32
369.27, 3.62, 312.28
369.29, 3.76, 312.25
369.31, 3.89, 312.21
369.33, 4.03, 312.18
369.35, 4.17, 312.14
369.37, 4.30, 312.10
369.39, 4.44, 312.06
369.41, 4.58, 312.03
369.43, 4.72, 311.99
369.45, 4.86, 311.95
369.47, 5.00, 311.91
365.96, 2.46, 315.89
366.11, 2.47, 315.73
366.26, 2.49, 315.56
366.40, 2.51, 315.40
366.55, 2.54, 315.23
366.71, 2.56, 315.05
366.87, 2.59, 314.86
367.05, 2.62, 314.66
367.29, 2.64, 314.40
367.90, 2.54, 313.73
368.26, 2.53, 313.32
368.44, 2.60, 313.11
368.64, 2.67, 312.88
368.85, 2.74, 312.64
369.02, 2.83, 312.44
369.06, 2.95, 312.38
369.09, 3.08, 312.34
369.11, 3.22, 312.30
369.13, 3.35, 312.26
369.15, 3.48, 312.23
369.17, 3.61, 312.19
369.19, 3.75, 312.15
369.21, 3.88, 312.12
¯369.23, 4.02, 312.08
369.25, 4.16, 312.04
369.27, 4.29, 312.01
369.29, 4.43, 311.97
369.31, 4.57, 311.93
369.33, 4.71, 311.89
369.35, 4.85, 311.86
369.37, 4.99, 311.82
365.89, 2.46, 315.86
366.03, 2.48, 315.70
366.18, 2.49, 315.53
366.32, 2.51, 315.36
366.47, 2.54, 315.19
366.62, 2.57, 315.01
366.78, 2.59, 314.82
366.95, 2.63, 314.62
367.16, 2.65, 314.39
367.71, 2.56, 313.76
368.15, 2.53, 313.27
368.33, 2.60, 313.06
368.52, 2.67, 312.83
368.72, 2.74, 312.59
368.87, 2.83, 312.41
368.96, 2.95, 312.30
368.98, 3.08, 312.26
369.00, 3.21, 312.22
369.02, 3.34, 312.18
369.04, 3.47, 312.14
369.06, 3.61, 312.11
369.08, 3.74, 312.07
369.10, 3.87, 312.03
369.12, 4.01, 311.99
369.14, 4.15, 311.95
369.16, 4.28, 311.91
369.18, 4.42, 311.88
369.20, 4.56, 311.84
369.22, 4.70, 311.80
369.24, 4.84, 311.76
369.26, 4.98, 311.72
365.82, 2.47, 315.83
365.95, 2.48, 315.66
366.10, 2.49, 315.49
366.24, 2.51, 315.32
366.38, 2.54, 315.15
366.53, 2.57, 314.97
366.69, 2.60, 314.78
366.86, 2.63, 314.58
367.08, 2.64, 314.32
367.53, 2.59, 313.80
368.03, 2.53, 313.22
368.21, 2.60, 313.00
¯368.40, 2.67, 312.78
368.60, 2.74, 312.54
368.72, 2.83, 312.38
368.84, 2.94, 312.23
368.87, 3.07, 312.18
368.89, 3.20, 312.14
368.91, 3.33, 312.10
368.93, 3.46, 312.06
368.95, 3.60, 312.02
368.97, 3.73, 311.98
368.99, 3.86, 311.95
369.01, 4.00, 311.91
369.03, 4.14, 311.87
369.06, 4.27, 311.83
369.08, 4.41, 311.79
369.10, 4.55, 311.75
369.12, 4.69, 311.71
369.14, 4.83, 311.66
369.16, 4.97, 311.62
365.74, 2.47, 315.79
365.88, 2.48, 315.63
366.02, 2.50, 315.46
366.16, 2.52, 315.29
366.30, 2.54, 315.12
366.45, 2.57, 314.94
366.60, 2.60, 314.75
366.77, 2.63, 314.55
367.00, 2.64, 314.26
367.36, 2.61, 313.84
367.92, 2.53, 313.17
368.09, 2.60, 312.95
368.28, 2.66, 312.73
368.47, 2.74, 312.49
368.58, 2.84, 312.35
368.69, 2.94, 312.20
368.76, 3.06, 312.10
368.78, 3.19, 312.06
368.80, 3.32, 312.02
368.82, 3.45, 311.98
368.84, 3.59, 311.94
368.86, 3.72, 311.90
368.88, 3.85, 311.86
368.90, 3.99, 311.82
368.92, 4.13, 311.78
368.94, 4.26, 311.74
368.96, 4.40, 311.70
368.99, 4.54, 311.66
369.01, 4.68, 311.62
369.03, 4.82, 311.58
369.05, 4.96, 311.54
365.67, 2.47, 315.76
¯365.80, 2.49, 315.60
365.94, 2.50, 315.43
366.08, 2.52, 315.25
366.22, 2.54, 315.08
366.36, 2.57, 314.90
366.51, 2.60, 314.71
366.67, 2.63, 314.51
366.93, 2.63, 314.20
367.19, 2.64, 313.88
367.81, 2.53, 313.12
367.98, 2.59, 312.91
368.16, 2.66, 312.68
368.32, 2.74, 312.46
368.43, 2.84, 312.32
368.54, 2.94, 312.17
368.66, 3.05, 312.02
368.68, 3.18, 311.98
368.69, 3.31, 311.94
368.71, 3.44, 311.90
368.73, 3.58, 311.86
368.75, 3.71, 311.82
368.77, 3.85, 311.78
368.79, 3.98, 311.74
368.81, 4.12, 311.70
368.83, 4.25, 311.66
368.85, 4.39, 311.62
368.87, 4.53, 311.58
368.89, 4.67, 311.54
368.91, 4.81, 311.49
368.94, 4.95, 311.45
365.60, 2.47, 315.73
365.72, 2.49, 315.57
365.86, 2.50, 315.40
366.00, 2.52, 315.22
366.13, 2.54, 315.05
366.27, 2.57, 314.87
366.42, 2.60, 314.67
366.58, 2.63, 314.47
366.84, 2.62, 314.14
367.10, 2.63, 313.81
367.61, 2.56, 313.18
367.86, 2.59, 312.86
368.04, 2.66, 312.63
368.18, 2.74, 312.43
368.29, 2.84, 312.29
368.39, 2.95, 312.14
368.51, 3.05, 311.99
368.57, 3.17, 311.90
368.59, 3.30, 311.86
368.61, 3.44, 311.82
368.63, 3.57, 311.78
¯368.64, 3.70, 311.74
368.66, 3.84, 311.70
368.68, 3.97, 311.66
368.70, 4.11, 311.62
368.72, 4.24, 311.58
368.74, 4.38, 311.54
368.76, 4.52, 311.49
368.78, 4.66, 311.45
368.80, 4.80, 311.41
368.82, 4.94, 311.37
365.52, 2.48, 315.70
365.65, 2.49, 315.54
365.78, 2.50, 315.37
365.92, 2.52, 315.19
366.05, 2.54, 315.01
366.19, 2.57, 314.83
366.33, 2.60, 314.64
366.50, 2.63, 314.43
366.76, 2.62, 314.08
367.02, 2.62, 313.75
367.42, 2.59, 313.24
367.75, 2.59, 312.81
367.92, 2.66, 312.58
368.04, 2.75, 312.41
368.14, 2.85, 312.26
368.25, 2.95, 312.12
368.36, 3.05, 311.96
368.46, 3.16, 311.82
368.48, 3.29, 311.78
368.50, 3.43, 311.74
368.52, 3.56, 311.70
368.53, 3.69, 311.66
368.55, 3.83, 311.62
368.57, 3.96, 311.58
368.59, 4.10, 311.53
368.61, 4.23, 311.49
368.63, 4.37, 311.45
368.65, 4.51, 311.41
368.67, 4.65, 311.37
368.69, 4.79, 311.33
368.71, 4.93, 311.28
365.45, 2.48, 315.68
365.57, 2.49, 315.51
365.70, 2.51, 315.34
365.84, 2.52, 315.16
365.97, 2.55, 314.98
366.10, 2.57, 314.80
366.24, 2.60, 314.60
366.42, 2.62, 314.37
366.68, 2.61, 314.02
366.93, 2.62, 313.69
¯367.23, 2.62, 313.30
367.63, 2.59, 312.76
367.80, 2.66, 312.53
367.91, 2.75, 312.38
368.00, 2.85, 312.24
368.10, 2.95, 312.09
368.21, 3.05, 311.94
368.32, 3.16, 311.78
368.37, 3.28, 311.70
368.39, 3.42, 311.66
368.41, 3.55, 311.62
368.43, 3.68, 311.57
368.44, 3.82, 311.53
368.46, 3.95, 311.49
368.48, 4.09, 311.45
368.50, 4.22, 311.41
368.52, 4.36, 311.37
368.54, 4.50, 311.33
368.56, 4.64, 311.28
368.58, 4.78, 311.24
368.60, 4.92, 311.20
365.38, 2.48, 315.65
365.50, 2.49, 315.48
365.62, 2.51, 315.31
365.75, 2.52, 315.13
365.89, 2.55, 314.95
366.02, 2.57, 314.76
366.16, 2.60, 314.57
366.34, 2.62, 314.32
366.60, 2.61, 313.97
366.85, 2.61, 313.62
367.12, 2.62, 313.26
367.52, 2.59, 312.72
367.68, 2.66, 312.49
367.77, 2.75, 312.35
367.86, 2.85, 312.21
367.96, 2.95, 312.06
368.06, 3.05, 311.91
368.17, 3.16, 311.76
368.26, 3.27, 311.61
368.28, 3.41, 311.57
368.30, 3.54, 311.53
368.32, 3.67, 311.49
368.33, 3.81, 311.45
368.35, 3.94, 311.41
368.37, 4.08, 311.37
368.39, 4.21, 311.33
368.41, 4.35, 311.28
368.43, 4.49, 311.24
368.44, 4.63, 311.20
368.46, 4.77, 311.16
¯368.48, 4.91, 311.11
365.30, 2.48, 315.62
365.42, 2.50, 315.46
365.54, 2.51, 315.28
365.67, 2.53, 315.10
365.80, 2.55, 314.91
365.93, 2.57, 314.73
366.07, 2.60, 314.54
366.26, 2.61, 314.27
366.52, 2.60, 313.91
366.76, 2.60, 313.56
367.03, 2.61, 313.20
367.40, 2.59, 312.67
367.54, 2.66, 312.47
367.63, 2.75, 312.33
367.73, 2.85, 312.19
367.82, 2.95, 312.04
367.92, 3.05, 311.89
368.02, 3.16, 311.73
368.13, 3.27, 311.57
368.17, 3.40, 311.49
368.19, 3.53, 311.45
368.21, 3.66, 311.41
368.22, 3.80, 311.37
368.24, 3.93, 311.33
368.26, 4.07, 311.29
368.28, 4.20, 311.24
368.30, 4.34, 311.20
368.31, 4.48, 311.16
368.33, 4.62, 311.12
368.35, 4.76, 311.07
368.37, 4.90, 311.03
365.23, 2.49, 315.59
365.34, 2.50, 315.43
365.46, 2.51, 315.26
365.59, 2.53, 315.07
365.72, 2.55, 314.88
365.85, 2.57, 314.70
365.98, 2.60, 314.51
366.18, 2.60, 314.21
366.43, 2.59, 313.86
366.68, 2.60, 313.50
366.94, 2.60, 313.13
367.26, 2.60, 312.67
367.41, 2.66, 312.44
367.50, 2.75, 312.30
367.59, 2.85, 312.16
367.68, 2.95, 312.02
367.78, 3.05, 311.87
367.88, 3.16, 311.71
367.98, 3.27, 311.55
¯368.06, 3.39, 311.41
368.08, 3.52, 311.37
368.10, 3.65, 311.33
368.12, 3.79, 311.29
368.13, 3.92, 311.25
368.15, 4.06, 311.20
368.17, 4.19, 311.16
368.18, 4.33, 311.12
368.20, 4.47, 311.07
368.22, 4.61, 311.03
368.24, 4.75, 310.99
368.26, 4.89, 310.94
365.17, 2.48, 315.55
365.27, 2.50, 315.41
365.38, 2.52, 315.23
365.51, 2.53, 315.05
365.64, 2.55, 314.85
365.76, 2.58, 314.67
365.89, 2.60, 314.48
366.10, 2.60, 314.16
366.35, 2.59, 313.80
366.59, 2.59, 313.45
366.84, 2.59, 313.07
367.12, 2.60, 312.66
367.28, 2.66, 312.41
367.37, 2.76, 312.28
367.46, 2.85, 312.14
367.54, 2.95, 311.99
367.64, 3.05, 311.84
367.73, 3.16, 311.69
367.83, 3.27, 311.53
367.93, 3.38, 311.36
367.97, 3.51, 311.29
367.99, 3.64, 311.25
368.01, 3.77, 311.21
368.02, 3.91, 311.16
368.04, 4.05, 311.12
368.06, 4.18, 311.08
368.07, 4.32, 311.03
368.09, 4.46, 310.99
368.11, 4.60, 310.95
368.13, 4.74, 310.90
368.14, 4.88, 310.86
365.11, 2.47, 315.51
365.20, 2.50, 315.37
365.31, 2.52, 315.21
365.43, 2.53, 315.02
365.55, 2.55, 314.83
365.68, 2.58, 314.64
365.80, 2.60, 314.44
366.02, 2.59, 314.12
¯366.26, 2.58, 313.75
366.50, 2.58, 313.39
366.75, 2.59, 313.01
367.03, 2.59, 312.59
367.16, 2.66, 312.38
367.24, 2.76, 312.25
367.32, 2.85, 312.11
367.41, 2.95, 311.97
367.50, 3.05, 311.82
367.59, 3.16, 311.67
367.69, 3.27, 311.51
367.78, 3.38, 311.34
367.86, 3.50, 311.21
367.88, 3.63, 311.17
367.90, 3.76, 311.12
367.91, 3.90, 311.08
367.93, 4.03, 311.04
367.94, 4.17, 310.99
367.96, 4.31, 310.95
367.98, 4.45, 310.91
368.00, 4.59, 310.86
368.01, 4.73, 310.82
368.03, 4.87, 310.77
360.57, 2.56, 326.81
360.51, 2.56, 327.06
360.44, 2.57, 327.33
360.37, 2.57, 327.61
360.17, 2.42, 328.47
360.08, 2.42, 328.88
359.97, 2.41, 329.31
359.86, 2.41, 329.78
359.72, 2.40, 330.33
359.57, 2.39, 330.97
359.39, 2.37, 331.71
359.19, 2.35, 332.55
358.95, 2.33, 333.52
358.74, 2.35, 334.37
358.48, 2.36, 335.44
360.64, 2.56, 326.86
360.58, 2.56, 327.10
360.52, 2.57, 327.37
360.45, 2.57, 327.66
360.26, 2.42, 328.52
360.17, 2.41, 328.93
360.07, 2.41, 329.37
359.96, 2.41, 329.85
359.83, 2.40, 330.41
359.68, 2.38, 331.06
359.51, 2.37, 331.80
359.31, 2.35, 332.66
359.09, 2.32, 333.65
¯358.87, 2.33, 334.58
358.62, 2.35, 335.65
360.71, 2.55, 326.90
360.65, 2.56, 327.14
360.60, 2.56, 327.41
360.53, 2.57, 327.70
360.35, 2.42, 328.57
360.26, 2.41, 328.99
360.17, 2.41, 329.43
360.06, 2.41, 329.91
359.94, 2.40, 330.49
359.79, 2.38, 331.15
359.63, 2.36, 331.90
359.44, 2.34, 332.77
359.23, 2.32, 333.77
359.01, 2.32, 334.78
358.77, 2.33, 335.86
360.78, 2.55, 326.94
360.73, 2.56, 327.19
360.67, 2.56, 327.45
360.61, 2.57, 327.74
360.44, 2.42, 328.62
360.36, 2.41, 329.04
360.27, 2.41, 329.49
360.17, 2.40, 329.98
360.05, 2.39, 330.56
359.91, 2.37, 331.23
359.75, 2.36, 332.00
359.57, 2.33, 332.89
359.37, 2.31, 333.90
359.14, 2.30, 334.99
358.89, 2.29, 336.21
360.85, 2.54, 326.98
360.80, 2.55, 327.23
360.75, 2.56, 327.50
360.69, 2.57, 327.79
360.53, 2.41, 328.67
360.45, 2.41, 329.09
360.37, 2.40, 329.54
360.27, 2.40, 330.04
360.16, 2.39, 330.64
360.03, 2.37, 331.32
359.88, 2.35, 332.10
359.71, 2.33, 333.00
359.51, 2.30, 334.04
359.29, 2.28, 335.20
359.01, 2.25, 336.64
360.92, 2.54, 327.02
360.88, 2.55, 327.27
360.83, 2.55, 327.54
360.78, 2.56, 327.83
¯360.63, 2.41, 328.71
360.55, 2.41, 329.14
360.47, 2.40, 329.60
360.38, 2.40, 330.10
360.27, 2.38, 330.71
360.15, 2.37, 331.40
360.01, 2.34, 332.20
359.84, 2.32, 333.12
359.65, 2.29, 334.19
359.44, 2.26, 335.40
359.14, 2.20, 337.09
361.00, 2.54, 327.06
360.95, 2.54, 327.32
360.91, 2.55, 327.59
360.86, 2.56, 327.88
360.72, 2.41, 328.76
360.65, 2.40, 329.19
360.57, 2.40, 329.66
360.49, 2.39, 330.17
360.38, 2.38, 330.79
360.27, 2.36, 331.48
360.13, 2.34, 332.29
359.98, 2.31, 333.23
359.80, 2.28, 334.34
359.59, 2.25, 335.58
359.27, 2.14, 337.56
361.07, 2.53, 327.10
361.03, 2.54, 327.36
360.99, 2.54, 327.64
360.94, 2.55, 327.93
360.89, 2.56, 328.25
360.75, 2.40, 329.24
360.68, 2.40, 329.71
360.59, 2.39, 330.23
360.50, 2.37, 330.86
360.39, 2.36, 331.56
360.27, 2.33, 332.39
360.12, 2.30, 333.35
359.95, 2.27, 334.49
359.75, 2.24, 335.75
361.14, 2.53, 327.14
361.11, 2.53, 327.40
361.07, 2.54, 327.68
361.02, 2.55, 327.98
360.98, 2.56, 328.31
360.85, 2.40, 329.28
360.78, 2.39, 329.76
360.71, 2.39, 330.30
360.62, 2.37, 330.93
360.52, 2.35, 331.64
360.40, 2.33, 332.49
¯360.26, 2.30, 333.46
360.10, 2.26, 334.64
359.92, 2.23, 335.93
361.22, 2.52, 327.18
361.19, 2.53, 327.44
361.15, 2.54, 327.73
361.11, 2.54, 328.03
361.07, 2.55, 328.36
360.95, 2.40, 329.33
360.89, 2.39, 329.81
360.82, 2.38, 330.36
360.73, 2.37, 331.00
360.64, 2.35, 331.72
360.53, 2.32, 332.58
360.41, 2.29, 333.57
360.25, 2.24, 334.79
360.08, 2.21, 336.13
361.30, 2.52, 327.22
361.26, 2.52, 327.49
361.23, 2.53, 327.77
361.19, 2.54, 328.08
361.16, 2.55, 328.41
361.05, 2.40, 329.37
360.99, 2.39, 329.87
360.93, 2.38, 330.42
360.85, 2.36, 331.07
360.77, 2.34, 331.80
360.67, 2.31, 332.68
360.55, 2.28, 333.68
360.41, 2.23, 334.94
360.25, 2.19, 336.34
359.48, 1.37, 343.35
361.37, 2.51, 327.26
361.34, 2.52, 327.53
361.31, 2.53, 327.81
361.28, 2.53, 328.12
361.25, 2.54, 328.46
361.15, 2.39, 329.42
361.10, 2.39, 329.91
361.04, 2.37, 330.48
360.98, 2.36, 331.13
360.90, 2.34, 331.88
360.81, 2.31, 332.77
360.70, 2.28, 333.79
360.57, 2.22, 335.09
360.42, 2.17, 336.54
359.86, 1.56, 342.21
361.45, 2.51, 327.28
361.43, 2.51, 327.56
361.40, 2.52, 327.86
361.37, 2.53, 328.17
¯361.34, 2.53, 328.51
361.26, 2.39, 329.46
361.21, 2.38, 329.96
361.16, 2.37, 330.54
361.10, 2.35, 331.20
361.03, 2.33, 331.95
360.95, 2.30, 332.86
360.86, 2.27, 333.90
360.74, 2.21, 335.23
360.60, 2.16, 336.75
360.28, 1.83, 340.46
359.98, 1.64, 343.79
361.53, 2.51, 327.30
361.51, 2.51, 327.60
361.48, 2.52, 327.90
361.46, 2.52, 328.21
361.43, 2.53, 328.56
361.36, 2.39, 329.50
361.32, 2.38, 330.01
361.28, 2.37, 330.60
361.22, 2.35, 331.26
361.16, 2.33, 332.02
361.09, 2.30, 332.95
361.01, 2.26, 334.01
360.90, 2.20, 335.38
360.78, 2.14, 336.96
360.52, 1.86, 340.35
360.34, 1.80, 342.68
360.19, 1.86, 344.48
361.61, 2.51, 327.32
361.59, 2.51, 327.62
361.57, 2.51, 327.94
361.55, 2.52, 328.26
361.52, 2.52, 328.60
361.50, 2.53, 328.98
361.43, 2.38, 330.06
361.39, 2.36, 330.65
361.35, 2.34, 331.33
361.30, 2.32, 332.10
361.24, 2.29, 333.03
361.17, 2.25, 334.13
361.07, 2.19, 335.52
360.97, 2.12, 337.17
360.77, 1.89, 340.25
360.63, 1.85, 342.43
360.52, 1.94, 343.96
361.69, 2.51, 327.34
361.67, 2.51, 327.64
361.66, 2.51, 327.96
361.64, 2.51, 328.30
361.62, 2.52, 328.65
¯361.60, 2.53, 329.03
361.55, 2.37, 330.11
361.51, 2.36, 330.71
361.48, 2.34, 331.40
361.43, 2.32, 332.18
361.38, 2.28, 333.13
361.32, 2.24, 334.25
361.25, 2.18, 335.67
361.16, 2.10, 337.38
361.02, 1.92, 340.14
360.90, 1.90, 342.18
360.84, 2.06, 343.16
360.75, 2.18, 344.65
361.77, 2.51, 327.36
361.76, 2.51, 327.66
361.74, 2.51, 327.98
361.73, 2.51, 328.34
361.71, 2.51, 328.70
361.70, 2.52, 329.09
361.66, 2.37, 330.16
361.63, 2.35, 330.77
361.60, 2.33, 331.46
361.57, 2.31, 332.27
361.53, 2.27, 333.23
361.48, 2.23, 334.39
361.43, 2.16, 335.83
361.35, 2.08, 337.59
361.26, 1.95, 340.03
361.17, 1.95, 341.93
361.12, 2.10, 342.89
361.06, 2.25, 344.12
361.00, 2.43, 345.36
361.85, 2.51, 327.38
361.84, 2.51, 327.68
361.83, 2.51, 328.00
361.82, 2.51, 328.36
361.81, 2.51, 328.74
361.80, 2.51, 329.14
361.77, 2.36, 330.21
361.75, 2.35, 330.83
361.73, 2.33, 331.53
361.71, 2.30, 332.35
361.68, 2.26, 333.33
361.65, 2.21, 334.53
361.61, 2.14, 336.00
361.55, 2.06, 337.82
361.49, 1.96, 340.05
361.44, 1.98, 341.82
361.40, 2.14, 342.74
361.36, 2.31, 343.69
361.31, 2.50, 344.80
¯361.93, 2.51, 327.39
361.93, 2.51, 327.70
361.92, 2.51, 328.02
361.92, 2.51, 328.38
361.91, 2.51, 328.77
361.90, 2.51, 329.18
361.89, 2.36, 330.26
361.88, 2.34, 330.89
361.87, 2.32, 331.59
361.85, 2.29, 332.44
361.84, 2.25, 333.43
361.82, 2.20, 334.67
361.79, 2.13, 336.18
361.76, 2.04, 338.02
361.73, 1.96, 340.15
361.69, 1.99, 341.89
361.66, 2.14, 342.89
361.64, 2.31, 343.89
361.61, 2.50, 345.00
362.02, 2.51, 327.41
362.01, 2.51, 327.71
362.01, 2.51, 328.04
362.01, 2.51, 328.40
362.01, 2.51, 328.79
362.00, 2.50, 329.23
362.01, 2.35, 330.31
362.00, 2.34, 330.94
362.00, 2.32, 331.65
361.99, 2.28, 332.52
361.99, 2.24, 333.53
361.99, 2.18, 334.80
361.98, 2.11, 336.37
361.97, 2.03, 338.20
361.96, 1.96, 340.25
361.95, 1.99, 341.96
361.94, 2.13, 343.05
361.92, 2.30, 344.09
361.90, 2.49, 345.24
362.10, 2.51, 327.42
362.10, 2.51, 327.73
362.10, 2.51, 328.06
362.10, 2.51, 328.42
362.11, 2.51, 328.81
362.11, 2.50, 329.25
362.11, 2.50, 329.72
362.13, 2.33, 330.99
362.13, 2.31, 331.71
362.14, 2.28, 332.59
362.15, 2.24, 333.62
362.16, 2.17, 334.94
362.17, 2.09, 336.55
¯362.19, 2.01, 338.38
362.20, 1.96, 340.35
362.21, 2.00, 342.02
362.21, 2.13, 343.21
362.21, 2.30, 344.30
362.20, 2.49, 345.48
362.18, 2.51, 327.43
362.19, 2.51, 327.74
362.19, 2.51, 328.07
362.20, 2.51, 328.44
362.21, 2.51, 328.83
362.21, 2.50, 329.27
362.22, 2.50, 329.75
362.25, 2.33, 331.04
362.27, 2.31, 331.77
362.29, 2.27, 332.67
362.31, 2.23, 333.72
362.34, 2.15, 335.08
362.37, 2.07, 336.74
362.41, 2.00, 338.56
362.44, 1.96, 340.45
362.47, 2.00, 342.08
362.49, 2.13, 343.37
362.50, 2.29, 344.51
362.26, 2.51, 327.45
362.27, 2.51, 327.75
362.28, 2.51, 328.09
362.29, 2.51, 328.45
362.31, 2.51, 328.85
362.32, 2.50, 329.29
362.33, 2.50, 329.79
362.38, 2.32, 331.09
362.41, 2.30, 331.83
362.44, 2.26, 332.75
362.47, 2.22, 333.81
362.52, 2.14, 335.21
362.57, 2.05, 336.92
362.63, 1.98, 338.75
362.69, 1.96, 340.55
362.73, 2.01, 342.14
362.77, 2.12, 343.52
362.80, 2.29, 344.72
362.35, 2.51, 327.46
362.36, 2.51, 327.77
362.37, 2.51, 328.10
362.39, 2.51, 328.47
362.41, 2.51, 328.87
362.42, 2.50, 329.31
362.45, 2.49, 329.82
362.51, 2.32, 331.14
362.54, 2.30, 331.88
¯362.59, 2.25, 332.82
362.64, 2.21, 333.90
362.70, 2.12, 335.35
362.78, 2.03, 337.10
362.86, 1.96, 338.93
362.93, 1.96, 340.64
363.00, 2.02, 342.20
363.06, 2.12, 343.68
363.10, 2.28, 344.93
362.43, 2.51, 327.47
362.45, 2.51, 327.78
362.46, 2.51, 328.11
362.48, 2.51, 328.48
362.51, 2.51, 328.88
362.53, 2.50, 329.32
362.56, 2.49, 329.85
362.64, 2.31, 331.19
362.68, 2.29, 331.94
362.74, 2.25, 332.89
362.80, 2.20, 334.00
362.89, 2.11, 335.48
362.99, 2.01, 337.29
363.10, 1.95, 339.11
363.18, 1.96, 340.74
363.26, 2.02, 342.26
363.37, 2.07, 344.28
362.51, 2.51, 327.47
362.53, 2.51, 327.78
362.56, 2.51, 328.12
362.58, 2.51, 328.49
362.61, 2.51, 328.89
362.64, 2.50, 329.34
362.67, 2.49, 329.89
362.72, 2.47, 330.52
362.83, 2.28, 331.99
362.89, 2.24, 332.96
362.97, 2.18, 334.10
363.08, 2.10, 335.60
363.21, 1.99, 337.47
363.34, 1.93, 339.31
363.46, 1.92, 341.10
363.71, 1.72, 344.79
362.60, 2.51, 327.48
362.62, 2.51, 327.79
362.65, 2.51, 328.13
362.68, 2.51, 328.50
362.71, 2.51, 328.91
362.74, 2.50, 329.35
362.79, 2.48, 329.92
362.84, 2.46, 330.55
362.97, 2.28, 332.04
¯363.05, 2.23, 333.02
363.15, 2.17, 334.20
363.27, 2.08, 335.73
363.43, 1.97, 337.65
363.59, 1.90, 339.59
363.75, 1.85, 341.67
362.68, 2.51, 327.49
362.71, 2.51, 327.80
362.74, 2.51, 328.14
362.77, 2.51, 328.51
362.81, 2.51, 328.92
362.85, 2.50, 329.38
362.91, 2.48, 329.95
362.97, 2.46, 330.59
363.11, 2.27, 332.09
363.21, 2.22, 333.09
363.32, 2.16, 334.30
363.47, 2.06, 335.87
363.66, 1.95, 337.83
363.91, 1.77, 340.54
362.76, 2.51, 327.49
362.80, 2.51, 327.81
362.83, 2.51, 328.15
362.87, 2.51, 328.52
362.91, 2.51, 328.92
362.96, 2.50, 329.40
363.02, 2.48, 329.97
363.09, 2.46, 330.62
363.26, 2.27, 332.14
363.37, 2.21, 333.16
363.50, 2.15, 334.41
363.67, 2.05, 336.00
363.89, 1.92, 338.04
364.22, 1.70, 341.07
362.85, 2.52, 327.50
362.88, 2.51, 327.81
362.92, 2.51, 328.15
362.97, 2.51, 328.52
363.02, 2.51, 328.93
363.07, 2.50, 329.42
363.14, 2.48, 330.00
363.22, 2.45, 330.65
363.41, 2.26, 332.20
363.53, 2.21, 333.23
363.68, 2.13, 334.51
363.88, 2.03, 336.14
364.13, 1.89, 338.26
364.54, 1.62, 341.63
362.93, 2.52, 327.50
362.97, 2.51, 327.81
363.02, 2.51, 328.15
¯363.07, 2.51, 328.53
363.12, 2.51, 328.94
363.18, 2.49, 329.44
363.26, 2.47, 330.02
363.35, 2.45, 330.68
363.56, 2.25, 332.26
363.69, 2.20, 333.29
363.87, 2.12, 334.62
364.09, 2.01, 336.27
364.38, 1.86, 338.48
363.02, 2.52, 327.50
363.06, 2.51, 327.81
363.11, 2.51, 328.16
363.16, 2.51, 328.53
363.22, 2.51, 328.94
363.30, 2.49, 329.46
363.38, 2.47, 330.04
363.47, 2.44, 330.71
363.58, 2.41, 331.48
363.86, 2.19, 333.36
364.06, 2.10, 334.72
364.30, 2.00, 336.41
364.63, 1.84, 338.70
363.10, 2.52, 327.50
363.15, 2.51, 327.82
363.20, 2.51, 328.16
363.26, 2.51, 328.53
363.33, 2.51, 328.96
363.41, 2.49, 329.48
363.50, 2.47, 330.06
363.60, 2.44, 330.74
363.72, 2.41, 331.52
364.03, 2.18, 333.42
364.25, 2.09, 334.81
364.52, 1.98, 336.54
364.89, 1.81, 338.92
363.19, 2.52, 327.50
363.24, 2.51, 327.81
363.30, 2.51, 328.16
363.36, 2.51, 328.53
363.43, 2.50, 328.97
363.52, 2.48, 329.49
363.62, 2.46, 330.08
363.73, 2.43, 330.77
363.87, 2.40, 331.55
364.20, 2.17, 333.49
364.44, 2.08, 334.90
364.74, 1.96, 336.66
365.16, 1.78, 339.13
363.27, 2.52, 327.50
363.33, 2.51, 327.81
¯363.39, 2.51, 328.16
363.46, 2.51, 328.53
363.54, 2.50, 328.98
363.63, 2.48, 329.50
363.74, 2.46, 330.10
363.86, 2.43, 330.79
364.01, 2.40, 331.59
364.37, 2.16, 333.54
364.63, 2.06, 334.99
364.96, 1.94, 336.79
365.43, 1.75, 339.37
363.36, 2.52, 327.49
363.42, 2.51, 327.81
363.48, 2.51, 328.15
363.56, 2.51, 328.53
363.64, 2.50, 328.99
363.75, 2.48, 329.51
363.86, 2.45, 330.12
364.00, 2.43, 330.81
364.15, 2.39, 331.63
364.54, 2.15, 333.60
364.83, 2.05, 335.08
365.19, 1.92, 336.91
365.72, 1.71, 339.62
363.44, 2.52, 327.49
363.51, 2.51, 327.80
363.58, 2.51, 328.15
363.65, 2.51, 328.53
363.75, 2.50, 328.99
363.86, 2.48, 329.52
363.99, 2.45, 330.14
364.13, 2.42, 330.83
364.30, 2.38, 331.67
364.51, 2.33, 332.67
365.03, 2.04, 335.16
365.42, 1.90, 337.05
366.01, 1.68, 339.87
363.53, 2.52, 327.48
363.60, 2.52, 327.80
363.67, 2.51, 328.15
363.75, 2.51, 328.52
363.86, 2.49, 329.00
363.97, 2.47, 329.53
364.11, 2.45, 330.15
364.26, 2.42, 330.85
364.45, 2.38, 331.70
364.67, 2.32, 332.71
365.23, 2.02, 335.23
365.66, 1.88, 337.19
366.31, 1.64, 340.12
363.61, 2.52, 327.47
¯363.69, 2.52, 327.79
363.77, 2.51, 328.14
363.85, 2.51, 328.53
363.96, 2.49, 329.00
364.09, 2.47, 329.54
364.23, 2.44, 330.16
364.40, 2.42, 330.86
364.60, 2.37, 331.74
364.84, 2.32, 332.76
365.44, 2.01, 335.33
365.90, 1.86, 337.33
366.61, 1.60, 340.37
363.70, 2.52, 327.47
363.77, 2.52, 327.78
363.86, 2.51, 328.13
363.96, 2.51, 328.53
364.07, 2.49, 329.01
364.21, 2.47, 329.55
364.36, 2.44, 330.17
364.53, 2.41, 330.89
364.75, 2.36, 331.77
365.00, 2.31, 332.80
365.65, 1.99, 335.42
366.15, 1.84, 337.46
366.93, 1.57, 340.61
363.78, 2.52, 327.46
363.86, 2.52, 327.77
363.95, 2.51, 328.12
364.06, 2.51, 328.53
364.18, 2.49, 329.01
364.32, 2.46, 329.56
364.48, 2.44, 330.18
364.67, 2.40, 330.91
364.90, 2.36, 331.79
365.17, 2.30, 332.84
365.86, 1.98, 335.50
366.40, 1.82, 337.59
367.25, 1.53, 340.87
363.87, 2.52, 327.45
363.95, 2.52, 327.76
364.05, 2.51, 328.11
364.16, 2.50, 328.52
364.29, 2.49, 329.00
364.44, 2.46, 329.56
364.61, 2.43, 330.18
364.81, 2.40, 330.93
365.05, 2.35, 331.82
365.34, 2.29, 332.88
365.71, 2.20, 334.27
366.66, 1.80, 337.72
367.60, 1.49, 341.16
¯363.95, 2.52, 327.43
364.04, 2.52, 327.75
364.14, 2.51, 328.10
364.26, 2.50, 328.52
364.40, 2.48, 329.00
364.55, 2.46, 329.56
364.73, 2.43, 330.19
364.95, 2.39, 330.95
365.20, 2.34, 331.84
365.51, 2.28, 332.91
365.91, 2.19, 334.33
366.92, 1.78, 337.85
367.95, 1.44, 341.45
364.04, 2.52, 327.42
364.13, 2.52, 327.74
364.23, 2.52, 328.08
364.36, 2.50, 328.51
364.51, 2.48, 329.00
364.67, 2.46, 329.56
364.86, 2.43, 330.19
365.09, 2.38, 330.96
365.35, 2.34, 331.86
365.68, 2.27, 332.94
366.11, 2.17, 334.39
367.19, 1.75, 337.99
368.31, 1.40, 341.74
364.12, 2.52, 327.41
364.22, 2.52, 327.72
364.33, 2.52, 328.07
364.46, 2.50, 328.50
364.62, 2.48, 329.00
364.79, 2.45, 329.56
364.98, 2.43, 330.19
365.23, 2.38, 330.98
365.51, 2.33, 331.87
365.85, 2.27, 332.97
366.31, 2.16, 334.46
367.46, 1.72, 338.14
368.68, 1.35, 342.03
364.21, 2.52, 327.39
364.31, 2.52, 327.71
364.42, 2.51, 328.06
364.56, 2.50, 328.50
364.72, 2.48, 328.99
364.91, 2.45, 329.55
365.11, 2.42, 330.19
365.37, 2.37, 330.99
365.66, 2.32, 331.89
366.02, 2.26, 332.99
366.52, 2.15, 334.53
367.74, 1.70, 338.28
¯369.06, 1.30, 342.32
364.29, 2.52, 327.37
364.40, 2.52, 327.69
364.52, 2.51, 328.05
364.67, 2.50, 328.48
364.83, 2.47, 328.98
365.02, 2.45, 329.54
365.24, 2.41, 330.20
365.51, 2.37, 330.99
365.82, 2.32, 331.90
366.20, 2.25, 333.03
366.73, 2.13, 334.59
368.03, 1.67, 338.42
369.45, 1.26, 342.61
364.38, 2.52, 327.35
364.49, 2.52, 327.67
364.62, 2.51, 328.04
364.77, 2.49, 328.47
364.94, 2.47, 328.97
365.14, 2.45, 329.53
365.38, 2.41, 330.20
365.65, 2.36, 331.00
365.98, 2.31, 331.92
366.38, 2.24, 333.06
366.94, 2.12, 334.64
367.70, 1.94, 336.82
369.85, 1.21, 342.89
364.46, 2.52, 327.33
364.58, 2.52, 327.65
364.71, 2.51, 328.02
364.87, 2.49, 328.46
365.05, 2.47, 328.96
365.26, 2.44, 329.52
365.51, 2.40, 330.21
365.80, 2.36, 331.00
366.13, 2.30, 331.92
366.56, 2.23, 333.09
367.15, 2.10, 334.69
367.96, 1.92, 336.91
370.26, 1.16, 343.17
364.55, 2.52, 327.31
364.66, 2.52, 327.63
364.81, 2.51, 328.01
364.97, 2.49, 328.45
365.16, 2.47, 328.95
365.37, 2.44, 329.51
365.64, 2.40, 330.21
365.94, 2.35, 331.00
366.29, 2.30, 331.93
366.74, 2.22, 333.12
367.35, 2.09, 334.73
¯368.21, 1.90, 337.00
370.67, 1.11, 343.45
364.63, 2.52, 327.29
364.75, 2.52, 327.61
364.90, 2.51, 327.99
365.08, 2.49, 328.43
365.27, 2.46, 328.93
365.49, 2.44, 329.49
365.77, 2.39, 330.20
366.08, 2.35, 330.99
366.45, 2.29, 331.93
366.93, 2.21, 333.14
367.56, 2.08, 334.76
368.48, 1.88, 337.08
364.71, 2.52, 327.27
364.84, 2.52, 327.58
365.00, 2.51, 327.97
365.18, 2.49, 328.41
365.38, 2.46, 328.92
365.61, 2.43, 329.48
365.90, 2.39, 330.19
366.22, 2.34, 330.98
366.61, 2.29, 331.93
367.11, 2.20, 333.16
367.77, 2.07, 334.79
368.74, 1.86, 337.16
364.80, 2.52, 327.24
364.93, 2.52, 327.56
365.09, 2.50, 327.95
365.28, 2.48, 328.39
365.49, 2.46, 328.90
365.73, 2.43, 329.47
366.03, 2.38, 330.18
366.36, 2.34, 330.97
366.77, 2.28, 331.93
367.29, 2.19, 333.16
367.99, 2.06, 334.82
369.01, 1.84, 337.24
364.88, 2.52, 327.22
365.02, 2.52, 327.53
365.19, 2.50, 327.92
365.38, 2.48, 328.37
365.60, 2.46, 328.87
365.85, 2.43, 329.46
366.16, 2.38, 330.17
366.51, 2.33, 330.96
366.92, 2.28, 331.92
367.47, 2.18, 333.17
368.20, 2.05, 334.85
369.28, 1.82, 337.31
364.96, 2.52, 327.19
¯365.10, 2.52, 327.51
365.28, 2.50, 327.90
365.48, 2.48, 328.35
365.71, 2.46, 328.85
365.97, 2.42, 329.44
366.29, 2.38, 330.15
366.65, 2.33, 330.94
367.08, 2.27, 331.91
367.65, 2.18, 333.16
368.42, 2.04, 334.87
369.56, 1.80, 337.39
371.54, 1.34, 341.78
365.04, 2.52, 327.16
365.19, 2.52, 327.48
365.38, 2.50, 327.88
365.58, 2.48, 328.32
365.82, 2.45, 328.82
366.10, 2.42, 329.43
366.42, 2.37, 330.13
366.79, 2.33, 330.93
367.24, 2.26, 331.89
367.84, 2.17, 333.17
368.64, 2.02, 334.89
369.84, 1.78, 337.47
371.93, 1.30, 341.95
365.13, 2.52, 327.13
365.28, 2.52, 327.46
365.47, 2.50, 327.85
365.68, 2.48, 328.30
365.92, 2.45, 328.80
366.22, 2.41, 329.41
366.55, 2.37, 330.11
366.94, 2.32, 330.91
367.40, 2.26, 331.87
368.02, 2.16, 333.17
368.85, 2.01, 334.90
370.12, 1.76, 337.54
372.33, 1.26, 342.12
365.21, 2.52, 327.10
365.37, 2.52, 327.43
365.56, 2.50, 327.82
365.79, 2.47, 328.27
366.03, 2.45, 328.77
366.34, 2.41, 329.38
366.68, 2.37, 330.08
367.08, 2.32, 330.88
367.56, 2.25, 331.86
368.21, 2.15, 333.17
369.07, 2.00, 334.91
370.41, 1.74, 337.60
372.74, 1.23, 342.30
¯365.29, 2.52, 327.07
365.46, 2.52, 327.40
365.66, 2.50, 327.79
365.89, 2.47, 328.24
366.14, 2.45, 328.74
366.46, 2.41, 329.36
366.81, 2.36, 330.06
367.22, 2.31, 330.86
367.72, 2.25, 331.84
368.40, 2.14, 333.16
369.29, 1.99, 334.92
370.69, 1.72, 337.65
373.15, 1.19, 342.46
365.37, 2.52, 327.04
365.54, 2.51, 327.37
365.75, 2.49, 327.76
365.99, 2.47, 328.21
366.25, 2.45, 328.71
366.58, 2.40, 329.33
366.94, 2.36, 330.03
367.36, 2.31, 330.83
367.88, 2.24, 331.82
368.58, 2.13, 333.15
369.51, 1.98, 334.92
370.98, 1.70, 337.70
365.45, 2.52, 327.00
365.63, 2.51, 327.34
365.84, 2.49, 327.73
366.08, 2.47, 328.17
