 VERSION 0.7
FIELDS x y z
SIZE 8 8 8
TYPE F F F
COUNT 1 1 1
WIDTH 2263
HEIGHT 1
VIEWPOINT 418.09, 13.32, 327.72 1 415.66, 10.30, 307.47
POINTS 2263
DATA ascii
408.94, 9.58, 301.97
408.58, 9.71, 301.54
406.48, 9.82, 298.99
406.74, 10.01, 299.33
406.73, 10.19, 299.34
406.42, 10.39, 298.99
406.40, 10.57, 298.99
404.97, 10.88, 297.27
404.94, 11.09, 297.27
404.92, 11.31, 297.27
µ413.08, 8.49, 306.99
413.08, 8.55, 307.00
413.08, 8.62, 307.00
413.06, 8.68, 306.99
413.04, 8.74, 306.97
413.02, 8.79, 306.96
413.01, 8.85, 306.95
412.98, 8.91, 306.93
412.95, 8.97, 306.90
412.92, 9.02, 306.87
412.89, 9.08, 306.84
412.85, 9.14, 306.80
412.80, 9.19, 306.75
412.74, 9.25, 306.69
412.69, 9.30, 306.63
412.60, 9.36, 306.53
412.49, 9.41, 306.41
412.25, 9.45, 306.12
409.58, 9.23, 302.90
409.47, 9.35, 302.79
409.26, 9.46, 302.55
408.93, 9.57, 302.18
408.58, 9.70, 301.77
408.00, 9.83, 301.10
406.64, 9.99, 299.49
406.63, 10.17, 299.51
406.62, 10.35, 299.52
404.71, 10.65, 297.27
404.69, 10.87, 297.27
404.66, 11.09, 297.27
404.64, 11.30, 297.27
413.01, 8.47, 307.00
413.01, 8.54, 307.01
413.01, 8.60, 307.01
412.99, 8.66, 307.00
412.97, 8.72, 306.99
412.96, 8.78, 306.97
412.94, 8.84, 306.96
412.92, 8.90, 306.95
412.89, 8.96, 306.92
412.85, 9.01, 306.88
412.82, 9.07, 306.85
412.78, 9.13, 306.82
412.73, 9.18, 306.77
412.68, 9.24, 306.71
412.62, 9.29, 306.65
412.54, 9.35, 306.56
412.43, 9.40, 306.44
412.21, 9.44, 306.20
409.47, 9.22, 302.96
409.36, 9.33, 302.85
»409.25, 9.45, 302.74
408.93, 9.57, 302.38
408.58, 9.69, 301.99
408.09, 9.82, 301.43
406.54, 9.98, 299.66
406.54, 10.16, 299.67
406.24, 10.35, 299.35
404.42, 10.64, 297.27
404.40, 10.86, 297.27
404.37, 11.08, 297.27
404.35, 11.30, 297.27
412.94, 8.45, 307.01
412.94, 8.52, 307.01
412.94, 8.59, 307.02
412.93, 8.65, 307.01
412.91, 8.71, 307.00
412.89, 8.77, 306.99
412.87, 8.83, 306.97
412.85, 8.89, 306.96
412.82, 8.94, 306.93
412.79, 9.00, 306.90
412.75, 9.06, 306.87
412.71, 9.12, 306.84
412.67, 9.17, 306.79
412.61, 9.23, 306.73
412.55, 9.28, 306.67
412.47, 9.34, 306.59
412.36, 9.39, 306.47
412.18, 9.44, 306.27
409.36, 9.20, 303.03
409.25, 9.32, 302.92
409.13, 9.44, 302.80
408.93, 9.56, 302.59
408.58, 9.68, 302.21
408.17, 9.81, 301.76
406.50, 9.96, 299.88
406.54, 10.14, 299.95
406.58, 10.31, 300.02
406.62, 10.49, 300.08
406.63, 10.66, 300.12
404.08, 11.07, 297.27
404.05, 11.29, 297.27
412.87, 8.44, 307.02
412.87, 8.50, 307.02
412.87, 8.57, 307.03
412.86, 8.63, 307.03
412.84, 8.69, 307.01
412.82, 8.75, 307.00
412.80, 8.81, 306.99
412.78, 8.87, 306.97
412.75, 8.93, 306.95
¹412.72, 8.99, 306.92
412.68, 9.05, 306.89
412.64, 9.10, 306.85
412.60, 9.16, 306.81
412.54, 9.22, 306.75
412.48, 9.27, 306.69
412.41, 9.33, 306.62
412.30, 9.39, 306.50
412.15, 9.44, 306.34
409.24, 9.19, 303.09
409.13, 9.31, 302.98
409.02, 9.43, 302.87
408.90, 9.55, 302.75
408.58, 9.67, 302.42
408.21, 9.80, 302.02
406.57, 9.95, 300.22
406.56, 10.12, 300.23
406.55, 10.30, 300.25
406.54, 10.47, 300.26
406.54, 10.64, 300.27
403.78, 11.06, 297.27
403.75, 11.29, 297.27
412.80, 8.42, 307.03
412.80, 8.48, 307.03
412.79, 8.55, 307.04
412.79, 8.62, 307.04
412.77, 8.68, 307.03
412.75, 8.74, 307.01
412.73, 8.80, 307.00
412.71, 8.86, 306.99
412.68, 8.92, 306.97
412.65, 8.98, 306.94
412.61, 9.03, 306.90
412.57, 9.09, 306.87
412.53, 9.15, 306.83
412.47, 9.21, 306.77
412.41, 9.26, 306.71
412.34, 9.32, 306.65
412.23, 9.38, 306.54
412.11, 9.43, 306.41
409.13, 9.18, 303.15
409.02, 9.29, 303.04
408.90, 9.41, 302.93
408.78, 9.54, 302.82
408.58, 9.66, 302.62
408.21, 9.79, 302.24
406.48, 9.93, 300.38
406.46, 10.10, 300.38
406.44, 10.28, 300.38
406.42, 10.45, 300.38
406.40, 10.63, 300.38
²412.73, 8.40, 307.04
412.72, 8.47, 307.04
412.72, 8.53, 307.04
412.71, 8.60, 307.05
412.70, 8.66, 307.04
412.68, 8.72, 307.03
412.66, 8.79, 307.01
412.64, 8.85, 307.00
412.62, 8.91, 306.99
412.58, 8.96, 306.95
412.54, 9.02, 306.92
412.50, 9.08, 306.89
412.46, 9.14, 306.86
412.40, 9.20, 306.80
412.34, 9.25, 306.74
412.27, 9.31, 306.67
412.16, 9.37, 306.57
412.04, 9.42, 306.44
409.02, 9.16, 303.22
408.90, 9.28, 303.11
408.78, 9.40, 303.00
408.66, 9.53, 302.88
408.53, 9.65, 302.76
408.22, 9.78, 302.46
406.24, 9.92, 300.38
406.22, 10.09, 300.38
406.20, 10.27, 300.38
406.18, 10.44, 300.38
412.65, 8.38, 307.04
412.65, 8.45, 307.05
412.64, 8.52, 307.05
412.64, 8.58, 307.06
412.63, 8.65, 307.05
412.61, 8.71, 307.04
412.59, 8.77, 307.03
412.57, 8.83, 307.01
412.54, 8.89, 307.00
412.51, 8.95, 306.97
412.47, 9.01, 306.94
412.43, 9.07, 306.91
412.39, 9.13, 306.87
412.33, 9.19, 306.82
412.27, 9.24, 306.76
412.20, 9.30, 306.70
412.10, 9.36, 306.60
411.97, 9.42, 306.48
408.91, 9.15, 303.28
408.79, 9.27, 303.18
408.67, 9.39, 303.06
408.54, 9.51, 302.95
408.41, 9.64, 302.83
²408.23, 9.77, 302.67
405.68, 9.90, 300.05
405.67, 10.08, 300.06
402.35, 10.36, 296.68
402.28, 10.60, 296.64
412.58, 8.36, 307.05
412.57, 8.43, 307.06
412.57, 8.50, 307.06
412.56, 8.57, 307.07
412.56, 8.63, 307.07
412.53, 8.69, 307.06
412.51, 8.76, 307.04
412.49, 8.82, 307.03
412.47, 8.88, 307.02
412.44, 8.94, 306.99
412.40, 9.00, 306.96
412.36, 9.06, 306.92
412.32, 9.12, 306.89
412.26, 9.18, 306.84
412.19, 9.23, 306.78
412.12, 9.29, 306.72
412.03, 9.35, 306.63
411.90, 9.41, 306.51
408.79, 9.13, 303.35
408.67, 9.25, 303.24
408.54, 9.37, 303.13
408.41, 9.50, 303.01
408.28, 9.63, 302.89
408.13, 9.76, 302.76
412.50, 8.34, 307.06
412.49, 8.41, 307.07
412.49, 8.48, 307.07
412.49, 8.55, 307.08
412.48, 8.62, 307.08
412.46, 8.68, 307.07
412.44, 8.74, 307.06
412.42, 8.80, 307.04
412.39, 8.87, 307.03
412.37, 8.93, 307.01
412.32, 8.98, 306.98
412.28, 9.04, 306.94
412.24, 9.11, 306.91
412.19, 9.16, 306.87
412.12, 9.22, 306.81
412.05, 9.28, 306.74
411.96, 9.34, 306.67
411.83, 9.40, 306.54
408.66, 9.12, 303.40
408.54, 9.24, 303.29
408.41, 9.36, 303.18
408.27, 9.48, 303.06
´408.12, 9.61, 302.93
407.95, 9.75, 302.78
403.43, 9.85, 298.36
403.22, 10.94, 298.29
403.27, 11.16, 298.36
412.41, 8.31, 307.07
412.41, 8.39, 307.08
412.41, 8.46, 307.08
412.41, 8.53, 307.09
412.40, 8.60, 307.09
412.39, 8.66, 307.08
412.36, 8.72, 307.07
412.34, 8.79, 307.06
412.32, 8.85, 307.04
412.29, 8.91, 307.03
412.25, 8.97, 307.00
412.21, 9.03, 306.96
412.17, 9.09, 306.93
412.12, 9.15, 306.89
412.05, 9.21, 306.83
411.97, 9.27, 306.77
411.90, 9.33, 306.70
411.76, 9.39, 306.58
408.53, 9.10, 303.45
408.40, 9.22, 303.34
408.27, 9.34, 303.23
408.12, 9.47, 303.10
407.95, 9.60, 302.95
407.77, 9.73, 302.80
403.28, 9.83, 298.51
403.10, 10.04, 298.37
403.05, 10.92, 298.43
403.10, 11.14, 298.51
412.32, 8.29, 307.07
412.33, 8.37, 307.09
412.33, 8.44, 307.09
412.32, 8.51, 307.10
412.32, 8.58, 307.10
412.31, 8.64, 307.10
412.29, 8.71, 307.09
412.26, 8.77, 307.07
412.24, 8.83, 307.06
412.22, 8.90, 307.05
412.18, 8.96, 307.01
412.13, 9.02, 306.98
412.09, 9.08, 306.95
412.04, 9.14, 306.91
411.97, 9.20, 306.86
411.90, 9.26, 306.79
411.82, 9.32, 306.73
408.53, 8.97, 303.60
¯408.40, 9.08, 303.50
408.27, 9.20, 303.39
408.12, 9.32, 303.27
407.95, 9.45, 303.13
407.77, 9.58, 302.98
407.59, 9.71, 302.82
403.13, 9.81, 298.67
412.23, 8.26, 307.07
412.25, 8.34, 307.10
412.25, 8.42, 307.10
412.24, 8.49, 307.11
412.24, 8.56, 307.11
412.23, 8.63, 307.12
412.21, 8.69, 307.10
412.18, 8.75, 307.09
412.16, 8.82, 307.07
412.14, 8.88, 307.06
412.10, 8.94, 307.03
412.05, 9.00, 307.00
412.01, 9.07, 306.97
411.96, 9.13, 306.93
411.90, 9.19, 306.88
411.82, 9.25, 306.82
411.74, 9.31, 306.75
408.40, 8.95, 303.66
408.27, 9.07, 303.55
408.12, 9.19, 303.43
407.95, 9.31, 303.29
407.77, 9.43, 303.15
407.59, 9.56, 303.00
407.40, 9.70, 302.85
402.98, 9.79, 298.82
412.14, 8.24, 307.07
412.16, 8.32, 307.10
412.16, 8.39, 307.11
412.16, 8.47, 307.12
412.15, 8.54, 307.12
412.15, 8.61, 307.13
412.13, 8.67, 307.12
412.10, 8.74, 307.10
412.08, 8.80, 307.09
412.06, 8.87, 307.08
412.02, 8.93, 307.05
411.98, 8.99, 307.02
411.93, 9.05, 306.99
411.88, 9.12, 306.95
411.82, 9.18, 306.91
411.74, 9.24, 306.84
408.39, 8.82, 303.81
408.26, 8.93, 303.71
408.12, 9.05, 303.59
¯407.95, 9.17, 303.46
407.78, 9.29, 303.32
407.60, 9.41, 303.18
407.41, 9.55, 303.03
407.21, 9.68, 302.87
412.04, 8.21, 307.07
412.07, 8.29, 307.10
412.08, 8.37, 307.12
412.07, 8.44, 307.13
412.07, 8.52, 307.13
412.06, 8.59, 307.14
412.05, 8.66, 307.13
412.02, 8.72, 307.12
412.00, 8.78, 307.11
411.97, 8.85, 307.09
411.94, 8.92, 307.07
411.90, 8.98, 307.04
411.85, 9.04, 307.01
411.80, 9.10, 306.97
411.74, 9.16, 306.93
408.39, 8.69, 303.96
408.26, 8.80, 303.86
408.12, 8.91, 303.75
407.95, 9.03, 303.62
407.78, 9.14, 303.49
407.60, 9.27, 303.35
407.41, 9.39, 303.20
407.22, 9.53, 303.05
407.02, 9.67, 302.89
406.62, 9.81, 302.57
412.45, 8.39, 307.53
411.97, 8.26, 307.11
411.99, 8.35, 307.13
411.98, 8.42, 307.14
411.98, 8.49, 307.14
411.97, 8.57, 307.15
411.97, 8.64, 307.15
411.94, 8.70, 307.14
411.91, 8.77, 307.12
411.89, 8.83, 307.11
411.86, 8.90, 307.09
411.82, 8.96, 307.06
411.77, 9.02, 307.03
408.52, 8.46, 304.20
408.39, 8.56, 304.11
408.26, 8.67, 304.02
408.12, 8.78, 303.91
407.95, 8.89, 303.78
407.78, 9.00, 303.65
407.60, 9.12, 303.52
407.42, 9.25, 303.38
¯407.23, 9.37, 303.23
407.03, 9.51, 303.08
406.82, 9.65, 302.92
406.60, 9.79, 302.75
412.42, 8.39, 307.58
412.26, 8.39, 307.45
411.89, 8.32, 307.14
411.89, 8.40, 307.15
411.89, 8.47, 307.15
411.88, 8.54, 307.16
411.88, 8.62, 307.16
411.86, 8.68, 307.15
411.83, 8.75, 307.14
411.80, 8.82, 307.12
411.78, 8.88, 307.11
408.64, 8.24, 304.44
408.52, 8.34, 304.35
408.39, 8.44, 304.26
408.26, 8.54, 304.17
408.12, 8.65, 304.06
407.96, 8.76, 303.94
407.79, 8.87, 303.81
407.61, 8.98, 303.68
407.43, 9.10, 303.55
407.24, 9.23, 303.40
407.04, 9.35, 303.26
406.83, 9.49, 303.10
406.62, 9.63, 302.94
406.40, 9.78, 302.78
412.35, 8.37, 307.60
412.23, 8.39, 307.51
411.79, 8.29, 307.14
411.80, 8.37, 307.16
411.80, 8.45, 307.16
411.79, 8.52, 307.17
411.79, 8.59, 307.17
409.17, 7.90, 304.98
408.95, 7.95, 304.81
408.75, 8.02, 304.66
408.64, 8.12, 304.58
408.52, 8.22, 304.49
408.39, 8.31, 304.40
408.27, 8.42, 304.31
408.12, 8.52, 304.21
407.96, 8.62, 304.09
407.79, 8.73, 303.97
407.62, 8.84, 303.84
407.44, 8.96, 303.71
407.25, 9.08, 303.58
407.05, 9.20, 303.43
406.85, 9.33, 303.29
¯406.64, 9.47, 303.13
406.42, 9.61, 302.97
406.14, 9.76, 302.77
412.22, 8.32, 307.57
412.18, 8.38, 307.54
412.03, 8.39, 307.42
410.93, 8.06, 306.52
409.74, 7.75, 305.55
409.55, 7.79, 305.41
409.35, 7.84, 305.25
409.14, 7.90, 305.09
408.92, 7.95, 304.93
408.68, 8.01, 304.75
408.52, 8.10, 304.63
408.39, 8.19, 304.55
408.27, 8.29, 304.46
408.13, 8.39, 304.36
407.96, 8.49, 304.25
407.80, 8.60, 304.13
407.62, 8.71, 304.00
407.44, 8.82, 303.88
407.26, 8.93, 303.74
407.07, 9.06, 303.61
406.87, 9.18, 303.47
406.66, 9.31, 303.32
406.44, 9.45, 303.17
406.19, 9.59, 302.99
412.08, 8.28, 307.54
412.04, 8.33, 307.51
412.00, 8.39, 307.49
409.89, 7.70, 305.79
409.71, 7.75, 305.65
409.52, 7.79, 305.51
409.32, 7.84, 305.37
409.11, 7.90, 305.21
408.88, 7.95, 305.05
408.65, 8.01, 304.87
408.40, 8.07, 304.69
408.27, 8.17, 304.60
408.13, 8.27, 304.51
407.97, 8.37, 304.40
407.80, 8.47, 304.28
407.63, 8.57, 304.16
407.46, 8.68, 304.04
407.27, 8.79, 303.92
407.09, 8.91, 303.79
406.89, 9.03, 303.65
406.68, 9.16, 303.51
406.47, 9.29, 303.36
406.24, 9.43, 303.21
405.84, 9.57, 302.91
¯411.94, 8.23, 307.50
411.90, 8.29, 307.48
410.04, 7.66, 306.01
409.86, 7.70, 305.89
409.68, 7.75, 305.76
409.49, 7.79, 305.62
409.29, 7.84, 305.48
409.08, 7.90, 305.32
408.85, 7.95, 305.16
408.62, 8.01, 305.00
408.37, 8.07, 304.82
408.14, 8.14, 304.65
407.98, 8.24, 304.55
407.82, 8.34, 304.44
407.65, 8.44, 304.32
407.47, 8.55, 304.21
407.29, 8.66, 304.08
407.11, 8.77, 303.96
406.91, 8.89, 303.83
406.71, 9.01, 303.69
406.50, 9.14, 303.55
406.28, 9.27, 303.40
405.90, 9.40, 303.13
405.46, 9.54, 302.83
410.41, 7.61, 306.40
410.18, 7.62, 306.23
410.01, 7.66, 306.11
409.83, 7.70, 305.99
409.65, 7.75, 305.86
409.46, 7.79, 305.73
409.26, 7.84, 305.59
409.05, 7.90, 305.44
408.83, 7.95, 305.28
408.57, 8.00, 305.10
408.28, 8.06, 304.90
408.00, 8.12, 304.71
407.83, 8.21, 304.59
407.66, 8.31, 304.48
407.49, 8.41, 304.37
407.31, 8.52, 304.25
407.13, 8.63, 304.13
406.93, 8.74, 304.00
406.73, 8.86, 303.87
406.52, 8.99, 303.73
406.31, 9.11, 303.59
405.95, 9.24, 303.35
405.53, 9.37, 303.06
405.07, 9.51, 302.74
410.37, 7.61, 306.47
410.14, 7.62, 306.32
409.98, 7.66, 306.20
¯409.81, 7.70, 306.08
409.62, 7.75, 305.96
409.43, 7.79, 305.83
409.23, 7.84, 305.70
409.00, 7.89, 305.54
408.74, 7.93, 305.36
408.47, 7.98, 305.17
408.18, 8.04, 304.97
407.91, 8.10, 304.79
407.68, 8.18, 304.64
407.51, 8.28, 304.53
407.33, 8.39, 304.41
407.15, 8.49, 304.29
406.96, 8.60, 304.17
406.76, 8.72, 304.05
406.55, 8.84, 303.91
406.34, 8.96, 303.78
406.01, 9.08, 303.56
405.59, 9.20, 303.28
405.14, 9.34, 302.98
410.33, 7.60, 306.55
410.12, 7.62, 306.41
409.95, 7.66, 306.30
409.78, 7.70, 306.18
409.60, 7.75, 306.06
409.39, 7.79, 305.92
409.15, 7.83, 305.77
408.91, 7.87, 305.60
408.65, 7.91, 305.43
408.37, 7.96, 305.24
408.09, 8.02, 305.05
407.82, 8.08, 304.87
407.53, 8.15, 304.68
407.35, 8.25, 304.57
407.17, 8.36, 304.46
406.98, 8.46, 304.34
406.78, 8.57, 304.22
406.58, 8.69, 304.09
406.37, 8.81, 303.96
406.07, 8.93, 303.77
405.66, 9.04, 303.50
405.21, 9.17, 303.21
404.73, 9.30, 302.89
410.29, 7.60, 306.63
410.09, 7.62, 306.50
409.92, 7.66, 306.39
409.73, 7.70, 306.27
409.52, 7.73, 306.13
409.30, 7.77, 305.99
409.07, 7.81, 305.83
408.82, 7.85, 305.67
¯408.55, 7.90, 305.50
408.27, 7.94, 305.31
408.00, 8.00, 305.14
407.72, 8.07, 304.96
407.42, 8.13, 304.77
407.19, 8.22, 304.62
407.00, 8.33, 304.51
406.81, 8.43, 304.39
406.61, 8.55, 304.27
406.40, 8.66, 304.14
406.12, 8.78, 303.97
405.72, 8.89, 303.71
405.28, 9.00, 303.43
404.81, 9.13, 303.13
404.31, 9.27, 302.80
410.27, 7.60, 306.72
410.05, 7.61, 306.58
409.86, 7.65, 306.46
409.66, 7.68, 306.33
409.44, 7.71, 306.20
409.22, 7.75, 306.05
408.98, 7.79, 305.90
408.73, 7.83, 305.74
408.46, 7.87, 305.57
408.18, 7.92, 305.39
407.91, 7.98, 305.22
407.63, 8.05, 305.04
407.33, 8.12, 304.86
407.03, 8.19, 304.67
406.84, 8.30, 304.56
406.63, 8.40, 304.44
406.43, 8.52, 304.31
406.18, 8.63, 304.17
405.78, 8.73, 303.92
405.36, 8.84, 303.65
404.90, 8.96, 303.36
404.41, 9.09, 303.06
410.24, 7.60, 306.81
409.98, 7.60, 306.64
409.79, 7.63, 306.52
409.58, 7.66, 306.39
409.37, 7.70, 306.26
409.14, 7.73, 306.12
408.90, 7.77, 305.97
408.64, 7.81, 305.81
408.36, 7.85, 305.64
408.09, 7.91, 305.47
407.82, 7.97, 305.31
407.53, 8.03, 305.13
407.23, 8.10, 304.95
406.90, 8.17, 304.75
¯406.66, 8.27, 304.61
406.46, 8.37, 304.49
406.24, 8.49, 304.36
405.85, 8.58, 304.12
405.43, 8.68, 303.87
404.99, 8.80, 303.60
404.51, 8.92, 303.31
410.22, 7.60, 306.89
409.95, 7.60, 306.73
409.71, 7.61, 306.58
409.51, 7.64, 306.46
409.29, 7.68, 306.33
409.06, 7.71, 306.19
408.81, 7.75, 306.04
408.55, 7.79, 305.88
408.27, 7.83, 305.71
408.00, 7.89, 305.55
407.73, 7.95, 305.39
407.44, 8.01, 305.22
407.13, 8.08, 305.04
406.80, 8.15, 304.84
406.49, 8.23, 304.66
406.28, 8.34, 304.54
405.91, 8.43, 304.32
405.51, 8.53, 304.08
405.08, 8.64, 303.83
404.61, 8.75, 303.55
403.58, 8.82, 302.92
410.19, 7.60, 306.98
409.93, 7.60, 306.82
409.65, 7.59, 306.65
409.43, 7.62, 306.52
409.21, 7.66, 306.39
408.97, 7.69, 306.26
408.72, 7.73, 306.11
408.46, 7.77, 305.95
408.18, 7.81, 305.79
407.92, 7.87, 305.64
407.64, 7.93, 305.48
407.35, 7.99, 305.31
407.03, 8.06, 305.13
406.70, 8.13, 304.93
406.34, 8.21, 304.73
405.98, 8.29, 304.52
405.59, 8.38, 304.29
405.16, 8.48, 304.05
404.71, 8.59, 303.78
403.99, 8.68, 303.36
410.17, 7.60, 307.07
409.91, 7.60, 306.91
409.62, 7.59, 306.75
¯409.35, 7.61, 306.59
409.13, 7.64, 306.46
408.89, 7.67, 306.33
408.64, 7.71, 306.18
408.37, 7.75, 306.03
408.10, 7.80, 305.87
407.83, 7.85, 305.72
407.55, 7.91, 305.57
407.25, 7.97, 305.40
406.93, 8.04, 305.22
406.60, 8.11, 305.03
406.15, 8.17, 304.78
405.67, 8.24, 304.50
405.25, 8.33, 304.27
404.80, 8.43, 304.01
404.32, 8.53, 303.74
401.60, 8.41, 302.13
410.15, 7.60, 307.16
409.89, 7.60, 307.01
409.60, 7.59, 306.84
409.29, 7.59, 306.67
409.05, 7.62, 306.53
408.81, 7.65, 306.40
408.55, 7.69, 306.25
408.28, 7.73, 306.10
408.01, 7.78, 305.96
407.75, 7.83, 305.81
407.46, 7.89, 305.66
407.16, 7.95, 305.49
406.83, 8.02, 305.31
406.47, 8.08, 305.11
405.80, 8.11, 304.73
405.34, 8.18, 304.48
404.90, 8.27, 304.24
404.42, 8.37, 303.98
402.83, 8.35, 303.06
400.91, 8.33, 301.97
410.13, 7.60, 307.24
409.87, 7.60, 307.10
409.58, 7.59, 306.94
409.27, 7.59, 306.77
408.97, 7.60, 306.60
408.73, 7.63, 306.47
408.46, 7.67, 306.33
408.19, 7.71, 306.18
407.93, 7.76, 306.04
407.66, 7.81, 305.90
407.37, 7.87, 305.75
407.06, 7.93, 305.58
406.71, 7.99, 305.39
406.34, 8.06, 305.20
¯405.43, 8.04, 304.69
405.00, 8.12, 304.46
404.53, 8.21, 304.21
403.30, 8.21, 303.52
402.25, 8.27, 302.95
399.93, 8.22, 301.66
410.11, 7.60, 307.33
409.85, 7.60, 307.19
409.56, 7.59, 307.04
409.26, 7.59, 306.87
408.92, 7.59, 306.69
408.64, 7.61, 306.54
408.38, 7.65, 306.40
408.11, 7.69, 306.26
407.85, 7.74, 306.13
407.58, 7.79, 305.99
407.27, 7.85, 305.83
406.94, 7.91, 305.66
406.59, 7.97, 305.48
406.16, 8.02, 305.25
405.09, 7.98, 304.67
404.64, 8.06, 304.43
403.74, 8.09, 303.95
402.78, 8.13, 303.44
401.70, 8.19, 302.87
398.77, 8.08, 301.28
410.09, 7.60, 307.42
409.83, 7.60, 307.28
409.55, 7.59, 307.13
409.24, 7.59, 306.97
408.91, 7.59, 306.79
408.56, 7.59, 306.62
408.29, 7.63, 306.48
408.03, 7.67, 306.35
407.77, 7.72, 306.22
407.47, 7.77, 306.07
407.16, 7.82, 305.91
406.83, 7.88, 305.74
406.47, 7.94, 305.56
405.82, 7.95, 305.22
404.74, 7.91, 304.65
404.16, 7.98, 304.36
403.23, 8.01, 303.87
402.49, 8.09, 303.50
401.10, 8.11, 302.77
398.45, 8.03, 301.38
410.08, 7.60, 307.50
409.81, 7.60, 307.37
409.53, 7.59, 307.23
409.22, 7.59, 307.07
408.89, 7.59, 306.90
¯408.53, 7.58, 306.72
408.21, 7.60, 306.56
407.95, 7.65, 306.43
407.67, 7.70, 306.29
407.37, 7.75, 306.15
407.05, 7.80, 305.99
406.71, 7.85, 305.83
406.35, 7.91, 305.65
405.46, 7.88, 305.19
404.37, 7.84, 304.64
403.65, 7.89, 304.27
402.96, 7.96, 303.93
402.09, 8.02, 303.50
400.43, 8.02, 302.66
395.76, 7.72, 300.25
410.06, 7.60, 307.59
409.80, 7.60, 307.46
409.52, 7.59, 307.32
409.21, 7.59, 307.17
408.88, 7.59, 307.01
408.51, 7.58, 306.83
408.13, 7.58, 306.64
407.86, 7.63, 306.51
407.57, 7.67, 306.37
407.27, 7.72, 306.23
406.94, 7.77, 306.08
406.60, 7.83, 305.91
406.19, 7.88, 305.72
405.08, 7.81, 305.16
404.04, 7.78, 304.65
403.40, 7.84, 304.34
402.69, 7.91, 304.00
401.54, 7.94, 303.44
400.04, 7.96, 302.70
395.26, 7.65, 300.31
410.05, 7.60, 307.68
409.79, 7.60, 307.55
409.50, 7.59, 307.42
409.20, 7.59, 307.27
408.87, 7.59, 307.11
408.50, 7.58, 306.94
408.11, 7.58, 306.75
407.76, 7.60, 306.59
407.47, 7.65, 306.45
407.16, 7.70, 306.31
406.83, 7.75, 306.16
406.48, 7.80, 306.00
405.86, 7.81, 305.70
404.74, 7.74, 305.16
403.87, 7.74, 304.74
403.15, 7.79, 304.41
¯402.41, 7.86, 304.07
401.02, 7.86, 303.40
399.76, 7.91, 302.80
394.74, 7.58, 300.37
410.03, 7.60, 307.76
409.77, 7.60, 307.64
409.49, 7.59, 307.51
409.19, 7.59, 307.37
408.85, 7.59, 307.22
408.49, 7.58, 307.05
408.10, 7.58, 306.87
407.70, 7.59, 306.68
407.37, 7.62, 306.54
407.06, 7.67, 306.40
406.72, 7.72, 306.25
406.36, 7.77, 306.09
405.52, 7.74, 305.69
404.69, 7.72, 305.31
403.77, 7.72, 304.89
402.89, 7.74, 304.48
401.96, 7.79, 304.05
400.87, 7.83, 303.56
399.47, 7.86, 302.91
394.14, 7.50, 300.41
410.02, 7.60, 307.85
409.76, 7.60, 307.73
409.48, 7.59, 307.61
409.18, 7.59, 307.47
408.84, 7.59, 307.32
408.48, 7.58, 307.16
408.10, 7.58, 306.99
407.69, 7.59, 306.81
407.27, 7.60, 306.62
406.95, 7.64, 306.48
406.61, 7.69, 306.34
406.24, 7.75, 306.17
405.28, 7.68, 305.74
404.63, 7.71, 305.45
403.69, 7.70, 305.03
402.62, 7.69, 304.55
401.62, 7.73, 304.11
400.72, 7.80, 303.71
399.18, 7.82, 303.02
394.15, 7.48, 300.74
410.01, 7.60, 307.94
409.75, 7.60, 307.82
409.47, 7.59, 307.70
409.17, 7.59, 307.57
408.84, 7.59, 307.43
408.48, 7.58, 307.27
408.09, 7.58, 307.10
¯407.69, 7.59, 306.93
407.25, 7.59, 306.74
406.85, 7.62, 306.57
406.50, 7.67, 306.42
405.93, 7.67, 306.18
405.23, 7.67, 305.88
404.58, 7.70, 305.60
403.60, 7.68, 305.17
402.35, 7.64, 304.63
401.49, 7.70, 304.26
400.58, 7.77, 303.88
398.88, 7.77, 303.14
394.29, 7.48, 301.12
410.00, 7.60, 308.02
409.74, 7.60, 307.91
409.46, 7.59, 307.80
409.16, 7.59, 307.67
408.83, 7.59, 307.53
408.47, 7.58, 307.38
408.09, 7.58, 307.22
407.69, 7.59, 307.05
407.25, 7.59, 306.87
406.76, 7.59, 306.67
406.39, 7.64, 306.52
405.77, 7.64, 306.26
405.18, 7.66, 306.01
404.54, 7.68, 305.75
403.52, 7.66, 305.32
402.24, 7.62, 304.78
401.36, 7.67, 304.42
400.43, 7.74, 304.04
398.73, 7.73, 303.32
394.45, 7.48, 301.51
409.99, 7.60, 308.11
409.73, 7.60, 308.00
409.45, 7.59, 307.89
409.15, 7.59, 307.77
408.82, 7.59, 307.63
408.47, 7.58, 307.49
408.09, 7.58, 307.34
407.69, 7.59, 307.18
407.25, 7.59, 307.00
406.77, 7.59, 306.81
406.28, 7.61, 306.61
405.72, 7.62, 306.39
405.14, 7.65, 306.15
404.49, 7.67, 305.89
403.44, 7.64, 305.46
402.26, 7.61, 304.99
401.22, 7.64, 304.57
400.21, 7.70, 304.17
¯398.59, 7.70, 303.52
394.62, 7.48, 301.89
409.98, 7.60, 308.19
409.72, 7.60, 308.09
409.45, 7.59, 307.98
409.15, 7.59, 307.87
408.82, 7.59, 307.74
408.46, 7.58, 307.60
408.08, 7.58, 307.45
407.69, 7.59, 307.30
407.25, 7.59, 307.13
406.77, 7.59, 306.94
406.24, 7.60, 306.74
405.68, 7.61, 306.52
405.10, 7.63, 306.29
404.44, 7.66, 306.04
403.36, 7.62, 305.61
402.28, 7.61, 305.20
401.14, 7.62, 304.75
399.97, 7.65, 304.30
398.46, 7.67, 303.71
394.80, 7.49, 302.27
409.98, 7.60, 308.28
409.72, 7.60, 308.18
409.44, 7.59, 308.08
409.14, 7.59, 307.96
408.82, 7.59, 307.84
408.46, 7.58, 307.71
408.08, 7.58, 307.57
407.69, 7.59, 307.42
407.26, 7.59, 307.26
406.78, 7.59, 307.08
406.25, 7.60, 306.88
405.64, 7.60, 306.65
405.05, 7.62, 306.43
404.40, 7.64, 306.19
403.34, 7.61, 305.79
402.31, 7.60, 305.40
401.17, 7.61, 304.97
399.86, 7.62, 304.48
398.10, 7.61, 303.82
394.97, 7.49, 302.63
409.97, 7.60, 308.36
409.71, 7.60, 308.27
409.44, 7.59, 308.17
409.14, 7.59, 308.06
408.81, 7.59, 307.94
408.46, 7.58, 307.82
408.09, 7.58, 307.68
407.69, 7.59, 307.54
407.26, 7.59, 307.38
¯406.79, 7.59, 307.21
406.27, 7.60, 307.02
405.66, 7.60, 306.81
405.01, 7.61, 306.57
404.36, 7.63, 306.34
403.36, 7.60, 305.97
402.33, 7.60, 305.60
401.21, 7.61, 305.20
399.74, 7.60, 304.67
397.71, 7.55, 303.93
395.12, 7.49, 302.99
409.97, 7.60, 308.45
409.71, 7.60, 308.36
409.43, 7.59, 308.26
409.14, 7.59, 308.16
408.81, 7.59, 308.05
408.46, 7.58, 307.92
408.09, 7.58, 307.79
407.70, 7.59, 307.66
407.27, 7.59, 307.51
406.80, 7.59, 307.35
406.28, 7.60, 307.17
405.68, 7.60, 306.96
405.01, 7.60, 306.72
404.32, 7.61, 306.49
403.38, 7.60, 306.16
402.36, 7.60, 305.80
401.24, 7.60, 305.42
399.79, 7.59, 304.91
397.76, 7.54, 304.20
395.27, 7.49, 303.33
409.96, 7.60, 308.53
409.71, 7.60, 308.45
409.43, 7.59, 308.35
409.13, 7.59, 308.25
408.81, 7.59, 308.15
408.46, 7.58, 308.03
408.09, 7.58, 307.91
407.70, 7.59, 307.78
407.28, 7.59, 307.63
406.81, 7.59, 307.48
406.29, 7.60, 307.31
405.70, 7.60, 307.11
405.03, 7.60, 306.89
404.28, 7.60, 306.63
403.40, 7.60, 306.34
402.39, 7.59, 306.00
401.28, 7.60, 305.63
399.86, 7.59, 305.16
397.85, 7.54, 304.48
395.42, 7.49, 303.66
¯409.96, 7.60, 308.62
409.70, 7.60, 308.53
409.43, 7.59, 308.45
409.13, 7.59, 308.35
408.81, 7.59, 308.25
408.47, 7.58, 308.14
408.10, 7.58, 308.02
407.71, 7.59, 307.89
407.28, 7.59, 307.76
406.82, 7.59, 307.61
406.31, 7.60, 307.45
405.72, 7.60, 307.26
405.06, 7.60, 307.05
404.31, 7.60, 306.81
403.43, 7.59, 306.52
402.43, 7.59, 306.20
401.32, 7.60, 305.85
399.93, 7.59, 305.40
397.94, 7.54, 304.76
395.60, 7.49, 304.00
410.29, 7.72, 308.82
409.94, 7.68, 308.70
409.43, 7.59, 308.54
409.14, 7.59, 308.45
408.82, 7.59, 308.35
408.47, 7.58, 308.24
408.10, 7.58, 308.13
407.72, 7.59, 308.01
407.29, 7.59, 307.88
406.83, 7.59, 307.74
406.32, 7.60, 307.59
405.74, 7.60, 307.41
405.08, 7.60, 307.20
404.34, 7.60, 306.98
403.46, 7.59, 306.71
402.46, 7.59, 306.40
401.37, 7.59, 306.06
400.00, 7.59, 305.64
398.07, 7.54, 305.05
395.77, 7.49, 304.34
392.67, 7.42, 303.38
410.32, 7.74, 308.90
410.09, 7.74, 308.84
409.83, 7.73, 308.76
409.56, 7.73, 308.68
409.12, 7.68, 308.55
408.48, 7.58, 308.35
408.11, 7.58, 308.24
407.72, 7.59, 308.13
407.31, 7.59, 308.00
406.85, 7.59, 307.87
¯406.34, 7.60, 307.72
405.76, 7.60, 307.55
405.11, 7.60, 307.36
404.38, 7.60, 307.15
403.51, 7.59, 306.89
402.50, 7.58, 306.59
401.41, 7.59, 306.28
400.08, 7.58, 305.88
398.20, 7.54, 305.33
395.95, 7.50, 304.66
392.96, 7.43, 303.78
410.31, 7.73, 308.98
410.08, 7.73, 308.92
409.83, 7.73, 308.85
409.56, 7.73, 308.77
409.26, 7.73, 308.69
408.94, 7.73, 308.60
408.60, 7.72, 308.50
408.20, 7.72, 308.39
407.70, 7.69, 308.24
407.19, 7.68, 308.10
406.36, 7.60, 307.86
406.14, 7.68, 307.81
405.61, 7.70, 307.66
405.04, 7.72, 307.50
404.30, 7.73, 307.30
403.38, 7.73, 307.04
402.31, 7.72, 306.74
400.16, 7.58, 306.12
398.34, 7.54, 305.61
396.12, 7.50, 304.98
393.24, 7.44, 304.17
410.31, 7.73, 309.06
410.08, 7.73, 309.00
409.83, 7.73, 308.93
409.56, 7.73, 308.86
409.26, 7.73, 308.78
408.95, 7.73, 308.69
408.60, 7.72, 308.60
408.23, 7.72, 308.50
407.83, 7.72, 308.39
407.40, 7.73, 308.28
406.93, 7.73, 308.16
406.40, 7.73, 308.02
405.81, 7.74, 307.86
405.14, 7.74, 307.68
404.35, 7.73, 307.47
403.44, 7.73, 307.22
402.38, 7.72, 306.94
401.19, 7.72, 306.62
398.47, 7.54, 305.88
¯396.30, 7.50, 305.29
393.52, 7.45, 304.55
410.31, 7.73, 309.14
410.08, 7.73, 309.08
409.83, 7.73, 309.01
409.56, 7.73, 308.95
409.27, 7.73, 308.87
408.95, 7.73, 308.79
408.61, 7.72, 308.70
408.24, 7.72, 308.61
407.84, 7.72, 308.51
407.41, 7.73, 308.40
406.95, 7.73, 308.28
406.43, 7.73, 308.15
405.84, 7.74, 308.00
405.17, 7.74, 307.83
404.39, 7.73, 307.63
403.50, 7.73, 307.41
402.46, 7.72, 307.14
401.27, 7.72, 306.84
399.77, 7.71, 306.46
396.47, 7.51, 305.60
393.77, 7.46, 304.91
410.31, 7.73, 309.21
410.08, 7.73, 309.16
409.84, 7.73, 309.10
409.57, 7.73, 309.03
409.27, 7.73, 308.96
408.96, 7.72, 308.89
408.62, 7.72, 308.81
408.25, 7.72, 308.72
407.85, 7.72, 308.62
407.43, 7.72, 308.52
406.97, 7.73, 308.41
406.45, 7.73, 308.28
405.87, 7.74, 308.14
405.21, 7.74, 307.99
404.44, 7.73, 307.80
403.56, 7.73, 307.59
402.53, 7.72, 307.34
401.35, 7.72, 307.05
399.89, 7.71, 306.70
397.94, 7.67, 306.23
394.00, 7.46, 305.26
410.31, 7.73, 309.29
410.08, 7.73, 309.24
409.84, 7.73, 309.18
409.57, 7.73, 309.12
409.28, 7.73, 309.05
408.97, 7.72, 308.98
408.63, 7.72, 308.91
¯408.27, 7.72, 308.82
407.87, 7.72, 308.73
407.45, 7.72, 308.64
406.99, 7.73, 308.53
406.48, 7.73, 308.42
405.90, 7.74, 308.29
405.25, 7.74, 308.14
404.49, 7.73, 307.96
403.62, 7.73, 307.76
402.60, 7.73, 307.53
401.43, 7.72, 307.27
400.02, 7.71, 306.94
398.11, 7.68, 306.50
395.68, 7.63, 305.95
410.31, 7.73, 309.37
410.08, 7.73, 309.32
409.84, 7.73, 309.27
409.58, 7.73, 309.21
409.29, 7.72, 309.14
408.98, 7.72, 309.08
408.65, 7.72, 309.01
408.28, 7.72, 308.93
407.88, 7.72, 308.84
407.47, 7.72, 308.75
407.01, 7.73, 308.66
406.50, 7.73, 308.55
405.93, 7.73, 308.43
405.29, 7.74, 308.29
404.54, 7.73, 308.13
403.68, 7.73, 307.94
402.68, 7.73, 307.72
401.52, 7.72, 307.47
400.15, 7.72, 307.18
398.28, 7.68, 306.77
395.90, 7.64, 306.26
410.31, 7.73, 309.44
410.09, 7.73, 309.40
409.85, 7.73, 309.35
409.58, 7.73, 309.29
409.29, 7.72, 309.23
408.98, 7.72, 309.17
408.66, 7.72, 309.11
408.30, 7.72, 309.03
407.90, 7.72, 308.95
407.49, 7.72, 308.87
407.03, 7.73, 308.78
406.53, 7.73, 308.68
405.97, 7.73, 308.56
405.33, 7.74, 308.44
404.59, 7.74, 308.29
403.74, 7.73, 308.11
¯402.76, 7.73, 307.91
401.60, 7.72, 307.68
400.27, 7.72, 307.41
398.44, 7.69, 307.04
396.13, 7.64, 306.57
393.11, 7.58, 305.95
410.32, 7.73, 309.52
410.09, 7.73, 309.47
409.86, 7.73, 309.43
409.59, 7.73, 309.38
409.30, 7.72, 309.32
408.99, 7.72, 309.27
408.67, 7.72, 309.21
408.31, 7.72, 309.14
407.92, 7.72, 309.06
407.51, 7.72, 308.98
407.06, 7.73, 308.90
406.56, 7.73, 308.81
406.00, 7.73, 308.70
405.37, 7.74, 308.58
404.65, 7.74, 308.44
403.80, 7.73, 308.28
402.83, 7.73, 308.10
401.69, 7.72, 307.88
400.40, 7.72, 307.64
398.61, 7.69, 307.30
396.35, 7.65, 306.86
393.39, 7.59, 306.30
410.32, 7.72, 309.59
410.10, 7.72, 309.55
409.86, 7.73, 309.51
409.60, 7.73, 309.46
409.31, 7.72, 309.41
409.00, 7.72, 309.36
408.69, 7.72, 309.30
408.33, 7.72, 309.24
407.94, 7.72, 309.17
407.53, 7.72, 309.10
407.08, 7.73, 309.02
406.59, 7.73, 308.93
406.04, 7.73, 308.84
405.42, 7.74, 308.73
404.70, 7.74, 308.60
403.87, 7.73, 308.45
402.91, 7.73, 308.28
401.79, 7.72, 308.08
400.52, 7.72, 307.86
398.77, 7.69, 307.55
396.56, 7.65, 307.15
393.67, 7.59, 306.64
410.33, 7.72, 309.67
¯410.10, 7.72, 309.63
409.87, 7.73, 309.59
409.61, 7.72, 309.55
409.32, 7.72, 309.50
409.02, 7.72, 309.45
408.71, 7.72, 309.40
408.35, 7.72, 309.34
407.96, 7.72, 309.28
407.55, 7.72, 309.21
407.11, 7.73, 309.14
406.62, 7.73, 309.06
406.07, 7.73, 308.97
405.46, 7.74, 308.87
404.76, 7.74, 308.76
403.93, 7.73, 308.62
402.99, 7.73, 308.46
401.88, 7.72, 308.28
400.63, 7.72, 308.08
398.94, 7.70, 307.80
396.78, 7.66, 307.44
393.95, 7.60, 306.97
410.33, 7.72, 309.74
410.11, 7.72, 309.71
409.88, 7.73, 309.67
409.62, 7.72, 309.63
409.34, 7.72, 309.59
409.03, 7.72, 309.55
408.72, 7.72, 309.50
408.37, 7.72, 309.44
407.98, 7.72, 309.39
407.58, 7.72, 309.33
407.14, 7.72, 309.26
406.65, 7.73, 309.19
406.11, 7.73, 309.10
405.51, 7.74, 309.01
404.81, 7.74, 308.91
404.00, 7.73, 308.78
403.06, 7.73, 308.64
401.98, 7.72, 308.48
400.74, 7.72, 308.29
399.10, 7.70, 308.04
396.99, 7.66, 307.72
394.22, 7.60, 307.29
410.34, 7.72, 309.82
410.11, 7.72, 309.79
409.89, 7.73, 309.76
409.63, 7.72, 309.72
409.35, 7.72, 309.68
409.04, 7.72, 309.64
408.74, 7.72, 309.60
408.39, 7.72, 309.55
¯408.00, 7.72, 309.49
407.60, 7.72, 309.44
407.16, 7.72, 309.38
406.68, 7.73, 309.31
406.15, 7.73, 309.24
405.55, 7.74, 309.15
404.86, 7.74, 309.06
404.06, 7.73, 308.95
403.14, 7.73, 308.82
402.07, 7.73, 308.67
400.84, 7.72, 308.50
399.25, 7.70, 308.28
397.20, 7.67, 307.99
394.49, 7.61, 307.60
410.34, 7.72, 309.89
410.12, 7.72, 309.86
409.90, 7.72, 309.84
409.64, 7.72, 309.80
409.36, 7.72, 309.77
409.06, 7.72, 309.73
408.76, 7.72, 309.69
408.41, 7.72, 309.65
408.03, 7.72, 309.60
407.63, 7.72, 309.55
407.19, 7.72, 309.49
406.72, 7.73, 309.43
406.19, 7.73, 309.37
405.59, 7.74, 309.29
404.92, 7.74, 309.21
404.13, 7.73, 309.11
403.22, 7.73, 308.99
402.17, 7.73, 308.86
400.95, 7.72, 308.70
399.39, 7.70, 308.51
397.40, 7.67, 308.25
394.75, 7.61, 307.91
410.35, 7.72, 309.97
410.13, 7.72, 309.94
409.91, 7.72, 309.91
409.66, 7.72, 309.89
409.38, 7.72, 309.85
409.08, 7.72, 309.82
408.78, 7.72, 309.79
408.43, 7.72, 309.75
408.05, 7.72, 309.70
407.65, 7.72, 309.66
407.22, 7.72, 309.61
406.75, 7.73, 309.56
406.23, 7.73, 309.50
405.64, 7.73, 309.43
404.97, 7.74, 309.35
¯404.20, 7.74, 309.27
403.30, 7.73, 309.16
402.27, 7.73, 309.04
401.05, 7.72, 308.91
399.54, 7.71, 308.73
397.61, 7.67, 308.51
395.04, 7.62, 308.21
391.59, 7.54, 307.81
410.36, 7.72, 310.04
410.14, 7.72, 310.02
409.92, 7.72, 309.99
409.67, 7.72, 309.97
409.39, 7.72, 309.94
409.09, 7.72, 309.91
408.79, 7.72, 309.88
408.46, 7.72, 309.85
408.08, 7.72, 309.81
407.68, 7.72, 309.77
407.25, 7.72, 309.72
406.79, 7.73, 309.68
406.27, 7.73, 309.62
405.68, 7.73, 309.57
405.03, 7.74, 309.50
404.27, 7.74, 309.42
403.38, 7.73, 309.33
402.36, 7.73, 309.23
401.16, 7.72, 309.11
399.70, 7.71, 308.96
397.81, 7.68, 308.76
395.31, 7.63, 308.50
391.98, 7.56, 308.16
410.37, 7.72, 310.11
410.15, 7.72, 310.09
409.93, 7.72, 310.07
409.68, 7.72, 310.05
409.41, 7.72, 310.03
409.11, 7.72, 310.00
408.81, 7.72, 309.97
408.48, 7.72, 309.94
408.11, 7.72, 309.91
407.71, 7.72, 309.88
407.29, 7.72, 309.84
406.82, 7.73, 309.80
406.31, 7.73, 309.75
405.73, 7.73, 309.70
405.09, 7.74, 309.64
404.34, 7.74, 309.58
403.46, 7.73, 309.50
402.46, 7.73, 309.41
401.26, 7.72, 309.30
399.85, 7.71, 309.17
¯398.01, 7.68, 309.01
395.57, 7.63, 308.78
392.36, 7.57, 308.49
410.38, 7.72, 310.18
410.16, 7.72, 310.17
409.94, 7.72, 310.15
409.70, 7.72, 310.13
409.43, 7.72, 310.11
409.13, 7.71, 310.09
408.83, 7.72, 310.07
408.50, 7.72, 310.04
408.13, 7.72, 310.01
407.74, 7.72, 309.98
407.32, 7.72, 309.95
406.86, 7.72, 309.92
406.35, 7.73, 309.88
405.78, 7.73, 309.83
405.14, 7.74, 309.79
404.41, 7.74, 309.73
403.54, 7.73, 309.66
402.55, 7.73, 309.59
401.38, 7.72, 309.49
400.01, 7.72, 309.39
398.20, 7.69, 309.25
395.83, 7.64, 309.06
392.72, 7.57, 308.82
410.39, 7.71, 310.26
410.17, 7.71, 310.24
409.95, 7.72, 310.23
409.72, 7.72, 310.21
409.44, 7.72, 310.20
409.15, 7.71, 310.18
408.85, 7.72, 310.16
408.53, 7.72, 310.14
408.16, 7.72, 310.11
407.77, 7.72, 310.09
407.35, 7.72, 310.06
406.90, 7.72, 310.03
406.39, 7.73, 310.00
405.83, 7.73, 309.97
405.20, 7.74, 309.93
404.47, 7.74, 309.88
403.62, 7.73, 309.82
402.65, 7.73, 309.76
401.50, 7.72, 309.69
400.15, 7.72, 309.60
398.39, 7.69, 309.48
396.10, 7.65, 309.33
393.05, 7.58, 309.13
410.40, 7.71, 310.33
410.19, 7.71, 310.32
¯409.97, 7.72, 310.31
409.73, 7.72, 310.30
409.46, 7.72, 310.28
409.17, 7.71, 310.27
408.87, 7.72, 310.25
408.56, 7.72, 310.23
408.19, 7.72, 310.22
407.80, 7.72, 310.19
407.39, 7.72, 310.17
406.93, 7.72, 310.15
406.44, 7.73, 310.12
405.88, 7.73, 310.10
405.26, 7.74, 310.06
404.54, 7.74, 310.03
403.71, 7.73, 309.98
402.74, 7.73, 309.93
401.62, 7.72, 309.87
400.29, 7.72, 309.80
398.58, 7.70, 309.71
396.37, 7.66, 309.59
393.36, 7.59, 309.43
410.42, 7.71, 310.40
410.20, 7.71, 310.39
409.98, 7.71, 310.38
409.75, 7.72, 310.38
409.48, 7.72, 310.36
409.19, 7.71, 310.35
408.89, 7.71, 310.34
408.58, 7.72, 310.33
408.22, 7.72, 310.31
407.83, 7.72, 310.30
407.42, 7.72, 310.28
406.97, 7.72, 310.27
406.48, 7.73, 310.25
405.93, 7.73, 310.22
405.31, 7.74, 310.20
404.61, 7.74, 310.17
403.79, 7.73, 310.14
402.84, 7.73, 310.10
401.73, 7.73, 310.06
400.43, 7.72, 310.01
398.77, 7.70, 309.94
396.62, 7.66, 309.85
393.68, 7.59, 309.72
410.43, 7.71, 310.47
410.22, 7.71, 310.47
409.99, 7.71, 310.46
409.77, 7.72, 310.46
409.50, 7.72, 310.45
409.22, 7.71, 310.44
408.92, 7.71, 310.43
¯408.61, 7.72, 310.42
408.25, 7.72, 310.41
407.87, 7.72, 310.40
407.46, 7.72, 310.39
407.01, 7.72, 310.38
406.52, 7.73, 310.37
405.98, 7.73, 310.35
405.37, 7.73, 310.34
404.68, 7.74, 310.32
403.87, 7.74, 310.30
402.94, 7.73, 310.27
401.85, 7.73, 310.24
400.57, 7.72, 310.20
398.95, 7.70, 310.16
396.86, 7.67, 310.10
393.99, 7.60, 310.01
410.44, 7.71, 310.54
410.23, 7.71, 310.54
410.01, 7.71, 310.54
409.78, 7.72, 310.53
409.52, 7.72, 310.53
409.24, 7.71, 310.53
408.94, 7.71, 310.52
408.64, 7.72, 310.52
408.29, 7.72, 310.51
407.90, 7.72, 310.51
407.50, 7.72, 310.50
407.05, 7.72, 310.49
406.57, 7.73, 310.49
406.03, 7.73, 310.48
405.43, 7.73, 310.47
404.75, 7.74, 310.46
403.96, 7.74, 310.45
403.03, 7.73, 310.43
401.97, 7.73, 310.42
400.71, 7.72, 310.40
399.12, 7.70, 310.37
397.09, 7.67, 310.34
394.29, 7.60, 310.29
410.46, 7.71, 310.62
410.25, 7.71, 310.61
410.03, 7.71, 310.61
409.80, 7.72, 310.61
409.55, 7.72, 310.61
409.26, 7.71, 310.61
408.96, 7.71, 310.61
408.66, 7.72, 310.61
408.32, 7.72, 310.61
407.94, 7.71, 310.61
407.53, 7.72, 310.61
407.10, 7.72, 310.61
µ406.62, 7.72, 310.61
406.08, 7.73, 310.60
405.49, 7.73, 310.60
404.82, 7.74, 310.60
404.04, 7.74, 310.60
403.13, 7.73, 310.60
402.08, 7.73, 310.59
400.83, 7.72, 310.59
399.29, 7.71, 310.58
397.33, 7.68, 310.57
394.59, 7.61, 310.56
422.00, 8.04, 308.38
422.01, 8.13, 308.38
422.01, 8.21, 308.39
422.02, 8.29, 308.39
422.02, 8.38, 308.40
423.19, 8.17, 307.95
423.17, 8.27, 307.96
423.16, 8.38, 307.98
423.14, 8.48, 307.99
423.12, 8.58, 308.01
423.11, 8.68, 308.02
423.09, 8.77, 308.04
423.47, 8.81, 307.90
424.03, 8.83, 307.69
422.47, 9.14, 308.30
422.47, 9.22, 308.31
423.05, 9.25, 308.09
423.28, 9.32, 308.01
423.29, 9.42, 308.02
423.30, 9.51, 308.02
423.31, 9.61, 308.03
423.32, 9.70, 308.03
423.33, 9.80, 308.04
423.34, 9.89, 308.04
423.35, 9.99, 308.05
423.36, 10.08, 308.05
422.98, 10.17, 308.20
422.82, 10.25, 308.27
422.68, 10.33, 308.33
422.69, 10.42, 308.33
422.70, 10.50, 308.33
421.94, 8.06, 308.32
421.95, 8.14, 308.32
421.96, 8.22, 308.33
421.96, 8.31, 308.33
421.96, 8.39, 308.34
423.38, 8.12, 307.77
423.36, 8.23, 307.79
423.34, 8.33, 307.80
423.33, 8.44, 307.82
º423.31, 8.54, 307.83
423.29, 8.64, 307.85
423.28, 8.75, 307.86
423.49, 8.81, 307.79
424.21, 8.81, 307.51
422.52, 9.13, 308.19
422.51, 9.22, 308.20
423.09, 9.25, 307.98
423.16, 9.34, 307.96
423.17, 9.43, 307.96
423.18, 9.52, 307.97
423.19, 9.62, 307.97
423.20, 9.71, 307.98
423.21, 9.81, 307.98
423.22, 9.90, 307.99
423.23, 9.99, 307.99
423.26, 10.09, 307.99
423.40, 10.19, 307.94
422.86, 10.26, 308.16
422.71, 10.34, 308.22
422.58, 10.42, 308.28
422.59, 10.50, 308.28
421.89, 8.07, 308.26
421.89, 8.16, 308.26
421.90, 8.24, 308.27
421.90, 8.32, 308.27
421.91, 8.40, 308.28
423.58, 8.07, 307.58
423.56, 8.18, 307.60
423.54, 8.29, 307.62
423.53, 8.40, 307.63
423.51, 8.50, 307.65
423.49, 8.61, 307.66
423.47, 8.71, 307.68
423.50, 8.81, 307.68
424.23, 8.81, 307.39
422.57, 9.13, 308.08
422.56, 9.22, 308.09
423.03, 9.26, 307.90
423.04, 9.35, 307.91
423.05, 9.44, 307.91
423.06, 9.54, 307.92
423.07, 9.63, 307.92
423.08, 9.72, 307.92
423.09, 9.81, 307.93
423.10, 9.91, 307.93
423.18, 10.00, 307.91
423.33, 10.10, 307.86
423.48, 10.20, 307.81
422.89, 10.27, 308.05
422.74, 10.35, 308.12
¸422.60, 10.43, 308.18
422.48, 10.50, 308.23
421.83, 8.09, 308.20
421.84, 8.17, 308.20
421.84, 8.25, 308.21
421.85, 8.33, 308.21
421.91, 8.40, 308.20
423.79, 8.02, 307.38
423.78, 8.13, 307.40
423.76, 8.24, 307.42
423.74, 8.35, 307.43
423.72, 8.46, 307.45
423.70, 8.57, 307.47
423.68, 8.68, 307.48
423.67, 8.79, 307.50
424.25, 8.81, 307.26
422.62, 9.13, 307.96
422.62, 9.22, 307.97
422.92, 9.27, 307.85
422.93, 9.37, 307.86
422.94, 9.46, 307.86
422.95, 9.55, 307.86
422.96, 9.64, 307.87
422.97, 9.73, 307.87
422.98, 9.82, 307.88
423.11, 9.91, 307.83
423.25, 10.01, 307.78
423.40, 10.11, 307.73
423.55, 10.21, 307.67
423.66, 10.31, 307.64
422.77, 10.36, 308.01
422.63, 10.44, 308.07
422.49, 10.52, 308.14
421.78, 8.10, 308.14
421.78, 8.18, 308.15
421.79, 8.27, 308.15
421.79, 8.35, 308.16
421.90, 8.40, 308.11
424.02, 7.96, 307.17
424.00, 8.08, 307.18
423.98, 8.19, 307.20
423.96, 8.31, 307.22
423.95, 8.42, 307.24
423.93, 8.53, 307.26
423.91, 8.65, 307.28
423.89, 8.76, 307.29
424.27, 8.81, 307.13
422.67, 9.12, 307.84
422.67, 9.21, 307.85
422.81, 9.29, 307.80
422.82, 9.38, 307.81
¹422.83, 9.47, 307.81
422.84, 9.56, 307.81
422.85, 9.65, 307.82
422.91, 9.74, 307.80
423.04, 9.83, 307.75
423.18, 9.92, 307.70
423.32, 10.02, 307.64
423.48, 10.12, 307.59
423.72, 10.23, 307.49
423.72, 10.33, 307.50
422.66, 10.45, 307.97
422.52, 10.53, 308.03
421.73, 8.11, 308.08
421.73, 8.20, 308.09
421.73, 8.28, 308.09
421.74, 8.36, 308.10
421.89, 8.40, 308.03
424.27, 7.89, 306.93
424.25, 8.02, 306.95
424.23, 8.14, 306.97
424.21, 8.26, 306.99
424.19, 8.38, 307.01
424.17, 8.49, 307.03
424.15, 8.61, 307.05
424.13, 8.72, 307.07
424.29, 8.81, 307.00
422.73, 9.12, 307.72
422.72, 9.21, 307.73
422.72, 9.30, 307.74
422.72, 9.39, 307.75
422.72, 9.48, 307.76
422.73, 9.57, 307.76
422.84, 9.66, 307.72
422.97, 9.74, 307.67
423.11, 9.83, 307.62
423.25, 9.93, 307.56
423.40, 10.03, 307.50
423.55, 10.13, 307.45
435.23, 10.66, 302.32
422.55, 10.54, 307.93
421.67, 8.13, 308.02
421.68, 8.21, 308.03
421.68, 8.29, 308.03
421.69, 8.37, 308.04
421.88, 8.40, 307.95
424.54, 7.83, 306.69
424.51, 7.95, 306.71
424.49, 8.08, 306.73
424.47, 8.20, 306.75
424.45, 8.33, 306.77
424.43, 8.45, 306.79
»424.40, 8.57, 306.81
424.38, 8.69, 306.83
424.36, 8.80, 306.85
422.62, 9.13, 307.68
422.63, 9.22, 307.68
422.64, 9.31, 307.68
422.65, 9.40, 307.69
422.65, 9.49, 307.69
422.66, 9.58, 307.69
422.67, 9.67, 307.70
422.68, 9.76, 307.70
422.69, 9.85, 307.71
422.70, 9.94, 307.71
422.71, 10.03, 307.71
422.71, 10.12, 307.72
422.72, 10.21, 307.72
422.73, 10.30, 307.73
422.74, 10.39, 307.73
421.62, 8.14, 307.97
421.62, 8.22, 307.97
421.63, 8.30, 307.98
421.63, 8.38, 307.98
425.79, 7.37, 305.93
424.82, 7.75, 306.42
424.80, 7.88, 306.44
424.78, 8.01, 306.46
424.75, 8.14, 306.49
424.73, 8.27, 306.51
424.71, 8.40, 306.53
424.68, 8.52, 306.55
424.66, 8.65, 306.57
424.64, 8.77, 306.59
422.52, 9.15, 307.63
422.52, 9.24, 307.63
422.53, 9.33, 307.64
422.54, 9.41, 307.64
422.55, 9.50, 307.64
422.56, 9.59, 307.65
422.57, 9.68, 307.65
422.57, 9.77, 307.65
422.58, 9.86, 307.66
422.59, 9.94, 307.66
422.60, 10.03, 307.67
422.61, 10.12, 307.67
422.61, 10.21, 307.67
422.62, 10.30, 307.68
422.63, 10.39, 307.68
422.64, 10.48, 307.68
422.65, 10.57, 307.69
421.57, 8.15, 307.91
421.57, 8.23, 307.92
¶421.57, 8.32, 307.92
421.58, 8.40, 307.92
425.72, 7.38, 305.82
425.14, 7.67, 306.13
425.11, 7.81, 306.15
425.08, 7.94, 306.18
425.06, 8.08, 306.20
425.03, 8.21, 306.22
425.01, 8.34, 306.25
424.98, 8.47, 306.27
424.96, 8.60, 306.29
424.93, 8.73, 306.32
422.41, 9.16, 307.58
422.42, 9.25, 307.59
422.43, 9.34, 307.59
422.44, 9.43, 307.59
422.45, 9.51, 307.60
422.45, 9.60, 307.60
422.46, 9.69, 307.60
422.47, 9.78, 307.61
422.48, 9.86, 307.61
422.48, 9.95, 307.61
422.49, 10.04, 307.62
422.50, 10.13, 307.62
422.51, 10.22, 307.63
422.52, 10.30, 307.63
422.52, 10.39, 307.63
422.53, 10.48, 307.64
422.54, 10.57, 307.64
421.63, 8.13, 307.79
421.62, 8.22, 307.81
421.60, 8.30, 307.82
421.58, 8.39, 307.84
426.08, 7.28, 305.48
426.05, 7.44, 305.51
425.44, 7.72, 305.84
425.42, 7.87, 305.87
425.39, 8.01, 305.89
425.36, 8.15, 305.92
425.34, 8.28, 305.94
425.31, 8.42, 305.97
425.28, 8.55, 305.99
422.31, 9.09, 307.53
422.31, 9.18, 307.54
422.32, 9.26, 307.54
422.33, 9.35, 307.54
422.34, 9.44, 307.55
422.34, 9.52, 307.55
422.35, 9.61, 307.55
422.36, 9.70, 307.56
422.37, 9.78, 307.56
½422.37, 9.87, 307.56
422.38, 9.96, 307.57
422.39, 10.04, 307.57
422.40, 10.13, 307.57
422.41, 10.22, 307.58
422.41, 10.31, 307.58
422.42, 10.39, 307.59
422.43, 10.48, 307.59
422.44, 10.57, 307.59
423.14, 7.63, 306.88
423.37, 7.67, 306.77
423.61, 7.71, 306.65
425.69, 7.24, 305.53
426.33, 7.21, 305.19
426.82, 7.24, 304.94
425.81, 7.63, 305.50
425.78, 7.78, 305.53
425.75, 7.93, 305.55
425.72, 8.08, 305.58
425.69, 8.22, 305.61
425.66, 8.36, 305.63
425.64, 8.50, 305.66
422.21, 9.11, 307.49
422.21, 9.19, 307.49
422.22, 9.28, 307.50
422.23, 9.36, 307.50
422.24, 9.45, 307.50
422.24, 9.53, 307.51
422.25, 9.62, 307.51
422.26, 9.71, 307.51
422.27, 9.79, 307.52
422.27, 9.88, 307.52
422.28, 9.96, 307.52
422.29, 10.05, 307.53
422.30, 10.14, 307.53
422.30, 10.22, 307.53
422.31, 10.31, 307.54
422.32, 10.40, 307.54
422.33, 10.48, 307.54
422.33, 10.57, 307.55
423.09, 7.64, 306.80
423.32, 7.67, 306.68
423.58, 7.71, 306.54
425.58, 7.26, 305.44
426.26, 7.22, 305.07
426.75, 7.25, 304.81
427.17, 7.31, 304.59
426.18, 7.69, 305.15
426.15, 7.84, 305.18
426.12, 8.00, 305.21
426.08, 8.15, 305.24
½426.05, 8.30, 305.27
426.02, 8.44, 305.30
422.11, 9.12, 307.45
422.12, 9.20, 307.45
422.13, 9.29, 307.45
422.13, 9.37, 307.46
422.14, 9.46, 307.46
422.15, 9.54, 307.46
422.15, 9.63, 307.46
422.16, 9.71, 307.47
422.17, 9.80, 307.47
422.18, 9.88, 307.47
422.18, 9.97, 307.48
422.19, 10.06, 307.48
422.20, 10.14, 307.48
422.20, 10.23, 307.49
422.21, 10.31, 307.49
422.22, 10.40, 307.49
422.23, 10.48, 307.50
422.23, 10.57, 307.50
423.05, 7.64, 306.71
423.28, 7.68, 306.59
423.55, 7.71, 306.44
425.47, 7.28, 305.35
426.19, 7.23, 304.95
426.68, 7.26, 304.68
427.28, 7.27, 304.35
427.26, 7.44, 304.38
426.33, 7.80, 304.92
426.34, 7.95, 304.93
426.35, 8.10, 304.93
426.48, 8.23, 304.87
426.45, 8.38, 304.90
422.02, 9.13, 307.40
422.02, 9.22, 307.41
422.03, 9.30, 307.41
422.04, 9.39, 307.41
422.04, 9.47, 307.42
422.05, 9.55, 307.42
422.06, 9.64, 307.42
422.06, 9.72, 307.42
422.07, 9.81, 307.43
422.08, 9.89, 307.43
422.09, 9.98, 307.43
422.09, 10.06, 307.44
422.10, 10.15, 307.44
422.11, 10.23, 307.44
422.11, 10.32, 307.45
422.12, 10.40, 307.45
422.13, 10.49, 307.45
422.14, 10.57, 307.46
¶423.00, 7.65, 306.63
423.25, 7.68, 306.49
423.52, 7.71, 306.34
425.36, 7.31, 305.26
426.12, 7.24, 304.83
426.63, 7.26, 304.54
427.24, 7.28, 304.20
428.80, 7.10, 303.30
426.23, 7.82, 304.81
426.24, 7.97, 304.82
426.25, 8.11, 304.83
426.95, 8.15, 304.43
426.91, 8.31, 304.47
421.92, 9.15, 307.36
421.93, 9.23, 307.36
421.94, 9.31, 307.37
421.94, 9.40, 307.37
421.95, 9.48, 307.37
421.96, 9.56, 307.38
421.96, 9.65, 307.38
421.97, 9.73, 307.38
421.98, 9.81, 307.38
421.98, 9.90, 307.39
421.99, 9.98, 307.39
422.00, 10.07, 307.39
422.00, 10.15, 307.40
422.01, 10.23, 307.40
422.02, 10.32, 307.40
422.02, 10.40, 307.41
422.03, 10.49, 307.41
422.04, 10.57, 307.41
422.97, 7.65, 306.53
423.22, 7.68, 306.39
423.52, 7.70, 306.22
425.24, 7.33, 305.18
426.05, 7.25, 304.71
426.59, 7.27, 304.39
427.25, 7.27, 304.01
428.79, 7.09, 303.10
426.13, 7.83, 304.71
426.14, 7.98, 304.71
426.15, 8.13, 304.72
427.91, 7.99, 303.69
427.85, 8.17, 303.73
421.83, 9.16, 307.32
421.84, 9.24, 307.32
421.84, 9.32, 307.33
421.85, 9.41, 307.33
421.86, 9.49, 307.33
421.86, 9.57, 307.33
421.87, 9.66, 307.34
½421.88, 9.74, 307.34
421.88, 9.82, 307.34
421.89, 9.90, 307.35
421.90, 9.99, 307.35
421.90, 10.07, 307.35
421.91, 10.15, 307.35
421.92, 10.24, 307.36
421.92, 10.32, 307.36
421.93, 10.40, 307.36
421.94, 10.49, 307.37
421.94, 10.57, 307.37
422.94, 7.65, 306.44
423.19, 7.68, 306.29
423.52, 7.69, 306.09
425.13, 7.35, 305.10
426.00, 7.26, 304.57
426.54, 7.27, 304.25
427.27, 7.26, 303.81
428.77, 7.09, 302.90
426.04, 7.85, 304.60
426.04, 8.00, 304.61
426.05, 8.14, 304.62
428.51, 7.89, 303.12
421.73, 9.09, 307.28
421.74, 9.17, 307.28
421.75, 9.25, 307.28
421.75, 9.34, 307.28
421.76, 9.42, 307.29
421.77, 9.50, 307.29
421.77, 9.58, 307.29
421.78, 9.66, 307.30
421.79, 9.75, 307.30
421.79, 9.83, 307.30
421.80, 9.91, 307.30
421.81, 9.99, 307.31
421.81, 10.08, 307.31
421.82, 10.16, 307.31
421.82, 10.24, 307.32
421.83, 10.32, 307.32
421.84, 10.41, 307.32
421.84, 10.49, 307.32
421.85, 10.57, 307.33
422.91, 7.65, 306.34
423.16, 7.68, 306.19
423.52, 7.69, 305.97
425.01, 7.38, 305.03
425.95, 7.26, 304.44
426.49, 7.27, 304.11
427.28, 7.24, 303.62
428.75, 7.08, 302.70
425.94, 7.87, 304.49
½425.94, 8.01, 304.50
425.95, 8.16, 304.51
433.50, 7.06, 299.78
421.65, 9.10, 307.24
421.65, 9.18, 307.24
421.66, 9.26, 307.24
421.67, 9.35, 307.24
421.67, 9.43, 307.25
421.68, 9.51, 307.25
421.68, 9.59, 307.25
421.69, 9.67, 307.26
421.70, 9.75, 307.26
421.70, 9.84, 307.26
421.71, 9.92, 307.26
421.71, 10.00, 307.27
421.72, 10.08, 307.27
421.73, 10.16, 307.27
421.73, 10.24, 307.27
421.74, 10.33, 307.28
421.75, 10.41, 307.28
421.75, 10.49, 307.28
421.76, 10.57, 307.29
422.88, 7.65, 306.25
423.13, 7.68, 306.09
423.51, 7.68, 305.85
424.88, 7.40, 304.96
425.77, 7.30, 304.39
426.02, 7.38, 304.23
427.29, 7.23, 303.42
428.67, 7.09, 302.53
425.84, 7.88, 304.39
425.85, 8.03, 304.40
425.85, 8.17, 304.41
433.50, 7.05, 299.48
421.56, 9.11, 307.20
421.57, 9.19, 307.20
421.57, 9.28, 307.20
421.58, 9.36, 307.20
421.58, 9.44, 307.21
421.59, 9.52, 307.21
421.60, 9.60, 307.21
421.60, 9.68, 307.22
421.61, 9.76, 307.22
421.61, 9.84, 307.22
421.62, 9.92, 307.22
421.63, 10.00, 307.23
421.63, 10.08, 307.23
421.64, 10.17, 307.23
421.64, 10.25, 307.23
421.65, 10.33, 307.24
421.66, 10.41, 307.24
¹421.66, 10.49, 307.24
421.67, 10.57, 307.25
422.84, 7.65, 306.15
423.09, 7.68, 305.99
423.50, 7.67, 305.72
424.76, 7.43, 304.89
425.68, 7.31, 304.28
425.98, 7.38, 304.09
427.30, 7.22, 303.22
425.74, 7.75, 304.28
425.74, 7.89, 304.29
425.75, 8.04, 304.29
425.76, 8.19, 304.30
433.50, 7.05, 299.18
421.47, 9.13, 307.16
421.48, 9.21, 307.16
421.49, 9.29, 307.16
421.49, 9.37, 307.17
421.50, 9.45, 307.17
421.50, 9.53, 307.17
421.51, 9.61, 307.17
421.52, 9.69, 307.18
421.52, 9.77, 307.18
421.53, 9.85, 307.18
421.53, 9.93, 307.18
421.54, 10.01, 307.19
421.54, 10.09, 307.19
421.55, 10.17, 307.19
421.56, 10.25, 307.19
421.56, 10.33, 307.20
421.57, 10.41, 307.20
421.57, 10.49, 307.20
421.58, 10.57, 307.21
422.81, 7.65, 306.06
423.06, 7.68, 305.89
423.49, 7.66, 305.60
424.63, 7.45, 304.82
425.58, 7.33, 304.18
425.66, 7.46, 304.14
425.66, 7.61, 304.15
425.64, 7.76, 304.18
425.65, 7.91, 304.18
425.65, 8.05, 304.19
425.68, 8.20, 304.18
425.70, 8.34, 304.18
421.39, 9.14, 307.12
421.40, 9.22, 307.12
421.40, 9.30, 307.12
421.41, 9.38, 307.13
421.41, 9.46, 307.13
421.42, 9.54, 307.13
¿421.42, 9.62, 307.14
421.43, 9.69, 307.14
421.44, 9.77, 307.14
421.44, 9.85, 307.14
421.45, 9.93, 307.15
421.45, 10.01, 307.15
421.46, 10.09, 307.15
421.46, 10.17, 307.15
421.47, 10.25, 307.16
