ŸVERSION 0.7
FIELDS x y z
SIZE 8 8 8
TYPE F F F
COUNT 1 1 1
WIDTH 2271
HEIGHT 1
VIEWPOINT 419.14, 13.89, 320.17 1 404.22, 7.46, 332.86
POINTS 2271
DATA ascii
398.08, 5.60, 322.85
397.62, 5.58, 322.33
395.85, 5.19, 320.27
395.74, 5.32, 320.16
395.63, 5.45, 320.05
395.52, 5.58, 319.94
395.41, 5.72, 319.82
395.29, 5.86, 319.70
395.17, 6.00, 319.58
395.05, 6.14, 319.46
394.93, 6.29, 319.33
394.80, 6.45, 319.20
394.67, 6.60, 319.06
394.53, 6.76, 318.93
400.78, 5.40, 325.99
400.68, 5.41, 325.88
400.57, 5.41, 325.76
400.46, 5.41, 325.64
400.34, 5.42, 325.51
400.23, 5.43, 325.39
400.12, 5.45, 325.27
400.00, 5.46, 325.13
399.87, 5.48, 324.99
399.74, 5.50, 324.84
399.59, 5.51, 324.69
399.44, 5.53, 324.52
399.28, 5.55, 324.34
399.10, 5.57, 324.14
398.89, 5.59, 323.91
398.66, 5.60, 323.66
398.41, 5.62, 323.38
398.01, 5.60, 322.93
397.54, 5.57, 322.42
395.66, 5.16, 320.29
395.55, 5.29, 320.18
395.44, 5.42, 320.07
395.32, 5.56, 319.95
395.21, 5.69, 319.83
395.09, 5.83, 319.71
394.97, 5.98, 319.59
394.84, 6.12, 319.47
394.71, 6.27, 319.34
394.58, 6.42, 319.21
394.45, 6.58, 319.07
394.32, 6.75, 318.94
400.74, 5.40, 326.03
¯400.63, 5.40, 325.92
400.52, 5.40, 325.80
400.41, 5.41, 325.68
400.30, 5.42, 325.57
400.19, 5.43, 325.45
400.08, 5.45, 325.32
399.95, 5.46, 325.19
399.83, 5.48, 325.05
399.69, 5.50, 324.91
399.54, 5.51, 324.75
399.39, 5.53, 324.59
399.23, 5.55, 324.41
399.05, 5.58, 324.22
398.84, 5.59, 324.00
398.62, 5.61, 323.76
398.34, 5.62, 323.46
397.93, 5.59, 323.02
397.47, 5.57, 322.51
395.47, 5.13, 320.31
395.36, 5.26, 320.19
395.24, 5.39, 320.08
395.13, 5.53, 319.97
395.00, 5.67, 319.85
394.88, 5.81, 319.73
394.76, 5.95, 319.60
394.63, 6.10, 319.48
394.50, 6.25, 319.35
394.37, 6.40, 319.22
394.24, 6.56, 319.10
394.10, 6.73, 318.96
400.69, 5.40, 326.07
400.59, 5.40, 325.96
400.48, 5.40, 325.85
400.37, 5.41, 325.73
400.26, 5.42, 325.62
400.15, 5.43, 325.50
400.03, 5.45, 325.38
399.91, 5.46, 325.25
399.78, 5.48, 325.12
399.64, 5.50, 324.97
399.50, 5.51, 324.82
399.34, 5.53, 324.66
399.18, 5.55, 324.48
399.00, 5.58, 324.30
398.80, 5.59, 324.09
398.57, 5.61, 323.85
398.27, 5.61, 323.53
397.86, 5.59, 323.10
397.39, 5.56, 322.60
395.66, 5.21, 320.73
395.16, 5.23, 320.21
¯395.04, 5.36, 320.10
394.92, 5.50, 319.98
394.80, 5.64, 319.86
394.67, 5.78, 319.74
394.54, 5.93, 319.61
394.41, 6.07, 319.49
394.29, 6.23, 319.37
394.15, 6.38, 319.24
394.02, 6.55, 319.12
393.88, 6.71, 318.98
400.65, 5.39, 326.11
400.55, 5.40, 326.01
400.44, 5.40, 325.89
400.33, 5.41, 325.78
400.22, 5.42, 325.67
400.11, 5.43, 325.56
399.99, 5.45, 325.44
399.87, 5.46, 325.31
399.74, 5.48, 325.18
399.60, 5.50, 325.04
399.45, 5.51, 324.89
399.30, 5.53, 324.73
399.13, 5.55, 324.56
398.95, 5.58, 324.38
398.76, 5.60, 324.18
398.53, 5.61, 323.94
398.21, 5.61, 323.61
397.79, 5.59, 323.18
397.32, 5.56, 322.69
396.07, 5.34, 321.38
394.96, 5.20, 320.23
394.84, 5.33, 320.11
394.72, 5.47, 319.99
394.59, 5.61, 319.87
394.46, 5.75, 319.76
394.33, 5.90, 319.64
394.20, 6.05, 319.52
394.07, 6.21, 319.39
393.94, 6.36, 319.27
393.80, 6.53, 319.14
393.65, 6.69, 319.00
400.61, 5.39, 326.16
400.51, 5.39, 326.05
400.39, 5.39, 325.94
400.29, 5.41, 325.83
400.18, 5.42, 325.73
400.07, 5.43, 325.61
399.95, 5.45, 325.50
399.83, 5.46, 325.37
399.70, 5.48, 325.24
399.56, 5.50, 325.10
¯399.41, 5.51, 324.95
399.25, 5.53, 324.80
399.08, 5.55, 324.63
398.90, 5.58, 324.45
398.71, 5.60, 324.26
398.49, 5.62, 324.04
398.14, 5.61, 323.69
397.73, 5.58, 323.26
397.24, 5.55, 322.78
396.44, 5.46, 321.96
394.76, 5.17, 320.24
394.63, 5.30, 320.13
394.51, 5.44, 320.01
394.38, 5.58, 319.90
394.25, 5.73, 319.78
394.12, 5.88, 319.66
393.99, 6.03, 319.54
393.85, 6.18, 319.42
393.71, 6.34, 319.29
393.57, 6.51, 319.16
393.42, 6.67, 319.02
400.57, 5.39, 326.20
400.46, 5.39, 326.09
400.36, 5.40, 325.99
400.25, 5.41, 325.89
400.14, 5.42, 325.78
400.03, 5.43, 325.67
399.91, 5.45, 325.55
399.79, 5.46, 325.43
399.65, 5.48, 325.30
399.51, 5.50, 325.16
399.36, 5.51, 325.02
399.20, 5.53, 324.87
399.04, 5.55, 324.70
398.86, 5.58, 324.53
398.66, 5.60, 324.34
398.45, 5.62, 324.13
398.08, 5.60, 323.77
397.66, 5.58, 323.35
397.17, 5.55, 322.87
396.60, 5.52, 322.31
394.55, 5.14, 320.26
394.43, 5.27, 320.15
394.30, 5.41, 320.04
394.17, 5.56, 319.92
394.04, 5.70, 319.81
393.91, 5.85, 319.69
393.77, 6.00, 319.56
393.63, 6.16, 319.44
393.49, 6.32, 319.31
393.34, 6.49, 319.18
¯393.18, 6.66, 319.04
400.54, 5.39, 326.24
400.42, 5.39, 326.13
400.32, 5.40, 326.04
400.22, 5.41, 325.94
400.11, 5.42, 325.83
399.99, 5.43, 325.73
399.87, 5.45, 325.61
399.74, 5.46, 325.49
399.61, 5.48, 325.36
399.47, 5.50, 325.23
399.32, 5.51, 325.09
399.16, 5.53, 324.93
398.99, 5.55, 324.77
398.81, 5.58, 324.60
398.61, 5.60, 324.41
398.39, 5.62, 324.21
398.02, 5.60, 323.85
397.59, 5.57, 323.44
397.10, 5.55, 322.96
396.53, 5.52, 322.41
394.34, 5.10, 320.28
394.22, 5.24, 320.17
394.09, 5.38, 320.06
393.95, 5.53, 319.94
393.82, 5.67, 319.82
393.68, 5.82, 319.70
393.54, 5.98, 319.58
393.39, 6.14, 319.45
393.24, 6.30, 319.32
393.09, 6.47, 319.18
392.93, 6.64, 319.05
400.74, 5.53, 326.52
400.38, 5.38, 326.18
400.28, 5.39, 326.09
400.18, 5.41, 325.99
400.07, 5.42, 325.89
399.95, 5.43, 325.78
399.83, 5.45, 325.67
399.70, 5.46, 325.55
399.56, 5.48, 325.42
399.42, 5.49, 325.29
399.27, 5.51, 325.15
399.11, 5.53, 325.00
398.93, 5.55, 324.84
398.75, 5.57, 324.66
398.55, 5.59, 324.48
398.32, 5.61, 324.27
397.96, 5.60, 323.93
397.53, 5.57, 323.53
397.04, 5.55, 323.06
¯396.37, 5.49, 322.43
394.13, 5.07, 320.30
394.00, 5.21, 320.19
393.86, 5.35, 320.07
393.72, 5.49, 319.96
393.58, 5.64, 319.84
393.44, 5.80, 319.71
393.29, 5.95, 319.59
393.14, 6.11, 319.46
392.99, 6.27, 319.33
392.83, 6.44, 319.19
392.67, 6.62, 319.05
400.70, 5.53, 326.56
400.35, 5.38, 326.23
400.24, 5.39, 326.13
400.13, 5.40, 326.04
400.02, 5.42, 325.93
399.91, 5.43, 325.83
399.78, 5.44, 325.72
399.65, 5.46, 325.60
399.51, 5.47, 325.47
399.37, 5.49, 325.34
399.22, 5.51, 325.20
399.05, 5.53, 325.06
398.88, 5.55, 324.90
398.69, 5.57, 324.73
398.49, 5.59, 324.55
398.25, 5.60, 324.33
397.91, 5.59, 324.01
397.47, 5.57, 323.62
396.98, 5.54, 323.16
396.00, 5.41, 322.26
393.97, 5.05, 320.38
393.77, 5.17, 320.21
393.63, 5.32, 320.09
393.49, 5.46, 319.97
393.35, 5.61, 319.85
393.20, 5.77, 319.73
393.05, 5.92, 319.60
392.89, 6.08, 319.47
392.73, 6.25, 319.34
390.55, 6.24, 317.34
390.35, 6.44, 317.17
400.67, 5.53, 326.61
400.56, 5.53, 326.51
400.20, 5.39, 326.18
400.09, 5.40, 326.08
399.98, 5.41, 325.98
399.86, 5.43, 325.88
399.74, 5.44, 325.77
399.60, 5.45, 325.65
¯399.47, 5.47, 325.53
399.32, 5.49, 325.40
399.16, 5.50, 325.26
399.00, 5.52, 325.12
398.82, 5.54, 324.96
398.63, 5.56, 324.79
398.43, 5.58, 324.62
398.17, 5.59, 324.38
397.85, 5.59, 324.10
397.41, 5.57, 323.71
396.91, 5.54, 323.26
395.60, 5.32, 322.07
393.88, 5.04, 320.52
393.54, 5.14, 320.23
393.40, 5.28, 320.11
393.25, 5.43, 319.99
393.10, 5.58, 319.87
392.95, 5.74, 319.74
392.79, 5.89, 319.61
392.63, 6.06, 319.48
390.44, 6.01, 317.53
390.24, 6.21, 317.36
390.03, 6.42, 317.19
400.64, 5.53, 326.65
400.53, 5.53, 326.55
400.41, 5.53, 326.45
400.05, 5.40, 326.13
399.94, 5.41, 326.03
399.82, 5.42, 325.93
399.69, 5.44, 325.82
399.56, 5.45, 325.71
399.42, 5.47, 325.58
399.27, 5.48, 325.46
399.11, 5.50, 325.32
398.94, 5.52, 325.18
398.77, 5.54, 325.02
398.58, 5.56, 324.86
398.36, 5.58, 324.67
398.10, 5.58, 324.44
397.80, 5.59, 324.18
397.36, 5.57, 323.80
396.85, 5.54, 323.36
395.18, 5.23, 321.88
393.80, 5.04, 320.67
393.31, 5.10, 320.25
393.16, 5.25, 320.13
393.01, 5.40, 320.01
392.85, 5.55, 319.88
392.70, 5.71, 319.76
390.53, 5.59, 317.87
390.33, 5.78, 317.71
¯390.13, 5.98, 317.55
389.92, 6.18, 317.38
389.70, 6.39, 317.20
400.61, 5.53, 326.70
400.50, 5.53, 326.60
400.38, 5.53, 326.50
400.01, 5.39, 326.18
399.89, 5.41, 326.08
399.77, 5.42, 325.98
399.65, 5.43, 325.87
399.51, 5.45, 325.76
399.37, 5.46, 325.64
399.22, 5.48, 325.51
399.06, 5.50, 325.38
398.89, 5.51, 325.24
398.71, 5.53, 325.09
398.52, 5.55, 324.92
398.29, 5.57, 324.73
398.02, 5.58, 324.50
397.73, 5.58, 324.26
397.30, 5.57, 323.89
396.79, 5.54, 323.46
394.72, 5.13, 321.67
393.72, 5.04, 320.82
393.07, 5.06, 320.27
392.91, 5.21, 320.15
392.76, 5.36, 320.03
392.60, 5.52, 319.90
390.43, 5.36, 318.05
390.23, 5.55, 317.89
390.02, 5.75, 317.73
389.81, 5.95, 317.56
389.59, 6.15, 317.39
389.36, 6.37, 317.21
400.58, 5.53, 326.74
400.47, 5.53, 326.65
400.34, 5.53, 326.55
400.22, 5.53, 326.44
399.85, 5.40, 326.13
399.73, 5.42, 326.03
399.60, 5.43, 325.92
399.47, 5.44, 325.81
399.32, 5.46, 325.70
399.17, 5.47, 325.57
399.01, 5.49, 325.44
398.84, 5.51, 325.30
398.66, 5.53, 325.15
398.46, 5.55, 324.99
398.22, 5.56, 324.79
397.95, 5.57, 324.56
397.65, 5.58, 324.32
¯397.25, 5.56, 323.99
396.74, 5.54, 323.56
394.49, 5.08, 321.67
393.64, 5.04, 320.96
392.82, 5.02, 320.29
392.66, 5.17, 320.17
390.64, 4.97, 318.48
390.31, 5.13, 318.22
390.10, 5.32, 318.06
389.89, 5.51, 317.90
389.67, 5.71, 317.73
389.45, 5.91, 317.56
389.22, 6.12, 317.38
388.98, 6.34, 317.20
400.55, 5.53, 326.79
400.43, 5.53, 326.69
400.31, 5.53, 326.59
400.19, 5.53, 326.49
400.07, 5.53, 326.39
399.69, 5.41, 326.08
399.56, 5.43, 325.98
399.42, 5.44, 325.87
399.28, 5.45, 325.75
399.12, 5.47, 325.63
398.96, 5.49, 325.50
398.79, 5.50, 325.36
398.60, 5.52, 325.21
398.40, 5.54, 325.05
398.15, 5.55, 324.85
397.87, 5.56, 324.63
397.57, 5.57, 324.38
397.19, 5.56, 324.08
396.68, 5.53, 323.66
394.41, 5.08, 321.80
393.56, 5.03, 321.11
392.55, 4.98, 320.29
391.59, 4.97, 319.52
390.37, 4.94, 318.53
389.97, 5.09, 318.22
389.76, 5.28, 318.06
389.54, 5.47, 317.89
389.31, 5.67, 317.72
389.08, 5.88, 317.55
388.84, 6.09, 317.37
388.60, 6.31, 317.19
400.52, 5.53, 326.83
400.40, 5.53, 326.74
400.28, 5.53, 326.64
400.16, 5.53, 326.54
400.03, 5.53, 326.45
399.90, 5.53, 326.34
¯399.51, 5.42, 326.03
399.38, 5.44, 325.92
399.23, 5.45, 325.81
399.07, 5.47, 325.69
398.91, 5.48, 325.56
398.74, 5.50, 325.42
398.55, 5.52, 325.28
398.34, 5.53, 325.11
398.08, 5.54, 324.91
397.80, 5.55, 324.69
397.49, 5.56, 324.45
397.14, 5.56, 324.17
396.62, 5.53, 323.76
394.34, 5.08, 321.94
393.48, 5.03, 321.26
392.45, 4.97, 320.45
391.44, 4.95, 319.65
390.10, 4.90, 318.59
389.62, 5.04, 318.22
389.40, 5.23, 318.06
389.17, 5.43, 317.89
388.94, 5.63, 317.72
388.70, 5.84, 317.54
388.47, 6.06, 317.38
388.24, 6.28, 317.21
400.49, 5.53, 326.87
400.37, 5.53, 326.79
400.25, 5.52, 326.69
400.13, 5.53, 326.60
400.00, 5.53, 326.50
399.87, 5.54, 326.40
399.47, 5.42, 326.08
399.33, 5.43, 325.98
399.18, 5.45, 325.87
399.03, 5.46, 325.75
398.86, 5.48, 325.62
398.69, 5.50, 325.49
398.50, 5.51, 325.34
398.27, 5.52, 325.17
398.01, 5.53, 324.97
397.73, 5.54, 324.75
397.41, 5.55, 324.51
397.07, 5.55, 324.25
396.57, 5.53, 323.86
394.27, 5.08, 322.07
393.41, 5.03, 321.41
392.37, 4.97, 320.61
391.29, 4.94, 319.78
389.83, 4.87, 318.65
389.27, 4.99, 318.23
389.04, 5.19, 318.06
¯388.80, 5.39, 317.89
388.56, 5.59, 317.72
388.34, 5.81, 317.56
388.11, 6.03, 317.40
387.87, 6.25, 317.23
400.46, 5.53, 326.92
400.35, 5.53, 326.83
400.22, 5.52, 326.74
400.10, 5.53, 326.65
399.97, 5.53, 326.55
399.84, 5.54, 326.45
399.70, 5.54, 326.35
399.29, 5.43, 326.03
399.14, 5.44, 325.92
398.98, 5.46, 325.81
398.81, 5.47, 325.68
398.63, 5.49, 325.55
398.45, 5.51, 325.41
398.20, 5.52, 325.23
397.94, 5.52, 325.03
397.65, 5.53, 324.82
397.34, 5.54, 324.58
396.99, 5.54, 324.32
396.51, 5.53, 323.97
394.20, 5.07, 322.21
393.33, 5.03, 321.56
392.29, 4.97, 320.77
391.14, 4.92, 319.91
389.55, 4.83, 318.71
388.90, 4.94, 318.23
388.66, 5.14, 318.06
388.44, 5.35, 317.91
388.21, 5.56, 317.75
387.97, 5.77, 317.59
387.73, 5.99, 317.42
387.48, 6.22, 317.24
400.43, 5.53, 326.97
400.32, 5.53, 326.88
400.19, 5.52, 326.79
400.07, 5.53, 326.70
399.94, 5.53, 326.61
399.81, 5.54, 326.51
399.67, 5.54, 326.41
399.52, 5.55, 326.30
399.09, 5.44, 325.98
398.93, 5.45, 325.87
398.76, 5.47, 325.74
398.58, 5.49, 325.61
398.39, 5.50, 325.47
398.14, 5.51, 325.29
397.87, 5.51, 325.09
¯397.58, 5.52, 324.88
397.26, 5.53, 324.65
396.91, 5.53, 324.39
396.36, 5.50, 323.99
394.13, 5.07, 322.34
393.26, 5.03, 321.70
392.20, 4.97, 320.93
390.99, 4.91, 320.04
389.27, 4.79, 318.78
388.53, 4.89, 318.24
388.30, 5.10, 318.09
388.07, 5.30, 317.93
387.83, 5.52, 317.77
387.58, 5.73, 317.60
387.32, 5.96, 317.43
387.06, 6.19, 317.25
400.41, 5.53, 327.01
400.29, 5.53, 326.93
400.16, 5.52, 326.84
400.04, 5.53, 326.75
399.91, 5.53, 326.66
399.78, 5.54, 326.57
399.64, 5.54, 326.46
399.49, 5.55, 326.36
399.32, 5.55, 326.24
398.89, 5.45, 325.93
398.72, 5.47, 325.81
398.54, 5.48, 325.68
398.32, 5.49, 325.53
398.07, 5.50, 325.35
397.80, 5.50, 325.16
397.51, 5.51, 324.95
397.18, 5.52, 324.72
396.82, 5.52, 324.46
396.07, 5.44, 323.93
394.07, 5.07, 322.48
393.19, 5.02, 321.85
392.13, 4.96, 321.09
390.84, 4.89, 320.17
389.08, 4.77, 318.91
388.16, 4.84, 318.26
387.92, 5.05, 318.11
387.68, 5.26, 317.94
387.43, 5.47, 317.78
387.17, 5.69, 317.61
386.90, 5.92, 317.43
386.64, 6.16, 317.26
400.38, 5.53, 327.06
400.26, 5.53, 326.97
400.13, 5.52, 326.89
400.01, 5.53, 326.80
¯399.89, 5.53, 326.71
399.75, 5.54, 326.62
399.61, 5.54, 326.52
399.45, 5.55, 326.42
399.29, 5.55, 326.30
399.11, 5.55, 326.18
398.67, 5.46, 325.87
398.49, 5.48, 325.74
398.26, 5.49, 325.59
398.01, 5.49, 325.41
397.73, 5.49, 325.22
397.43, 5.50, 325.01
397.10, 5.51, 324.79
396.73, 5.51, 324.53
395.77, 5.37, 323.86
394.00, 5.07, 322.61
393.12, 5.02, 322.00
392.05, 4.96, 321.25
390.69, 4.87, 320.31
388.99, 4.77, 319.12
387.77, 4.79, 318.28
387.52, 5.00, 318.12
387.27, 5.21, 317.96
387.01, 5.43, 317.79
386.74, 5.65, 317.62
386.49, 5.89, 317.45
386.22, 6.13, 317.28
400.35, 5.53, 327.10
400.23, 5.53, 327.02
400.11, 5.52, 326.94
399.99, 5.53, 326.85
399.86, 5.53, 326.77
399.72, 5.54, 326.68
399.58, 5.54, 326.58
399.42, 5.55, 326.48
399.26, 5.55, 326.37
399.08, 5.55, 326.24
398.62, 5.46, 325.93
398.44, 5.47, 325.81
398.20, 5.48, 325.65
397.94, 5.48, 325.47
397.67, 5.49, 325.29
397.36, 5.49, 325.08
397.01, 5.49, 324.84
396.61, 5.49, 324.57
395.46, 5.31, 323.79
393.94, 5.07, 322.75
393.06, 5.02, 322.15
391.97, 4.96, 321.42
390.62, 4.87, 320.50
388.90, 4.76, 319.33
¯387.37, 4.74, 318.30
387.12, 4.95, 318.14
386.85, 5.16, 317.97
386.59, 5.39, 317.81
386.33, 5.61, 317.65
386.07, 5.85, 317.48
385.80, 6.09, 317.31
400.33, 5.53, 327.15
400.21, 5.52, 327.07
400.08, 5.52, 326.99
399.96, 5.53, 326.91
399.83, 5.53, 326.82
399.69, 5.54, 326.73
399.55, 5.54, 326.64
399.39, 5.55, 326.54
399.23, 5.55, 326.43
399.05, 5.55, 326.31
398.85, 5.56, 326.18
398.38, 5.46, 325.87
398.14, 5.47, 325.71
397.88, 5.47, 325.54
397.59, 5.47, 325.35
397.26, 5.47, 325.13
396.89, 5.47, 324.89
396.49, 5.47, 324.62
395.13, 5.23, 323.72
393.88, 5.07, 322.88
392.99, 5.02, 322.30
391.90, 4.95, 321.58
390.56, 4.87, 320.69
388.81, 4.76, 319.54
386.96, 4.68, 318.32
386.70, 4.90, 318.16
386.44, 5.12, 318.00
386.18, 5.34, 317.84
385.90, 5.57, 317.67
385.62, 5.81, 317.50
385.32, 6.06, 317.31
400.30, 5.53, 327.20
400.18, 5.52, 327.12
400.06, 5.52, 327.04
399.93, 5.53, 326.96
399.80, 5.53, 326.88
399.67, 5.54, 326.79
399.52, 5.54, 326.70
399.36, 5.55, 326.60
399.20, 5.55, 326.49
399.01, 5.55, 326.37
398.82, 5.56, 326.25
398.61, 5.56, 326.11
398.08, 5.46, 325.77
¯397.81, 5.46, 325.59
397.50, 5.46, 325.40
397.16, 5.45, 325.18
396.78, 5.45, 324.94
396.28, 5.42, 324.62
394.79, 5.16, 323.65
393.81, 5.06, 323.02
392.93, 5.02, 322.45
391.84, 4.95, 321.75
390.49, 4.87, 320.89
388.73, 4.76, 319.75
386.54, 4.63, 318.34
386.27, 4.84, 318.18
386.00, 5.06, 318.02
385.72, 5.29, 317.85
385.43, 5.53, 317.68
385.13, 5.77, 317.50
384.82, 6.02, 317.31
400.28, 5.53, 327.24
400.15, 5.52, 327.16
400.03, 5.52, 327.09
399.91, 5.53, 327.01
399.78, 5.53, 326.93
399.64, 5.54, 326.84
399.49, 5.54, 326.75
399.34, 5.55, 326.66
399.16, 5.55, 326.55
398.98, 5.55, 326.43
398.78, 5.56, 326.31
398.57, 5.56, 326.18
398.35, 5.56, 326.04
397.72, 5.44, 325.64
397.40, 5.44, 325.45
397.05, 5.43, 325.23
396.67, 5.43, 324.99
396.07, 5.38, 324.62
394.52, 5.10, 323.63
393.76, 5.06, 323.16
392.86, 5.02, 322.60
391.78, 4.96, 321.92
390.43, 4.87, 321.08
388.65, 4.76, 319.96
386.13, 4.57, 318.38
385.82, 4.78, 318.20
385.53, 5.01, 318.03
385.24, 5.24, 317.86
384.94, 5.48, 317.68
384.64, 5.73, 317.51
384.34, 5.98, 317.34
400.25, 5.53, 327.29
400.13, 5.52, 327.21
¯400.01, 5.52, 327.14
399.88, 5.53, 327.06
399.75, 5.53, 326.99
399.61, 5.54, 326.90
399.46, 5.54, 326.81
399.31, 5.55, 326.72
399.13, 5.55, 326.61
398.95, 5.55, 326.50
398.75, 5.55, 326.38
398.54, 5.56, 326.25
398.31, 5.56, 326.11
397.62, 5.42, 325.69
397.30, 5.42, 325.50
396.95, 5.41, 325.28
396.55, 5.41, 325.04
395.85, 5.33, 324.61
394.46, 5.10, 323.76
393.70, 5.06, 323.29
392.80, 5.01, 322.75
391.73, 4.96, 322.10
390.37, 4.87, 321.27
388.56, 4.75, 320.17
386.02, 4.56, 318.62
385.35, 4.72, 318.22
385.05, 4.95, 318.05
384.74, 5.19, 317.87
384.45, 5.43, 317.71
384.16, 5.69, 317.54
383.85, 5.95, 317.37
400.23, 5.53, 327.34
400.10, 5.52, 327.26
399.98, 5.52, 327.19
399.86, 5.53, 327.12
399.73, 5.53, 327.04
399.59, 5.54, 326.96
399.44, 5.54, 326.87
399.28, 5.55, 326.78
399.10, 5.55, 326.67
398.92, 5.55, 326.56
398.72, 5.55, 326.45
398.51, 5.56, 326.32
398.28, 5.56, 326.19
398.00, 5.56, 326.03
397.20, 5.40, 325.55
396.84, 5.39, 325.33
396.40, 5.38, 325.07
395.63, 5.28, 324.61
394.41, 5.10, 323.89
393.64, 5.06, 323.43
392.74, 5.01, 322.90
391.68, 4.96, 322.27
¯390.31, 4.87, 321.46
388.48, 4.75, 320.38
385.92, 4.56, 318.86
384.85, 4.66, 318.23
384.56, 4.90, 318.07
384.27, 5.14, 317.91
383.95, 5.39, 317.73
383.63, 5.64, 317.55
383.29, 5.90, 317.37
400.21, 5.53, 327.38
400.08, 5.52, 327.31
399.96, 5.53, 327.24
399.83, 5.53, 327.17
399.70, 5.53, 327.09
399.56, 5.54, 327.01
399.41, 5.54, 326.93
399.25, 5.55, 326.84
399.07, 5.55, 326.73
398.88, 5.55, 326.63
398.69, 5.55, 326.51
398.47, 5.56, 326.39
398.24, 5.56, 326.26
397.95, 5.55, 326.09
397.10, 5.38, 325.60
396.73, 5.37, 325.39
396.21, 5.33, 325.08
395.40, 5.23, 324.61
394.36, 5.10, 324.01
393.59, 5.06, 323.57
392.68, 5.01, 323.05
391.61, 4.96, 322.43
390.26, 4.88, 321.65
388.42, 4.75, 320.59
385.82, 4.55, 319.09
384.35, 4.60, 318.25
384.04, 4.84, 318.09
383.72, 5.08, 317.91
383.39, 5.33, 317.74
383.05, 5.59, 317.55
400.18, 5.53, 327.43
400.05, 5.52, 327.36
399.93, 5.53, 327.29
399.81, 5.53, 327.22
399.68, 5.53, 327.15
399.54, 5.54, 327.07
399.39, 5.54, 326.99
399.23, 5.55, 326.90
399.04, 5.54, 326.80
398.85, 5.55, 326.69
398.65, 5.55, 326.58
398.44, 5.56, 326.46
¯398.21, 5.56, 326.33
397.91, 5.55, 326.16
397.51, 5.51, 325.94
396.62, 5.35, 325.44
396.00, 5.29, 325.09
395.15, 5.18, 324.61
394.30, 5.10, 324.14
393.53, 5.06, 323.71
392.63, 5.01, 323.20
391.55, 4.95, 322.60
390.20, 4.88, 321.84
388.36, 4.75, 320.81
385.72, 4.55, 319.33
383.82, 4.53, 318.27
383.49, 4.77, 318.10
383.16, 5.02, 317.92
400.16, 5.53, 327.48
400.03, 5.52, 327.41
399.91, 5.53, 327.34
399.79, 5.53, 327.28
399.65, 5.53, 327.20
399.51, 5.54, 327.13
399.36, 5.54, 327.05
399.20, 5.55, 326.96
399.01, 5.54, 326.86
398.82, 5.55, 326.76
398.62, 5.55, 326.65
398.41, 5.56, 326.53
398.18, 5.56, 326.41
397.86, 5.54, 326.23
397.45, 5.51, 326.01
396.51, 5.33, 325.50
395.80, 5.24, 325.10
394.92, 5.13, 324.63
394.25, 5.10, 324.26
393.48, 5.06, 323.84
392.57, 5.01, 323.35
391.50, 4.95, 322.77
390.15, 4.88, 322.03
388.30, 4.75, 321.03
385.66, 4.55, 319.59
383.26, 4.46, 318.29
382.92, 4.70, 318.11
400.14, 5.52, 327.53
400.01, 5.52, 327.46
399.89, 5.53, 327.40
399.76, 5.53, 327.33
399.63, 5.53, 327.26
399.49, 5.54, 327.18
399.34, 5.54, 327.11
399.17, 5.54, 327.02
¯398.98, 5.54, 326.92
398.79, 5.55, 326.82
398.59, 5.55, 326.72
398.38, 5.55, 326.60
398.14, 5.56, 326.48
397.81, 5.54, 326.30
397.40, 5.50, 326.09
396.94, 5.46, 325.84
395.58, 5.19, 325.12
394.88, 5.13, 324.75
394.21, 5.10, 324.39
393.43, 5.05, 323.98
392.52, 5.01, 323.50
391.44, 4.95, 322.93
390.10, 4.88, 322.22
388.24, 4.75, 321.24
385.61, 4.55, 319.85
400.12, 5.52, 327.57
399.99, 5.52, 327.51
399.87, 5.53, 327.45
399.74, 5.53, 327.38
399.61, 5.53, 327.31
399.46, 5.54, 327.24
399.31, 5.54, 327.17
399.14, 5.54, 327.08
398.95, 5.54, 326.98
398.77, 5.55, 326.89
398.56, 5.55, 326.78
398.35, 5.55, 326.67
398.11, 5.56, 326.55
397.77, 5.53, 326.38
397.35, 5.50, 326.16
396.89, 5.46, 325.93
395.42, 5.16, 325.17
394.83, 5.13, 324.86
394.16, 5.09, 324.52
393.38, 5.05, 324.12
392.47, 5.01, 323.65
391.38, 4.95, 323.10
390.04, 4.88, 322.41
388.19, 4.75, 321.46
385.55, 4.55, 320.11
400.09, 5.52, 327.62
399.97, 5.52, 327.56
399.85, 5.53, 327.50
399.72, 5.53, 327.44
399.58, 5.53, 327.37
399.44, 5.54, 327.30
399.29, 5.54, 327.22
399.11, 5.54, 327.14
398.93, 5.54, 327.05
¯398.74, 5.54, 326.95
398.53, 5.55, 326.85
398.32, 5.55, 326.74
398.08, 5.55, 326.62
397.72, 5.53, 326.45
397.31, 5.49, 326.24
396.84, 5.45, 326.01
395.38, 5.16, 325.28
394.79, 5.13, 324.98
394.11, 5.09, 324.65
393.33, 5.05, 324.26
392.41, 5.01, 323.80
391.33, 4.95, 323.26
389.98, 4.87, 322.59
388.14, 4.75, 321.68
385.50, 4.55, 320.36
400.07, 5.52, 327.67
399.95, 5.52, 327.61
399.83, 5.53, 327.55
399.70, 5.53, 327.49
399.56, 5.53, 327.43
399.42, 5.54, 327.36
399.27, 5.54, 327.28
399.09, 5.54, 327.20
398.90, 5.54, 327.11
398.71, 5.54, 327.02
398.51, 5.55, 326.92
398.29, 5.55, 326.81
398.04, 5.55, 326.69
397.68, 5.52, 326.52
397.26, 5.49, 326.32
396.79, 5.45, 326.09
396.20, 5.39, 325.81
394.75, 5.13, 325.10
394.07, 5.09, 324.77
393.28, 5.05, 324.39
392.36, 5.00, 323.95
391.28, 4.95, 323.43
389.92, 4.87, 322.77
388.09, 4.75, 321.89
385.45, 4.56, 320.62
400.05, 5.52, 327.72
399.93, 5.52, 327.66
399.81, 5.53, 327.60
399.68, 5.53, 327.54
399.54, 5.53, 327.48
399.40, 5.54, 327.41
399.24, 5.54, 327.34
399.06, 5.54, 327.26
398.87, 5.54, 327.17
398.68, 5.54, 327.08
¯398.48, 5.55, 326.99
398.26, 5.55, 326.88
398.00, 5.55, 326.77
397.63, 5.52, 326.59
397.21, 5.48, 326.40
396.74, 5.44, 326.18
396.15, 5.38, 325.90
394.71, 5.13, 325.22
394.02, 5.09, 324.90
393.24, 5.05, 324.53
392.32, 5.00, 324.10
391.23, 4.95, 323.59
389.86, 4.87, 322.96
388.04, 4.75, 322.11
385.40, 4.56, 320.87
400.03, 5.52, 327.77
399.91, 5.52, 327.71
399.79, 5.53, 327.66
399.66, 5.53, 327.60
399.52, 5.53, 327.54
399.38, 5.54, 327.47
399.22, 5.54, 327.40
399.03, 5.54, 327.32
398.85, 5.54, 327.23
398.66, 5.54, 327.15
398.45, 5.55, 327.06
398.23, 5.55, 326.96
397.97, 5.54, 326.84
397.59, 5.51, 326.67
397.17, 5.48, 326.47
396.69, 5.44, 326.26
396.09, 5.38, 325.99
395.34, 5.30, 325.65
393.98, 5.09, 325.03
393.19, 5.05, 324.67
392.27, 5.00, 324.25
391.18, 4.95, 323.76
389.80, 4.87, 323.14
387.99, 4.75, 322.32
385.33, 4.55, 321.12
400.01, 5.52, 327.82
399.89, 5.52, 327.76
399.77, 5.53, 327.71
399.64, 5.53, 327.65
399.50, 5.53, 327.59
399.36, 5.54, 327.53
399.20, 5.54, 327.46
399.01, 5.53, 327.38
398.82, 5.54, 327.30
398.63, 5.54, 327.21
398.42, 5.54, 327.12
¯398.20, 5.55, 327.03
397.93, 5.54, 326.91
397.55, 5.51, 326.74
397.12, 5.47, 326.55
396.65, 5.43, 326.35
396.04, 5.37, 326.08
395.31, 5.30, 325.76
394.67, 5.26, 325.48
393.15, 5.05, 324.81
392.22, 5.00, 324.41
391.13, 4.95, 323.93
389.75, 4.87, 323.32
387.93, 4.75, 322.52
385.25, 4.55, 321.35
400.00, 5.52, 327.87
399.87, 5.52, 327.81
399.75, 5.53, 327.76
399.62, 5.53, 327.71
399.48, 5.53, 327.65
399.34, 5.54, 327.59
399.18, 5.54, 327.52
398.98, 5.53, 327.44
398.80, 5.54, 327.36
398.61, 5.54, 327.28
398.40, 5.54, 327.19
398.18, 5.55, 327.10
397.89, 5.54, 326.98
397.51, 5.50, 326.82
397.08, 5.47, 326.63
396.60, 5.43, 326.43
395.99, 5.37, 326.17
395.27, 5.30, 325.87
394.63, 5.26, 325.60
393.11, 5.05, 324.95
392.18, 5.00, 324.56
391.08, 4.95, 324.09
389.70, 4.87, 323.51
387.86, 4.75, 322.73
385.18, 4.55, 321.59
399.98, 5.52, 327.91
399.86, 5.52, 327.86
399.73, 5.53, 327.81
399.60, 5.53, 327.76
399.46, 5.53, 327.70
399.32, 5.54, 327.65
399.15, 5.54, 327.58
398.96, 5.53, 327.50
398.78, 5.54, 327.43
398.58, 5.54, 327.35
398.37, 5.54, 327.26
398.15, 5.55, 327.17
¯397.85, 5.53, 327.05
397.47, 5.50, 326.89
397.04, 5.46, 326.72
396.56, 5.42, 326.52
395.94, 5.36, 326.27
395.23, 5.30, 325.98
394.60, 5.26, 325.72
393.86, 5.23, 325.42
392.14, 5.00, 324.71
391.04, 4.95, 324.26
389.65, 4.87, 323.69
387.80, 4.75, 322.94
385.10, 4.54, 321.83
399.96, 5.52, 327.96
399.84, 5.52, 327.92
399.71, 5.53, 327.87
399.58, 5.53, 327.82
399.44, 5.53, 327.76
399.30, 5.54, 327.70
399.13, 5.54, 327.64
398.94, 5.53, 327.56
398.75, 5.53, 327.49
398.56, 5.54, 327.41
398.35, 5.54, 327.33
398.12, 5.54, 327.24
397.82, 5.53, 327.12
397.43, 5.49, 326.97
397.01, 5.46, 326.80
396.51, 5.42, 326.61
395.89, 5.36, 326.36
395.20, 5.29, 326.09
394.56, 5.26, 325.84
393.83, 5.23, 325.54
392.97, 5.18, 325.21
391.00, 4.95, 324.43
389.60, 4.86, 323.87
387.75, 4.75, 323.14
385.03, 4.54, 322.07
399.94, 5.52, 328.01
399.82, 5.52, 327.97
399.70, 5.53, 327.92
399.56, 5.53, 327.87
399.43, 5.53, 327.82
399.28, 5.54, 327.76
399.11, 5.54, 327.70
398.91, 5.53, 327.62
398.73, 5.53, 327.55
398.53, 5.54, 327.48
398.32, 5.54, 327.40
398.09, 5.54, 327.31
397.78, 5.52, 327.19
¯397.39, 5.49, 327.04
396.97, 5.46, 326.89
396.47, 5.42, 326.69
395.84, 5.35, 326.46
395.17, 5.29, 326.20
394.53, 5.26, 325.95
393.79, 5.22, 325.67
392.93, 5.18, 325.35
391.91, 5.13, 324.96
389.55, 4.86, 324.06
387.70, 4.75, 323.35
384.97, 4.54, 322.31
399.93, 5.52, 328.06
399.81, 5.52, 328.02
399.68, 5.53, 327.97
399.55, 5.53, 327.92
399.41, 5.53, 327.87
399.26, 5.54, 327.82
399.09, 5.54, 327.76
398.89, 5.53, 327.69
398.71, 5.53, 327.62
398.51, 5.54, 327.55
398.30, 5.54, 327.47
398.06, 5.54, 327.38
397.74, 5.52, 327.27
397.35, 5.49, 327.12
396.94, 5.46, 326.97
396.44, 5.41, 326.79
395.80, 5.35, 326.55
395.14, 5.29, 326.31
394.49, 5.26, 326.07
393.75, 5.22, 325.80
392.89, 5.18, 325.49
391.87, 5.13, 325.11
390.63, 5.07, 324.66
387.67, 4.75, 323.57
384.94, 4.54, 322.57
399.91, 5.52, 328.11
399.79, 5.52, 328.07
399.66, 5.53, 328.03
399.53, 5.53, 327.98
399.39, 5.53, 327.93
399.24, 5.54, 327.88
399.07, 5.53, 327.82
398.87, 5.53, 327.75
398.69, 5.53, 327.68
398.49, 5.53, 327.61
398.28, 5.54, 327.54
398.04, 5.54, 327.45
397.71, 5.52, 327.34
397.31, 5.48, 327.20
¯396.91, 5.45, 327.06
396.41, 5.41, 326.88
395.75, 5.34, 326.65
395.11, 5.29, 326.42
394.46, 5.26, 326.19
393.72, 5.22, 325.93
392.86, 5.18, 325.63
391.84, 5.13, 325.27
390.60, 5.07, 324.83
388.96, 4.97, 324.25
384.90, 4.54, 322.82
399.90, 5.52, 328.16
399.77, 5.52, 328.12
399.65, 5.53, 328.08
399.51, 5.53, 328.03
399.37, 5.53, 327.99
399.23, 5.54, 327.94
399.04, 5.53, 327.88
398.85, 5.53, 327.81
398.67, 5.53, 327.75
398.47, 5.53, 327.68
398.26, 5.54, 327.61
398.01, 5.53, 327.52
397.68, 5.51, 327.41
397.28, 5.48, 327.28
396.87, 5.45, 327.14
396.38, 5.41, 326.97
395.71, 5.34, 326.74
395.08, 5.29, 326.53
394.43, 5.26, 326.31
393.69, 5.22, 326.06
392.83, 5.18, 325.77
391.81, 5.13, 325.42
390.57, 5.07, 325.00
388.93, 4.97, 324.45
386.73, 4.83, 323.70
399.88, 5.52, 328.21
399.76, 5.52, 328.17
399.63, 5.53, 328.13
399.50, 5.53, 328.09
399.36, 5.53, 328.04
399.21, 5.54, 327.99
399.02, 5.53, 327.93
398.83, 5.53, 327.87
398.65, 5.53, 327.81
398.45, 5.53, 327.75
398.23, 5.54, 327.68
397.98, 5.53, 327.60
397.64, 5.51, 327.49
397.24, 5.47, 327.36
396.84, 5.45, 327.22
¯396.35, 5.41, 327.06
395.67, 5.33, 326.84
395.05, 5.29, 326.64
394.40, 5.26, 326.43
393.66, 5.22, 326.19
392.80, 5.18, 325.91
391.78, 5.13, 325.58
390.54, 5.07, 325.17
388.90, 4.97, 324.64
386.70, 4.83, 323.92
399.87, 5.52, 328.26
399.75, 5.52, 328.22
399.62, 5.53, 328.19
399.48, 5.53, 328.14
399.34, 5.53, 328.10
399.19, 5.54, 328.05
399.01, 5.53, 327.99
398.81, 5.53, 327.94
398.63, 5.53, 327.88
398.43, 5.53, 327.81
398.21, 5.53, 327.75
397.95, 5.53, 327.67
397.61, 5.50, 327.56
397.21, 5.47, 327.44
396.80, 5.44, 327.31
396.32, 5.41, 327.16
395.63, 5.33, 326.94
395.02, 5.29, 326.75
394.37, 5.26, 326.55
393.63, 5.22, 326.32
392.77, 5.18, 326.05
391.75, 5.13, 325.73
390.51, 5.07, 325.35
388.88, 4.97, 324.84
386.67, 4.83, 324.15
399.85, 5.52, 328.31
399.73, 5.52, 328.28
399.60, 5.53, 328.24
399.47, 5.53, 328.20
399.33, 5.53, 328.16
399.18, 5.54, 328.11
398.99, 5.53, 328.06
398.79, 5.53, 328.00
398.61, 5.53, 327.94
398.41, 5.53, 327.88
398.19, 5.53, 327.82
397.93, 5.53, 327.74
397.58, 5.50, 327.64
397.18, 5.46, 327.52
396.77, 5.44, 327.39
396.29, 5.40, 327.25
¯395.59, 5.33, 327.04
394.99, 5.29, 326.86
394.35, 5.26, 326.67
393.60, 5.22, 326.45
392.74, 5.18, 326.19
391.72, 5.13, 325.89
390.48, 5.07, 325.52
388.85, 4.98, 325.03
386.64, 4.83, 324.37
399.84, 5.52, 328.36
399.72, 5.52, 328.33
399.59, 5.53, 328.29
399.46, 5.53, 328.25
399.31, 5.53, 328.21
399.16, 5.54, 328.17
398.97, 5.53, 328.12
398.78, 5.52, 328.06
398.59, 5.53, 328.01
398.39, 5.53, 327.95
398.17, 5.53, 327.89
397.90, 5.52, 327.81
397.55, 5.50, 327.71
397.14, 5.46, 327.60
396.74, 5.44, 327.48
396.26, 5.40, 327.34
395.55, 5.32, 327.14
394.97, 5.29, 326.97
394.32, 5.26, 326.79
393.57, 5.22, 326.58
392.71, 5.18, 326.33
391.69, 5.13, 326.04
390.46, 5.07, 325.69
388.83, 4.98, 325.22
386.61, 4.84, 324.59
399.83, 5.52, 328.41
399.71, 5.52, 328.38
399.58, 5.52, 328.35
399.44, 5.53, 328.31
399.30, 5.53, 328.27
399.14, 5.53, 328.23
398.95, 5.53, 328.18
398.76, 5.52, 328.12
398.57, 5.53, 328.07
398.37, 5.53, 328.02
398.15, 5.53, 327.96
397.87, 5.52, 327.88
397.52, 5.49, 327.79
397.11, 5.46, 327.68
396.71, 5.43, 327.57
396.22, 5.40, 327.43
395.51, 5.32, 327.24
¯394.95, 5.29, 327.09
394.29, 5.26, 326.91
393.54, 5.22, 326.71
392.68, 5.18, 326.47
391.67, 5.13, 326.19
390.43, 5.07, 325.86
388.81, 4.98, 325.42
386.59, 4.84, 324.81
399.82, 5.52, 328.46
399.69, 5.52, 328.43
399.56, 5.52, 328.40
399.43, 5.53, 328.36
399.29, 5.53, 328.33
399.13, 5.53, 328.29
398.93, 5.53, 328.24
398.74, 5.52, 328.19
398.55, 5.52, 328.14
398.35, 5.53, 328.09
398.13, 5.53, 328.03
397.85, 5.52, 327.96
397.49, 5.49, 327.86
397.09, 5.45, 327.76
396.68, 5.43, 327.65
396.19, 5.39, 327.53
395.49, 5.32, 327.34
394.92, 5.29, 327.20
394.27, 5.26, 327.03
393.52, 5.22, 326.83
392.66, 5.18, 326.61
391.64, 5.13, 326.35
390.41, 5.07, 326.03
388.78, 4.98, 325.61
386.57, 4.84, 325.03
399.80, 5.52, 328.52
399.68, 5.52, 328.49
399.55, 5.52, 328.45
399.42, 5.53, 328.42
399.27, 5.53, 328.39
399.11, 5.53, 328.35
398.92, 5.52, 328.30
398.73, 5.52, 328.25
398.54, 5.52, 328.20
398.33, 5.53, 328.15
398.11, 5.53, 328.10
397.83, 5.51, 328.03
397.47, 5.49, 327.94
397.06, 5.45, 327.84
396.65, 5.43, 327.74
396.16, 5.39, 327.62
395.47, 5.32, 327.45
394.90, 5.29, 327.31
¯394.25, 5.26, 327.15
393.50, 5.22, 326.96
392.63, 5.18, 326.75
391.62, 5.13, 326.50
390.39, 5.08, 326.20
388.77, 4.98, 325.80
386.55, 4.84, 325.25
399.79, 5.52, 328.57
399.67, 5.52, 328.54
399.54, 5.52, 328.51
399.40, 5.53, 328.48
399.26, 5.53, 328.44
399.10, 5.53, 328.40
398.90, 5.52, 328.36
398.71, 5.52, 328.31
398.52, 5.52, 328.27
398.32, 5.53, 328.22
398.09, 5.53, 328.17
397.80, 5.51, 328.10
397.44, 5.48, 328.02
397.04, 5.45, 327.93
396.62, 5.42, 327.83
396.13, 5.39, 327.71
395.45, 5.32, 327.55
394.88, 5.29, 327.42
394.23, 5.26, 327.27
393.47, 5.22, 327.09
392.61, 5.18, 326.89
391.60, 5.14, 326.66
390.37, 5.08, 326.37
388.75, 4.98, 325.99
386.53, 4.84, 325.47
399.78, 5.52, 328.62
399.66, 5.52, 328.59
399.53, 5.52, 328.56
399.39, 5.53, 328.53
399.25, 5.53, 328.50
399.08, 5.53, 328.46
398.89, 5.52, 328.42
398.70, 5.52, 328.38
398.50, 5.52, 328.34
398.30, 5.52, 328.29
398.07, 5.52, 328.24
397.78, 5.51, 328.18
397.42, 5.48, 328.10
397.02, 5.45, 328.01
396.59, 5.42, 327.91
396.10, 5.39, 327.81
395.43, 5.32, 327.66
394.86, 5.29, 327.53
394.21, 5.26, 327.39
¯393.45, 5.22, 327.22
392.59, 5.18, 327.03
391.58, 5.14, 326.81
390.35, 5.08, 326.54
388.73, 4.99, 326.18
386.51, 4.85, 325.69
399.77, 5.52, 328.67
399.65, 5.52, 328.64
399.52, 5.52, 328.62
399.38, 5.53, 328.59
399.24, 5.53, 328.56
399.07, 5.53, 328.52
398.87, 5.52, 328.48
398.68, 5.52, 328.44
398.49, 5.52, 328.40
398.28, 5.52, 328.36
398.05, 5.52, 328.31
397.76, 5.51, 328.25
397.39, 5.48, 328.17
397.00, 5.45, 328.09
396.56, 5.42, 328.00
396.08, 5.38, 327.90
395.41, 5.32, 327.76
394.84, 5.29, 327.65
394.19, 5.26, 327.51
393.43, 5.22, 327.35
392.57, 5.18, 327.17
391.56, 5.14, 326.96
390.33, 5.08, 326.71
388.72, 4.99, 326.38
386.50, 4.85, 325.91
399.76, 5.52, 328.72
399.64, 5.52, 328.69
399.51, 5.52, 328.67
399.37, 5.53, 328.64
399.23, 5.53, 328.62
399.05, 5.53, 328.58
398.86, 5.52, 328.54
398.67, 5.52, 328.51
398.47, 5.52, 328.47
398.27, 5.52, 328.43
398.03, 5.52, 328.38
397.74, 5.50, 328.33
397.37, 5.47, 328.25
396.98, 5.44, 328.18
396.54, 5.41, 328.09
396.05, 5.38, 328.00
395.40, 5.32, 327.87
394.82, 5.29, 327.76
394.17, 5.26, 327.63
393.41, 5.22, 327.48
¯392.55, 5.18, 327.32
391.54, 5.14, 327.12
390.32, 5.08, 326.88
388.71, 4.99, 326.57
386.48, 4.85, 326.13
399.75, 5.52, 328.77
399.63, 5.52, 328.75
399.50, 5.52, 328.72
399.36, 5.53, 328.70
399.22, 5.53, 328.67
399.04, 5.53, 328.64
398.85, 5.52, 328.61
398.65, 5.52, 328.57
398.46, 5.52, 328.54
398.25, 5.52, 328.50
398.01, 5.52, 328.45
397.72, 5.50, 328.40
397.34, 5.47, 328.33
396.96, 5.44, 328.26
396.52, 5.41, 328.18
396.03, 5.38, 328.09
395.38, 5.32, 327.97
394.81, 5.29, 327.87
394.15, 5.26, 327.75
393.40, 5.22, 327.61
392.53, 5.18, 327.46
391.52, 5.14, 327.27
390.30, 5.08, 327.05
388.70, 4.99, 326.76
386.47, 4.85, 326.35
381.82, 4.44, 325.50
399.74, 5.52, 328.82
399.62, 5.52, 328.80
399.49, 5.52, 328.78
399.35, 5.53, 328.76
399.21, 5.53, 328.73
399.03, 5.53, 328.70
398.83, 5.52, 328.67
398.64, 5.51, 328.63
398.45, 5.52, 328.60
398.24, 5.52, 328.57
397.99, 5.51, 328.53
397.70, 5.50, 328.48
397.32, 5.47, 328.41
396.94, 5.44, 328.35
396.49, 5.41, 328.27
396.01, 5.38, 328.19
395.37, 5.32, 328.08
394.79, 5.29, 327.98
394.13, 5.26, 327.87
393.38, 5.22, 327.74
¯392.52, 5.18, 327.60
391.51, 5.14, 327.43
390.29, 5.08, 327.22
388.69, 5.00, 326.95
386.46, 4.86, 326.57
381.86, 4.45, 325.79
399.74, 5.52, 328.87
399.61, 5.52, 328.85
399.48, 5.52, 328.83
399.34, 5.53, 328.81
399.20, 5.53, 328.79
399.02, 5.52, 328.76
398.82, 5.52, 328.73
398.63, 5.51, 328.70
398.43, 5.52, 328.67
398.23, 5.52, 328.64
397.98, 5.51, 328.60
397.68, 5.50, 328.55
397.30, 5.46, 328.49
396.92, 5.44, 328.43
396.47, 5.41, 328.36
395.98, 5.37, 328.28
395.35, 5.32, 328.18
394.78, 5.29, 328.09
394.12, 5.26, 327.99
393.36, 5.22, 327.87
392.50, 5.19, 327.74
391.50, 5.14, 327.58
390.28, 5.09, 327.39
388.68, 5.00, 327.14
386.45, 4.86, 326.79
381.91, 4.46, 326.08
399.73, 5.52, 328.92
399.60, 5.52, 328.91
399.47, 5.52, 328.89
399.33, 5.53, 328.87
399.19, 5.53, 328.85
399.01, 5.52, 328.82
398.81, 5.52, 328.79
398.62, 5.51, 328.76
398.42, 5.52, 328.74
398.21, 5.52, 328.71
397.96, 5.51, 328.67
397.66, 5.49, 328.63
397.28, 5.46, 328.57
396.90, 5.44, 328.52
396.45, 5.40, 328.45
395.96, 5.37, 328.38
395.34, 5.32, 328.29
394.76, 5.29, 328.21
394.11, 5.26, 328.11
¯393.35, 5.22, 328.00
392.49, 5.19, 327.88
391.48, 5.14, 327.73
390.27, 5.09, 327.56
388.67, 5.00, 327.33
386.45, 4.86, 327.01
381.96, 4.47, 326.36
399.72, 5.52, 328.98
399.60, 5.52, 328.96
399.47, 5.52, 328.94
399.33, 5.53, 328.92
399.18, 5.53, 328.90
399.00, 5.52, 328.88
398.80, 5.51, 328.85
398.61, 5.51, 328.83
398.41, 5.51, 328.80
398.20, 5.52, 328.78
397.94, 5.51, 328.74
397.65, 5.49, 328.70
397.26, 5.46, 328.65
396.88, 5.44, 328.60
396.43, 5.40, 328.54
395.94, 5.37, 328.48
395.33, 5.32, 328.40
394.75, 5.29, 328.32
394.09, 5.26, 328.23
393.34, 5.22, 328.13
392.48, 5.19, 328.02
391.47, 5.14, 327.89
390.26, 5.09, 327.73
388.67, 5.00, 327.52
386.44, 4.86, 327.22
382.01, 4.48, 326.64
399.72, 5.52, 329.03
399.59, 5.52, 329.01
399.46, 5.52, 329.00
399.32, 5.53, 328.98
399.17, 5.53, 328.96
398.99, 5.52, 328.94
398.79, 5.51, 328.92
398.59, 5.51, 328.89
398.40, 5.51, 328.87
398.19, 5.52, 328.85
397.93, 5.50, 328.81
397.63, 5.49, 328.78
397.24, 5.45, 328.73
396.87, 5.43, 328.69
396.42, 5.40, 328.63
395.93, 5.37, 328.57
395.32, 5.32, 328.50
394.74, 5.29, 328.43
¯394.08, 5.26, 328.35
393.33, 5.23, 328.26
392.46, 5.19, 328.16
391.46, 5.15, 328.04
390.25, 5.09, 327.90
388.67, 5.01, 327.71
386.44, 4.87, 327.44
382.07, 4.49, 326.92
399.71, 5.52, 329.08
399.58, 5.52, 329.07
399.45, 5.52, 329.05
399.31, 5.53, 329.04
399.17, 5.53, 329.02
398.98, 5.52, 329.00
398.78, 5.51, 328.98
398.59, 5.51, 328.96
398.39, 5.51, 328.94
398.18, 5.51, 328.91
397.91, 5.50, 328.89
397.61, 5.49, 328.85
397.22, 5.45, 328.81
396.85, 5.43, 328.77
396.40, 5.40, 328.72
395.91, 5.37, 328.67
395.31, 5.32, 328.61
394.73, 5.29, 328.55
394.07, 5.26, 328.47
393.32, 5.23, 328.39
392.45, 5.19, 328.30
391.45, 5.15, 328.19
390.24, 5.09, 328.06
388.66, 5.01, 327.90
386.45, 4.87, 327.66
382.13, 4.50, 327.20
399.71, 5.52, 329.13
399.58, 5.52, 329.12
399.44, 5.52, 329.11
399.31, 5.53, 329.09
399.16, 5.53, 329.08
398.97, 5.52, 329.06
398.77, 5.51, 329.04
398.58, 5.51, 329.02
398.38, 5.51, 329.00
398.17, 5.51, 328.98
397.90, 5.50, 328.96
397.60, 5.48, 328.93
397.21, 5.45, 328.89
396.84, 5.43, 328.86
396.39, 5.40, 328.82
395.90, 5.37, 328.77
395.30, 5.32, 328.71
¯394.72, 5.29, 328.66
394.06, 5.26, 328.60
393.31, 5.23, 328.52
392.45, 5.19, 328.44
391.45, 5.15, 328.35
390.24, 5.09, 328.23
388.66, 5.01, 328.08
386.45, 4.88, 327.87
382.19, 4.51, 327.47
399.70, 5.52, 329.18
399.57, 5.52, 329.17
399.44, 5.52, 329.16
399.30, 5.52, 329.15
399.15, 5.53, 329.14
398.97, 5.52, 329.12
398.77, 5.51, 329.11
398.57, 5.51, 329.09
398.37, 5.51, 329.07
398.16, 5.51, 329.06
397.89, 5.50, 329.03
397.58, 5.48, 329.01
397.19, 5.45, 328.98
396.82, 5.43, 328.94
396.38, 5.40, 328.91
395.88, 5.36, 328.87
395.29, 5.32, 328.82
394.71, 5.29, 328.77
394.05, 5.26, 328.72
393.30, 5.23, 328.65
392.44, 5.19, 328.58
391.44, 5.15, 328.50
390.23, 5.10, 328.40
388.67, 5.02, 328.27
386.46, 4.88, 328.09
382.26, 4.53, 327.74
399.70, 5.52, 329.23
399.57, 5.52, 329.22
399.43, 5.52, 329.22
399.29, 5.52, 329.21
399.14, 5.53, 329.20
398.96, 5.52, 329.18
398.76, 5.51, 329.17
398.56, 5.51, 329.15
398.36, 5.51, 329.14
398.15, 5.51, 329.13
397.88, 5.50, 329.11
397.57, 5.48, 329.08
397.18, 5.44, 329.06
396.81, 5.43, 329.03
396.36, 5.40, 329.00
395.87, 5.36, 328.97
¯395.28, 5.32, 328.92
394.71, 5.29, 328.88
394.05, 5.26, 328.84
393.29, 5.23, 328.78
392.43, 5.19, 328.72
391.44, 5.15, 328.65
390.23, 5.10, 328.57
388.67, 5.02, 328.46
386.47, 4.88, 328.31
382.33, 4.54, 328.02
399.69, 5.52, 329.29
399.56, 5.52, 329.28
399.43, 5.52, 329.27
399.29, 5.52, 329.26
399.14, 5.53, 329.25
398.95, 5.52, 329.24
398.75, 5.51, 329.23
398.55, 5.51, 329.22
398.35, 5.51, 329.21
398.14, 5.51, 329.20
397.86, 5.49, 329.18
397.56, 5.48, 329.16
397.16, 5.44, 329.14
396.80, 5.43, 329.12
396.35, 5.39, 329.09
395.86, 5.36, 329.06
395.28, 5.32, 329.03
394.70, 5.29, 329.00
394.04, 5.26, 328.96
393.28, 5.23, 328.91
392.43, 5.19, 328.87
391.43, 5.15, 328.81
390.23, 5.10, 328.74
388.67, 5.02, 328.65
386.49, 4.89, 328.52
399.69, 5.52, 329.34
399.56, 5.52, 329.33
399.43, 5.52, 329.33
399.29, 5.52, 329.32
399.13, 5.53, 329.31
398.95, 5.52, 329.30
398.75, 5.51, 329.29
398.54, 5.50, 329.29
398.35, 5.51, 329.28
398.13, 5.51, 329.27
397.85, 5.49, 329.25
397.55, 5.48, 329.24
397.15, 5.44, 329.22
396.79, 5.42, 329.21
396.34, 5.39, 329.18
395.85, 5.36, 329.16
¯395.27, 5.32, 329.14
394.69, 5.29, 329.11
394.03, 5.26, 329.08
393.28, 5.23, 329.05
392.42, 5.19, 329.01
391.43, 5.15, 328.96
390.23, 5.10, 328.91
388.68, 5.03, 328.83
386.50, 4.89, 328.74
399.69, 5.52, 329.39
399.55, 5.52, 329.39
399.42, 5.52, 329.38
399.28, 5.52, 329.38
399.13, 5.52, 329.37
398.94, 5.52, 329.36
398.74, 5.51, 329.36
398.54, 5.50, 329.35
398.34, 5.50, 329.34
398.12, 5.50, 329.34
397.84, 5.49, 329.33
397.54, 5.47, 329.32
397.15, 5.44, 329.30
396.78, 5.42, 329.29
396.34, 5.39, 329.28
395.84, 5.36, 329.26
395.27, 5.32, 329.24
394.69, 5.30, 329.22
394.03, 5.26, 329.20
393.28, 5.23, 329.18
392.42, 5.20, 329.15
391.43, 5.16, 329.11
390.23, 5.10, 329.07
388.69, 5.03, 329.02
386.52, 4.90, 328.95
399.69, 5.52, 329.44
399.55, 5.52, 329.44
399.42, 5.52, 329.44
399.28, 5.52, 329.43
399.12, 5.52, 329.43
398.94, 5.52, 329.43
398.74, 5.51, 329.42
398.53, 5.50, 329.42
398.33, 5.50, 329.41
398.11, 5.50, 329.41
397.83, 5.49, 329.40
397.53, 5.47, 329.40
397.14, 5.44, 329.39
396.77, 5.42, 329.38
396.33, 5.39, 329.37
395.84, 5.36, 329.36
395.27, 5.32, 329.35
¯394.69, 5.30, 329.34
394.03, 5.27, 329.32
393.27, 5.23, 329.31
392.42, 5.20, 329.29
391.43, 5.16, 329.27
390.23, 5.11, 329.24
388.70, 5.03, 329.21
384.63, 4.62, 329.12
399.69, 5.52, 329.49
399.55, 5.52, 329.49
399.42, 5.52, 329.49
399.28, 5.52, 329.49
399.12, 5.52, 329.49
398.93, 5.52, 329.49
398.73, 5.51, 329.48
398.53, 5.50, 329.48
398.33, 5.50, 329.48
398.10, 5.50, 329.48
397.83, 5.49, 329.48
397.52, 5.47, 329.47
397.13, 5.44, 329.47
396.76, 5.42, 329.47
396.32, 5.39, 329.46
395.83, 5.36, 329.46
395.26, 5.32, 329.45
394.69, 5.30, 329.45
394.02, 5.27, 329.44
393.27, 5.23, 329.44
392.42, 5.20, 329.43
391.43, 5.16, 329.42
390.24, 5.11, 329.41
388.71, 5.04, 329.39
384.67, 4.63, 329.36
399.69, 5.52, 329.55
399.55, 5.51, 329.55
399.41, 5.52, 329.55
399.27, 5.52, 329.55
399.12, 5.52, 329.55
398.93, 5.51, 329.55
398.73, 5.51, 329.55
398.52, 5.50, 329.55
398.32, 5.50, 329.55
398.10, 5.50, 329.55
397.82, 5.49, 329.55
397.51, 5.47, 329.55
397.12, 5.44, 329.55
396.75, 5.42, 329.55
396.31, 5.39, 329.56
395.83, 5.36, 329.56
395.26, 5.32, 329.56
394.69, 5.30, 329.56
¯394.02, 5.27, 329.56
393.27, 5.23, 329.57
392.42, 5.20, 329.57
391.43, 5.16, 329.57
390.24, 5.11, 329.58
388.72, 5.04, 329.58
384.70, 4.64, 329.60
399.69, 5.52, 329.60
399.54, 5.51, 329.60
399.41, 5.52, 329.60
399.27, 5.52, 329.60
399.12, 5.52, 329.61
398.93, 5.51, 329.61
398.73, 5.51, 329.61
398.52, 5.50, 329.62
398.32, 5.50, 329.62
398.09, 5.50, 329.62
397.81, 5.48, 329.63
397.50, 5.47, 329.63
397.12, 5.43, 329.64
396.75, 5.42, 329.64
396.31, 5.39, 329.65
395.82, 5.36, 329.66
395.26, 5.32, 329.67
394.69, 5.30, 329.67
394.02, 5.27, 329.68
393.27, 5.23, 329.70
392.42, 5.20, 329.71
391.44, 5.16, 329.72
390.25, 5.11, 329.74
387.40, 4.83, 329.79
384.74, 4.64, 329.83
399.69, 5.52, 329.65
399.54, 5.51, 329.65
399.41, 5.52, 329.66
399.27, 5.52, 329.66
399.11, 5.52, 329.66
398.93, 5.51, 329.67
398.73, 5.50, 329.68
398.51, 5.50, 329.68
398.31, 5.50, 329.69
398.09, 5.50, 329.69
397.81, 5.48, 329.70
397.50, 5.47, 329.71
397.11, 5.43, 329.72
396.74, 5.42, 329.73
396.30, 5.39, 329.74
395.82, 5.36, 329.76
395.26, 5.33, 329.77
394.69, 5.30, 329.79
394.03, 5.27, 329.81
¯393.27, 5.24, 329.83
392.42, 5.20, 329.85
391.44, 5.16, 329.88
390.26, 5.12, 329.91
387.43, 4.84, 329.99
384.78, 4.65, 330.06
399.69, 5.52, 329.70
399.54, 5.51, 329.71
399.41, 5.52, 329.71
399.27, 5.52, 329.72
399.11, 5.52, 329.72
398.93, 5.51, 329.73
398.72, 5.50, 329.74
398.51, 5.50, 329.75
398.31, 5.50, 329.76
398.08, 5.49, 329.76
397.80, 5.48, 329.78
397.49, 5.46, 329.79
397.11, 5.43, 329.80
396.74, 5.41, 329.82
396.30, 5.39, 329.84
395.82, 5.36, 329.86
395.27, 5.33, 329.88
394.69, 5.30, 329.90
394.03, 5.27, 329.93
393.28, 5.24, 329.96
392.43, 5.20, 329.99
391.45, 5.17, 330.03
390.27, 5.12, 330.08
387.44, 4.84, 330.19
384.82, 4.66, 330.30
399.69, 5.52, 329.75
399.54, 5.51, 329.76
399.41, 5.52, 329.77
399.27, 5.52, 329.78
399.11, 5.52, 329.78
398.93, 5.51, 329.79
398.72, 5.50, 329.80
398.51, 5.49, 329.81
398.31, 5.50, 329.82
398.08, 5.49, 329.84
397.80, 5.48, 329.85
397.49, 5.46, 329.87
397.10, 5.43, 329.89
396.73, 5.41, 329.91
396.30, 5.39, 329.93
395.82, 5.36, 329.95
395.27, 5.33, 329.98
394.69, 5.30, 330.01
394.03, 5.27, 330.05
393.28, 5.24, 330.09
¯392.43, 5.21, 330.13
391.45, 5.17, 330.18
389.18, 4.93, 330.30
387.45, 4.84, 330.39
384.85, 4.67, 330.53
399.69, 5.52, 329.81
399.55, 5.51, 329.81
399.41, 5.52, 329.82
399.27, 5.52, 329.83
399.11, 5.52, 329.84
398.93, 5.51, 329.85
398.72, 5.50, 329.87
398.51, 5.49, 329.88
398.30, 5.50, 329.89
398.07, 5.49, 329.91
397.79, 5.48, 329.93
397.48, 5.46, 329.95
397.10, 5.43, 329.97
396.73, 5.41, 330.00
396.30, 5.39, 330.02
395.83, 5.36, 330.05
395.27, 5.33, 330.09
394.70, 5.30, 330.13
394.04, 5.27, 330.17
393.28, 5.24, 330.22
392.44, 5.21, 330.27
391.46, 5.17, 330.34
389.19, 4.94, 330.48
387.46, 4.84, 330.60
384.89, 4.67, 330.76
399.69, 5.52, 329.86
399.55, 5.51, 329.87
399.41, 5.52, 329.88
399.27, 5.52, 329.89
399.12, 5.52, 329.90
398.93, 5.51, 329.92
398.72, 5.50, 329.93
398.51, 5.49, 329.95
398.30, 5.49, 329.96
398.07, 5.49, 329.98
397.79, 5.48, 330.00
397.48, 5.46, 330.03
397.10, 5.43, 330.06
396.73, 5.41, 330.08
396.29, 5.39, 330.12
395.83, 5.36, 330.15
395.28, 5.33, 330.20
394.70, 5.30, 330.24
394.04, 5.27, 330.29
393.29, 5.24, 330.35
392.45, 5.21, 330.41
¯390.53, 5.00, 330.56
389.20, 4.94, 330.66
387.47, 4.85, 330.80
384.93, 4.68, 330.99
399.70, 5.52, 329.91
399.55, 5.51, 329.92
399.41, 5.51, 329.93
399.27, 5.52, 329.95
399.12, 5.52, 329.96
398.93, 5.51, 329.98
398.73, 5.50, 330.00
398.51, 5.49, 330.01
398.30, 5.49, 330.03
398.07, 5.49, 330.05
397.79, 5.47, 330.08
397.48, 5.46, 330.11
397.10, 5.43, 330.14
396.73, 5.41, 330.17
396.29, 5.38, 330.21
395.84, 5.36, 330.25
395.29, 5.33, 330.30
394.71, 5.30, 330.35
394.05, 5.28, 330.41
393.30, 5.24, 330.48
391.60, 5.04, 330.63
390.54, 5.00, 330.73
389.21, 4.94, 330.84
387.48, 4.85, 331.00
384.97, 4.69, 331.22
399.70, 5.52, 329.96
399.56, 5.51, 329.98
399.41, 5.51, 329.99
399.27, 5.52, 330.00
399.12, 5.52, 330.02
398.93, 5.51, 330.04
398.73, 5.50, 330.06
398.51, 5.49, 330.08
398.30, 5.49, 330.10
398.07, 5.49, 330.13
397.78, 5.47, 330.15
397.47, 5.46, 330.19
397.10, 5.43, 330.22
396.72, 5.41, 330.26
396.30, 5.38, 330.31
395.84, 5.36, 330.35
395.29, 5.33, 330.41
394.72, 5.31, 330.47
394.06, 5.28, 330.53
393.31, 5.24, 330.61
391.61, 5.04, 330.78
390.55, 5.00, 330.89
¯389.22, 4.94, 331.03
387.50, 4.85, 331.20
385.02, 4.69, 331.45
399.71, 5.52, 330.01
399.56, 5.52, 330.03
399.42, 5.51, 330.05
399.27, 5.52, 330.06
399.12, 5.52, 330.08
398.93, 5.51, 330.10
398.73, 5.50, 330.12
398.51, 5.49, 330.15
398.30, 5.49, 330.17
398.07, 5.49, 330.20
397.78, 5.47, 330.23
397.47, 5.45, 330.27
397.10, 5.43, 330.31
396.73, 5.41, 330.35
396.30, 5.38, 330.40
395.85, 5.37, 330.45
395.30, 5.33, 330.51
394.73, 5.31, 330.58
394.07, 5.28, 330.65
392.52, 5.08, 330.83
391.62, 5.04, 330.93
390.57, 5.01, 331.05
389.23, 4.94, 331.21
387.51, 4.85, 331.40
385.06, 4.70, 331.68
399.71, 5.52, 330.06
399.57, 5.52, 330.08
399.42, 5.51, 330.10
399.28, 5.52, 330.12
399.13, 5.52, 330.14
398.94, 5.51, 330.16
398.73, 5.50, 330.19
398.52, 5.49, 330.21
398.30, 5.49, 330.24
398.07, 5.48, 330.27
397.78, 5.47, 330.31
397.47, 5.45, 330.35
397.10, 5.43, 330.39
396.73, 5.41, 330.44
396.30, 5.38, 330.49
395.85, 5.36, 330.55
395.31, 5.33, 330.62
394.74, 5.31, 330.69
394.08, 5.28, 330.77
392.53, 5.08, 330.97
391.63, 5.05, 331.09
390.58, 5.01, 331.22
389.25, 4.95, 331.39
¯387.53, 4.86, 331.60
385.11, 4.71, 331.91
399.72, 5.52, 330.12
399.57, 5.52, 330.14
399.42, 5.51, 330.16
399.28, 5.52, 330.18
399.13, 5.52, 330.20
398.94, 5.51, 330.22
398.74, 5.50, 330.25
398.52, 5.49, 330.28
398.30, 5.49, 330.31
398.07, 5.48, 330.34
397.79, 5.47, 330.38
397.47, 5.45, 330.43
397.10, 5.42, 330.48
396.73, 5.41, 330.53
396.30, 5.38, 330.59
395.86, 5.36, 330.65
395.32, 5.33, 330.73
394.75, 5.31, 330.80
393.32, 5.11, 331.01
392.54, 5.08, 331.11
391.64, 5.05, 331.24
390.60, 5.01, 331.38
389.26, 4.95, 331.57
387.55, 4.86, 331.80
385.16, 4.72, 332.14
399.72, 5.52, 330.17
399.58, 5.52, 330.19
399.43, 5.51, 330.21
399.28, 5.52, 330.23
399.13, 5.52, 330.26
398.95, 5.51, 330.29
398.74, 5.50, 330.32
398.53, 5.49, 330.35
398.31, 5.49, 330.38
398.07, 5.48, 330.42
397.79, 5.47, 330.46
397.47, 5.45, 330.51
397.11, 5.42, 330.56
396.73, 5.40, 330.62
396.31, 5.38, 330.68
395.86, 5.36, 330.75
395.33, 5.34, 330.83
394.76, 5.31, 330.92
393.33, 5.11, 331.14
392.56, 5.08, 331.25
391.66, 5.05, 331.39
390.61, 5.01, 331.55
389.28, 4.95, 331.75
387.57, 4.86, 332.01
¯385.21, 4.72, 332.36
399.73, 5.52, 330.22
399.58, 5.52, 330.24
399.43, 5.51, 330.27
399.29, 5.51, 330.29
399.14, 5.52, 330.32
398.95, 5.51, 330.35
398.75, 5.50, 330.38
398.53, 5.49, 330.42
398.31, 5.49, 330.45
398.08, 5.48, 330.49
397.79, 5.46, 330.54
397.48, 5.45, 330.59
397.11, 5.42, 330.65
396.74, 5.40, 330.71
396.31, 5.38, 330.78
395.87, 5.36, 330.85
395.34, 5.34, 330.94
394.04, 5.14, 331.15
393.35, 5.11, 331.27
392.57, 5.08, 331.39
391.68, 5.05, 331.54
390.63, 5.01, 331.71
389.30, 4.95, 331.93
387.59, 4.87, 332.21
385.26, 4.73, 332.59
399.74, 5.52, 330.27
399.59, 5.52, 330.30
399.44, 5.51, 330.32
399.29, 5.51, 330.35
399.15, 5.52, 330.38
398.96, 5.51, 330.41
