žVERSION 0.7
FIELDS x y z
SIZE 8 8 8
TYPE F F F
COUNT 1 1 1
WIDTH 2271
HEIGHT 1
VIEWPOINT 324.91, 7.54, 366.36 1 337.77, 2.13, 381.54
POINTS 2271
DATA ascii
350.04, 1.80, 385.07
350.04, 1.99, 385.07
350.04, 2.19, 385.07
350.04, 2.39, 385.07
350.01, 2.59, 385.05
341.12, 0.00, 380.97
341.35, 0.00, 381.07
¯341.60, 0.00, 381.18
341.86, 0.00, 381.29
342.15, 0.00, 381.42
342.45, 0.00, 381.55
342.79, 0.00, 381.70
343.15, 0.00, 381.85
343.55, 0.00, 382.03
343.90, 0.02, 382.18
344.18, 0.07, 382.30
344.49, 0.12, 382.44
344.81, 0.18, 382.58
345.16, 0.24, 382.73
345.53, 0.30, 382.89
346.17, 0.32, 383.17
346.97, 0.34, 383.52
347.00, 0.49, 383.53
347.00, 0.65, 383.53
347.00, 0.81, 383.53
350.09, 0.61, 384.87
350.09, 0.81, 384.87
350.09, 1.01, 384.87
350.09, 1.20, 384.87
350.09, 1.40, 384.87
350.09, 1.60, 384.87
350.09, 1.80, 384.87
350.09, 2.00, 384.87
350.09, 2.19, 384.87
350.09, 2.39, 384.87
350.05, 2.59, 384.86
341.15, 0.00, 380.90
341.38, 0.00, 381.00
341.63, 0.00, 381.10
341.90, 0.00, 381.21
342.18, 0.00, 381.33
342.49, 0.00, 381.46
342.83, 0.00, 381.60
343.19, 0.00, 381.76
343.59, 0.00, 381.93
343.92, 0.03, 382.07
344.21, 0.08, 382.19
344.52, 0.13, 382.32
344.84, 0.18, 382.45
345.19, 0.24, 382.60
345.56, 0.31, 382.75
346.16, 0.34, 383.01
346.96, 0.35, 383.34
346.98, 0.51, 383.35
346.98, 0.66, 383.35
346.98, 0.82, 383.35
350.13, 0.61, 384.67
350.13, 0.81, 384.67
¯350.13, 1.01, 384.68
350.13, 1.21, 384.68
350.13, 1.41, 384.68
350.13, 1.60, 384.68
350.13, 1.80, 384.68
350.13, 2.00, 384.68
350.13, 2.19, 384.68
350.13, 2.39, 384.68
350.09, 2.59, 384.66
341.18, 0.00, 380.83
341.42, 0.00, 380.92
341.66, 0.00, 381.02
341.93, 0.00, 381.13
342.22, 0.00, 381.25
342.53, 0.00, 381.37
342.87, 0.00, 381.51
343.23, 0.00, 381.66
343.64, 0.00, 381.82
343.95, 0.03, 381.95
344.24, 0.08, 382.07
344.55, 0.13, 382.19
344.87, 0.19, 382.33
345.22, 0.25, 382.47
345.63, 0.30, 382.63
346.16, 0.35, 382.85
346.95, 0.36, 383.17
347.03, 0.51, 383.20
347.03, 0.66, 383.20
347.03, 0.82, 383.20
347.97, 0.87, 383.59
350.17, 0.81, 384.48
350.17, 1.01, 384.48
350.17, 1.21, 384.48
350.17, 1.41, 384.48
350.17, 1.60, 384.48
350.17, 1.80, 384.48
350.17, 2.00, 384.48
350.17, 2.19, 384.48
350.17, 2.39, 384.48
350.13, 2.59, 384.47
341.21, 0.00, 380.76
341.45, 0.00, 380.85
341.70, 0.00, 380.95
341.96, 0.00, 381.05
342.25, 0.00, 381.16
342.57, 0.00, 381.29
342.90, 0.00, 381.42
343.27, 0.00, 381.56
343.68, 0.00, 381.72
343.98, 0.04, 381.84
344.27, 0.09, 381.95
¯344.57, 0.14, 382.07
344.90, 0.19, 382.20
345.26, 0.25, 382.34
345.73, 0.29, 382.53
346.24, 0.34, 382.73
346.81, 0.39, 382.95
346.81, 0.55, 382.95
346.81, 0.70, 382.95
346.81, 0.86, 382.95
348.04, 0.87, 383.43
350.21, 0.82, 384.29
350.21, 1.02, 384.29
350.21, 1.21, 384.29
350.21, 1.41, 384.29
350.21, 1.61, 384.29
350.21, 1.80, 384.29
350.21, 2.00, 384.29
350.21, 2.20, 384.29
350.21, 2.39, 384.29
350.18, 2.59, 384.27
341.24, 0.00, 380.68
341.48, 0.00, 380.77
341.73, 0.00, 380.87
342.00, 0.00, 380.97
342.29, 0.00, 381.08
342.60, 0.00, 381.20
342.94, 0.00, 381.33
343.31, 0.00, 381.47
343.72, 0.00, 381.62
344.00, 0.04, 381.73
344.29, 0.09, 381.84
344.60, 0.14, 381.95
344.93, 0.20, 382.08
345.35, 0.24, 382.24
345.83, 0.28, 382.42
346.34, 0.33, 382.61
346.69, 0.42, 382.74
346.69, 0.58, 382.74
346.69, 0.73, 382.74
346.77, 0.87, 382.77
348.10, 0.87, 383.28
350.26, 0.82, 384.09
350.26, 1.02, 384.09
350.26, 1.22, 384.09
350.26, 1.41, 384.09
350.26, 1.61, 384.09
350.26, 1.80, 384.09
350.26, 2.00, 384.09
350.26, 2.20, 384.09
350.26, 2.39, 384.09
350.22, 2.59, 384.08
¯341.27, 0.00, 380.61
341.50, 0.00, 380.70
341.76, 0.00, 380.79
342.03, 0.00, 380.89
342.32, 0.00, 380.99
342.63, 0.00, 381.11
342.98, 0.00, 381.23
343.35, 0.00, 381.37
343.76, 0.00, 381.52
344.03, 0.05, 381.61
344.32, 0.10, 381.72
344.62, 0.15, 381.83
345.00, 0.19, 381.97
345.45, 0.23, 382.13
345.93, 0.27, 382.31
346.45, 0.32, 382.50
346.75, 0.42, 382.61
346.75, 0.57, 382.61
346.75, 0.73, 382.61
346.82, 0.87, 382.63
348.16, 0.87, 383.12
350.30, 0.82, 383.90
350.30, 1.02, 383.90
350.30, 1.22, 383.90
350.30, 1.41, 383.90
350.30, 1.61, 383.90
350.30, 1.81, 383.90
350.30, 2.00, 383.90
350.30, 2.20, 383.90
350.30, 2.39, 383.90
350.26, 2.59, 383.89
341.30, 0.00, 380.54
341.53, 0.00, 380.62
341.78, 0.00, 380.71
342.06, 0.00, 380.80
342.35, 0.00, 380.91
342.67, 0.00, 381.02
343.01, 0.00, 381.14
343.39, 0.00, 381.27
343.78, 0.00, 381.41
344.05, 0.05, 381.50
344.34, 0.10, 381.60
344.67, 0.15, 381.72
345.09, 0.18, 381.87
345.54, 0.22, 382.03
346.03, 0.26, 382.20
346.56, 0.31, 382.38
346.83, 0.42, 382.48
346.83, 0.57, 382.48
346.83, 0.72, 382.48
346.88, 0.87, 382.49
¯348.22, 0.87, 382.96
350.34, 0.83, 383.71
350.34, 1.02, 383.71
350.34, 1.22, 383.71
350.34, 1.42, 383.71
350.34, 1.61, 383.71
350.34, 1.81, 383.71
350.34, 2.00, 383.71
350.34, 2.20, 383.71
350.34, 2.39, 383.71
350.30, 2.59, 383.70
341.32, 0.00, 380.46
341.56, 0.00, 380.54
341.81, 0.00, 380.63
342.09, 0.00, 380.72
342.38, 0.00, 380.82
342.70, 0.00, 380.93
343.04, 0.00, 381.04
343.42, 0.00, 381.17
343.80, 0.01, 381.30
344.07, 0.05, 381.39
344.36, 0.10, 381.49
344.75, 0.14, 381.62
345.18, 0.17, 381.76
345.64, 0.21, 381.92
346.13, 0.25, 382.08
346.67, 0.30, 382.26
347.26, 0.36, 382.46
347.43, 0.49, 382.52
347.43, 0.65, 382.52
347.43, 0.81, 382.52
348.28, 0.87, 382.81
350.38, 0.83, 383.51
350.38, 1.03, 383.51
350.38, 1.22, 383.52
350.38, 1.42, 383.52
350.38, 1.61, 383.52
350.38, 1.81, 383.52
350.38, 2.00, 383.52
350.38, 2.20, 383.52
350.38, 2.39, 383.52
350.34, 2.59, 383.50
341.35, 0.00, 380.39
341.58, 0.00, 380.47
341.84, 0.00, 380.55
342.11, 0.00, 380.64
342.41, 0.00, 380.73
342.73, 0.00, 380.84
343.08, 0.00, 380.95
343.45, 0.00, 381.07
343.82, 0.01, 381.19
¯344.10, 0.06, 381.28
344.44, 0.10, 381.39
344.83, 0.13, 381.52
345.27, 0.16, 381.66
345.73, 0.20, 381.81
346.23, 0.24, 381.97
346.77, 0.29, 382.14
347.32, 0.35, 382.32
347.25, 0.52, 382.30
347.65, 0.62, 382.43
347.65, 0.79, 382.43
348.33, 0.87, 382.65
350.37, 0.84, 383.31
350.37, 1.03, 383.31
350.37, 1.23, 383.31
350.37, 1.42, 383.31
350.37, 1.62, 383.31
350.37, 1.81, 383.31
350.37, 2.00, 383.31
350.37, 2.20, 383.31
350.37, 2.39, 383.31
350.37, 2.59, 383.31
341.37, 0.00, 380.32
341.61, 0.00, 380.39
341.86, 0.00, 380.47
342.14, 0.00, 380.55
342.44, 0.00, 380.65
342.76, 0.00, 380.74
343.11, 0.00, 380.85
343.49, 0.00, 380.97
343.84, 0.02, 381.08
344.14, 0.06, 381.17
344.51, 0.09, 381.29
344.92, 0.12, 381.41
345.35, 0.15, 381.55
345.83, 0.19, 381.70
346.33, 0.23, 381.85
346.88, 0.28, 382.02
347.07, 0.40, 382.08
347.11, 0.55, 382.09
347.24, 0.69, 382.13
348.21, 0.72, 382.43
348.39, 0.87, 382.49
352.60, 0.62, 383.79
352.59, 0.85, 383.79
352.59, 1.07, 383.79
352.58, 1.29, 383.79
352.58, 1.51, 383.79
352.57, 1.74, 383.79
352.57, 1.96, 383.78
352.56, 2.18, 383.78
¯352.56, 2.40, 383.78
352.56, 2.62, 383.78
341.39, 0.00, 380.24
341.63, 0.00, 380.31
341.89, 0.00, 380.39
342.17, 0.00, 380.47
342.46, 0.00, 380.56
342.79, 0.00, 380.65
343.14, 0.00, 380.76
343.52, 0.00, 380.87
343.86, 0.02, 380.97
344.21, 0.05, 381.08
344.59, 0.07, 381.19
345.00, 0.11, 381.31
345.44, 0.14, 381.44
345.92, 0.18, 381.58
346.43, 0.22, 381.73
346.92, 0.28, 381.88
346.86, 0.44, 381.86
346.96, 0.58, 381.89
347.09, 0.71, 381.93
349.26, 0.60, 382.57
349.26, 0.78, 382.57
349.26, 0.96, 382.57
349.26, 1.14, 382.57
349.26, 1.32, 382.57
349.26, 1.50, 382.57
349.26, 1.68, 382.57
349.26, 1.85, 382.57
341.41, 0.00, 380.17
341.66, 0.00, 380.23
341.91, 0.00, 380.31
342.19, 0.00, 380.39
342.49, 0.00, 380.47
342.81, 0.00, 380.56
343.16, 0.00, 380.66
343.55, 0.00, 380.77
343.93, 0.01, 380.88
344.29, 0.04, 380.98
344.67, 0.06, 381.09
345.08, 0.10, 381.20
345.53, 0.13, 381.33
346.01, 0.17, 381.47
346.51, 0.21, 381.61
346.83, 0.31, 381.70
346.70, 0.48, 381.66
346.82, 0.61, 381.70
346.99, 0.73, 381.74
349.22, 0.61, 382.38
349.22, 0.79, 382.38
349.22, 0.97, 382.38
¯349.22, 1.15, 382.38
349.22, 1.32, 382.38
349.22, 1.50, 382.38
349.22, 1.68, 382.38
349.22, 1.86, 382.38
341.44, 0.00, 380.09
341.68, 0.00, 380.16
341.94, 0.00, 380.23
342.21, 0.00, 380.30
342.51, 0.00, 380.38
342.84, 0.00, 380.47
343.19, 0.00, 380.56
343.58, 0.00, 380.67
343.97, 0.01, 380.77
344.36, 0.03, 380.88
344.75, 0.05, 380.98
345.17, 0.08, 381.10
345.62, 0.12, 381.22
346.10, 0.16, 381.35
346.55, 0.21, 381.47
346.82, 0.32, 381.54
346.82, 0.47, 381.54
346.82, 0.61, 381.54
347.03, 0.73, 381.60
349.18, 0.62, 382.18
349.18, 0.80, 382.18
349.18, 0.98, 382.18
349.18, 1.15, 382.18
349.18, 1.33, 382.18
349.18, 1.51, 382.18
349.18, 1.68, 382.18
349.18, 1.86, 382.18
350.02, 2.02, 382.41
341.46, 0.00, 380.02
341.70, 0.00, 380.08
341.96, 0.00, 380.14
342.24, 0.00, 380.22
342.54, 0.00, 380.29
342.86, 0.00, 380.38
343.22, 0.00, 380.47
343.60, 0.00, 380.57
343.99, 0.01, 380.67
344.39, 0.02, 380.77
344.82, 0.04, 380.88
345.25, 0.07, 380.99
345.71, 0.11, 381.11
346.16, 0.15, 381.22
346.59, 0.22, 381.33
346.96, 0.30, 381.43
346.96, 0.45, 381.43
346.96, 0.60, 381.43
¯347.07, 0.73, 381.46
349.15, 0.63, 381.99
349.15, 0.81, 381.99
349.15, 0.98, 381.99
349.15, 1.16, 381.99
349.15, 1.34, 381.99
349.15, 1.51, 381.99
349.15, 1.69, 381.99
349.15, 1.86, 381.99
350.08, 2.02, 382.23
341.48, 0.00, 379.94
341.72, 0.00, 380.00
341.98, 0.00, 380.06
342.26, 0.00, 380.13
342.56, 0.00, 380.20
342.89, 0.00, 380.28
343.24, 0.00, 380.37
343.63, 0.00, 380.46
344.02, 0.01, 380.56
344.42, 0.03, 380.66
344.86, 0.04, 380.76
345.33, 0.06, 380.88
345.79, 0.09, 380.99
346.20, 0.15, 381.09
346.62, 0.21, 381.19
347.08, 0.28, 381.31
347.10, 0.43, 381.31
347.10, 0.58, 381.31
347.51, 0.68, 381.41
347.51, 0.84, 381.41
349.11, 0.82, 381.80
349.11, 0.99, 381.80
349.11, 1.17, 381.80
349.11, 1.34, 381.80
349.11, 1.52, 381.80
349.11, 1.69, 381.80
349.11, 1.87, 381.80
350.15, 2.02, 382.06
341.49, 0.00, 379.86
341.74, 0.00, 379.92
342.00, 0.00, 379.98
342.28, 0.00, 380.05
342.58, 0.00, 380.12
342.91, 0.00, 380.19
343.27, 0.00, 380.27
343.65, 0.00, 380.36
344.04, 0.01, 380.45
344.44, 0.03, 380.54
344.88, 0.04, 380.65
345.36, 0.06, 380.76
345.84, 0.09, 380.87
¯346.23, 0.15, 380.96
346.66, 0.21, 381.06
347.11, 0.28, 381.16
347.41, 0.39, 381.23
347.41, 0.54, 381.23
347.41, 0.70, 381.23
347.41, 0.85, 381.23
349.07, 0.83, 381.61
349.07, 1.00, 381.62
349.07, 1.17, 381.62
349.07, 1.35, 381.62
349.07, 1.52, 381.62
349.07, 1.70, 381.62
349.07, 1.87, 381.62
350.20, 2.02, 381.88
341.51, 0.00, 379.79
341.76, 0.00, 379.84
342.02, 0.00, 379.90
342.30, 0.00, 379.96
342.60, 0.00, 380.03
342.93, 0.00, 380.10
343.29, 0.00, 380.18
343.68, 0.00, 380.26
344.06, 0.01, 380.34
344.47, 0.03, 380.43
344.91, 0.04, 380.53
345.39, 0.06, 380.63
345.87, 0.09, 380.74
346.27, 0.15, 380.82
346.69, 0.21, 380.92
347.15, 0.28, 381.02
347.48, 0.38, 381.09
347.48, 0.54, 381.09
347.48, 0.69, 381.09
347.48, 0.85, 381.09
349.04, 0.83, 381.43
349.04, 1.01, 381.43
349.04, 1.18, 381.43
349.04, 1.35, 381.43
349.04, 1.53, 381.43
349.04, 1.70, 381.43
349.04, 1.87, 381.43
350.26, 2.02, 381.70
341.53, 0.00, 379.71
341.77, 0.00, 379.76
342.04, 0.00, 379.82
342.32, 0.00, 379.87
342.62, 0.00, 379.94
342.95, 0.00, 380.00
343.31, 0.00, 380.08
343.70, 0.00, 380.16
¯344.08, 0.01, 380.24
344.49, 0.03, 380.32
344.93, 0.04, 380.41
345.42, 0.06, 380.51
345.89, 0.09, 380.61
346.29, 0.15, 380.69
346.72, 0.21, 380.78
347.18, 0.28, 380.87
347.56, 0.37, 380.95
347.56, 0.53, 380.95
347.56, 0.69, 380.95
347.56, 0.84, 380.95
349.22, 0.82, 381.29
349.22, 0.99, 381.29
349.22, 1.17, 381.29
349.22, 1.34, 381.29
349.22, 1.52, 381.29
349.22, 1.69, 381.29
349.22, 1.87, 381.29
350.32, 2.02, 381.52
341.54, 0.00, 379.63
341.79, 0.00, 379.68
342.05, 0.00, 379.73
342.34, 0.00, 379.79
342.64, 0.00, 379.85
342.97, 0.00, 379.91
343.33, 0.00, 379.98
343.72, 0.00, 380.05
344.10, 0.01, 380.13
344.51, 0.03, 380.21
344.95, 0.04, 380.29
345.46, 0.06, 380.39
345.92, 0.09, 380.48
346.32, 0.15, 380.56
346.75, 0.21, 380.64
347.21, 0.28, 380.73
347.97, 0.32, 380.87
348.12, 0.45, 380.90
348.12, 0.62, 380.90
348.12, 0.78, 380.90
349.68, 0.77, 381.20
349.68, 0.95, 381.20
349.68, 1.13, 381.20
349.68, 1.31, 381.20
349.68, 1.49, 381.20
349.68, 1.67, 381.20
349.68, 1.85, 381.20
350.37, 2.02, 381.34
341.56, 0.00, 379.56
341.80, 0.00, 379.60
342.07, 0.00, 379.65
¯342.35, 0.00, 379.70
342.66, 0.00, 379.76
342.99, 0.00, 379.82
343.35, 0.00, 379.88
343.74, 0.00, 379.95
344.12, 0.01, 380.02
344.53, 0.03, 380.09
344.97, 0.05, 380.17
345.50, 0.05, 380.27
345.95, 0.09, 380.35
346.35, 0.15, 380.42
346.78, 0.21, 380.50
347.24, 0.28, 380.58
348.02, 0.31, 380.72
348.20, 0.45, 380.75
348.20, 0.61, 380.75
348.20, 0.77, 380.75
350.17, 0.72, 381.11
350.17, 0.91, 381.11
350.17, 1.10, 381.11
350.17, 1.28, 381.11
350.17, 1.47, 381.11
350.17, 1.65, 381.11
350.17, 1.84, 381.11
350.42, 2.02, 381.16
341.57, 0.00, 379.48
341.82, 0.00, 379.52
342.08, 0.00, 379.57
342.37, 0.00, 379.61
342.68, 0.00, 379.67
343.01, 0.00, 379.72
343.37, 0.00, 379.78
343.76, 0.00, 379.85
344.14, 0.01, 379.91
344.54, 0.03, 379.98
345.00, 0.04, 380.05
345.53, 0.05, 380.14
345.97, 0.09, 380.22
346.37, 0.15, 380.28
346.81, 0.21, 380.36
347.27, 0.28, 380.43
348.07, 0.31, 380.57
350.70, 0.09, 381.01
350.70, 0.28, 381.01
350.70, 0.48, 381.01
350.70, 0.67, 381.01
350.70, 0.86, 381.01
350.69, 1.06, 381.01
350.69, 1.25, 381.01
350.69, 1.44, 381.01
350.69, 1.63, 381.01
¯350.69, 1.82, 381.01
350.69, 2.01, 381.01
341.58, 0.00, 379.40
341.83, 0.00, 379.44
342.10, 0.00, 379.48
342.38, 0.00, 379.53
342.69, 0.00, 379.58
343.02, 0.00, 379.63
343.38, 0.00, 379.68
343.77, 0.00, 379.74
344.15, 0.02, 379.80
344.56, 0.03, 379.86
345.03, 0.04, 379.94
345.57, 0.05, 380.02
345.99, 0.09, 380.09
346.40, 0.15, 380.15
346.83, 0.21, 380.22
347.28, 0.29, 380.29
348.13, 0.30, 380.42
351.09, 0.04, 380.87
351.26, 0.21, 380.90
351.26, 0.41, 380.90
351.26, 0.61, 380.90
351.25, 0.81, 380.90
351.25, 1.01, 380.90
351.25, 1.21, 380.90
351.25, 1.41, 380.90
351.25, 1.61, 380.90
351.25, 1.81, 380.90
351.25, 2.00, 380.90
341.60, 0.00, 379.33
341.84, 0.00, 379.36
342.11, 0.00, 379.40
342.40, 0.00, 379.44
342.70, 0.00, 379.48
343.04, 0.00, 379.53
343.40, 0.00, 379.58
343.79, 0.00, 379.64
344.17, 0.02, 379.69
344.58, 0.03, 379.75
345.06, 0.04, 379.82
345.60, 0.05, 379.90
346.02, 0.09, 379.96
346.42, 0.15, 380.01
346.86, 0.21, 380.08
347.28, 0.29, 380.14
348.17, 0.30, 380.26
350.83, 0.08, 380.64
351.86, 0.14, 380.79
351.85, 0.35, 380.79
351.85, 0.55, 380.79
¯351.85, 0.76, 380.79
351.85, 0.97, 380.79
351.85, 1.17, 380.79
351.85, 1.38, 380.79
351.85, 1.58, 380.79
351.85, 1.79, 380.79
351.84, 1.99, 380.79
341.61, 0.00, 379.25
341.86, 0.00, 379.28
342.12, 0.00, 379.32
342.41, 0.00, 379.35
342.72, 0.00, 379.39
343.05, 0.00, 379.44
343.41, 0.00, 379.48
343.80, 0.00, 379.53
344.18, 0.02, 379.58
344.60, 0.03, 379.64
345.09, 0.03, 379.70
345.64, 0.04, 379.77
346.04, 0.09, 379.83
346.45, 0.15, 379.88
346.87, 0.22, 379.93
347.29, 0.29, 379.99
348.21, 0.30, 380.11
350.55, 0.12, 380.41
352.92, 0.00, 380.72
354.77, 0.00, 380.96
357.03, 0.00, 381.25
359.89, 0.00, 381.62
359.69, 0.32, 381.60
359.66, 0.63, 381.59
359.74, 0.92, 381.61
355.69, 1.41, 381.08
341.62, 0.00, 379.17
341.87, 0.00, 379.20
342.13, 0.00, 379.23
342.42, 0.00, 379.27
342.73, 0.00, 379.30
343.06, 0.00, 379.34
343.43, 0.00, 379.38
343.81, 0.00, 379.43
344.19, 0.02, 379.47
344.63, 0.03, 379.53
345.12, 0.03, 379.58
345.67, 0.04, 379.65
346.06, 0.09, 379.69
346.47, 0.15, 379.74
346.87, 0.22, 379.79
347.16, 0.32, 379.82
347.16, 0.47, 379.82
347.16, 0.62, 379.82
¯347.16, 0.77, 379.82
354.80, 0.00, 380.72
357.07, 0.00, 380.99
359.93, 0.00, 381.32
359.78, 0.62, 381.31
359.79, 0.92, 381.31
341.63, 0.00, 379.09
341.88, 0.00, 379.12
342.14, 0.00, 379.15
342.43, 0.00, 379.18
342.74, 0.00, 379.21
343.08, 0.00, 379.25
343.44, 0.00, 379.29
343.83, 0.00, 379.33
344.20, 0.02, 379.37
344.65, 0.02, 379.41
345.15, 0.03, 379.46
345.70, 0.04, 379.52
346.08, 0.09, 379.56
346.48, 0.15, 379.60
346.88, 0.22, 379.65
347.03, 0.34, 379.66
347.03, 0.49, 379.66
347.03, 0.64, 379.66
347.03, 0.78, 379.66
354.83, 0.00, 380.48
357.11, 0.00, 380.72
359.97, 0.00, 381.02
359.65, 0.63, 380.99
359.64, 0.93, 380.99
360.09, 1.82, 381.04
341.63, 0.00, 379.02
341.88, 0.00, 379.04
342.15, 0.00, 379.06
342.44, 0.00, 379.09
342.75, 0.00, 379.12
343.09, 0.00, 379.15
343.45, 0.00, 379.19
343.84, 0.00, 379.22
344.23, 0.01, 379.26
344.68, 0.02, 379.30
345.18, 0.03, 379.35
345.72, 0.03, 379.40
346.10, 0.09, 379.43
346.48, 0.15, 379.47
346.88, 0.22, 379.50
346.90, 0.37, 379.51
346.90, 0.51, 379.51
346.90, 0.66, 379.51
346.90, 0.80, 379.51
347.29, 0.90, 379.54
¯352.08, 0.54, 379.99
360.01, 0.00, 380.72
359.20, 0.67, 380.65
359.20, 0.96, 380.65
359.62, 1.24, 380.69
359.65, 1.54, 380.69
359.67, 1.83, 380.69
359.69, 2.13, 380.69
359.70, 2.43, 380.70
359.71, 2.73, 380.70
341.64, 0.00, 378.94
341.89, 0.00, 378.96
342.16, 0.00, 378.98
342.45, 0.00, 379.00
342.76, 0.00, 379.03
343.09, 0.00, 379.06
343.46, 0.00, 379.09
343.84, 0.00, 379.12
344.25, 0.01, 379.15
344.70, 0.02, 379.19
345.20, 0.02, 379.23
345.74, 0.03, 379.27
346.12, 0.09, 379.30
346.49, 0.15, 379.33
346.78, 0.24, 379.35
346.78, 0.39, 379.35
346.78, 0.53, 379.35
346.78, 0.68, 379.35
346.78, 0.82, 379.35
347.30, 0.90, 379.40
349.63, 0.80, 379.58
349.63, 0.98, 379.58
349.63, 1.16, 379.58
349.63, 1.34, 379.58
359.08, 0.97, 380.34
359.08, 1.26, 380.34
359.48, 1.54, 380.38
359.49, 1.84, 380.38
359.51, 2.14, 380.38
359.53, 2.43, 380.38
359.56, 2.73, 380.39
341.65, 0.00, 378.86
341.90, 0.00, 378.88
342.17, 0.00, 378.90
342.46, 0.00, 378.92
342.77, 0.00, 378.94
343.10, 0.00, 378.96
343.47, 0.00, 378.99
343.85, 0.00, 379.01
344.27, 0.01, 379.04
344.72, 0.01, 379.07
¯345.23, 0.02, 379.10
345.75, 0.03, 379.14
346.12, 0.09, 379.17
346.49, 0.16, 379.19
346.66, 0.27, 379.20
346.66, 0.41, 379.20
346.66, 0.55, 379.20
346.66, 0.70, 379.20
346.66, 0.84, 379.20
347.32, 0.90, 379.25
349.63, 0.81, 379.41
349.63, 0.98, 379.41
349.63, 1.16, 379.41
349.63, 1.34, 379.41
358.97, 0.98, 380.04
358.97, 1.27, 380.04
359.06, 1.56, 380.05
359.32, 1.84, 380.07
359.34, 2.14, 380.07
359.37, 2.43, 380.07
359.39, 2.73, 380.08
341.65, 0.00, 378.78
341.90, 0.00, 378.80
342.17, 0.00, 378.81
342.46, 0.00, 378.83
342.77, 0.00, 378.85
343.11, 0.00, 378.86
343.47, 0.00, 378.88
343.87, 0.00, 378.91
344.29, 0.01, 378.93
344.74, 0.01, 378.96
345.25, 0.02, 378.98
345.77, 0.03, 379.01
346.12, 0.09, 379.03
346.49, 0.16, 379.05
346.57, 0.28, 379.06
346.57, 0.43, 379.06
346.57, 0.57, 379.06
346.57, 0.71, 379.06
346.63, 0.84, 379.06
347.33, 0.90, 379.10
349.63, 0.81, 379.23
349.63, 0.98, 379.23
349.63, 1.16, 379.23
349.63, 1.34, 379.23
358.85, 0.99, 379.75
358.85, 1.28, 379.75
359.00, 1.56, 379.76
359.34, 1.84, 379.78
359.36, 2.14, 379.78
359.37, 2.43, 379.78
¯359.40, 2.73, 379.78
341.66, 0.00, 378.71
341.91, 0.00, 378.72
342.18, 0.00, 378.73
342.47, 0.00, 378.74
342.78, 0.00, 378.75
343.11, 0.00, 378.77
343.48, 0.00, 378.78
343.87, 0.00, 378.80
344.30, 0.01, 378.82
344.76, 0.01, 378.84
345.26, 0.01, 378.86
345.77, 0.03, 378.88
346.12, 0.09, 378.90
346.49, 0.16, 378.92
346.74, 0.26, 378.93
346.74, 0.40, 378.93
346.74, 0.55, 378.93
346.74, 0.69, 378.93
346.77, 0.83, 378.93
347.34, 0.90, 378.95
349.63, 0.81, 379.05
349.63, 0.99, 379.06
349.63, 1.16, 379.06
349.63, 1.34, 379.06
358.74, 1.00, 379.45
359.09, 1.27, 379.47
359.06, 1.56, 379.47
359.23, 1.85, 379.48
359.25, 2.14, 379.48
359.27, 2.43, 379.48
359.30, 2.73, 379.48
341.66, 0.00, 378.63
341.91, 0.00, 378.63
342.18, 0.00, 378.64
342.47, 0.00, 378.65
342.78, 0.00, 378.66
343.12, 0.00, 378.67
343.48, 0.00, 378.68
343.88, 0.00, 378.70
344.30, 0.01, 378.71
344.76, 0.01, 378.72
345.27, 0.01, 378.74
345.78, 0.03, 378.76
346.13, 0.09, 378.77
346.50, 0.16, 378.78
346.89, 0.23, 378.79
346.90, 0.37, 378.79
346.90, 0.52, 378.79
346.90, 0.67, 378.79
346.91, 0.81, 378.79
¯347.35, 0.90, 378.81
349.63, 0.81, 378.88
349.63, 0.99, 378.88
349.63, 1.16, 378.88
349.63, 1.34, 378.88
359.23, 0.97, 379.18
359.09, 1.27, 379.18
359.11, 1.56, 379.18
359.15, 1.85, 379.18
359.30, 2.14, 379.19
359.46, 2.44, 379.19
359.61, 2.73, 379.20
341.66, 0.00, 378.55
341.91, 0.00, 378.55
342.18, 0.00, 378.56
342.47, 0.00, 378.56
342.78, 0.00, 378.57
343.12, 0.00, 378.58
343.49, 0.00, 378.58
343.88, 0.00, 378.59
344.30, 0.01, 378.60
344.77, 0.01, 378.61
345.27, 0.01, 378.62
345.79, 0.03, 378.63
346.13, 0.09, 378.63
346.51, 0.16, 378.64
346.90, 0.23, 378.65
347.08, 0.35, 378.65
347.08, 0.49, 378.65
347.08, 0.64, 378.65
347.07, 0.79, 378.65
347.35, 0.90, 378.66
349.63, 0.81, 378.70
349.63, 0.99, 378.70
349.63, 1.16, 378.70
349.63, 1.34, 378.70
359.11, 0.98, 378.89
359.11, 1.27, 378.89
358.79, 1.57, 378.88
359.05, 1.85, 378.89
360.03, 2.14, 378.91
360.20, 2.44, 378.91
341.67, 0.00, 378.47
341.92, 0.00, 378.47
342.19, 0.00, 378.47
342.47, 0.00, 378.48
342.79, 0.00, 378.48
343.12, 0.00, 378.48
343.49, 0.00, 378.48
343.88, 0.00, 378.49
344.31, 0.01, 378.49
¯344.77, 0.01, 378.49
345.28, 0.01, 378.50
345.79, 0.03, 378.50
346.14, 0.09, 378.50
346.51, 0.16, 378.50
346.91, 0.23, 378.51
347.25, 0.32, 378.51
347.25, 0.47, 378.51
347.25, 0.62, 378.51
347.25, 0.77, 378.51
347.40, 0.90, 378.51
349.63, 0.81, 378.53
349.63, 0.99, 378.53
349.63, 1.16, 378.53
349.63, 1.34, 378.53
359.09, 0.98, 378.59
359.04, 1.27, 378.59
358.92, 1.57, 378.59
359.16, 1.85, 378.60
341.67, 0.00, 378.39
341.92, 0.00, 378.39
342.19, 0.00, 378.39
342.48, 0.00, 378.39
342.79, 0.00, 378.39
343.12, 0.00, 378.38
343.49, 0.00, 378.38
343.89, 0.00, 378.38
344.31, 0.01, 378.38
344.77, 0.01, 378.38
345.28, 0.01, 378.37
345.79, 0.03, 378.37
346.14, 0.09, 378.37
346.52, 0.16, 378.37
346.91, 0.23, 378.37
347.38, 0.30, 378.36
347.43, 0.44, 378.36
347.43, 0.59, 378.36
347.43, 0.74, 378.36
347.56, 0.88, 378.36
348.77, 0.90, 378.36
349.63, 0.99, 378.35
349.63, 1.17, 378.35
349.63, 1.34, 378.35
359.49, 0.96, 378.30
359.62, 1.25, 378.30
359.44, 1.55, 378.30
359.40, 1.85, 378.30
359.44, 2.14, 378.30
359.57, 2.44, 378.30
359.57, 2.73, 378.30
341.67, 0.00, 378.31
¯341.92, 0.00, 378.31
342.19, 0.00, 378.31
342.47, 0.00, 378.30
342.79, 0.00, 378.29
343.12, 0.00, 378.29
343.49, 0.00, 378.28
343.89, 0.00, 378.28
344.31, 0.01, 378.27
344.77, 0.01, 378.26
345.29, 0.01, 378.25
345.80, 0.03, 378.24
346.15, 0.09, 378.24
346.52, 0.16, 378.23
346.92, 0.23, 378.22
347.41, 0.29, 378.21
347.62, 0.41, 378.21
347.62, 0.56, 378.21
347.62, 0.72, 378.21
347.72, 0.86, 378.21
348.77, 0.90, 378.19
359.33, 0.67, 378.01
359.27, 0.97, 378.01
359.33, 1.26, 378.01
359.33, 1.56, 378.01
359.33, 1.85, 378.01
359.33, 2.14, 378.01
359.34, 2.44, 378.01
359.35, 2.73, 378.01
341.66, 0.00, 378.24
341.91, 0.00, 378.23
342.18, 0.00, 378.22
342.47, 0.00, 378.21
342.79, 0.00, 378.20
343.12, 0.00, 378.19
343.49, 0.00, 378.18
343.88, 0.00, 378.17
344.30, 0.01, 378.16
344.77, 0.01, 378.14
345.29, 0.01, 378.13
345.80, 0.03, 378.11
346.15, 0.09, 378.10
346.52, 0.16, 378.09
346.93, 0.22, 378.08
347.44, 0.29, 378.07
347.82, 0.38, 378.05
347.82, 0.54, 378.05
347.82, 0.69, 378.05
347.88, 0.84, 378.05
348.77, 0.90, 378.03
359.60, 0.65, 377.70
359.60, 0.95, 377.71
¯359.58, 1.55, 377.71
359.46, 1.85, 377.71
359.34, 2.14, 377.72
359.23, 2.44, 377.72
359.24, 2.73, 377.72
341.66, 0.00, 378.16
341.91, 0.00, 378.15
342.18, 0.00, 378.14
342.47, 0.00, 378.12
342.78, 0.00, 378.11
343.12, 0.00, 378.10
343.49, 0.00, 378.08
343.88, 0.00, 378.07
344.30, 0.01, 378.05
344.76, 0.01, 378.03
345.29, 0.01, 378.01
345.80, 0.03, 377.98
346.15, 0.09, 377.97
346.52, 0.16, 377.95
346.96, 0.22, 377.94
347.48, 0.28, 377.91
348.02, 0.35, 377.89
348.02, 0.51, 377.89
348.02, 0.67, 377.89
348.05, 0.82, 377.89
348.77, 0.90, 377.86
358.86, 0.99, 377.44
358.86, 1.28, 377.44
358.86, 1.57, 377.44
358.90, 1.86, 377.44
359.07, 2.44, 377.43
359.07, 2.73, 377.43
341.66, 0.00, 378.08
341.91, 0.00, 378.07
342.18, 0.00, 378.05
342.47, 0.00, 378.04
342.78, 0.00, 378.02
343.12, 0.00, 378.00
343.48, 0.00, 377.98
343.88, 0.00, 377.96
344.30, 0.01, 377.94
344.76, 0.01, 377.91
345.29, 0.01, 377.88
345.80, 0.03, 377.86
346.15, 0.09, 377.84
346.52, 0.15, 377.82
346.99, 0.21, 377.79
347.51, 0.27, 377.76
348.22, 0.31, 377.72
348.22, 0.48, 377.73
348.22, 0.64, 377.73
¯348.22, 0.80, 377.73
348.76, 0.90, 377.70
358.75, 1.00, 377.16
358.75, 1.29, 377.16
359.60, 1.55, 377.11
358.96, 1.86, 377.15
358.96, 2.15, 377.15
358.96, 2.44, 377.15
358.96, 2.73, 377.15
341.65, 0.00, 378.00
341.90, 0.00, 377.99
342.17, 0.00, 377.97
342.46, 0.00, 377.95
342.77, 0.00, 377.93
343.11, 0.00, 377.91
343.48, 0.00, 377.88
343.87, 0.00, 377.85
344.29, 0.01, 377.83
344.76, 0.01, 377.80
345.29, 0.01, 377.76
345.80, 0.02, 377.73
346.15, 0.09, 377.70
346.54, 0.15, 377.68
347.02, 0.21, 377.65
347.54, 0.27, 377.61
348.42, 0.28, 377.55
348.44, 0.45, 377.55
348.44, 0.61, 377.55
348.44, 0.77, 377.55
348.76, 0.90, 377.53
359.05, 0.98, 376.85
358.91, 1.28, 376.86
358.91, 1.57, 376.86
358.85, 1.86, 376.86
358.97, 2.15, 376.86
359.03, 2.44, 376.85
359.02, 2.73, 376.85
341.65, 0.00, 377.92
341.90, 0.00, 377.90
342.17, 0.00, 377.88
342.46, 0.00, 377.86
342.77, 0.00, 377.84
343.10, 0.00, 377.81
343.47, 0.00, 377.78
343.86, 0.00, 377.75
344.29, 0.01, 377.72
344.76, 0.01, 377.68
345.29, 0.01, 377.64
345.80, 0.02, 377.60
346.15, 0.09, 377.57
346.57, 0.14, 377.54
¯347.05, 0.20, 377.50
347.57, 0.26, 377.46
348.40, 0.29, 377.39
348.66, 0.41, 377.37
348.66, 0.58, 377.37
348.66, 0.75, 377.37
348.82, 0.89, 377.36
358.80, 1.28, 376.58
341.64, 0.00, 377.85
341.89, 0.00, 377.82
342.16, 0.00, 377.80
342.45, 0.00, 377.77
342.76, 0.00, 377.74
343.10, 0.00, 377.71
343.46, 0.00, 377.68
343.86, 0.00, 377.64
344.28, 0.00, 377.61
344.75, 0.01, 377.56
345.28, 0.01, 377.51
345.80, 0.02, 377.47
346.15, 0.08, 377.44
346.59, 0.14, 377.40
347.07, 0.19, 377.35
347.60, 0.25, 377.30
348.38, 0.29, 377.23
348.89, 0.38, 377.19
348.89, 0.55, 377.19
348.89, 0.72, 377.19
349.02, 0.87, 377.18
341.64, 0.00, 377.77
341.89, 0.00, 377.74
342.15, 0.00, 377.71
342.44, 0.00, 377.68
342.75, 0.00, 377.65
343.09, 0.00, 377.62
343.45, 0.00, 377.58
343.85, 0.00, 377.54
344.27, 0.00, 377.50
344.75, 0.00, 377.45
345.28, 0.00, 377.39
345.79, 0.02, 377.34
346.16, 0.08, 377.30
346.61, 0.13, 377.25
347.10, 0.19, 377.20
347.62, 0.25, 377.15
348.35, 0.29, 377.07
349.10, 0.35, 377.00
349.13, 0.51, 376.99
349.13, 0.69, 377.00
349.21, 0.85, 376.99
341.63, 0.00, 377.69
¯341.88, 0.00, 377.66
342.14, 0.00, 377.63
342.43, 0.00, 377.60
342.74, 0.00, 377.56
343.08, 0.00, 377.52
343.44, 0.00, 377.48
343.84, 0.00, 377.43
344.26, 0.00, 377.39
344.74, 0.00, 377.33
345.27, 0.00, 377.27
345.79, 0.02, 377.21
346.18, 0.07, 377.16
346.63, 0.12, 377.11
347.12, 0.18, 377.05
347.65, 0.24, 376.99
348.35, 0.29, 376.91
349.15, 0.34, 376.82
349.38, 0.48, 376.79
349.38, 0.66, 376.79
349.42, 0.83, 376.79
341.62, 0.00, 377.61
341.87, 0.00, 377.58
342.14, 0.00, 377.55
342.42, 0.00, 377.51
342.73, 0.00, 377.47
343.07, 0.00, 377.43
343.43, 0.00, 377.38
343.83, 0.00, 377.33
344.25, 0.00, 377.28
344.73, 0.00, 377.21
345.26, 0.00, 377.15
345.78, 0.02, 377.08
346.20, 0.07, 377.03
346.65, 0.12, 376.97
347.13, 0.17, 376.91
347.70, 0.23, 376.83
348.43, 0.27, 376.74
349.23, 0.32, 376.64
351.69, 0.17, 376.32
351.75, 0.37, 376.32
351.75, 0.58, 376.32
341.61, 0.00, 377.53
341.86, 0.00, 377.50
342.12, 0.00, 377.46
342.41, 0.00, 377.42
342.72, 0.00, 377.38
343.06, 0.00, 377.33
343.42, 0.00, 377.28
343.81, 0.00, 377.22
344.24, 0.00, 377.16
344.72, 0.00, 377.10
¯345.25, 0.00, 377.02
345.79, 0.01, 376.95
346.20, 0.06, 376.89
346.64, 0.11, 376.83
347.12, 0.17, 376.76
347.77, 0.21, 376.67
348.50, 0.26, 376.57
349.25, 0.32, 376.46
351.45, 0.20, 376.15
354.78, 0.01, 375.68
357.12, 0.00, 375.35
341.60, 0.00, 377.46
341.85, 0.00, 377.42
342.11, 0.00, 377.38
342.40, 0.00, 377.33
342.71, 0.00, 377.29
343.04, 0.00, 377.24
343.41, 0.00, 377.18
343.80, 0.00, 377.12
344.23, 0.00, 377.05
344.71, 0.00, 376.98
345.24, 0.00, 376.90
345.78, 0.01, 376.82
346.19, 0.06, 376.75
346.63, 0.11, 376.69
347.11, 0.17, 376.61
347.83, 0.20, 376.50
348.57, 0.24, 376.39
349.24, 0.31, 376.29
351.24, 0.23, 375.98
354.75, 0.01, 375.44
357.09, 0.00, 375.09
341.59, 0.00, 377.38
341.83, 0.00, 377.34
342.10, 0.00, 377.29
342.39, 0.00, 377.25
342.69, 0.00, 377.20
343.03, 0.00, 377.14
343.39, 0.00, 377.08
343.78, 0.00, 377.02
344.22, 0.00, 376.94
344.69, 0.00, 376.87
345.22, 0.00, 376.78
345.77, 0.01, 376.69
346.18, 0.06, 376.62
346.62, 0.11, 376.55
347.10, 0.17, 376.47
347.89, 0.19, 376.34
348.64, 0.23, 376.21
349.23, 0.31, 376.12
351.04, 0.25, 375.82
¯354.71, 0.01, 375.21
357.05, 0.00, 374.82
341.57, 0.00, 377.30
341.82, 0.00, 377.26
342.09, 0.00, 377.21
342.37, 0.00, 377.16
342.68, 0.00, 377.11
343.01, 0.00, 377.05
343.37, 0.00, 376.98
343.77, 0.00, 376.91
344.20, 0.00, 376.83
344.67, 0.00, 376.75
345.20, 0.00, 376.66
345.75, 0.01, 376.56
346.16, 0.06, 376.48
346.61, 0.11, 376.41
347.12, 0.16, 376.31
347.95, 0.17, 376.17
348.70, 0.21, 376.03
349.21, 0.31, 375.94
350.83, 0.27, 375.65
354.65, 0.01, 374.97
357.01, 0.00, 374.55
341.56, 0.00, 377.23
341.81, 0.00, 377.18
342.07, 0.00, 377.13
342.36, 0.00, 377.07
342.66, 0.00, 377.02
343.00, 0.00, 376.95
343.36, 0.00, 376.88
343.75, 0.00, 376.81
344.18, 0.00, 376.73
344.65, 0.00, 376.64
345.18, 0.00, 376.54
345.74, 0.00, 376.43
346.15, 0.05, 376.35
346.59, 0.11, 376.27
347.19, 0.14, 376.15
348.01, 0.16, 376.00
348.69, 0.21, 375.87
349.20, 0.31, 375.77
350.63, 0.29, 375.50
354.47, 0.03, 374.76
356.97, 0.00, 374.29
341.54, 0.00, 377.15
341.79, 0.00, 377.10
342.06, 0.00, 377.04
342.34, 0.00, 376.99
342.65, 0.00, 376.92
342.98, 0.00, 376.86
343.34, 0.00, 376.78
¯343.73, 0.00, 376.70
344.16, 0.00, 376.62
344.63, 0.00, 376.52
345.16, 0.00, 376.41
345.72, 0.00, 376.30
346.13, 0.05, 376.22
346.58, 0.11, 376.13
347.26, 0.13, 375.99
348.07, 0.14, 375.82
348.68, 0.21, 375.70
349.19, 0.31, 375.59
350.43, 0.32, 375.34
354.28, 0.04, 374.56
356.92, 0.00, 374.02
341.53, 0.00, 377.07
341.78, 0.00, 377.02
342.04, 0.00, 376.96
342.32, 0.00, 376.90
342.63, 0.00, 376.83
342.96, 0.00, 376.76
343.32, 0.00, 376.69
343.71, 0.00, 376.60
344.14, 0.00, 376.51
344.61, 0.00, 376.41
345.13, 0.00, 376.29
345.71, 0.00, 376.17
346.12, 0.05, 376.08
346.56, 0.10, 375.98
347.33, 0.11, 375.82
348.13, 0.13, 375.65
348.66, 0.21, 375.53
349.17, 0.30, 375.42
350.23, 0.34, 375.19
354.10, 0.06, 374.35
356.87, 0.00, 373.75
341.51, 0.00, 377.00
341.76, 0.00, 376.94
342.02, 0.00, 376.88
342.30, 0.00, 376.81
342.61, 0.00, 376.74
342.94, 0.00, 376.67
343.30, 0.00, 376.59
343.69, 0.00, 376.50
344.12, 0.00, 376.40
344.59, 0.00, 376.29
345.11, 0.00, 376.17
345.68, 0.00, 376.04
346.10, 0.05, 375.94
346.54, 0.10, 375.84
347.40, 0.09, 375.65
348.17, 0.11, 375.47
¯348.64, 0.20, 375.36
349.16, 0.30, 375.25
350.03, 0.36, 375.05
353.92, 0.08, 374.15
356.82, 0.00, 373.49
341.50, 0.00, 376.92
341.74, 0.00, 376.86
342.00, 0.00, 376.80
342.28, 0.00, 376.73
342.59, 0.00, 376.65
342.92, 0.00, 376.58
343.28, 0.00, 376.49
343.66, 0.00, 376.39
344.09, 0.00, 376.29
344.56, 0.00, 376.18
345.08, 0.00, 376.05
345.65, 0.00, 375.91
346.08, 0.05, 375.81
346.59, 0.09, 375.69
347.47, 0.07, 375.47
348.15, 0.11, 375.31
348.63, 0.20, 375.19
349.14, 0.30, 375.07
350.35, 0.31, 374.78
353.73, 0.09, 373.96
356.76, 0.00, 373.22
341.48, 0.00, 376.84
341.72, 0.00, 376.78
341.98, 0.00, 376.71
342.26, 0.00, 376.64
342.57, 0.00, 376.57
342.90, 0.00, 376.48
343.25, 0.00, 376.39
343.64, 0.00, 376.29
344.07, 0.00, 376.18
344.53, 0.00, 376.06
345.05, 0.00, 375.93
345.62, 0.00, 375.79
346.06, 0.04, 375.67
346.65, 0.07, 375.52
347.54, 0.05, 375.30
348.13, 0.11, 375.15
348.61, 0.20, 375.02
349.13, 0.29, 374.89
350.97, 0.22, 374.42
353.55, 0.11, 373.77
356.66, 0.00, 372.97
341.46, 0.00, 376.77
341.70, 0.00, 376.70
341.96, 0.00, 376.63
342.24, 0.00, 376.56
¯342.54, 0.00, 376.48
342.87, 0.00, 376.39
343.23, 0.00, 376.29
343.61, 0.00, 376.19
344.04, 0.00, 376.08
344.50, 0.00, 375.95
345.02, 0.00, 375.81
345.59, 0.00, 375.66
346.04, 0.04, 375.54
346.70, 0.05, 375.36
347.61, 0.03, 375.12
348.11, 0.10, 374.98
348.60, 0.19, 374.85
349.11, 0.29, 374.72
350.93, 0.22, 374.23
353.00, 0.17, 373.68
356.46, 0.02, 372.75
341.44, 0.00, 376.69
341.68, 0.00, 376.62
341.94, 0.00, 376.55
342.22, 0.00, 376.47
342.52, 0.00, 376.39
342.85, 0.00, 376.30
343.20, 0.00, 376.20
343.59, 0.00, 376.09
344.01, 0.00, 375.97
344.47, 0.00, 375.84
344.99, 0.00, 375.69
345.56, 0.00, 375.53
346.02, 0.04, 375.40
346.76, 0.03, 375.20
347.64, 0.02, 374.95
348.10, 0.10, 374.82
348.58, 0.19, 374.68
349.10, 0.28, 374.54
350.89, 0.22, 374.04
352.40, 0.24, 373.61
356.26, 0.03, 372.52
341.42, 0.00, 376.62
341.66, 0.00, 376.55
341.92, 0.00, 376.47
342.20, 0.00, 376.39
342.50, 0.00, 376.30
342.82, 0.00, 376.20
343.17, 0.00, 376.10
343.56, 0.00, 375.99
343.98, 0.00, 375.86
344.44, 0.00, 375.73
344.96, 0.00, 375.57
345.52, 0.00, 375.41
346.01, 0.03, 375.26
¯346.81, 0.01, 375.03
347.61, 0.02, 374.79
348.08, 0.09, 374.65
348.57, 0.18, 374.51
349.23, 0.26, 374.32
350.84, 0.22, 373.84
351.53, 0.34, 373.64
356.06, 0.05, 372.30
341.39, 0.00, 376.54
341.63, 0.00, 376.47
341.89, 0.00, 376.39
342.17, 0.00, 376.30
342.47, 0.00, 376.21
342.79, 0.00, 376.11
343.15, 0.00, 376.00
343.53, 0.00, 375.88
343.95, 0.00, 375.75
344.41, 0.00, 375.61
344.92, 0.00, 375.46
345.49, 0.00, 375.28
346.05, 0.02, 375.11
346.79, 0.01, 374.88
347.57, 0.01, 374.64
348.06, 0.09, 374.49
348.55, 0.18, 374.34
349.42, 0.22, 374.07
350.79, 0.22, 373.65
351.47, 0.34, 373.44
355.86, 0.06, 372.09
341.37, 0.00, 376.47
341.61, 0.00, 376.39
341.87, 0.00, 376.31
342.14, 0.00, 376.22
342.44, 0.00, 376.12
342.77, 0.00, 376.02
343.12, 0.00, 375.91
343.50, 0.00, 375.78
343.92, 0.00, 375.65
344.38, 0.00, 375.50
344.89, 0.00, 375.34
345.45, 0.00, 375.16
346.07, 0.00, 374.96
346.75, 0.01, 374.74
347.53, 0.01, 374.49
348.05, 0.09, 374.32
348.53, 0.17, 374.17
349.63, 0.18, 373.81
350.74, 0.22, 373.46
351.42, 0.34, 373.24
355.67, 0.08, 371.88
358.97, 0.02, 370.82
¯341.35, 0.00, 376.39
341.59, 0.00, 376.31
341.84, 0.00, 376.23
342.12, 0.00, 376.13
342.42, 0.00, 376.03
342.74, 0.00, 375.93
343.09, 0.00, 375.81
343.47, 0.00, 375.68
343.88, 0.00, 375.54
344.34, 0.00, 375.39
344.85, 0.00, 375.22
345.41, 0.00, 375.03
346.03, 0.00, 374.83
346.70, 0.01, 374.60
347.49, 0.01, 374.34
348.03, 0.08, 374.16
348.51, 0.17, 373.99
350.06, 0.11, 373.48
350.69, 0.22, 373.27
351.37, 0.34, 373.04
355.46, 0.09, 371.67
358.72, 0.03, 370.58
341.32, 0.00, 376.32
341.56, 0.00, 376.23
341.82, 0.00, 376.15
342.09, 0.00, 376.05
342.39, 0.00, 375.95
342.71, 0.00, 375.84
343.05, 0.00, 375.71
343.43, 0.00, 375.58
343.85, 0.00, 375.44
344.30, 0.00, 375.28
344.81, 0.00, 375.10
345.37, 0.00, 374.91
345.99, 0.00, 374.69
346.66, 0.01, 374.46
347.45, 0.01, 374.18
348.01, 0.07, 373.99
348.57, 0.15, 373.80
350.01, 0.11, 373.29
350.64, 0.22, 373.07
351.45, 0.32, 372.79
355.12, 0.12, 371.51
358.47, 0.05, 370.34
341.30, 0.00, 376.24
341.53, 0.00, 376.16
341.79, 0.00, 376.07
342.06, 0.00, 375.97
342.36, 0.00, 375.86
342.67, 0.00, 375.74
343.02, 0.00, 375.62
¯343.40, 0.00, 375.48
343.81, 0.00, 375.33
344.27, 0.00, 375.17
344.77, 0.00, 374.99
345.33, 0.00, 374.78
345.94, 0.00, 374.56
346.62, 0.01, 374.32
347.41, 0.01, 374.03
347.99, 0.07, 373.82
348.73, 0.12, 373.55
349.96, 0.11, 373.11
350.62, 0.21, 372.87
352.90, 0.13, 372.04
354.78, 0.15, 371.36
358.23, 0.06, 370.11
341.27, 0.00, 376.17
341.51, 0.00, 376.08
341.76, 0.00, 375.99
342.03, 0.00, 375.88
342.32, 0.00, 375.77
342.64, 0.00, 375.65
342.99, 0.00, 375.52
343.36, 0.00, 375.38
343.77, 0.00, 375.23
344.23, 0.00, 375.06
344.73, 0.00, 374.87
345.28, 0.00, 374.66
345.90, 0.00, 374.43
346.57, 0.01, 374.18
347.36, 0.01, 373.88
347.96, 0.06, 373.65
348.90, 0.08, 373.30
349.93, 0.10, 372.91
350.61, 0.20, 372.66
352.83, 0.13, 371.82
354.45, 0.18, 371.22
357.98, 0.08, 369.89
341.24, 0.00, 376.10
341.48, 0.00, 376.00
341.73, 0.00, 375.91
342.00, 0.00, 375.80
342.29, 0.00, 375.69
342.61, 0.00, 375.56
342.95, 0.00, 375.43
343.33, 0.00, 375.28
343.74, 0.00, 375.12
344.19, 0.00, 374.95
344.68, 0.00, 374.75
345.24, 0.00, 374.54
345.85, 0.00, 374.30
346.52, 0.01, 374.04
¯347.32, 0.01, 373.73
347.94, 0.06, 373.49
349.07, 0.04, 373.04
349.92, 0.09, 372.71
350.60, 0.20, 372.45
352.76, 0.13, 371.61
354.48, 0.16, 370.94
357.74, 0.09, 369.66
341.21, 0.00, 376.02
341.45, 0.00, 375.93
341.70, 0.00, 375.83
341.97, 0.00, 375.72
342.26, 0.00, 375.60
342.57, 0.00, 375.47
342.92, 0.00, 375.34
343.29, 0.00, 375.19
343.70, 0.00, 375.02
344.14, 0.00, 374.84
344.64, 0.00, 374.64
345.19, 0.00, 374.42
345.80, 0.00, 374.17
346.47, 0.01, 373.90
347.27, 0.00, 373.58
347.91, 0.05, 373.32
349.01, 0.04, 372.87
349.90, 0.09, 372.51
350.58, 0.19, 372.24
352.69, 0.13, 371.39
354.94, 0.10, 370.48
357.49, 0.11, 369.45
341.18, 0.00, 375.95
341.42, 0.00, 375.85
341.67, 0.00, 375.75
341.94, 0.00, 375.64
342.22, 0.00, 375.52
342.54, 0.00, 375.38
342.88, 0.00, 375.24
343.25, 0.00, 375.09
343.65, 0.00, 374.92
344.10, 0.00, 374.73
344.59, 0.00, 374.52
345.14, 0.00, 374.29
345.76, 0.00, 374.04
346.42, 0.01, 373.76
347.22, 0.00, 373.43
348.04, 0.02, 373.08
348.96, 0.04, 372.70
349.89, 0.08, 372.31
350.64, 0.17, 371.99
352.61, 0.12, 371.17
354.83, 0.10, 370.24
¯356.91, 0.16, 369.37
341.15, 0.00, 375.88
341.39, 0.00, 375.78
341.63, 0.00, 375.67
341.90, 0.00, 375.56
342.19, 0.00, 375.43
342.50, 0.00, 375.30
342.84, 0.00, 375.15
343.21, 0.00, 374.99
343.61, 0.00, 374.81
344.06, 0.00, 374.62
344.55, 0.00, 374.41
345.09, 0.00, 374.17
345.70, 0.00, 373.91
346.37, 0.01, 373.62
347.16, 0.00, 373.28
348.01, 0.01, 372.91
348.90, 0.03, 372.53
349.87, 0.07, 372.11
351.15, 0.09, 371.55
352.55, 0.12, 370.94
354.71, 0.11, 370.01
356.22, 0.22, 369.36
341.12, 0.00, 375.81
341.35, 0.00, 375.70
341.60, 0.00, 375.59
341.87, 0.00, 375.47
342.15, 0.00, 375.35
342.46, 0.00, 375.21
342.80, 0.00, 375.06
343.17, 0.00, 374.89
343.57, 0.00, 374.71
344.01, 0.00, 374.51
344.50, 0.00, 374.30
345.04, 0.00, 374.05
345.65, 0.00, 373.78
346.31, 0.00, 373.48
347.11, 0.00, 373.13
347.96, 0.01, 372.75
348.84, 0.03, 372.36
349.85, 0.06, 371.90
351.62, 0.01, 371.11
352.51, 0.12, 370.71
354.60, 0.11, 369.78
355.59, 0.27, 369.33
341.09, 0.00, 375.73
341.32, 0.00, 375.63
341.57, 0.00, 375.52
341.83, 0.00, 375.39
342.12, 0.00, 375.26
342.42, 0.00, 375.12
¯342.76, 0.00, 374.96
343.12, 0.00, 374.80
343.52, 0.00, 374.61
343.96, 0.00, 374.41
344.45, 0.00, 374.18
344.99, 0.00, 373.93
345.59, 0.00, 373.65
346.26, 0.00, 373.35
347.05, 0.00, 372.98
347.90, 0.01, 372.59
348.78, 0.03, 372.18
349.83, 0.05, 371.70
351.58, 0.00, 370.89
352.46, 0.11, 370.48
354.48, 0.11, 369.55
355.38, 0.28, 369.13
341.06, 0.00, 375.66
341.29, 0.00, 375.55
341.53, 0.00, 375.44
341.79, 0.00, 375.31
342.08, 0.00, 375.18
342.38, 0.00, 375.03
342.72, 0.00, 374.87
343.08, 0.00, 374.70
343.48, 0.00, 374.51
343.91, 0.00, 374.30
344.40, 0.00, 374.07
344.93, 0.00, 373.81
345.54, 0.00, 373.53
346.21, 0.00, 373.21
346.98, 0.00, 372.84
347.84, 0.01, 372.43
348.73, 0.03, 372.00
349.81, 0.04, 371.49
351.50, 0.00, 370.68
352.41, 0.10, 370.25
354.36, 0.11, 369.32
357.16, 0.09, 367.98
341.02, 0.00, 375.59
341.25, 0.00, 375.48
341.49, 0.00, 375.36
341.76, 0.00, 375.23
342.04, 0.00, 375.09
342.34, 0.00, 374.94
342.67, 0.00, 374.78
343.03, 0.00, 374.60
343.43, 0.00, 374.41
343.86, 0.00, 374.20
344.34, 0.00, 373.96
344.88, 0.00, 373.70
345.48, 0.00, 373.40
¯346.15, 0.00, 373.07
346.92, 0.00, 372.69
347.77, 0.00, 372.27
348.69, 0.02, 371.82
349.78, 0.03, 371.28
351.41, 0.00, 370.48
352.36, 0.10, 370.01
354.26, 0.11, 369.08
357.13, 0.08, 367.67
340.99, 0.00, 375.52
341.22, 0.00, 375.41
341.46, 0.00, 375.29
341.72, 0.00, 375.15
342.00, 0.00, 375.01
342.30, 0.00, 374.86
342.63, 0.00, 374.69
342.99, 0.00, 374.51
343.38, 0.00, 374.31
343.81, 0.00, 374.09
344.29, 0.00, 373.85
344.82, 0.00, 373.58
345.42, 0.00, 373.28
346.09, 0.00, 372.94
346.85, 0.00, 372.55
347.71, 0.00, 372.11
348.64, 0.02, 371.64
349.91, 0.00, 371.00
351.31, 0.00, 370.29
352.51, 0.07, 369.68
354.21, 0.10, 368.82
357.10, 0.07, 367.35
340.95, 0.00, 375.45
341.18, 0.00, 375.34
341.42, 0.00, 375.21
341.68, 0.00, 375.08
341.96, 0.00, 374.93
342.26, 0.00, 374.77
342.58, 0.00, 374.60
342.94, 0.00, 374.41
343.33, 0.00, 374.21
343.76, 0.00, 373.99
344.24, 0.00, 373.74
344.76, 0.00, 373.46
345.35, 0.00, 373.15
346.02, 0.00, 372.80
346.78, 0.00, 372.41
347.64, 0.00, 371.96
348.58, 0.01, 371.46
349.82, 0.00, 370.82
351.21, 0.00, 370.09
352.78, 0.02, 369.27
¯354.16, 0.10, 368.55
357.03, 0.06, 367.05
340.92, 0.00, 375.38
341.14, 0.00, 375.26
341.38, 0.00, 375.13
341.64, 0.00, 375.00
341.91, 0.00, 374.85
342.21, 0.00, 374.69
342.54, 0.00, 374.51
342.89, 0.00, 374.32
343.28, 0.00, 374.11
343.71, 0.00, 373.88
344.18, 0.00, 373.63
344.70, 0.00, 373.34
345.29, 0.00, 373.03
345.95, 0.00, 372.67
346.70, 0.00, 372.27
347.56, 0.00, 371.80
348.53, 0.01, 371.28
349.73, 0.00, 370.64
351.11, 0.00, 369.89
352.79, 0.00, 368.99
354.11, 0.09, 368.28
356.91, 0.06, 366.77
340.88, 0.00, 375.31
341.10, 0.00, 375.19
341.34, 0.00, 375.06
341.59, 0.00, 374.92
341.87, 0.00, 374.77
342.17, 0.00, 374.60
342.49, 0.00, 374.42
342.84, 0.00, 374.23
343.23, 0.00, 374.01
343.65, 0.00, 373.78
344.12, 0.00, 373.52
344.64, 0.00, 373.23
345.23, 0.00, 372.91
345.88, 0.00, 372.54
346.63, 0.00, 372.13
347.48, 0.00, 371.65
348.47, 0.00, 371.11
349.63, 0.00, 370.46
351.01, 0.00, 369.70
352.68, 0.00, 368.78
354.05, 0.08, 368.01
356.78, 0.06, 366.50
340.84, 0.00, 375.25
341.06, 0.00, 375.12
341.30, 0.00, 374.99
341.55, 0.00, 374.84
341.82, 0.00, 374.69
¯342.12, 0.00, 374.52
342.44, 0.00, 374.33
342.79, 0.00, 374.13
343.17, 0.00, 373.92
343.59, 0.00, 373.68
344.06, 0.00, 373.41
344.58, 0.00, 373.11
345.16, 0.00, 372.78
345.81, 0.00, 372.41
346.55, 0.00, 371.99
347.40, 0.00, 371.50
348.39, 0.00, 370.94
349.54, 0.00, 370.29
350.91, 0.00, 369.50
352.56, 0.00, 368.56
354.00, 0.07, 367.74
356.62, 0.06, 366.24
340.80, 0.00, 375.18
341.02, 0.00, 375.05
341.26, 0.00, 374.91
341.51, 0.00, 374.76
341.78, 0.00, 374.61
342.07, 0.00, 374.43
342.39, 0.00, 374.25
342.74, 0.00, 374.04
343.12, 0.00, 373.82
343.54, 0.00, 373.57
344.00, 0.00, 373.30
344.51, 0.00, 373.00
345.09, 0.00, 372.66
345.74, 0.00, 372.28
346.48, 0.00, 371.85
347.32, 0.00, 371.35
348.30, 0.00, 370.78
349.44, 0.00, 370.11
350.80, 0.00, 369.31
352.44, 0.00, 368.35
354.47, 0.00, 367.16
356.47, 0.06, 365.99
340.76, 0.00, 375.11
340.98, 0.00, 374.98
341.21, 0.00, 374.84
341.46, 0.00, 374.69
341.73, 0.00, 374.53
342.02, 0.00, 374.35
342.34, 0.00, 374.16
342.68, 0.00, 373.95
343.06, 0.00, 373.72
343.48, 0.00, 373.47
343.94, 0.00, 373.20
344.45, 0.00, 372.89
¯345.02, 0.00, 372.54
345.66, 0.00, 372.15
346.40, 0.00, 371.71
347.23, 0.00, 371.21
348.20, 0.00, 370.62
349.34, 0.00, 369.94
350.69, 0.00, 369.12
352.32, 0.00, 368.14
354.34, 0.00, 366.92
356.31, 0.06, 365.73
340.72, 0.00, 375.04
340.94, 0.00, 374.91
341.17, 0.00, 374.77
341.42, 0.00, 374.61
341.68, 0.00, 374.45
341.97, 0.00, 374.27
342.29, 0.00, 374.07
342.63, 0.00, 373.86
343.01, 0.00, 373.63
343.42, 0.00, 373.37
343.87, 0.00, 373.09
344.38, 0.00, 372.77
344.95, 0.00, 372.42
345.59, 0.00, 372.03
346.31, 0.00, 371.58
347.15, 0.00, 371.06
348.11, 0.00, 370.46
349.24, 0.00, 369.76
350.58, 0.00, 368.93
352.20, 0.00, 367.93
354.20, 0.00, 366.69
356.15, 0.06, 365.48
340.36, 0.14, 375.18
340.90, 0.00, 374.84
341.12, 0.00, 374.69
341.37, 0.00, 374.54
341.64, 0.00, 374.37
341.92, 0.00, 374.19
342.23, 0.00, 373.99
342.57, 0.00, 373.77
342.95, 0.00, 373.53
343.36, 0.00, 373.27
343.81, 0.00, 372.98
344.31, 0.00, 372.66
344.88, 0.00, 372.30
345.51, 0.00, 371.90
346.23, 0.00, 371.44
347.06, 0.00, 370.91
348.01, 0.00, 370.30
349.14, 0.00, 369.59
350.47, 0.00, 368.74
¯352.08, 0.00, 367.72
354.06, 0.00, 366.45
356.00, 0.06, 365.22
340.32, 0.14, 375.12
340.85, 0.00, 374.77
341.08, 0.00, 374.62
341.32, 0.00, 374.46
341.59, 0.00, 374.29
341.87, 0.00, 374.10
342.18, 0.00, 373.90
342.52, 0.00, 373.68
342.89, 0.00, 373.44
343.29, 0.00, 373.17
343.74, 0.00, 372.88
344.24, 0.00, 372.55
344.80, 0.00, 372.19
345.43, 0.00, 371.77
346.15, 0.00, 371.31
346.97, 0.00, 370.77
347.92, 0.00, 370.15
349.03, 0.00, 369.42
350.35, 0.00, 368.55
351.95, 0.00, 367.51
353.92, 0.00, 366.22
355.92, 0.05, 364.91
340.28, 0.14, 375.06
340.48, 0.14, 374.92
341.03, 0.00, 374.55
341.28, 0.00, 374.39
341.54, 0.00, 374.21
341.82, 0.00, 374.02
342.13, 0.00, 373.82
342.46, 0.00, 373.59
342.83, 0.00, 373.35
343.23, 0.00, 373.07
343.68, 0.00, 372.78
344.17, 0.00, 372.44
344.73, 0.00, 372.07
345.35, 0.00, 371.65
346.06, 0.00, 371.17
346.87, 0.00, 370.63
347.82, 0.00, 369.99
348.92, 0.00, 369.25
350.23, 0.00, 368.37
351.82, 0.00, 367.30
353.77, 0.00, 365.99
355.85, 0.04, 364.60
332.07, 0.24, 382.82
331.94, 0.23, 383.01
331.56, 0.09, 383.56
331.54, 0.16, 383.59
¯331.45, 0.20, 383.73
331.27, 0.20, 383.99
331.07, 0.19, 384.28
330.85, 0.19, 384.60
330.62, 0.18, 384.94
330.38, 0.19, 385.29
330.12, 0.19, 385.67
329.83, 0.20, 386.09
329.50, 0.20, 386.57
329.13, 0.20, 387.11
328.71, 0.20, 387.73
328.21, 0.20, 388.46
327.60, 0.19, 389.35
326.95, 0.19, 390.29
326.25, 0.21, 391.32
325.53, 0.25, 392.37
323.35, 0.05, 395.56
321.72, 0.03, 397.94
322.10, 0.39, 397.38
322.10, 0.67, 397.38
322.10, 0.96, 397.38
322.10, 1.25, 397.38
322.10, 1.53, 397.38
322.10, 1.82, 397.38
322.10, 2.11, 397.38
322.10, 2.39, 397.38
322.10, 2.68, 397.38
332.12, 0.23, 382.86
331.99, 0.23, 383.06
331.85, 0.22, 383.28
331.49, 0.10, 383.81
331.45, 0.17, 383.87
331.33, 0.20, 384.04
331.14, 0.19, 384.34
330.93, 0.19, 384.66
330.70, 0.18, 385.00
330.46, 0.19, 385.35
330.21, 0.19, 385.73
329.92, 0.20, 386.16
329.60, 0.20, 386.65
329.24, 0.20, 387.19
328.82, 0.20, 387.82
328.33, 0.20, 388.55
327.73, 0.19, 389.45
327.10, 0.19, 390.39
326.42, 0.21, 391.42
325.67, 0.25, 392.55
323.51, 0.04, 395.78
321.84, 0.01, 398.28
322.44, 0.40, 397.38
322.44, 0.69, 397.38
¯322.44, 0.97, 397.38
322.44, 1.26, 397.38
322.44, 1.54, 397.38
322.44, 1.82, 397.38
322.44, 2.11, 397.38
322.44, 2.39, 397.38
322.44, 2.67, 397.38
332.18, 0.23, 382.90
332.05, 0.23, 383.10
331.91, 0.22, 383.33
331.74, 0.21, 383.58
331.42, 0.11, 384.07
331.36, 0.17, 384.16
331.21, 0.19, 384.39
331.00, 0.18, 384.72
330.78, 0.18, 385.06
330.55, 0.19, 385.41
330.30, 0.19, 385.80
330.02, 0.19, 386.23
329.70, 0.20, 386.72
329.35, 0.20, 387.26
328.93, 0.20, 387.91
328.46, 0.20, 388.64
327.87, 0.18, 389.54
327.26, 0.19, 390.48
326.58, 0.21, 391.52
325.79, 0.23, 392.75
323.66, 0.03, 396.03
322.03, 0.00, 398.54
322.78, 0.42, 397.38
322.78, 0.70, 397.38
322.78, 0.98, 397.38
322.78, 1.27, 397.38
322.78, 1.55, 397.38
322.78, 1.83, 397.38
322.78, 2.11, 397.38
322.78, 2.39, 397.38
322.78, 2.67, 397.38
332.24, 0.23, 382.95
332.11, 0.23, 383.15
331.97, 0.22, 383.37
331.80, 0.20, 383.63
331.63, 0.19, 383.91
331.35, 0.12, 384.35
331.27, 0.18, 384.48
331.08, 0.18, 384.77
330.87, 0.18, 385.11
330.64, 0.18, 385.47
330.39, 0.19, 385.86
330.12, 0.19, 386.30
329.81, 0.20, 386.79
¯329.46, 0.20, 387.34
329.05, 0.20, 387.99
328.58, 0.20, 388.73
328.01, 0.18, 389.64
327.42, 0.19, 390.57
326.75, 0.21, 391.63
325.91, 0.22, 392.95
323.81, 0.01, 396.28
322.27, 0.00, 398.72
323.11, 0.43, 397.38
323.11, 0.71, 397.38
323.11, 0.99, 397.38
323.11, 1.27, 397.38
323.11, 1.55, 397.38
323.11, 1.83, 397.38
323.11, 2.11, 397.38
323.11, 2.39, 397.38
323.11, 2.67, 397.38
332.29, 0.23, 382.99
332.17, 0.22, 383.19
332.03, 0.21, 383.42
331.87, 0.20, 383.68
331.69, 0.18, 383.96
331.52, 0.18, 384.24
331.26, 0.13, 384.67
331.16, 0.18, 384.83
330.95, 0.18, 385.17
330.73, 0.18, 385.53
330.49, 0.19, 385.93
330.22, 0.19, 386.37
329.91, 0.20, 386.86
329.57, 0.20, 387.42
329.17, 0.20, 388.07
328.71, 0.20, 388.81
328.14, 0.18, 389.73
327.57, 0.19, 390.66
326.92, 0.21, 391.73
326.04, 0.21, 393.15
323.98, 0.00, 396.51
322.52, 0.00, 398.88
323.44, 0.45, 397.38
323.44, 0.73, 397.38
323.44, 1.00, 397.38
323.44, 1.28, 397.38
323.44, 1.56, 397.38
323.44, 1.84, 397.38
323.44, 2.11, 397.38
323.44, 2.39, 397.38
323.44, 2.67, 397.38
332.35, 0.23, 383.03
332.23, 0.22, 383.23
¯332.09, 0.21, 383.47
331.93, 0.20, 383.73
331.76, 0.18, 384.02
331.60, 0.18, 384.29
331.42, 0.18, 384.58
331.15, 0.13, 385.03
331.04, 0.18, 385.23
330.82, 0.18, 385.59
330.58, 0.19, 385.99
330.31, 0.19, 386.43
330.02, 0.19, 386.93
329.68, 0.20, 387.49
329.29, 0.20, 388.15
328.84, 0.19, 388.90
328.28, 0.18, 389.82
327.72, 0.19, 390.77
327.09, 0.21, 391.82
326.18, 0.20, 393.33
324.20, 0.00, 396.65
322.78, 0.00, 399.03
