žVERSION 0.7
FIELDS x y z
SIZE 8 8 8
TYPE F F F
COUNT 1 1 1
WIDTH 2271
HEIGHT 1
VIEWPOINT 403.49, 7.23, 366.74 1 385.82, 2.24, 357.35
POINTS 2271
DATA ascii
382.66, 0.23, 357.05
382.36, 0.22, 356.99
382.05, 0.22, 356.92
381.70, 0.22, 356.85
381.32, 0.21, 356.76
380.28, 0.05, 356.54
379.80, 0.05, 356.44
¯379.26, 0.05, 356.33
378.66, 0.05, 356.20
377.99, 0.05, 356.06
377.22, 0.05, 355.89
376.31, 0.05, 355.70
375.23, 0.04, 355.47
374.02, 0.04, 355.21
372.60, 0.04, 354.91
370.89, 0.04, 354.55
368.75, 0.03, 354.09
367.42, 0.16, 353.81
383.60, 0.24, 357.32
383.39, 0.23, 357.27
383.16, 0.23, 357.23
382.91, 0.23, 357.18
382.64, 0.23, 357.13
382.35, 0.22, 357.07
382.03, 0.22, 357.00
381.68, 0.22, 356.93
380.69, 0.05, 356.74
380.25, 0.05, 356.65
379.77, 0.05, 356.55
379.23, 0.05, 356.45
378.63, 0.05, 356.33
377.96, 0.05, 356.19
377.19, 0.05, 356.04
376.27, 0.05, 355.85
375.19, 0.04, 355.64
373.98, 0.04, 355.40
372.56, 0.04, 355.11
370.84, 0.04, 354.77
368.69, 0.03, 354.34
366.49, 0.08, 353.90
383.59, 0.23, 357.38
383.37, 0.23, 357.34
383.14, 0.23, 357.30
382.89, 0.23, 357.25
382.62, 0.23, 357.20
382.33, 0.22, 357.15
382.01, 0.22, 357.09
381.07, 0.05, 356.91
380.67, 0.05, 356.84
380.23, 0.05, 356.76
379.75, 0.05, 356.66
379.21, 0.05, 356.56
378.61, 0.05, 356.45
377.93, 0.05, 356.32
377.16, 0.05, 356.18
376.24, 0.05, 356.01
375.15, 0.04, 355.81
373.94, 0.04, 355.58
¯372.52, 0.04, 355.31
370.80, 0.04, 354.99
368.64, 0.03, 354.59
365.82, 0.02, 354.06
383.57, 0.23, 357.45
383.36, 0.23, 357.41
383.13, 0.23, 357.37
382.88, 0.23, 357.33
382.61, 0.23, 357.28
382.31, 0.22, 357.23
381.42, 0.05, 357.07
381.05, 0.05, 357.01
380.65, 0.05, 356.94
380.21, 0.05, 356.86
379.73, 0.05, 356.78
379.19, 0.05, 356.68
378.58, 0.05, 356.58
377.90, 0.05, 356.46
377.13, 0.05, 356.32
376.21, 0.05, 356.16
375.12, 0.04, 355.97
373.91, 0.04, 355.76
372.48, 0.04, 355.51
370.75, 0.04, 355.21
368.59, 0.03, 354.83
365.77, 0.02, 354.34
383.56, 0.23, 357.51
383.35, 0.23, 357.48
383.11, 0.23, 357.44
382.86, 0.23, 357.40
382.59, 0.23, 357.36
381.74, 0.05, 357.22
381.40, 0.05, 357.16
381.04, 0.05, 357.10
380.64, 0.05, 357.04
380.20, 0.05, 356.97
379.71, 0.05, 356.89
379.17, 0.05, 356.80
378.56, 0.05, 356.70
377.88, 0.05, 356.59
377.11, 0.05, 356.47
376.18, 0.05, 356.32
375.09, 0.04, 356.14
373.88, 0.04, 355.95
372.44, 0.04, 355.71
370.71, 0.04, 355.43
368.54, 0.03, 355.08
365.72, 0.02, 354.62
383.55, 0.23, 357.58
383.33, 0.23, 357.55
383.10, 0.23, 357.51
¯382.85, 0.23, 357.47
382.03, 0.05, 357.35
381.72, 0.05, 357.31
381.39, 0.05, 357.26
381.02, 0.05, 357.20
380.62, 0.05, 357.14
380.18, 0.05, 357.08
379.69, 0.05, 357.00
379.15, 0.05, 356.92
378.54, 0.05, 356.83
377.86, 0.05, 356.73
377.08, 0.05, 356.61
376.15, 0.05, 356.47
375.06, 0.04, 356.31
373.85, 0.04, 356.13
372.41, 0.04, 355.91
370.68, 0.04, 355.66
368.49, 0.03, 355.33
365.67, 0.02, 354.91
383.54, 0.23, 357.64
383.32, 0.23, 357.62
383.09, 0.23, 357.58
382.31, 0.05, 357.48
382.02, 0.05, 357.44
381.71, 0.05, 357.39
381.37, 0.05, 357.35
381.01, 0.05, 357.30
380.60, 0.05, 357.24
380.16, 0.05, 357.18
379.67, 0.05, 357.12
379.13, 0.05, 357.04
378.52, 0.05, 356.96
377.84, 0.05, 356.86
377.06, 0.05, 356.76
376.13, 0.05, 356.63
375.03, 0.04, 356.48
373.82, 0.04, 356.31
372.38, 0.04, 356.12
370.64, 0.04, 355.88
368.45, 0.03, 355.58
365.62, 0.02, 355.19
383.53, 0.23, 357.71
383.31, 0.23, 357.68
383.08, 0.23, 357.65
382.30, 0.05, 357.56
382.01, 0.05, 357.52
381.70, 0.05, 357.48
381.36, 0.05, 357.44
380.99, 0.05, 357.40
380.59, 0.05, 357.35
380.15, 0.05, 357.29
¯379.66, 0.05, 357.23
379.11, 0.05, 357.16
378.50, 0.05, 357.09
377.82, 0.05, 357.00
377.04, 0.05, 356.90
376.11, 0.05, 356.79
375.01, 0.04, 356.65
373.79, 0.04, 356.50
372.35, 0.04, 356.32
370.61, 0.04, 356.10
368.41, 0.03, 355.83
365.58, 0.02, 355.48
383.52, 0.23, 357.78
383.30, 0.23, 357.75
382.56, 0.05, 357.67
382.29, 0.05, 357.64
382.00, 0.05, 357.61
381.69, 0.05, 357.57
381.35, 0.05, 357.53
380.98, 0.05, 357.49
380.58, 0.05, 357.45
380.13, 0.05, 357.40
379.64, 0.05, 357.34
379.10, 0.05, 357.28
378.49, 0.05, 357.21
377.80, 0.05, 357.14
377.02, 0.05, 357.05
376.08, 0.05, 356.94
374.98, 0.04, 356.82
373.77, 0.04, 356.68
372.32, 0.04, 356.52
370.58, 0.04, 356.33
368.37, 0.03, 356.08
365.54, 0.02, 355.76
383.51, 0.23, 357.84
382.80, 0.05, 357.77
382.55, 0.05, 357.75
382.28, 0.05, 357.72
381.99, 0.05, 357.69
381.68, 0.05, 357.66
381.34, 0.05, 357.63
380.97, 0.05, 357.59
380.57, 0.05, 357.55
380.12, 0.05, 357.51
379.63, 0.05, 357.46
379.08, 0.05, 357.40
378.47, 0.05, 357.34
377.79, 0.05, 357.27
377.01, 0.05, 357.19
376.06, 0.05, 357.10
374.96, 0.04, 356.99
¯373.75, 0.04, 356.87
372.30, 0.04, 356.72
370.55, 0.04, 356.55
368.34, 0.03, 356.33
365.51, 0.02, 356.05
383.50, 0.23, 357.91
382.79, 0.05, 357.85
382.54, 0.05, 357.83
382.27, 0.05, 357.80
381.98, 0.05, 357.78
381.67, 0.05, 357.75
381.33, 0.05, 357.72
380.96, 0.05, 357.69
380.56, 0.05, 357.65
380.11, 0.05, 357.61
379.62, 0.05, 357.57
379.07, 0.05, 357.52
378.46, 0.05, 357.47
377.77, 0.05, 357.41
376.99, 0.05, 357.34
376.05, 0.05, 357.26
374.95, 0.04, 357.16
373.73, 0.04, 357.05
372.28, 0.04, 356.93
370.53, 0.04, 356.77
368.31, 0.03, 356.58
365.48, 0.02, 356.33
383.01, 0.05, 357.94
382.78, 0.05, 357.92
382.53, 0.05, 357.90
382.26, 0.05, 357.88
381.98, 0.05, 357.86
381.66, 0.05, 357.84
381.32, 0.05, 357.81
380.95, 0.05, 357.78
380.55, 0.05, 357.75
380.10, 0.05, 357.72
379.61, 0.05, 357.68
379.06, 0.05, 357.64
378.45, 0.05, 357.60
377.76, 0.05, 357.54
376.98, 0.05, 357.49
376.03, 0.05, 357.41
374.93, 0.04, 357.33
373.71, 0.04, 357.24
372.26, 0.04, 357.13
370.51, 0.04, 357.00
368.28, 0.03, 356.83
365.45, 0.02, 356.62
383.01, 0.05, 358.01
382.78, 0.05, 358.00
¯382.53, 0.05, 357.98
382.26, 0.05, 357.96
381.97, 0.05, 357.95
381.66, 0.05, 357.93
381.32, 0.05, 357.91
380.95, 0.05, 357.88
380.54, 0.05, 357.86
380.09, 0.05, 357.83
379.60, 0.05, 357.80
379.05, 0.05, 357.76
378.44, 0.05, 357.72
377.75, 0.05, 357.68
376.97, 0.05, 357.63
376.02, 0.05, 357.57
374.92, 0.04, 357.50
373.69, 0.04, 357.43
372.24, 0.04, 357.33
370.49, 0.04, 357.22
368.26, 0.03, 357.08
365.43, 0.02, 356.91
383.01, 0.05, 358.08
382.77, 0.05, 358.07
382.52, 0.05, 358.06
382.25, 0.05, 358.05
381.96, 0.05, 358.03
381.65, 0.05, 358.02
381.31, 0.05, 358.00
380.94, 0.05, 357.98
380.53, 0.05, 357.96
380.09, 0.05, 357.94
379.59, 0.05, 357.91
379.05, 0.05, 357.88
378.43, 0.05, 357.85
377.74, 0.05, 357.82
376.96, 0.05, 357.78
376.01, 0.05, 357.73
374.91, 0.04, 357.67
373.68, 0.04, 357.61
372.23, 0.04, 357.54
370.48, 0.04, 357.45
368.24, 0.03, 357.34
365.40, 0.02, 357.19
383.00, 0.05, 358.16
382.77, 0.05, 358.15
382.52, 0.05, 358.14
382.25, 0.05, 358.13
381.96, 0.05, 358.12
381.65, 0.05, 358.11
381.31, 0.05, 358.09
380.93, 0.05, 358.08
380.53, 0.05, 358.06
¯380.08, 0.05, 358.05
379.59, 0.05, 358.03
379.04, 0.05, 358.01
378.43, 0.05, 357.98
377.73, 0.05, 357.95
376.95, 0.05, 357.92
376.00, 0.05, 357.89
374.90, 0.04, 357.85
373.67, 0.04, 357.80
372.22, 0.04, 357.74
370.46, 0.04, 357.68
368.22, 0.03, 357.59
365.39, 0.02, 357.48
383.00, 0.05, 358.23
382.77, 0.05, 358.22
382.52, 0.05, 358.22
382.25, 0.05, 358.21
381.96, 0.05, 358.20
381.64, 0.05, 358.19
381.30, 0.05, 358.19
380.93, 0.05, 358.18
380.52, 0.05, 358.17
380.08, 0.05, 358.15
379.58, 0.05, 358.14
379.03, 0.05, 358.13
378.42, 0.05, 358.11
377.73, 0.05, 358.09
376.94, 0.05, 358.07
375.99, 0.05, 358.05
374.89, 0.04, 358.02
373.66, 0.04, 357.99
372.21, 0.04, 357.95
370.45, 0.04, 357.90
368.21, 0.03, 357.84
365.37, 0.02, 357.77
383.00, 0.05, 358.30
382.76, 0.05, 358.30
382.51, 0.05, 358.30
382.24, 0.05, 358.29
381.95, 0.05, 358.29
381.64, 0.05, 358.28
381.30, 0.05, 358.28
380.93, 0.05, 358.27
380.52, 0.05, 358.27
380.07, 0.05, 358.26
379.58, 0.05, 358.25
379.03, 0.05, 358.25
378.42, 0.05, 358.24
377.73, 0.05, 358.23
376.94, 0.05, 358.22
375.99, 0.05, 358.20
¯374.88, 0.04, 358.19
373.66, 0.04, 358.17
372.20, 0.04, 358.15
370.45, 0.04, 358.13
368.20, 0.03, 358.10
365.36, 0.02, 358.06
383.00, 0.05, 358.38
382.76, 0.05, 358.37
382.51, 0.05, 358.37
382.24, 0.05, 358.37
381.95, 0.05, 358.37
381.64, 0.05, 358.37
381.30, 0.05, 358.37
380.93, 0.05, 358.37
380.52, 0.05, 358.37
380.07, 0.05, 358.37
379.58, 0.05, 358.37
379.03, 0.05, 358.37
378.41, 0.05, 358.37
377.72, 0.05, 358.37
376.94, 0.05, 358.36
375.99, 0.05, 358.36
374.88, 0.04, 358.36
373.65, 0.04, 358.36
372.20, 0.04, 358.36
370.44, 0.04, 358.35
368.19, 0.03, 358.35
365.36, 0.02, 358.34
383.00, 0.05, 358.45
382.76, 0.05, 358.45
382.51, 0.05, 358.45
382.24, 0.05, 358.46
381.95, 0.05, 358.46
381.64, 0.05, 358.46
381.30, 0.05, 358.47
380.93, 0.05, 358.47
380.52, 0.05, 358.47
380.07, 0.05, 358.48
379.58, 0.05, 358.48
379.03, 0.05, 358.49
378.41, 0.05, 358.50
377.72, 0.05, 358.50
376.94, 0.05, 358.51
375.98, 0.05, 358.52
374.88, 0.04, 358.53
373.65, 0.04, 358.55
372.20, 0.04, 358.56
370.44, 0.04, 358.58
368.19, 0.03, 358.60
365.35, 0.02, 358.63
383.00, 0.05, 358.52
¯382.76, 0.05, 358.53
382.51, 0.05, 358.53
382.24, 0.05, 358.54
381.95, 0.05, 358.54
381.64, 0.05, 358.55
381.30, 0.05, 358.56
380.93, 0.05, 358.57
380.52, 0.05, 358.58
380.07, 0.05, 358.59
379.58, 0.05, 358.60
379.03, 0.05, 358.61
378.42, 0.05, 358.62
377.72, 0.05, 358.64
376.94, 0.05, 358.66
375.99, 0.05, 358.68
374.88, 0.04, 358.70
373.65, 0.04, 358.73
372.20, 0.04, 358.77
370.44, 0.04, 358.81
368.19, 0.03, 358.86
365.35, 0.02, 358.92
383.00, 0.05, 358.59
382.77, 0.05, 358.60
382.52, 0.05, 358.61
382.25, 0.05, 358.62
381.96, 0.05, 358.63
381.64, 0.05, 358.64
381.30, 0.05, 358.65
380.93, 0.05, 358.67
380.52, 0.05, 358.68
380.08, 0.05, 358.70
379.58, 0.05, 358.71
379.03, 0.05, 358.73
378.42, 0.05, 358.75
377.73, 0.05, 358.78
376.94, 0.05, 358.80
375.99, 0.05, 358.84
374.89, 0.04, 358.88
373.66, 0.04, 358.92
372.20, 0.04, 358.97
370.44, 0.04, 359.03
368.20, 0.03, 359.11
365.36, 0.02, 359.21
383.00, 0.05, 358.67
382.77, 0.05, 358.68
382.52, 0.05, 358.69
382.25, 0.05, 358.70
381.96, 0.05, 358.71
381.65, 0.05, 358.73
381.30, 0.05, 358.75
380.93, 0.05, 358.76
¯380.53, 0.05, 358.78
380.08, 0.05, 358.80
379.59, 0.05, 358.83
379.04, 0.05, 358.85
378.42, 0.05, 358.88
377.73, 0.05, 358.91
376.95, 0.05, 358.95
375.99, 0.05, 359.00
374.89, 0.04, 359.05
373.66, 0.04, 359.11
372.21, 0.04, 359.17
370.45, 0.04, 359.26
368.20, 0.03, 359.36
365.41, 0.02, 359.50
383.01, 0.05, 358.74
382.77, 0.05, 358.75
382.52, 0.05, 358.77
382.25, 0.05, 358.78
381.96, 0.05, 358.80
381.65, 0.05, 358.82
381.31, 0.05, 358.84
380.94, 0.05, 358.86
380.53, 0.05, 358.89
380.09, 0.05, 358.91
379.59, 0.05, 358.94
379.04, 0.05, 358.97
378.43, 0.05, 359.01
377.74, 0.05, 359.05
376.95, 0.05, 359.10
376.00, 0.05, 359.15
374.90, 0.04, 359.22
373.67, 0.04, 359.29
372.22, 0.04, 359.38
370.48, 0.04, 359.48
368.19, 0.03, 359.62
365.56, 0.04, 359.77
383.01, 0.05, 358.81
382.78, 0.05, 358.83
382.53, 0.05, 358.85
382.26, 0.05, 358.86
381.97, 0.05, 358.89
381.66, 0.05, 358.91
381.31, 0.05, 358.93
380.94, 0.05, 358.96
380.54, 0.05, 358.99
380.09, 0.05, 359.02
379.60, 0.05, 359.06
379.05, 0.05, 359.09
378.44, 0.05, 359.14
377.75, 0.05, 359.19
376.96, 0.05, 359.24
¯376.01, 0.05, 359.31
374.91, 0.04, 359.39
373.70, 0.04, 359.48
372.38, 0.06, 359.57
370.52, 0.04, 359.71
368.18, 0.02, 359.87
365.73, 0.05, 360.05
383.01, 0.05, 358.88
382.78, 0.05, 358.90
382.53, 0.05, 358.92
382.26, 0.05, 358.95
381.97, 0.05, 358.97
381.66, 0.05, 359.00
381.32, 0.05, 359.03
380.95, 0.05, 359.06
380.55, 0.05, 359.09
380.10, 0.05, 359.13
379.61, 0.05, 359.17
379.06, 0.05, 359.22
378.45, 0.05, 359.27
377.75, 0.05, 359.33
376.97, 0.05, 359.39
376.02, 0.05, 359.47
374.95, 0.04, 359.56
373.75, 0.04, 359.66
372.54, 0.08, 359.76
370.57, 0.05, 359.93
368.17, 0.02, 360.13
365.90, 0.06, 360.32
383.02, 0.05, 358.96
382.79, 0.05, 358.98
382.54, 0.05, 359.00
382.27, 0.05, 359.03
381.98, 0.05, 359.06
381.67, 0.05, 359.09
381.33, 0.05, 359.12
380.96, 0.05, 359.15
380.55, 0.05, 359.19
380.11, 0.05, 359.24
379.62, 0.05, 359.28
379.07, 0.05, 359.34
378.46, 0.05, 359.40
377.77, 0.05, 359.46
376.98, 0.05, 359.54
376.04, 0.05, 359.63
375.00, 0.05, 359.73
373.80, 0.05, 359.84
372.71, 0.10, 359.95
370.62, 0.05, 360.15
368.18, 0.02, 360.39
366.06, 0.08, 360.59
¯383.03, 0.05, 359.03
382.80, 0.05, 359.05
382.55, 0.05, 359.08
382.28, 0.05, 359.11
381.99, 0.05, 359.14
381.68, 0.05, 359.17
381.34, 0.05, 359.21
380.97, 0.05, 359.25
380.56, 0.05, 359.30
380.12, 0.05, 359.34
379.63, 0.05, 359.40
379.08, 0.05, 359.46
378.47, 0.05, 359.52
377.78, 0.05, 359.60
377.00, 0.05, 359.68
376.05, 0.05, 359.79
375.04, 0.05, 359.90
373.85, 0.05, 360.02
372.87, 0.11, 360.13
370.68, 0.06, 360.37
368.26, 0.03, 360.63
366.23, 0.09, 360.85
383.04, 0.05, 359.10
382.80, 0.05, 359.13
382.56, 0.05, 359.16
382.29, 0.05, 359.19
382.00, 0.05, 359.23
381.69, 0.05, 359.26
381.35, 0.05, 359.30
380.98, 0.05, 359.35
380.57, 0.05, 359.40
380.13, 0.05, 359.45
379.64, 0.05, 359.51
379.09, 0.05, 359.58
378.48, 0.05, 359.65
377.79, 0.05, 359.73
377.01, 0.05, 359.83
376.07, 0.05, 359.94
375.08, 0.05, 360.06
373.91, 0.06, 360.21
373.03, 0.13, 360.31
370.74, 0.06, 360.59
368.34, 0.03, 360.88
366.40, 0.10, 361.11
383.05, 0.05, 359.17
382.81, 0.05, 359.20
382.57, 0.05, 359.24
382.30, 0.05, 359.27
382.01, 0.05, 359.31
381.70, 0.05, 359.35
381.36, 0.05, 359.40
¯380.99, 0.05, 359.45
380.59, 0.05, 359.50
380.14, 0.05, 359.56
379.65, 0.05, 359.63
379.11, 0.05, 359.70
378.50, 0.05, 359.78
377.81, 0.05, 359.87
377.03, 0.05, 359.98
376.09, 0.05, 360.10
375.12, 0.06, 360.23
373.99, 0.07, 360.38
373.14, 0.14, 360.49
370.80, 0.06, 360.81
368.43, 0.04, 361.12
366.56, 0.12, 361.37
383.05, 0.05, 359.24
382.82, 0.05, 359.28
382.58, 0.05, 359.31
382.31, 0.05, 359.35
382.02, 0.05, 359.40
381.71, 0.05, 359.44
381.37, 0.05, 359.49
381.00, 0.05, 359.54
380.60, 0.05, 359.60
380.16, 0.05, 359.67
379.67, 0.05, 359.74
379.12, 0.05, 359.82
378.51, 0.05, 359.91
377.83, 0.05, 360.01
377.05, 0.05, 360.12
376.11, 0.05, 360.26
375.17, 0.06, 360.39
374.09, 0.08, 360.55
373.25, 0.16, 360.68
370.86, 0.07, 361.02
368.53, 0.04, 361.36
366.70, 0.13, 361.63
383.07, 0.05, 359.32
382.83, 0.05, 359.35
382.59, 0.05, 359.39
382.32, 0.05, 359.43
382.03, 0.05, 359.48
381.72, 0.05, 359.53
381.39, 0.05, 359.58
381.02, 0.05, 359.64
380.62, 0.05, 359.70
380.17, 0.05, 359.77
379.68, 0.05, 359.85
379.14, 0.05, 359.94
378.53, 0.05, 360.03
377.85, 0.05, 360.14
¯377.07, 0.05, 360.27
376.13, 0.05, 360.41
375.22, 0.07, 360.56
374.19, 0.09, 360.72
373.35, 0.17, 360.85
370.90, 0.07, 361.24
368.71, 0.06, 361.59
366.83, 0.14, 361.89
383.08, 0.05, 359.39
382.85, 0.05, 359.43
382.60, 0.05, 359.47
382.33, 0.05, 359.52
382.05, 0.05, 359.56
381.74, 0.05, 359.62
381.40, 0.05, 359.67
381.03, 0.05, 359.74
380.63, 0.05, 359.81
380.19, 0.05, 359.88
379.70, 0.05, 359.97
379.16, 0.05, 360.06
378.55, 0.05, 360.16
377.87, 0.05, 360.28
377.09, 0.05, 360.41
376.16, 0.05, 360.57
375.27, 0.07, 360.72
374.28, 0.10, 360.89
373.46, 0.18, 361.03
371.03, 0.08, 361.45
368.90, 0.08, 361.81
366.97, 0.15, 362.14
383.09, 0.05, 359.46
382.86, 0.05, 359.50
382.61, 0.05, 359.55
382.35, 0.05, 359.60
382.06, 0.05, 359.65
381.75, 0.05, 359.71
381.42, 0.05, 359.77
381.05, 0.05, 359.83
380.65, 0.05, 359.91
380.21, 0.05, 359.99
379.72, 0.05, 360.08
379.18, 0.05, 360.18
378.57, 0.05, 360.29
377.89, 0.05, 360.41
377.12, 0.05, 360.56
376.21, 0.05, 360.72
375.32, 0.07, 360.89
374.38, 0.11, 361.06
373.57, 0.19, 361.21
371.19, 0.10, 361.64
369.08, 0.09, 362.03
¯367.11, 0.15, 362.39
383.10, 0.05, 359.53
382.87, 0.05, 359.58
382.63, 0.05, 359.62
382.36, 0.05, 359.68
382.08, 0.05, 359.73
381.77, 0.05, 359.79
381.43, 0.05, 359.86
381.07, 0.05, 359.93
380.67, 0.05, 360.01
380.23, 0.05, 360.10
379.74, 0.05, 360.19
379.20, 0.05, 360.30
378.60, 0.05, 360.42
377.92, 0.05, 360.55
377.14, 0.05, 360.70
376.26, 0.06, 360.87
375.37, 0.08, 361.05
374.48, 0.12, 361.22
373.65, 0.19, 361.39
371.34, 0.11, 361.84
369.31, 0.11, 362.24
367.27, 0.17, 362.64
383.12, 0.05, 359.60
382.89, 0.05, 359.65
382.64, 0.05, 359.70
382.38, 0.05, 359.76
382.09, 0.05, 359.82
381.79, 0.05, 359.88
381.45, 0.05, 359.95
381.09, 0.05, 360.03
380.69, 0.05, 360.11
380.25, 0.05, 360.20
379.76, 0.05, 360.30
379.22, 0.05, 360.42
378.62, 0.05, 360.54
377.94, 0.05, 360.68
377.17, 0.05, 360.85
376.31, 0.06, 361.03
375.42, 0.08, 361.21
374.55, 0.13, 361.39
373.68, 0.19, 361.57
371.49, 0.12, 362.03
369.54, 0.13, 362.44
367.48, 0.18, 362.87
383.13, 0.05, 359.67
382.90, 0.05, 359.72
382.66, 0.05, 359.78
382.40, 0.05, 359.84
382.11, 0.05, 359.90
381.80, 0.05, 359.97
¯381.47, 0.05, 360.04
381.11, 0.05, 360.12
380.71, 0.05, 360.21
380.27, 0.05, 360.31
379.79, 0.05, 360.42
379.25, 0.05, 360.53
378.65, 0.05, 360.67
377.97, 0.05, 360.82
377.20, 0.05, 360.99
376.36, 0.06, 361.18
375.47, 0.08, 361.37
374.58, 0.12, 361.57
373.71, 0.19, 361.76
371.64, 0.14, 362.22
369.78, 0.15, 362.63
367.69, 0.20, 363.10
383.15, 0.05, 359.74
382.92, 0.05, 359.80
382.68, 0.05, 359.86
382.41, 0.05, 359.92
382.13, 0.05, 359.98
381.82, 0.05, 360.06
381.49, 0.05, 360.13
381.13, 0.05, 360.22
380.73, 0.05, 360.31
380.29, 0.05, 360.41
379.81, 0.05, 360.53
379.27, 0.05, 360.65
378.67, 0.05, 360.79
378.00, 0.05, 360.95
377.23, 0.05, 361.13
376.41, 0.07, 361.33
375.49, 0.08, 361.54
374.62, 0.12, 361.75
373.75, 0.19, 361.95
371.79, 0.15, 362.41
370.01, 0.17, 362.83
367.79, 0.20, 363.35
383.16, 0.05, 359.82
382.94, 0.05, 359.87
382.69, 0.05, 359.93
382.43, 0.05, 360.00
382.15, 0.05, 360.07
381.84, 0.05, 360.14
381.51, 0.05, 360.22
381.15, 0.05, 360.31
380.75, 0.05, 360.41
380.32, 0.05, 360.52
379.84, 0.05, 360.64
379.30, 0.05, 360.77
378.70, 0.05, 360.92
¯378.03, 0.05, 361.09
377.26, 0.05, 361.28
376.44, 0.06, 361.48
375.52, 0.08, 361.71
374.65, 0.12, 361.92
373.77, 0.19, 362.14
371.94, 0.16, 362.59
370.24, 0.19, 363.01
367.46, 0.16, 363.70
383.18, 0.05, 359.89
382.96, 0.05, 359.95
382.71, 0.05, 360.01
382.45, 0.05, 360.08
382.17, 0.05, 360.15
381.87, 0.05, 360.23
381.53, 0.05, 360.32
381.17, 0.05, 360.41
380.78, 0.05, 360.51
380.34, 0.05, 360.63
379.86, 0.05, 360.75
379.33, 0.05, 360.89
378.73, 0.05, 361.04
378.06, 0.05, 361.22
377.35, 0.06, 361.41
376.46, 0.06, 361.64
375.55, 0.08, 361.88
374.69, 0.12, 362.10
373.79, 0.18, 362.33
372.09, 0.17, 362.78
370.47, 0.21, 363.20
367.25, 0.14, 364.04
383.20, 0.05, 359.96
382.97, 0.05, 360.02
382.73, 0.05, 360.08
382.47, 0.05, 360.16
382.19, 0.05, 360.23
381.89, 0.05, 360.32
381.56, 0.05, 360.41
381.20, 0.05, 360.50
380.80, 0.05, 360.61
380.37, 0.05, 360.73
379.89, 0.05, 360.86
379.36, 0.05, 361.01
378.77, 0.05, 361.17
378.11, 0.06, 361.35
377.46, 0.08, 361.53
376.49, 0.06, 361.79
375.59, 0.08, 362.04
374.72, 0.12, 362.28
373.80, 0.18, 362.53
372.24, 0.18, 362.95
¯370.49, 0.21, 363.43
366.48, 0.06, 364.53
383.22, 0.05, 360.03
382.99, 0.05, 360.09
382.75, 0.05, 360.16
382.49, 0.05, 360.23
382.21, 0.05, 360.31
381.91, 0.05, 360.40
381.58, 0.05, 360.50
381.22, 0.05, 360.60
380.83, 0.05, 360.71
380.40, 0.05, 360.84
379.92, 0.05, 360.97
379.39, 0.05, 361.12
378.80, 0.05, 361.29
378.21, 0.07, 361.46
377.57, 0.09, 361.65
376.52, 0.06, 361.95
375.63, 0.08, 362.20
374.76, 0.12, 362.45
373.82, 0.18, 362.72
372.39, 0.20, 363.13
370.32, 0.18, 363.73
366.52, 0.05, 364.82
383.24, 0.05, 360.10
383.02, 0.05, 360.16
382.78, 0.05, 360.24
382.52, 0.05, 360.31
382.24, 0.05, 360.40
381.94, 0.05, 360.49
381.61, 0.05, 360.59
381.25, 0.05, 360.69
380.86, 0.05, 360.81
380.43, 0.05, 360.94
379.96, 0.05, 361.08
379.43, 0.05, 361.24
378.88, 0.06, 361.41
378.31, 0.08, 361.58
377.68, 0.10, 361.77
376.55, 0.06, 362.10
375.68, 0.08, 362.37
374.80, 0.12, 362.63
373.84, 0.17, 362.92
372.52, 0.20, 363.31
370.16, 0.16, 364.02
366.56, 0.05, 365.10
383.26, 0.05, 360.17
383.04, 0.05, 360.24
382.80, 0.05, 360.31
382.54, 0.05, 360.39
382.26, 0.05, 360.48
¯381.96, 0.05, 360.57
381.64, 0.05, 360.68
381.28, 0.05, 360.79
380.89, 0.05, 360.91
380.46, 0.05, 361.04
379.99, 0.05, 361.19
379.46, 0.06, 361.36
378.95, 0.07, 361.52
378.41, 0.10, 361.69
377.79, 0.12, 361.88
376.58, 0.05, 362.26
375.72, 0.08, 362.53
374.84, 0.12, 362.80
373.86, 0.17, 363.11
372.47, 0.19, 363.55
369.93, 0.13, 364.34
366.59, 0.04, 365.39
383.28, 0.05, 360.24
383.06, 0.05, 360.31
382.82, 0.05, 360.39
382.56, 0.05, 360.47
382.29, 0.05, 360.56
381.99, 0.05, 360.66
381.66, 0.05, 360.76
381.31, 0.05, 360.88
380.92, 0.05, 361.01
380.49, 0.05, 361.15
380.02, 0.05, 361.30
379.51, 0.06, 361.47
379.02, 0.08, 361.63
378.51, 0.11, 361.80
377.90, 0.13, 362.00
376.62, 0.05, 362.41
375.77, 0.08, 362.69
374.89, 0.12, 362.98
373.89, 0.16, 363.31
372.43, 0.18, 363.78
369.61, 0.08, 364.70
366.61, 0.04, 365.69
383.31, 0.05, 360.30
383.08, 0.05, 360.38
382.85, 0.05, 360.46
382.59, 0.05, 360.55
382.31, 0.05, 360.64
382.02, 0.05, 360.74
381.69, 0.05, 360.85
381.34, 0.05, 360.97
380.95, 0.05, 361.11
380.53, 0.05, 361.25
380.06, 0.06, 361.41
379.56, 0.06, 361.58
¯379.09, 0.08, 361.74
378.61, 0.12, 361.90
378.01, 0.14, 362.11
376.65, 0.05, 362.57
375.82, 0.08, 362.85
374.93, 0.11, 363.16
373.96, 0.16, 363.49
372.39, 0.17, 364.02
369.29, 0.04, 365.08
366.63, 0.03, 365.98
383.33, 0.05, 360.37
383.11, 0.05, 360.45
382.87, 0.05, 360.54
382.62, 0.05, 360.63
382.34, 0.05, 360.72
382.05, 0.05, 360.83
381.72, 0.05, 360.94
381.37, 0.05, 361.07
380.99, 0.05, 361.20
380.56, 0.06, 361.35
380.11, 0.06, 361.51
379.60, 0.06, 361.69
379.16, 0.09, 361.85
378.71, 0.13, 362.01
378.12, 0.16, 362.22
376.69, 0.05, 362.72
375.87, 0.07, 363.01
374.98, 0.11, 363.33
374.03, 0.17, 363.67
372.35, 0.15, 364.26
369.18, 0.02, 365.38
366.66, 0.03, 366.28
383.35, 0.05, 360.44
383.13, 0.05, 360.52
382.90, 0.05, 360.61
382.64, 0.05, 360.70
382.37, 0.05, 360.80
382.08, 0.05, 360.91
381.75, 0.05, 361.03
381.40, 0.05, 361.16
381.02, 0.05, 361.30
380.61, 0.06, 361.45
380.15, 0.06, 361.62
379.65, 0.06, 361.80
379.22, 0.10, 361.96
378.81, 0.14, 362.11
378.23, 0.17, 362.33
376.73, 0.04, 362.88
375.92, 0.07, 363.18
375.12, 0.13, 363.47
374.10, 0.17, 363.85
¯372.31, 0.14, 364.50
369.25, 0.01, 365.63
366.69, 0.02, 366.57
383.38, 0.05, 360.51
383.16, 0.05, 360.59
382.92, 0.05, 360.68
382.67, 0.05, 360.78
382.40, 0.05, 360.88
382.11, 0.05, 361.00
381.79, 0.05, 361.12
381.44, 0.05, 361.25
381.06, 0.05, 361.40
380.65, 0.06, 361.55
380.20, 0.06, 361.72
379.70, 0.07, 361.91
379.29, 0.10, 362.07
378.91, 0.15, 362.22
378.34, 0.18, 362.44
376.77, 0.04, 363.03
376.01, 0.08, 363.32
375.31, 0.14, 363.59
374.18, 0.17, 364.02
372.17, 0.11, 364.79
369.31, 0.01, 365.88
366.70, 0.01, 366.88
383.40, 0.05, 360.58
383.19, 0.05, 360.66
382.95, 0.05, 360.76
382.70, 0.05, 360.86
382.43, 0.05, 360.96
382.14, 0.05, 361.08
381.82, 0.05, 361.21
381.47, 0.05, 361.34
381.09, 0.05, 361.49
380.70, 0.06, 361.65
380.25, 0.06, 361.83
379.75, 0.07, 362.02
379.36, 0.11, 362.18
378.98, 0.16, 362.33
378.45, 0.19, 362.54
376.82, 0.04, 363.18
376.15, 0.09, 363.45
375.46, 0.16, 363.72
374.26, 0.17, 364.20
372.04, 0.09, 365.08
369.38, 0.01, 366.13
366.68, 0.00, 367.20
383.43, 0.05, 360.65
383.21, 0.05, 360.73
382.98, 0.05, 360.83
382.73, 0.05, 360.93
¯382.46, 0.05, 361.04
382.17, 0.05, 361.16
381.85, 0.05, 361.29
381.51, 0.05, 361.43
381.13, 0.05, 361.59
380.74, 0.06, 361.75
380.30, 0.07, 361.93
379.81, 0.07, 362.13
379.43, 0.11, 362.29
379.06, 0.17, 362.44
378.56, 0.20, 362.64
376.90, 0.04, 363.32
376.29, 0.11, 363.57
375.62, 0.17, 363.85
374.34, 0.17, 364.38
371.96, 0.07, 365.35
369.45, 0.01, 366.38
368.70, 0.19, 366.69
368.70, 0.46, 366.69
368.70, 0.73, 366.69
368.70, 1.00, 366.69
368.69, 1.27, 366.69
368.69, 1.53, 366.69
368.69, 1.80, 366.69
368.69, 2.07, 366.69
368.69, 2.34, 366.69
368.69, 2.60, 366.69
383.46, 0.05, 360.71
383.24, 0.05, 360.80
383.01, 0.05, 360.90
382.76, 0.05, 361.01
382.50, 0.05, 361.12
382.20, 0.05, 361.25
381.89, 0.05, 361.38
381.55, 0.05, 361.53
381.17, 0.06, 361.68
380.79, 0.06, 361.85
380.35, 0.07, 362.03
379.86, 0.07, 362.24
379.51, 0.12, 362.39
379.13, 0.17, 362.55
378.67, 0.21, 362.75
377.03, 0.06, 363.44
376.43, 0.12, 363.70
375.77, 0.19, 363.98
374.42, 0.17, 364.55
371.95, 0.05, 365.60
369.53, 0.01, 366.63
368.88, 0.20, 366.90
368.88, 0.47, 366.90
368.88, 0.74, 366.90
¯368.88, 1.00, 366.90
368.88, 1.27, 366.90
368.88, 1.54, 366.90
368.88, 1.80, 366.90
368.88, 2.07, 366.90
368.88, 2.34, 366.90
368.88, 2.60, 366.90
383.49, 0.05, 360.78
383.27, 0.05, 360.87
383.04, 0.05, 360.98
382.80, 0.05, 361.08
382.53, 0.05, 361.20
382.24, 0.05, 361.33
381.93, 0.05, 361.47
381.58, 0.05, 361.62
381.22, 0.06, 361.78
380.84, 0.07, 361.94
380.40, 0.07, 362.13
379.92, 0.07, 362.35
379.58, 0.12, 362.50
379.21, 0.18, 362.66
378.78, 0.23, 362.85
377.15, 0.07, 363.56
376.57, 0.13, 363.82
375.92, 0.20, 364.10
374.50, 0.17, 364.73
371.95, 0.04, 365.85
369.60, 0.00, 366.87
367.01, 0.00, 368.02
383.52, 0.05, 360.85
383.30, 0.05, 360.94
383.07, 0.05, 361.05
382.83, 0.05, 361.16
382.56, 0.05, 361.28
382.28, 0.05, 361.41
381.96, 0.05, 361.55
381.62, 0.05, 361.71
381.26, 0.06, 361.87
380.89, 0.07, 362.04
380.46, 0.07, 362.24
379.99, 0.08, 362.45
379.65, 0.13, 362.60
379.29, 0.18, 362.77
378.89, 0.24, 362.95
377.27, 0.08, 363.68
376.71, 0.14, 363.93
376.07, 0.21, 364.23
374.49, 0.16, 364.94
371.95, 0.03, 366.10
369.69, 0.00, 367.12
367.12, 0.00, 368.29
¯367.44, 0.32, 368.14
367.44, 0.61, 368.14
383.55, 0.05, 360.91
383.33, 0.05, 361.01
383.11, 0.05, 361.12
382.86, 0.05, 361.23
382.60, 0.05, 361.36
382.31, 0.05, 361.49
382.00, 0.05, 361.64
381.66, 0.05, 361.80
381.31, 0.06, 361.96
380.94, 0.07, 362.14
380.51, 0.07, 362.34
380.06, 0.08, 362.55
379.72, 0.13, 362.71
379.36, 0.19, 362.87
378.97, 0.24, 363.06
377.39, 0.09, 363.80
376.85, 0.16, 364.05
376.22, 0.22, 364.35
374.48, 0.15, 365.16
371.99, 0.02, 366.33
369.79, 0.00, 367.36
367.24, 0.00, 368.55
367.93, 0.36, 368.23
368.12, 0.66, 368.14
368.12, 0.94, 368.14
383.58, 0.05, 360.98
383.37, 0.05, 361.08
383.14, 0.05, 361.19
382.90, 0.05, 361.31
382.63, 0.05, 361.44
382.35, 0.05, 361.57
382.04, 0.05, 361.72
381.71, 0.05, 361.88
381.35, 0.06, 362.05
380.99, 0.07, 362.23
380.57, 0.08, 362.44
380.13, 0.09, 362.65
379.79, 0.14, 362.81
379.44, 0.19, 362.98
379.05, 0.25, 363.17
377.51, 0.10, 363.91
376.98, 0.17, 364.17
376.37, 0.24, 364.46
374.41, 0.13, 365.41
372.03, 0.02, 366.56
369.89, 0.00, 367.60
367.36, 0.00, 368.82
367.91, 0.34, 368.55
368.47, 0.67, 368.28
¯368.78, 0.97, 368.13
368.78, 1.25, 368.13
383.61, 0.05, 361.04
383.40, 0.05, 361.15
383.18, 0.05, 361.26
382.93, 0.05, 361.38
382.67, 0.05, 361.51
382.39, 0.05, 361.65
382.08, 0.05, 361.81
381.75, 0.05, 361.97
381.40, 0.06, 362.15
381.04, 0.07, 362.33
380.62, 0.08, 362.53
380.20, 0.09, 362.75
379.87, 0.14, 362.91
379.52, 0.20, 363.09
379.14, 0.25, 363.27
377.63, 0.11, 364.02
377.11, 0.18, 364.28
376.52, 0.25, 364.58
374.32, 0.10, 365.68
372.08, 0.01, 366.79
370.00, 0.00, 367.83
367.48, 0.00, 369.09
367.89, 0.33, 368.88
368.46, 0.66, 368.60
368.99, 0.98, 368.33
369.40, 1.27, 368.13
369.40, 1.54, 368.13
383.64, 0.05, 361.11
383.43, 0.05, 361.22
383.21, 0.05, 361.33
382.97, 0.05, 361.46
382.71, 0.05, 361.59
382.43, 0.05, 361.73
382.12, 0.05, 361.89
381.79, 0.05, 362.06
381.45, 0.06, 362.24
381.09, 0.07, 362.42
380.68, 0.08, 362.63
380.27, 0.10, 362.84
379.94, 0.15, 363.01
379.59, 0.20, 363.19
379.23, 0.26, 363.38
377.76, 0.12, 364.14
377.24, 0.19, 364.40
376.66, 0.26, 364.70
374.22, 0.08, 365.95
372.13, 0.00, 367.02
370.12, 0.00, 368.06
367.61, 0.00, 369.35
¯367.87, 0.32, 369.22
368.44, 0.65, 368.92
368.98, 0.97, 368.64
369.49, 1.27, 368.38
369.98, 1.55, 368.13
369.98, 1.82, 368.13
369.98, 2.08, 368.13
383.68, 0.05, 361.17
383.47, 0.05, 361.28
383.25, 0.05, 361.40
383.01, 0.05, 361.53
382.75, 0.05, 361.66
382.47, 0.05, 361.81
382.17, 0.05, 361.97
381.84, 0.05, 362.15
381.50, 0.06, 362.33
381.14, 0.07, 362.52
380.74, 0.08, 362.73
380.34, 0.10, 362.94
380.02, 0.15, 363.11
379.67, 0.20, 363.29
379.33, 0.27, 363.47
377.88, 0.13, 364.24
377.37, 0.20, 364.51
376.81, 0.27, 364.81
374.13, 0.05, 366.23
372.20, 0.00, 367.25
370.23, 0.00, 368.29
367.74, 0.00, 369.61
368.42, 0.64, 369.25
368.97, 0.96, 368.96
369.48, 1.26, 368.69
369.97, 1.55, 368.43
370.44, 1.82, 368.18
370.54, 2.08, 368.12
370.54, 2.33, 368.12
383.71, 0.05, 361.24
383.50, 0.05, 361.35
383.28, 0.05, 361.47
383.05, 0.05, 361.60
382.79, 0.05, 361.74
382.51, 0.05, 361.89
382.21, 0.05, 362.06
381.88, 0.05, 362.23
381.55, 0.06, 362.42
381.19, 0.07, 362.61
380.80, 0.08, 362.83
380.41, 0.11, 363.04
380.09, 0.16, 363.21
379.77, 0.21, 363.39
379.43, 0.27, 363.57
¯378.00, 0.14, 364.35
377.50, 0.21, 364.62
376.96, 0.28, 364.92
374.13, 0.03, 366.46
372.31, 0.00, 367.45
370.35, 0.00, 368.52
367.88, 0.00, 369.87
368.95, 0.95, 369.28
369.47, 1.26, 369.00
369.97, 1.55, 368.73
370.44, 1.82, 368.47
370.88, 2.08, 368.23
371.08, 2.33, 368.12
371.07, 2.58, 368.12
383.74, 0.05, 361.30
383.54, 0.05, 361.42
383.32, 0.05, 361.54
383.09, 0.05, 361.67
382.83, 0.05, 361.82
382.56, 0.05, 361.97
382.26, 0.05, 362.14
381.93, 0.05, 362.32
381.60, 0.06, 362.51
381.25, 0.07, 362.70
380.86, 0.08, 362.92
380.48, 0.11, 363.13
380.17, 0.16, 363.31
379.86, 0.22, 363.48
379.53, 0.28, 363.67
378.12, 0.15, 364.46
377.63, 0.22, 364.73
377.09, 0.29, 365.03
374.16, 0.02, 366.68
372.42, 0.00, 367.66
370.47, 0.00, 368.75
368.01, 0.00, 370.13
369.46, 1.25, 369.32
369.96, 1.54, 369.04
370.43, 1.82, 368.77
370.88, 2.08, 368.52
371.31, 2.33, 368.28
371.58, 2.57, 368.12
383.78, 0.05, 361.37
383.58, 0.05, 361.48
383.36, 0.05, 361.61
383.13, 0.05, 361.74
382.87, 0.05, 361.89
382.60, 0.05, 362.05
382.30, 0.05, 362.22
381.98, 0.05, 362.41
381.65, 0.06, 362.59
¯381.30, 0.07, 362.80
380.92, 0.09, 363.02
380.56, 0.11, 363.23
380.26, 0.17, 363.40
379.95, 0.23, 363.58
379.62, 0.29, 363.77
378.24, 0.16, 364.56
377.76, 0.23, 364.84
377.23, 0.30, 365.15
374.19, 0.01, 366.90
372.53, 0.00, 367.86
370.60, 0.00, 368.98
368.15, 0.00, 370.39
370.43, 1.82, 369.07
370.88, 2.08, 368.81
371.31, 2.33, 368.56
371.72, 2.57, 368.32
383.82, 0.05, 361.43
383.62, 0.05, 361.55
383.40, 0.05, 361.68
383.17, 0.05, 361.82
382.92, 0.05, 361.96
382.64, 0.05, 362.13
382.35, 0.05, 362.30
382.03, 0.05, 362.49
381.71, 0.06, 362.68
381.36, 0.07, 362.89
380.98, 0.09, 363.12
380.64, 0.12, 363.32
380.35, 0.17, 363.49
380.05, 0.23, 363.67
379.72, 0.30, 363.86
378.41, 0.18, 364.64
377.88, 0.23, 364.95
377.35, 0.31, 365.27
374.22, 0.00, 367.13
372.64, 0.00, 368.06
370.72, 0.00, 369.20
368.66, 0.04, 370.43
368.65, 0.33, 370.43
368.65, 0.62, 370.43
368.65, 0.91, 370.43
368.65, 1.20, 370.43
368.65, 1.49, 370.43
368.65, 1.77, 370.43
370.88, 2.08, 369.11
371.31, 2.33, 368.85
371.73, 2.58, 368.60
383.85, 0.05, 361.49
383.65, 0.05, 361.61
383.44, 0.05, 361.74
¯383.21, 0.05, 361.89
382.96, 0.05, 362.04
382.69, 0.05, 362.20
382.40, 0.05, 362.38
382.08, 0.06, 362.58
381.76, 0.07, 362.77
381.42, 0.08, 362.98
381.04, 0.09, 363.21
380.72, 0.13, 363.40
380.44, 0.18, 363.58
380.14, 0.24, 363.76
379.82, 0.30, 363.95
378.59, 0.20, 364.71
378.01, 0.24, 365.06
377.41, 0.30, 365.42
374.31, 0.00, 367.32
372.76, 0.00, 368.26
370.85, 0.00, 369.43
368.89, 0.05, 370.63
368.89, 0.34, 370.63
368.89, 0.63, 370.62
368.89, 0.91, 370.62
368.89, 1.20, 370.62
368.89, 1.49, 370.62
368.89, 1.78, 370.62
368.89, 2.06, 370.62
371.32, 2.34, 369.14
371.73, 2.58, 368.89
383.89, 0.05, 361.55
383.69, 0.05, 361.68
383.48, 0.05, 361.81
383.25, 0.05, 361.96
383.00, 0.05, 362.11
382.74, 0.05, 362.28
382.45, 0.05, 362.46
382.13, 0.06, 362.66
381.82, 0.07, 362.86
381.47, 0.08, 363.07
381.10, 0.09, 363.30
380.81, 0.13, 363.49
380.53, 0.19, 363.66
380.23, 0.25, 363.85
379.92, 0.31, 364.05
378.77, 0.22, 364.77
378.14, 0.25, 365.16
377.48, 0.30, 365.58
374.42, 0.00, 367.50
373.74, 0.12, 367.92
373.72, 0.34, 367.93
373.70, 0.56, 367.94
371.74, 2.58, 369.17
¯383.93, 0.05, 361.62
383.73, 0.05, 361.74
383.52, 0.05, 361.88
383.30, 0.05, 362.03
383.05, 0.05, 362.18
382.78, 0.05, 362.35
382.50, 0.05, 362.54
382.19, 0.06, 362.74
381.87, 0.07, 362.94
381.53, 0.08, 363.16
381.19, 0.10, 363.38
380.89, 0.14, 363.57
380.62, 0.19, 363.75
380.33, 0.25, 363.94
380.02, 0.32, 364.14
378.93, 0.23, 364.84
378.25, 0.26, 365.28
377.54, 0.30, 365.73
374.53, 0.00, 367.68
373.87, 0.12, 368.10
373.86, 0.34, 368.11
373.84, 0.56, 368.12
373.78, 0.78, 368.15
373.78, 1.00, 368.15
373.78, 1.22, 368.15
373.78, 1.44, 368.15
373.78, 1.66, 368.15
373.78, 1.88, 368.15
373.78, 2.10, 368.15
373.78, 2.32, 368.15
373.78, 2.54, 368.15
383.97, 0.05, 361.68
383.78, 0.05, 361.81
383.57, 0.05, 361.95
383.34, 0.05, 362.09
383.10, 0.05, 362.26
382.83, 0.05, 362.43
382.55, 0.05, 362.62
382.24, 0.06, 362.82
381.93, 0.07, 363.03
381.59, 0.08, 363.25
381.27, 0.10, 363.47
380.98, 0.14, 363.66
380.71, 0.20, 363.84
380.42, 0.26, 364.03
380.11, 0.32, 364.23
379.07, 0.25, 364.92
378.31, 0.25, 365.42
377.61, 0.29, 365.89
374.64, 0.00, 367.85
373.13, 0.00, 368.86
¯371.26, 0.00, 370.09
368.90, 0.00, 371.65
373.78, 0.77, 368.42
373.78, 0.99, 368.42
373.78, 1.21, 368.42
373.78, 1.43, 368.42
373.78, 1.66, 368.42
373.78, 1.88, 368.42
373.78, 2.10, 368.42
373.78, 2.32, 368.42
373.78, 2.55, 368.41
384.01, 0.05, 361.74
383.82, 0.05, 361.87
383.61, 0.05, 362.01
383.38, 0.05, 362.16
383.14, 0.05, 362.33
382.88, 0.05, 362.50
382.60, 0.05, 362.70
382.30, 0.06, 362.90
381.99, 0.07, 363.11
381.67, 0.08, 363.33
381.35, 0.11, 363.54
381.07, 0.15, 363.74
380.80, 0.21, 363.92
380.52, 0.26, 364.11
380.21, 0.33, 364.32
379.21, 0.26, 365.00
378.38, 0.25, 365.57
376.09, 0.02, 367.12
374.75, 0.00, 368.03
373.25, 0.00, 369.05
371.40, 0.00, 370.31
369.06, 0.00, 371.90
373.78, 0.75, 368.69
373.78, 0.98, 368.69
373.78, 1.20, 368.69
373.78, 1.43, 368.68
373.78, 1.65, 368.68
373.78, 1.88, 368.68
373.78, 2.10, 368.68
373.78, 2.32, 368.68
373.78, 2.55, 368.68
384.05, 0.05, 361.80
383.86, 0.05, 361.93
383.65, 0.05, 362.08
383.43, 0.05, 362.23
383.19, 0.05, 362.40
382.93, 0.05, 362.58
382.65, 0.05, 362.78
382.35, 0.06, 362.98
382.05, 0.07, 363.20
¯381.74, 0.09, 363.41
381.43, 0.11, 363.62
381.15, 0.16, 363.82
380.89, 0.21, 364.00
380.61, 0.27, 364.20
380.31, 0.33, 364.41
379.35, 0.27, 365.08
378.44, 0.25, 365.71
376.16, 0.01, 367.30
374.87, 0.00, 368.20
373.38, 0.00, 369.24
371.54, 0.00, 370.52
369.22, 0.00, 372.14
373.78, 0.74, 368.96
373.78, 0.97, 368.96
373.78, 1.20, 368.96
373.78, 1.42, 368.96
373.78, 1.65, 368.96
373.78, 1.87, 368.96
373.78, 2.10, 368.96
373.78, 2.33, 368.96
373.78, 2.55, 368.96
384.09, 0.05, 361.86
383.90, 0.05, 361.99
383.70, 0.05, 362.14
383.48, 0.05, 362.30
383.24, 0.05, 362.47
382.98, 0.05, 362.65
382.70, 0.05, 362.85
382.41, 0.06, 363.06
382.11, 0.07, 363.28
381.82, 0.09, 363.48
381.52, 0.12, 363.70
381.24, 0.16, 363.90
380.98, 0.22, 364.09
380.70, 0.28, 364.28
380.41, 0.34, 364.49
379.50, 0.28, 365.15
378.51, 0.24, 365.85
376.26, 0.01, 367.46
374.99, 0.00, 368.38
373.87, 0.05, 369.17
373.86, 0.28, 369.18
373.85, 0.51, 369.19
373.79, 0.73, 369.24
373.79, 0.96, 369.24
373.79, 1.19, 369.24
373.79, 1.42, 369.23
373.79, 1.64, 369.23
373.79, 1.87, 369.23
373.79, 2.10, 369.23
¯373.79, 2.33, 369.23
373.79, 2.55, 369.23
384.14, 0.05, 361.92
383.95, 0.05, 362.06
383.74, 0.05, 362.20
383.53, 0.05, 362.36
383.29, 0.05, 362.54
383.04, 0.05, 362.72
382.76, 0.05, 362.93
382.47, 0.06, 363.14
382.18, 0.07, 363.35
381.90, 0.10, 363.56
381.60, 0.12, 363.78
381.33, 0.17, 363.98
381.07, 0.22, 364.17
380.80, 0.28, 364.37
380.51, 0.34, 364.58
379.64, 0.30, 365.22
378.58, 0.24, 366.00
376.37, 0.01, 367.62
375.11, 0.00, 368.55
373.88, 0.03, 369.45
373.86, 0.26, 369.46
373.85, 0.49, 369.47
384.18, 0.05, 361.97
383.99, 0.05, 362.12
383.79, 0.05, 362.27
383.57, 0.05, 362.43
383.34, 0.05, 362.61
383.09, 0.05, 362.80
382.81, 0.05, 363.00
382.53, 0.06, 363.22
382.26, 0.08, 363.42
381.99, 0.10, 363.63
381.69, 0.13, 363.85
381.41, 0.17, 364.06
381.16, 0.23, 364.25
380.89, 0.29, 364.45
380.61, 0.35, 364.67
379.80, 0.31, 365.27
378.65, 0.23, 366.14
376.48, 0.01, 367.78
375.23, 0.00, 368.72
373.78, 0.00, 369.81
371.99, 0.00, 371.16
369.73, 0.00, 372.87
384.22, 0.05, 362.03
384.04, 0.05, 362.18
383.84, 0.05, 362.33
383.62, 0.05, 362.50
383.39, 0.05, 362.68
¯383.14, 0.05, 362.87
382.87, 0.05, 363.08
382.59, 0.06, 363.30
382.34, 0.08, 363.49
382.07, 0.11, 363.70
381.77, 0.13, 363.93
381.50, 0.18, 364.14
381.25, 0.23, 364.33
380.99, 0.29, 364.53
380.71, 0.35, 364.75
379.97, 0.33, 365.32
378.73, 0.23, 366.28
376.59, 0.01, 367.93
375.36, 0.00, 368.89
373.92, 0.00, 370.00
372.14, 0.00, 371.37
369.90, 0.00, 373.10
384.27, 0.05, 362.09
384.08, 0.05, 362.24
383.89, 0.05, 362.39
383.67, 0.05, 362.56
383.45, 0.05, 362.74
383.20, 0.05, 362.94
382.93, 0.05, 363.15
382.66, 0.07, 363.36
382.42, 0.09, 363.56
382.15, 0.11, 363.77
381.86, 0.14, 364.00
381.59, 0.18, 364.22
381.34, 0.24, 364.41
381.08, 0.30, 364.62
380.80, 0.36, 364.84
380.14, 0.35, 365.36
378.80, 0.23, 366.42
376.71, 0.01, 368.08
375.49, 0.00, 369.05
374.06, 0.00, 370.18
372.30, 0.00, 371.58
370.08, 0.00, 373.34
384.31, 0.05, 362.15
384.13, 0.05, 362.30
383.94, 0.05, 362.45
383.73, 0.05, 362.63
383.50, 0.05, 362.81
383.25, 0.05, 363.01
382.99, 0.05, 363.23
382.74, 0.07, 363.43
382.49, 0.09, 363.63
382.23, 0.12, 363.84
381.94, 0.15, 364.07
381.68, 0.19, 364.29
¯381.43, 0.24, 364.49
381.18, 0.30, 364.70
380.90, 0.36, 364.92
380.30, 0.37, 365.41
378.88, 0.22, 366.56
376.82, 0.01, 368.24
375.61, 0.00, 369.22
374.20, 0.00, 370.37
372.46, 0.00, 371.78
370.26, 0.00, 373.57
384.36, 0.05, 362.20
384.18, 0.05, 362.35
383.99, 0.05, 362.52
383.78, 0.05, 362.69
383.55, 0.05, 362.88
383.31, 0.05, 363.08
383.05, 0.05, 363.30
382.81, 0.07, 363.49
382.57, 0.10, 363.69
382.31, 0.12, 363.91
382.03, 0.15, 364.14
381.76, 0.19, 364.37
381.53, 0.25, 364.57
381.27, 0.31, 364.78
381.00, 0.37, 365.00
380.47, 0.38, 365.44
379.05, 0.24, 366.63
376.94, 0.01, 368.39
375.75, 0.00, 369.38
374.35, 0.00, 370.55
372.62, 0.00, 371.98
370.44, 0.00, 373.80
384.41, 0.05, 362.26
384.23, 0.05, 362.41
384.04, 0.05, 362.58
383.83, 0.05, 362.75
383.61, 0.05, 362.94
383.37, 0.05, 363.15
383.11, 0.05, 363.37
382.88, 0.08, 363.57
382.65, 0.10, 363.76
382.39, 0.13, 363.98
382.12, 0.16, 364.21
381.85, 0.19, 364.44
381.62, 0.25, 364.64
381.37, 0.31, 364.86
381.10, 0.37, 365.08
380.64, 0.40, 365.48
379.28, 0.26, 366.64
377.05, 0.01, 368.54
375.88, 0.00, 369.54
¯374.49, 0.00, 370.73
372.79, 0.00, 372.18
370.63, 0.00, 374.03
384.45, 0.05, 362.32
384.28, 0.05, 362.47
384.09, 0.05, 362.64
383.88, 0.05, 362.81
383.66, 0.05, 363.01
383.43, 0.05, 363.22
383.17, 0.05, 363.44
382.94, 0.08, 363.64
382.73, 0.11, 363.82
382.48, 0.13, 364.05
382.20, 0.16, 364.28
381.94, 0.20, 364.52
381.71, 0.25, 364.72
381.46, 0.31, 364.93
381.20, 0.38, 365.16
380.80, 0.42, 365.51
379.50, 0.29, 366.65
377.17, 0.00, 368.69
376.01, 0.00, 369.70
374.64, 0.00, 370.90
372.95, 0.00, 372.38
370.82, 0.00, 374.25
384.50, 0.05, 362.37
384.33, 0.05, 362.53
384.14, 0.05, 362.70
383.94, 0.05, 362.88
383.72, 0.05, 363.07
383.48, 0.05, 363.28
383.23, 0.05, 363.51
383.01, 0.08, 363.71
382.81, 0.11, 363.89
382.56, 0.14, 364.11
382.29, 0.17, 364.35
382.03, 0.20, 364.59
381.80, 0.26, 364.79
381.56, 0.32, 365.01
381.30, 0.38, 365.24
380.91, 0.42, 365.59
379.72, 0.31, 366.66
377.29, 0.00, 368.84
376.15, 0.00, 369.86
374.80, 0.00, 371.08
373.12, 0.00, 372.58
371.01, 0.00, 374.48
384.55, 0.05, 362.42
384.38, 0.05, 362.58
384.19, 0.05, 362.75
383.99, 0.05, 362.94
¯383.78, 0.05, 363.14
383.54, 0.05, 363.35
383.29, 0.05, 363.58
383.08, 0.08, 363.78
382.88, 0.11, 363.96
382.64, 0.14, 364.18
382.38, 0.17, 364.42
382.12, 0.21, 364.66
381.89, 0.26, 364.87
381.65, 0.32, 365.09
381.38, 0.38, 365.34
381.00, 0.42, 365.69
379.93, 0.34, 366.67
377.41, 0.00, 368.99
376.29, 0.00, 370.02
374.95, 0.00, 371.25
373.29, 0.00, 372.78
371.20, 0.00, 374.70
384.60, 0.05, 362.48
384.43, 0.05, 362.64
384.25, 0.05, 362.81
384.05, 0.05, 363.00
383.84, 0.05, 363.20
383.61, 0.05, 363.42
383.35, 0.05, 363.65
383.14, 0.08, 363.85
382.95, 0.11, 364.04
382.73, 0.15, 364.24
382.47, 0.17, 364.49
382.21, 0.21, 364.73
381.99, 0.27, 364.94
381.75, 0.33, 365.16
381.47, 0.38, 365.43
381.08, 0.42, 365.79
380.15, 0.36, 366.67
377.53, 0.00, 369.14
376.43, 0.00, 370.18
375.10, 0.00, 371.43
373.47, 0.00, 372.97
371.40, 0.00, 374.92
384.65, 0.05, 362.53
384.48, 0.05, 362.69
384.30, 0.05, 362.87
384.10, 0.05, 363.06
383.89, 0.05, 363.26
383.67, 0.05, 363.48
383.42, 0.05, 363.72
383.21, 0.08, 363.92
383.02, 0.11, 364.11
382.81, 0.15, 364.31
382.56, 0.18, 364.55
¯382.30, 0.21, 364.80
382.08, 0.27, 365.01
381.85, 0.33, 365.24
381.55, 0.38, 365.52
381.17, 0.42, 365.89
380.36, 0.38, 366.67
377.66, 0.00, 369.28
376.57, 0.00, 370.33
375.26, 0.00, 371.60
373.64, 0.00, 373.16
371.60, 0.00, 375.14
384.70, 0.05, 362.58
384.53, 0.05, 362.75
384.35, 0.05, 362.93
384.16, 0.05, 363.12
383.95, 0.05, 363.32
383.73, 0.05, 363.55
383.48, 0.05, 363.79
383.28, 0.08, 363.99
383.09, 0.11, 364.18
382.89, 0.15, 364.38
382.65, 0.18, 364.62
382.39, 0.22, 364.87
382.17, 0.27, 365.09
381.93, 0.33, 365.33
381.64, 0.38, 365.61
381.26, 0.42, 365.99
380.55, 0.40, 366.69
377.79, 0.00, 369.42
376.72, 0.00, 370.48
375.42, 0.00, 371.77
373.82, 0.00, 373.35
371.80, 0.00, 375.35
384.75, 0.05, 362.64
384.59, 0.05, 362.80
384.41, 0.05, 362.98
384.22, 0.05, 363.18
384.01, 0.05, 363.38
383.79, 0.05, 363.61
383.55, 0.05, 363.85
383.35, 0.08, 364.06
383.16, 0.11, 364.25
382.96, 0.15, 364.45
382.73, 0.19, 364.68
382.48, 0.22, 364.94
382.26, 0.28, 365.16
382.01, 0.33, 365.41
381.72, 0.38, 365.71
381.35, 0.42, 366.09
380.74, 0.42, 366.70
377.93, 0.00, 369.56
¯376.87, 0.00, 370.63
375.59, 0.00, 371.93
374.00, 0.00, 373.53
372.01, 0.00, 375.56
384.80, 0.05, 362.69
384.64, 0.05, 362.86
384.47, 0.05, 363.04
384.28, 0.05, 363.23
384.08, 0.05, 363.44
383.86, 0.05, 363.67
383.62, 0.05, 363.92
383.42, 0.08, 364.13
383.23, 0.11, 364.32
383.03, 0.15, 364.53
382.82, 0.19, 364.75
382.57, 0.22, 365.01
382.36, 0.28, 365.23
382.09, 0.33, 365.50
381.81, 0.38, 365.80
381.44, 0.42, 366.18
380.90, 0.43, 366.75
378.06, 0.00, 369.69
377.02, 0.00, 370.78
375.75, 0.00, 372.10
374.19, 0.00, 373.72
372.21, 0.00, 375.77
384.86, 0.05, 362.74
384.70, 0.05, 362.91
384.52, 0.05, 363.09
384.34, 0.05, 363.29
384.14, 0.05, 363.50
383.92, 0.05, 363.73
383.68, 0.05, 363.99
383.49, 0.08, 364.20
383.30, 0.11, 364.39
383.11, 0.15, 364.60
382.90, 0.19, 364.82
382.66, 0.23, 365.08
382.44, 0.28, 365.31
382.18, 0.33, 365.59
381.90, 0.38, 365.89
381.53, 0.42, 366.28
381.00, 0.43, 366.85
378.20, 0.00, 369.83
377.17, 0.00, 370.93
375.92, 0.00, 372.26
374.37, 0.00, 373.90
372.42, 0.00, 375.98
384.91, 0.05, 362.79
384.75, 0.05, 362.96
384.58, 0.05, 363.15
¯384.40, 0.05, 363.35
384.20, 0.05, 363.56
383.99, 0.05, 363.80
383.75, 0.05, 364.05
383.56, 0.08, 364.26
383.37, 0.11, 364.46
383.18, 0.15, 364.67
382.98, 0.19, 364.90
382.75, 0.23, 365.14
382.52, 0.28, 365.39
382.26, 0.33, 365.67
381.99, 0.38, 365.98
381.62, 0.42, 366.37
381.09, 0.43, 366.95
378.34, 0.00, 369.96
377.32, 0.00, 371.07
376.08, 0.00, 372.42
374.56, 0.00, 374.08
372.64, 0.00, 376.18
384.96, 0.05, 362.84
384.81, 0.05, 363.01
384.64, 0.05, 363.20
384.46, 0.05, 363.40
384.26, 0.05, 363.62
384.05, 0.05, 363.86
383.82, 0.05, 364.11
383.63, 0.08, 364.33
383.45, 0.11, 364.53
383.26, 0.15, 364.74
383.06, 0.19, 364.97
382.84, 0.23, 365.21
382.60, 0.28, 365.47
382.35, 0.33, 365.76
382.08, 0.38, 366.06
381.72, 0.42, 366.47
381.19, 0.43, 367.05
380.42, 0.41, 367.92
380.41, 0.57, 367.93
376.25, 0.00, 372.58
374.75, 0.00, 374.26
372.85, 0.00, 376.38
385.02, 0.05, 362.88
384.86, 0.05, 363.06
384.70, 0.05, 363.25
384.52, 0.05, 363.46
384.33, 0.05, 363.68
384.12, 0.05, 363.92
383.89, 0.05, 364.18
383.70, 0.08, 364.40
383.52, 0.11, 364.60
383.33, 0.15, 364.81
¯383.13, 0.19, 365.04
382.92, 0.23, 365.29
382.69, 0.28, 365.56
382.44, 0.32, 365.84
382.17, 0.38, 366.15
381.81, 0.42, 366.56
381.30, 0.43, 367.15
380.62, 0.43, 367.92
380.61, 0.59, 367.93
380.59, 0.74, 367.96
380.59, 0.90, 367.96
380.59, 1.05, 367.96
380.59, 1.21, 367.96
380.59, 1.37, 367.96
380.59, 1.52, 367.96
380.59, 1.68, 367.96
380.59, 1.83, 367.96
380.59, 1.99, 367.96
380.59, 2.14, 367.96
380.59, 2.30, 367.96
380.59, 2.45, 367.96
385.07, 0.05, 362.93
384.92, 0.05, 363.11
384.76, 0.05, 363.30
384.58, 0.05, 363.51
384.39, 0.05, 363.73
384.19, 0.05, 363.97
383.96, 0.05, 364.24
383.77, 0.08, 364.46
383.60, 0.11, 364.67
383.41, 0.15, 364.89
383.21, 0.19, 365.12
383.00, 0.23, 365.37
382.77, 0.28, 365.64
382.52, 0.32, 365.93
382.26, 0.37, 366.24
381.91, 0.41, 366.65
381.39, 0.43, 367.26
380.71, 0.43, 368.06
380.70, 0.58, 368.07
380.68, 0.73, 368.10
380.68, 0.89, 368.10
380.68, 1.05, 368.09
380.68, 1.21, 368.09
380.68, 1.36, 368.09
380.68, 1.52, 368.09
380.68, 1.68, 368.09
380.68, 1.83, 368.09
380.68, 1.99, 368.09
380.68, 2.14, 368.09
380.68, 2.30, 368.09
¯380.68, 2.46, 368.09
385.13, 0.05, 362.98
384.98, 0.05, 363.16
384.82, 0.05, 363.35
384.64, 0.05, 363.56
384.46, 0.05, 363.79
384.25, 0.05, 364.03
384.03, 0.05, 364.30
383.84, 0.08, 364.53
383.67, 0.11, 364.74
383.49, 0.15, 364.95
383.29, 0.19, 365.19
383.08, 0.23, 365.45
382.86, 0.27, 365.72
382.61, 0.32, 366.01
382.35, 0.37, 366.33
382.00, 0.41, 366.74
381.48, 0.42, 367.38
380.68, 0.39, 368.34
380.68, 0.55, 368.34
380.68, 0.71, 368.34
380.68, 0.87, 368.34
380.68, 1.03, 368.34
380.68, 1.19, 368.34
380.68, 1.35, 368.34
380.68, 1.51, 368.34
380.68, 1.67, 368.34
380.68, 1.83, 368.34
380.68, 1.98, 368.34
380.68, 2.14, 368.34
380.68, 2.30, 368.33
380.68, 2.46, 368.33
385.19, 0.05, 363.03
385.04, 0.05, 363.21
384.88, 0.05, 363.40
384.71, 0.05, 363.62
384.52, 0.05, 363.84
384.32, 0.05, 364.09
384.11, 0.05, 364.36
383.92, 0.07, 364.59
383.75, 0.11, 364.80
383.57, 0.15, 365.02
383.37, 0.19, 365.26
383.16, 0.23, 365.53
382.94, 0.27, 365.80
382.70, 0.32, 366.09
382.44, 0.37, 366.41
382.10, 0.41, 366.83
381.57, 0.42, 367.50
380.68, 0.36, 368.59
380.68, 0.53, 368.59
¯380.68, 0.69, 368.59
380.68, 0.85, 368.59
380.68, 1.02, 368.59
380.68, 1.18, 368.59
380.68, 1.34, 368.59
380.68, 1.50, 368.59
380.68, 1.66, 368.59
380.68, 1.82, 368.59
380.68, 1.98, 368.59
380.68, 2.14, 368.59
380.68, 2.30, 368.59
380.68, 2.46, 368.58
390.73, 0.05, 352.61
390.81, 0.05, 352.39
390.90, 0.05, 352.15
390.99, 0.05, 351.90
391.08, 0.05, 351.63
391.18, 0.06, 351.35
391.29, 0.06, 351.04
391.41, 0.06, 350.70
391.54, 0.07, 350.36
391.66, 0.09, 350.02
391.79, 0.11, 349.66
391.95, 0.13, 349.22
392.10, 0.15, 348.80
392.25, 0.20, 348.38
392.41, 0.24, 347.93
392.57, 0.29, 347.47
392.76, 0.35, 346.95
392.96, 0.41, 346.38
393.90, 0.19, 343.75
393.94, 0.37, 343.64
393.98, 0.55, 343.54
394.02, 0.73, 343.44
394.05, 0.92, 343.33
394.09, 1.10, 343.24
394.12, 1.29, 343.15
394.15, 1.48, 343.06
394.18, 1.68, 342.98
394.21, 1.87, 342.89
394.25, 2.07, 342.80
394.28, 2.27, 342.71
394.31, 2.47, 342.61
390.67, 0.05, 352.58
390.74, 0.05, 352.36
390.82, 0.05, 352.13
390.91, 0.05, 351.88
391.00, 0.05, 351.60
391.10, 0.06, 351.32
391.21, 0.06, 351.01
391.32, 0.06, 350.67
¯391.44, 0.07, 350.32
391.56, 0.09, 349.98
391.69, 0.11, 349.62
391.84, 0.12, 349.16
391.99, 0.15, 348.73
392.13, 0.19, 348.31
392.29, 0.23, 347.86
392.45, 0.29, 347.39
392.62, 0.35, 346.91
392.81, 0.41, 346.34
393.71, 0.20, 343.75
393.74, 0.38, 343.64
393.78, 0.56, 343.54
393.81, 0.74, 343.44
393.85, 0.92, 343.33
393.89, 1.11, 343.23
393.92, 1.30, 343.12
393.95, 1.49, 343.03
393.98, 1.68, 342.95
394.01, 1.88, 342.86
394.05, 2.07, 342.77
394.08, 2.27, 342.68
394.11, 2.47, 342.59
390.60, 0.05, 352.56
390.67, 0.05, 352.34
390.75, 0.05, 352.10
390.83, 0.05, 351.85
390.92, 0.05, 351.58
391.02, 0.06, 351.29
391.12, 0.06, 350.98
391.23, 0.06, 350.64
391.35, 0.07, 350.28
391.46, 0.09, 349.94
391.58, 0.11, 349.57
391.74, 0.12, 349.11
391.88, 0.14, 348.66
392.02, 0.18, 348.24
392.17, 0.23, 347.78
392.33, 0.28, 347.30
392.49, 0.35, 346.84
392.66, 0.41, 346.30
393.51, 0.21, 343.74
393.54, 0.39, 343.64
393.58, 0.57, 343.54
393.61, 0.75, 343.44
393.65, 0.93, 343.33
393.68, 1.11, 343.23
393.72, 1.30, 343.12
393.75, 1.49, 343.01
393.79, 1.68, 342.92
393.82, 1.88, 342.83
¯393.85, 2.07, 342.74
393.88, 2.27, 342.65
393.91, 2.47, 342.56
390.53, 0.05, 352.54
390.60, 0.05, 352.31
390.67, 0.05, 352.08
390.75, 0.05, 351.82
390.84, 0.06, 351.55
390.93, 0.06, 351.26
391.03, 0.06, 350.95
391.14, 0.06, 350.61
391.25, 0.07, 350.24
391.36, 0.09, 349.90
391.48, 0.11, 349.52
391.63, 0.12, 349.06
391.78, 0.14, 348.60
391.91, 0.18, 348.17
392.06, 0.22, 347.71
392.21, 0.27, 347.22
392.36, 0.34, 346.75
