žVERSION 0.7
FIELDS x y z
SIZE 8 8 8
TYPE F F F
COUNT 1 1 1
WIDTH 2271
HEIGHT 1
VIEWPOINT 353.34, 9.20, 316.49 1 334.40, 1.37, 314.31
POINTS 2271
DATA ascii
333.13, 0.14, 315.94
332.99, 0.14, 315.98
332.84, 0.14, 316.01
332.68, 0.14, 316.05
332.51, 0.14, 316.08
332.33, 0.14, 316.13
332.13, 0.14, 316.17
331.92, 0.14, 316.22
331.69, 0.14, 316.27
330.99, 0.00, 316.43
330.70, 0.00, 316.49
330.38, 0.00, 316.56
330.03, 0.00, 316.64
329.65, 0.00, 316.73
329.23, 0.00, 316.83
328.75, 0.00, 316.93
328.23, 0.00, 317.05
327.63, 0.00, 317.19
326.95, 0.00, 317.35
326.17, 0.00, 317.52
325.50, 0.04, 317.68
324.65, 0.07, 317.87
334.12, 0.14, 315.76
334.03, 0.14, 315.78
333.94, 0.14, 315.80
333.84, 0.14, 315.83
¯333.74, 0.14, 315.85
333.64, 0.14, 315.88
333.52, 0.14, 315.90
333.41, 0.14, 315.93
333.28, 0.14, 315.96
333.15, 0.14, 315.99
333.01, 0.14, 316.03
332.86, 0.14, 316.06
332.70, 0.14, 316.10
332.53, 0.14, 316.14
332.35, 0.14, 316.18
332.15, 0.14, 316.23
331.95, 0.14, 316.28
331.72, 0.14, 316.34
331.01, 0.00, 316.50
330.73, 0.00, 316.57
330.41, 0.00, 316.65
330.07, 0.00, 316.73
329.69, 0.00, 316.82
329.27, 0.00, 316.92
328.80, 0.00, 317.03
328.27, 0.00, 317.16
327.68, 0.00, 317.30
327.01, 0.00, 317.46
326.23, 0.00, 317.65
325.55, 0.03, 317.82
324.70, 0.06, 318.02
334.13, 0.14, 315.80
334.05, 0.14, 315.82
333.95, 0.14, 315.84
333.86, 0.14, 315.87
333.76, 0.14, 315.89
333.65, 0.14, 315.92
333.54, 0.14, 315.95
333.42, 0.14, 315.98
333.30, 0.14, 316.01
333.17, 0.14, 316.04
333.03, 0.14, 316.08
332.88, 0.14, 316.12
332.72, 0.14, 316.16
332.55, 0.14, 316.20
332.37, 0.14, 316.24
332.18, 0.14, 316.29
331.97, 0.14, 316.35
331.74, 0.14, 316.40
331.04, 0.00, 316.57
330.76, 0.00, 316.65
330.45, 0.00, 316.73
330.10, 0.00, 316.81
329.73, 0.00, 316.91
329.31, 0.00, 317.01
¯328.84, 0.00, 317.13
328.32, 0.00, 317.26
327.73, 0.00, 317.41
327.06, 0.00, 317.58
326.29, 0.00, 317.78
325.59, 0.03, 317.96
324.75, 0.06, 318.17
334.15, 0.14, 315.84
334.06, 0.14, 315.86
333.97, 0.14, 315.88
333.87, 0.14, 315.91
333.77, 0.14, 315.94
333.67, 0.14, 315.96
333.55, 0.14, 315.99
333.44, 0.14, 316.02
333.31, 0.14, 316.06
333.18, 0.14, 316.09
333.04, 0.14, 316.13
332.90, 0.14, 316.17
332.74, 0.14, 316.21
332.57, 0.14, 316.25
332.39, 0.14, 316.30
332.20, 0.14, 316.35
331.99, 0.14, 316.41
331.77, 0.14, 316.47
331.53, 0.14, 316.53
330.79, 0.00, 316.72
330.48, 0.00, 316.81
330.14, 0.00, 316.90
329.76, 0.00, 317.00
329.35, 0.00, 317.11
328.89, 0.00, 317.23
328.37, 0.00, 317.37
327.79, 0.00, 317.52
327.12, 0.00, 317.70
326.36, 0.00, 317.90
325.63, 0.03, 318.10
324.80, 0.05, 318.32
334.16, 0.14, 315.87
334.07, 0.14, 315.90
333.98, 0.14, 315.92
333.89, 0.14, 315.95
333.79, 0.14, 315.98
333.68, 0.14, 316.01
333.57, 0.14, 316.04
333.45, 0.14, 316.07
333.33, 0.14, 316.10
333.20, 0.14, 316.14
333.06, 0.14, 316.18
332.92, 0.14, 316.22
332.76, 0.14, 316.26
¯332.59, 0.14, 316.31
332.42, 0.14, 316.36
332.22, 0.14, 316.41
332.02, 0.14, 316.47
331.80, 0.14, 316.53
331.56, 0.14, 316.60
330.82, 0.00, 316.80
330.51, 0.00, 316.89
330.17, 0.00, 316.98
329.80, 0.00, 317.09
329.39, 0.00, 317.20
328.93, 0.00, 317.33
328.42, 0.00, 317.47
327.84, 0.00, 317.63
327.18, 0.00, 317.82
326.42, 0.00, 318.03
325.68, 0.02, 318.24
324.86, 0.05, 318.47
334.17, 0.14, 315.91
334.09, 0.14, 315.94
334.00, 0.14, 315.96
333.90, 0.14, 315.99
333.80, 0.14, 316.02
333.70, 0.14, 316.05
333.59, 0.14, 316.08
333.47, 0.14, 316.12
333.35, 0.14, 316.15
333.22, 0.14, 316.19
333.08, 0.14, 316.23
332.94, 0.14, 316.27
332.78, 0.14, 316.32
332.62, 0.14, 316.37
332.44, 0.14, 316.42
332.25, 0.14, 316.47
332.04, 0.14, 316.53
331.82, 0.14, 316.60
331.58, 0.14, 316.67
330.85, 0.00, 316.88
330.55, 0.00, 316.97
330.21, 0.00, 317.06
329.84, 0.00, 317.17
329.43, 0.00, 317.29
328.98, 0.00, 317.43
328.47, 0.00, 317.57
327.89, 0.00, 317.74
327.24, 0.00, 317.93
326.49, 0.00, 318.15
325.72, 0.02, 318.38
324.92, 0.05, 318.61
334.19, 0.14, 315.95
334.10, 0.14, 315.98
¯334.01, 0.14, 316.00
333.92, 0.14, 316.03
333.82, 0.14, 316.06
333.71, 0.14, 316.09
333.60, 0.14, 316.13
333.49, 0.14, 316.16
333.37, 0.14, 316.20
333.24, 0.14, 316.24
333.10, 0.14, 316.28
332.96, 0.14, 316.32
332.80, 0.14, 316.37
332.64, 0.14, 316.42
332.46, 0.14, 316.48
332.27, 0.14, 316.53
332.07, 0.14, 316.60
331.85, 0.14, 316.66
331.61, 0.14, 316.74
330.88, 0.00, 316.95
330.58, 0.00, 317.05
330.25, 0.00, 317.15
329.88, 0.00, 317.26
329.47, 0.00, 317.38
329.02, 0.00, 317.52
328.51, 0.00, 317.68
327.94, 0.00, 317.85
327.29, 0.00, 318.05
326.55, 0.00, 318.28
325.78, 0.01, 318.51
324.98, 0.04, 318.76
334.20, 0.14, 315.99
334.11, 0.14, 316.01
334.02, 0.14, 316.04
333.93, 0.14, 316.07
333.83, 0.14, 316.10
333.73, 0.14, 316.14
333.62, 0.14, 316.17
333.51, 0.14, 316.21
333.38, 0.14, 316.25
333.26, 0.14, 316.29
333.12, 0.14, 316.33
332.98, 0.14, 316.38
332.82, 0.14, 316.43
332.66, 0.14, 316.48
332.48, 0.14, 316.53
332.30, 0.14, 316.59
332.09, 0.14, 316.66
331.88, 0.14, 316.73
331.64, 0.14, 316.80
330.92, 0.00, 317.03
330.61, 0.00, 317.13
330.28, 0.00, 317.23
¯329.92, 0.00, 317.35
329.51, 0.00, 317.48
329.06, 0.00, 317.62
328.56, 0.00, 317.78
327.99, 0.00, 317.96
327.35, 0.00, 318.16
326.61, 0.00, 318.40
325.84, 0.01, 318.65
325.04, 0.04, 318.90
334.21, 0.14, 316.02
334.13, 0.14, 316.05
334.04, 0.14, 316.08
333.95, 0.14, 316.11
333.85, 0.14, 316.15
333.75, 0.14, 316.18
333.64, 0.14, 316.22
333.52, 0.14, 316.25
333.40, 0.14, 316.29
333.28, 0.14, 316.34
333.14, 0.14, 316.38
333.00, 0.14, 316.43
332.84, 0.14, 316.48
332.68, 0.14, 316.53
332.51, 0.14, 316.59
332.32, 0.14, 316.65
332.12, 0.14, 316.72
331.90, 0.14, 316.79
331.67, 0.14, 316.87
330.95, 0.00, 317.10
330.65, 0.00, 317.20
330.32, 0.00, 317.31
329.96, 0.00, 317.43
329.55, 0.00, 317.57
329.11, 0.00, 317.71
328.61, 0.00, 317.88
328.05, 0.00, 318.07
327.41, 0.00, 318.28
326.68, 0.00, 318.52
325.89, 0.01, 318.78
325.10, 0.04, 319.05
334.23, 0.14, 316.06
334.14, 0.14, 316.09
334.06, 0.14, 316.12
333.96, 0.14, 316.15
333.87, 0.14, 316.19
333.76, 0.14, 316.22
333.66, 0.14, 316.26
333.54, 0.14, 316.30
333.42, 0.14, 316.34
333.30, 0.14, 316.38
333.16, 0.14, 316.43
¯333.02, 0.14, 316.48
332.87, 0.14, 316.53
332.70, 0.14, 316.59
332.53, 0.14, 316.65
332.35, 0.14, 316.71
332.15, 0.14, 316.78
331.93, 0.14, 316.86
331.70, 0.14, 316.94
330.98, 0.00, 317.18
330.68, 0.00, 317.28
330.36, 0.00, 317.40
330.00, 0.00, 317.52
329.60, 0.00, 317.66
329.15, 0.00, 317.81
328.66, 0.00, 317.98
328.10, 0.00, 318.17
327.47, 0.00, 318.39
326.74, 0.00, 318.64
325.95, 0.01, 318.92
325.16, 0.04, 319.19
334.24, 0.14, 316.10
334.16, 0.14, 316.13
334.07, 0.14, 316.16
333.98, 0.14, 316.19
333.88, 0.14, 316.23
333.78, 0.14, 316.26
333.67, 0.14, 316.30
333.56, 0.14, 316.34
333.44, 0.14, 316.39
333.32, 0.14, 316.43
333.18, 0.14, 316.48
333.04, 0.14, 316.53
332.89, 0.14, 316.58
332.73, 0.14, 316.64
332.56, 0.14, 316.70
332.37, 0.14, 316.77
332.17, 0.14, 316.84
331.96, 0.14, 316.92
331.73, 0.14, 317.00
331.47, 0.14, 317.09
330.72, 0.00, 317.36
330.39, 0.00, 317.48
330.03, 0.00, 317.61
329.64, 0.00, 317.75
329.20, 0.00, 317.91
328.71, 0.00, 318.08
328.15, 0.00, 318.28
327.52, 0.00, 318.51
326.80, 0.00, 318.77
326.00, 0.01, 319.05
325.22, 0.04, 319.33
¯334.26, 0.14, 316.14
334.17, 0.14, 316.17
334.09, 0.14, 316.20
334.00, 0.14, 316.23
333.90, 0.14, 316.27
333.80, 0.14, 316.31
333.69, 0.14, 316.35
333.58, 0.14, 316.39
333.46, 0.14, 316.43
333.34, 0.14, 316.48
333.20, 0.14, 316.53
333.06, 0.14, 316.58
332.91, 0.14, 316.64
332.75, 0.14, 316.70
332.58, 0.14, 316.76
332.40, 0.14, 316.83
332.20, 0.14, 316.90
331.99, 0.14, 316.98
331.76, 0.14, 317.07
331.51, 0.14, 317.16
330.75, 0.00, 317.44
330.43, 0.00, 317.56
330.07, 0.00, 317.69
329.68, 0.00, 317.84
329.24, 0.00, 318.00
328.76, 0.00, 318.18
328.21, 0.00, 318.39
327.58, 0.00, 318.62
326.86, 0.00, 318.89
326.06, 0.00, 319.19
325.30, 0.04, 319.47
334.27, 0.14, 316.17
334.19, 0.14, 316.20
334.10, 0.14, 316.24
334.01, 0.14, 316.27
333.92, 0.14, 316.31
333.82, 0.14, 316.35
333.71, 0.14, 316.39
333.60, 0.14, 316.43
333.48, 0.14, 316.48
333.36, 0.14, 316.53
333.22, 0.14, 316.58
333.08, 0.14, 316.63
332.93, 0.14, 316.69
332.78, 0.14, 316.75
332.61, 0.14, 316.82
332.42, 0.14, 316.89
332.23, 0.14, 316.96
332.01, 0.14, 317.05
331.79, 0.14, 317.13
331.54, 0.14, 317.23
¯330.79, 0.00, 317.52
330.47, 0.00, 317.64
330.11, 0.00, 317.78
329.72, 0.00, 317.93
329.29, 0.00, 318.10
328.80, 0.00, 318.28
328.26, 0.00, 318.49
327.64, 0.00, 318.73
326.93, 0.00, 319.01
326.12, 0.00, 319.32
325.39, 0.04, 319.60
334.29, 0.14, 316.21
334.21, 0.14, 316.24
334.12, 0.14, 316.28
334.03, 0.14, 316.31
333.93, 0.14, 316.35
333.83, 0.14, 316.39
333.73, 0.14, 316.43
333.62, 0.14, 316.48
333.50, 0.14, 316.52
333.38, 0.14, 316.57
333.25, 0.14, 316.63
333.11, 0.14, 316.68
332.96, 0.14, 316.74
332.80, 0.14, 316.81
332.63, 0.14, 316.87
332.45, 0.14, 316.95
332.25, 0.14, 317.02
332.04, 0.14, 317.11
331.82, 0.14, 317.20
331.57, 0.14, 317.30
330.83, 0.00, 317.59
330.51, 0.00, 317.72
330.16, 0.00, 317.86
329.77, 0.00, 318.02
329.34, 0.00, 318.19
328.85, 0.00, 318.38
328.31, 0.00, 318.60
327.69, 0.00, 318.85
326.99, 0.00, 319.13
326.17, 0.00, 319.46
325.48, 0.04, 319.73
334.31, 0.14, 316.25
334.22, 0.14, 316.28
334.14, 0.14, 316.32
334.05, 0.14, 316.35
333.95, 0.14, 316.39
333.85, 0.14, 316.43
333.75, 0.14, 316.48
333.64, 0.14, 316.52
333.52, 0.14, 316.57
¯333.40, 0.14, 316.62
333.27, 0.14, 316.68
333.13, 0.14, 316.73
332.98, 0.14, 316.79
332.82, 0.14, 316.86
332.66, 0.14, 316.93
332.48, 0.14, 317.00
332.28, 0.14, 317.08
332.07, 0.14, 317.17
331.85, 0.14, 317.27
331.60, 0.14, 317.37
330.86, 0.00, 317.67
330.54, 0.00, 317.80
330.20, 0.00, 317.95
329.81, 0.00, 318.11
329.38, 0.00, 318.28
328.90, 0.00, 318.48
328.36, 0.00, 318.71
327.75, 0.00, 318.96
327.05, 0.00, 319.25
326.24, 0.00, 319.59
325.57, 0.04, 319.87
334.32, 0.14, 316.28
334.24, 0.14, 316.32
334.15, 0.14, 316.35
334.06, 0.14, 316.39
333.97, 0.14, 316.43
333.87, 0.14, 316.48
333.77, 0.14, 316.52
333.66, 0.14, 316.57
333.54, 0.14, 316.62
333.42, 0.14, 316.67
333.29, 0.14, 316.72
333.15, 0.14, 316.78
333.01, 0.14, 316.85
332.85, 0.14, 316.91
332.68, 0.14, 316.99
332.50, 0.14, 317.06
332.31, 0.14, 317.14
332.10, 0.14, 317.23
331.88, 0.14, 317.33
331.63, 0.14, 317.43
330.90, 0.00, 317.75
330.58, 0.00, 317.88
330.24, 0.00, 318.03
329.85, 0.00, 318.20
329.43, 0.00, 318.38
328.95, 0.00, 318.58
328.42, 0.00, 318.81
327.81, 0.00, 319.07
327.11, 0.00, 319.37
¯326.31, 0.00, 319.72
325.66, 0.05, 320.00
334.34, 0.14, 316.32
334.26, 0.14, 316.35
334.17, 0.14, 316.39
334.08, 0.14, 316.43
333.99, 0.14, 316.47
333.89, 0.14, 316.52
333.79, 0.14, 316.56
333.68, 0.14, 316.61
333.56, 0.14, 316.66
333.44, 0.14, 316.72
333.31, 0.14, 316.77
333.18, 0.14, 316.83
333.03, 0.14, 316.90
332.87, 0.14, 316.97
332.71, 0.14, 317.04
332.53, 0.14, 317.12
332.34, 0.14, 317.20
332.13, 0.14, 317.30
331.91, 0.14, 317.39
331.67, 0.14, 317.50
331.40, 0.14, 317.62
330.62, 0.00, 317.96
330.28, 0.00, 318.12
329.90, 0.00, 318.28
329.48, 0.00, 318.47
329.00, 0.00, 318.68
328.47, 0.00, 318.92
327.87, 0.00, 319.18
327.17, 0.00, 319.49
326.37, 0.00, 319.84
325.74, 0.05, 320.12
334.36, 0.14, 316.35
334.27, 0.14, 316.39
334.19, 0.14, 316.43
334.10, 0.14, 316.47
334.01, 0.14, 316.51
333.91, 0.14, 316.56
333.81, 0.14, 316.61
333.70, 0.14, 316.65
333.59, 0.14, 316.71
333.46, 0.14, 316.76
333.34, 0.14, 316.82
333.20, 0.14, 316.88
333.05, 0.14, 316.95
332.90, 0.14, 317.02
332.73, 0.14, 317.10
332.56, 0.14, 317.18
332.37, 0.14, 317.26
332.16, 0.14, 317.36
¯331.94, 0.14, 317.46
331.70, 0.14, 317.57
331.44, 0.14, 317.69
330.66, 0.00, 318.04
330.32, 0.00, 318.20
329.94, 0.00, 318.37
329.52, 0.00, 318.56
329.05, 0.00, 318.78
328.52, 0.00, 319.02
327.92, 0.00, 319.30
327.24, 0.00, 319.61
326.44, 0.00, 319.97
325.83, 0.05, 320.25
334.37, 0.14, 316.39
334.29, 0.14, 316.43
334.21, 0.14, 316.47
334.12, 0.14, 316.51
334.03, 0.14, 316.55
333.93, 0.14, 316.60
333.83, 0.14, 316.65
333.72, 0.14, 316.70
333.61, 0.14, 316.75
333.49, 0.14, 316.81
333.36, 0.14, 316.87
333.22, 0.14, 316.93
333.08, 0.14, 317.00
332.93, 0.14, 317.07
332.76, 0.14, 317.15
332.59, 0.14, 317.23
332.40, 0.14, 317.32
332.19, 0.14, 317.42
331.97, 0.14, 317.52
331.73, 0.14, 317.64
331.47, 0.14, 317.76
330.70, 0.00, 318.12
330.36, 0.00, 318.28
329.99, 0.00, 318.46
329.57, 0.00, 318.66
329.10, 0.00, 318.88
328.58, 0.00, 319.13
327.98, 0.00, 319.41
327.30, 0.00, 319.73
326.51, 0.00, 320.10
325.89, 0.05, 320.39
334.39, 0.14, 316.43
334.31, 0.14, 316.47
334.23, 0.14, 316.51
334.14, 0.14, 316.55
334.05, 0.14, 316.59
333.95, 0.14, 316.64
333.85, 0.14, 316.69
¯333.74, 0.14, 316.74
333.63, 0.14, 316.80
333.51, 0.14, 316.86
333.38, 0.14, 316.92
333.25, 0.14, 316.98
333.11, 0.14, 317.05
332.95, 0.14, 317.13
332.79, 0.14, 317.21
332.61, 0.14, 317.29
332.43, 0.14, 317.38
332.22, 0.14, 317.48
332.00, 0.14, 317.59
331.77, 0.14, 317.70
331.51, 0.14, 317.83
330.74, 0.00, 318.20
330.40, 0.00, 318.37
330.03, 0.00, 318.55
329.62, 0.00, 318.75
329.15, 0.00, 318.98
328.63, 0.00, 319.23
328.04, 0.00, 319.52
327.36, 0.00, 319.85
326.58, 0.00, 320.23
325.94, 0.05, 320.54
334.41, 0.14, 316.46
334.33, 0.14, 316.50
334.25, 0.14, 316.54
334.16, 0.14, 316.59
334.07, 0.14, 316.63
333.97, 0.14, 316.68
333.87, 0.14, 316.73
333.76, 0.14, 316.79
333.65, 0.14, 316.84
333.53, 0.14, 316.90
333.41, 0.14, 316.96
333.27, 0.14, 317.03
333.13, 0.14, 317.10
332.98, 0.14, 317.18
332.82, 0.14, 317.26
332.64, 0.14, 317.35
332.46, 0.14, 317.44
332.25, 0.14, 317.54
332.04, 0.14, 317.65
331.80, 0.14, 317.77
331.54, 0.14, 317.90
330.78, 0.00, 318.28
330.45, 0.00, 318.45
330.08, 0.00, 318.64
329.66, 0.00, 318.84
329.20, 0.00, 319.07
328.68, 0.00, 319.33
¯328.10, 0.00, 319.63
327.42, 0.00, 319.97
326.64, 0.00, 320.36
325.99, 0.04, 320.69
334.43, 0.14, 316.50
334.35, 0.14, 316.54
334.26, 0.14, 316.58
334.18, 0.14, 316.63
334.09, 0.14, 316.67
333.99, 0.14, 316.72
333.89, 0.14, 316.77
333.79, 0.14, 316.83
333.67, 0.14, 316.89
333.56, 0.14, 316.95
333.43, 0.14, 317.01
333.30, 0.14, 317.08
333.16, 0.14, 317.15
333.01, 0.14, 317.23
332.85, 0.14, 317.31
332.67, 0.14, 317.40
332.49, 0.14, 317.50
332.29, 0.14, 317.60
332.07, 0.14, 317.72
331.83, 0.14, 317.84
331.58, 0.14, 317.97
330.82, 0.00, 318.36
330.49, 0.00, 318.53
330.12, 0.00, 318.72
329.71, 0.00, 318.94
329.25, 0.00, 319.17
328.74, 0.00, 319.44
328.15, 0.00, 319.74
327.48, 0.00, 320.09
326.71, 0.00, 320.49
326.04, 0.04, 320.84
334.44, 0.14, 316.53
334.37, 0.14, 316.57
334.28, 0.14, 316.62
334.20, 0.14, 316.66
334.11, 0.14, 316.71
334.01, 0.14, 316.76
333.91, 0.14, 316.82
333.81, 0.14, 316.87
333.70, 0.14, 316.93
333.58, 0.14, 316.99
333.46, 0.14, 317.06
333.32, 0.14, 317.13
333.18, 0.14, 317.20
333.03, 0.14, 317.28
332.87, 0.14, 317.37
332.70, 0.14, 317.46
¯332.52, 0.14, 317.56
332.32, 0.14, 317.67
332.10, 0.14, 317.78
331.87, 0.14, 317.90
331.61, 0.14, 318.04
330.86, 0.00, 318.44
330.53, 0.00, 318.62
330.17, 0.00, 318.81
329.76, 0.00, 319.03
329.31, 0.00, 319.27
328.79, 0.00, 319.54
328.21, 0.00, 319.85
327.55, 0.00, 320.21
326.78, 0.00, 320.62
326.08, 0.03, 320.99
334.46, 0.14, 316.57
334.39, 0.14, 316.61
334.30, 0.14, 316.66
334.22, 0.14, 316.70
334.13, 0.14, 316.75
334.03, 0.14, 316.80
333.94, 0.14, 316.86
333.83, 0.14, 316.91
333.72, 0.14, 316.97
333.60, 0.14, 317.04
333.48, 0.14, 317.11
333.35, 0.14, 317.18
333.21, 0.14, 317.25
333.06, 0.14, 317.34
332.90, 0.14, 317.42
332.73, 0.14, 317.52
332.55, 0.14, 317.62
332.35, 0.14, 317.73
332.14, 0.14, 317.84
331.90, 0.14, 317.97
331.65, 0.14, 318.11
330.91, 0.00, 318.52
330.58, 0.00, 318.70
330.21, 0.00, 318.90
329.81, 0.00, 319.12
329.36, 0.00, 319.37
328.85, 0.00, 319.65
328.27, 0.00, 319.96
327.61, 0.00, 320.33
326.84, 0.00, 320.74
326.13, 0.03, 321.13
334.48, 0.14, 316.60
334.41, 0.14, 316.65
334.32, 0.14, 316.69
334.24, 0.14, 316.74
334.15, 0.14, 316.79
¯334.06, 0.14, 316.84
333.96, 0.14, 316.90
333.85, 0.14, 316.96
333.75, 0.14, 317.02
333.63, 0.14, 317.08
333.51, 0.14, 317.15
333.38, 0.14, 317.23
333.24, 0.14, 317.30
333.09, 0.14, 317.39
332.93, 0.14, 317.48
332.76, 0.14, 317.57
332.58, 0.14, 317.68
332.38, 0.14, 317.79
332.17, 0.14, 317.91
331.94, 0.14, 318.04
331.69, 0.14, 318.18
331.41, 0.14, 318.33
330.62, 0.00, 318.78
330.26, 0.00, 318.99
329.86, 0.00, 319.21
329.41, 0.00, 319.47
328.90, 0.00, 319.75
328.33, 0.00, 320.07
327.67, 0.00, 320.44
326.91, 0.00, 320.87
326.18, 0.03, 321.28
334.50, 0.14, 316.64
334.43, 0.14, 316.68
334.34, 0.14, 316.73
334.26, 0.14, 316.78
334.17, 0.14, 316.83
334.08, 0.14, 316.88
333.98, 0.14, 316.94
333.88, 0.14, 317.00
333.77, 0.14, 317.06
333.65, 0.14, 317.13
333.53, 0.14, 317.20
333.40, 0.14, 317.27
333.27, 0.14, 317.35
333.12, 0.14, 317.44
332.96, 0.14, 317.53
332.79, 0.14, 317.63
332.61, 0.14, 317.73
332.42, 0.14, 317.85
332.20, 0.14, 317.97
331.98, 0.14, 318.10
331.73, 0.14, 318.25
331.45, 0.14, 318.41
330.67, 0.00, 318.86
330.31, 0.00, 319.07
329.91, 0.00, 319.30
¯329.46, 0.00, 319.56
328.96, 0.00, 319.85
328.39, 0.00, 320.19
327.73, 0.00, 320.56
326.98, 0.00, 321.00
326.26, 0.03, 321.42
334.52, 0.14, 316.67
334.45, 0.14, 316.72
334.37, 0.14, 316.77
334.28, 0.14, 316.82
334.19, 0.14, 316.87
334.10, 0.14, 316.92
334.00, 0.14, 316.98
333.90, 0.14, 317.04
333.79, 0.14, 317.11
333.68, 0.14, 317.17
333.56, 0.14, 317.25
333.43, 0.14, 317.32
333.29, 0.14, 317.40
333.15, 0.14, 317.49
332.99, 0.14, 317.58
332.82, 0.14, 317.68
332.64, 0.14, 317.79
332.45, 0.14, 317.91
332.24, 0.14, 318.03
332.01, 0.14, 318.17
331.76, 0.14, 318.32
331.49, 0.14, 318.48
330.71, 0.00, 318.95
330.35, 0.00, 319.16
329.96, 0.00, 319.40
329.51, 0.00, 319.66
329.01, 0.00, 319.96
328.44, 0.00, 320.30
327.80, 0.00, 320.68
327.04, 0.00, 321.13
326.34, 0.03, 321.55
334.54, 0.14, 316.71
334.47, 0.14, 316.75
334.39, 0.14, 316.80
334.30, 0.14, 316.85
334.22, 0.14, 316.91
334.12, 0.14, 316.96
334.03, 0.14, 317.02
333.93, 0.14, 317.08
333.82, 0.14, 317.15
333.71, 0.14, 317.22
333.58, 0.14, 317.29
333.46, 0.14, 317.37
333.32, 0.14, 317.45
333.18, 0.14, 317.54
¯333.02, 0.14, 317.64
332.85, 0.14, 317.74
332.68, 0.14, 317.85
332.48, 0.14, 317.97
332.27, 0.14, 318.10
332.05, 0.14, 318.23
331.80, 0.14, 318.39
331.53, 0.14, 318.55
330.76, 0.00, 319.03
330.40, 0.00, 319.25
330.01, 0.00, 319.49
329.56, 0.00, 319.76
329.07, 0.00, 320.06
328.50, 0.00, 320.41
327.86, 0.00, 320.80
327.11, 0.00, 321.26
326.42, 0.03, 321.68
334.56, 0.14, 316.74
334.49, 0.14, 316.79
334.41, 0.14, 316.84
334.33, 0.14, 316.89
334.24, 0.14, 316.94
334.15, 0.14, 317.00
334.05, 0.14, 317.06
333.95, 0.14, 317.13
333.84, 0.14, 317.19
333.73, 0.14, 317.26
333.61, 0.14, 317.34
333.48, 0.14, 317.42
333.35, 0.14, 317.50
333.21, 0.14, 317.59
333.05, 0.14, 317.69
332.89, 0.14, 317.80
332.71, 0.14, 317.91
332.52, 0.14, 318.03
332.31, 0.14, 318.16
332.08, 0.14, 318.30
331.84, 0.14, 318.45
331.57, 0.14, 318.62
330.80, 0.00, 319.11
330.45, 0.00, 319.33
330.06, 0.00, 319.58
329.62, 0.00, 319.85
329.12, 0.00, 320.17
328.56, 0.00, 320.52
327.92, 0.00, 320.92
327.19, 0.00, 321.38
326.50, 0.03, 321.81
334.58, 0.14, 316.77
334.51, 0.14, 316.82
334.43, 0.14, 316.87
¯334.35, 0.14, 316.93
334.26, 0.14, 316.98
334.17, 0.14, 317.04
334.08, 0.14, 317.10
333.98, 0.14, 317.17
333.87, 0.14, 317.24
333.76, 0.14, 317.31
333.64, 0.14, 317.38
333.51, 0.14, 317.47
333.38, 0.14, 317.55
333.24, 0.14, 317.65
333.08, 0.14, 317.74
332.92, 0.14, 317.85
332.74, 0.14, 317.96
332.55, 0.14, 318.09
332.35, 0.14, 318.22
332.12, 0.14, 318.37
331.88, 0.14, 318.52
331.61, 0.14, 318.70
330.85, 0.00, 319.19
330.50, 0.00, 319.42
330.11, 0.00, 319.67
329.67, 0.00, 319.95
329.18, 0.00, 320.27
328.62, 0.00, 320.63
327.98, 0.00, 321.04
327.26, 0.00, 321.51
326.58, 0.03, 321.95
334.60, 0.14, 316.81
334.53, 0.14, 316.86
334.45, 0.14, 316.91
334.37, 0.14, 316.96
334.28, 0.14, 317.02
334.19, 0.14, 317.08
334.10, 0.14, 317.14
334.00, 0.14, 317.21
333.90, 0.14, 317.28
333.78, 0.14, 317.35
333.67, 0.14, 317.43
333.54, 0.14, 317.51
333.41, 0.14, 317.60
333.27, 0.14, 317.70
333.11, 0.14, 317.80
332.95, 0.14, 317.91
332.78, 0.14, 318.02
332.59, 0.14, 318.15
332.38, 0.14, 318.28
332.16, 0.14, 318.43
331.92, 0.14, 318.59
331.65, 0.14, 318.77
330.89, 0.00, 319.27
¯330.54, 0.00, 319.51
330.16, 0.00, 319.76
329.72, 0.00, 320.05
329.24, 0.00, 320.37
328.68, 0.00, 320.74
328.05, 0.00, 321.16
327.34, 0.00, 321.63
326.66, 0.04, 322.08
334.62, 0.14, 316.84
334.55, 0.14, 316.89
334.47, 0.14, 316.95
334.39, 0.14, 317.00
334.31, 0.14, 317.06
334.22, 0.14, 317.12
334.13, 0.14, 317.18
334.03, 0.14, 317.25
333.92, 0.14, 317.32
333.81, 0.14, 317.40
333.69, 0.14, 317.48
333.57, 0.14, 317.56
333.44, 0.14, 317.65
333.30, 0.14, 317.75
333.15, 0.14, 317.85
332.98, 0.14, 317.96
332.81, 0.14, 318.08
332.62, 0.14, 318.21
332.42, 0.14, 318.35
332.20, 0.14, 318.50
331.96, 0.14, 318.66
331.69, 0.14, 318.84
330.94, 0.00, 319.36
330.59, 0.00, 319.59
330.21, 0.00, 319.85
329.78, 0.00, 320.15
329.29, 0.00, 320.48
328.74, 0.00, 320.85
328.11, 0.00, 321.28
327.41, 0.01, 321.76
326.74, 0.04, 322.21
334.65, 0.14, 316.88
334.57, 0.14, 316.93
334.50, 0.14, 316.98
334.42, 0.14, 317.04
334.33, 0.14, 317.10
334.24, 0.14, 317.16
334.15, 0.14, 317.22
334.05, 0.14, 317.29
333.95, 0.14, 317.36
333.84, 0.14, 317.44
333.72, 0.14, 317.52
333.60, 0.14, 317.61
¯333.47, 0.14, 317.70
333.33, 0.14, 317.80
333.18, 0.14, 317.90
333.02, 0.14, 318.02
332.84, 0.14, 318.14
332.66, 0.14, 318.27
332.46, 0.14, 318.41
332.24, 0.14, 318.56
332.00, 0.14, 318.73
331.74, 0.14, 318.91
331.45, 0.14, 319.11
330.64, 0.00, 319.68
330.26, 0.00, 319.95
329.83, 0.00, 320.24
329.35, 0.00, 320.58
328.80, 0.00, 320.96
328.17, 0.00, 321.40
327.49, 0.01, 321.88
326.81, 0.04, 322.36
334.67, 0.14, 316.91
334.60, 0.14, 316.96
334.52, 0.14, 317.02
334.44, 0.14, 317.07
334.36, 0.14, 317.13
334.27, 0.14, 317.20
334.18, 0.14, 317.26
334.08, 0.14, 317.33
333.98, 0.14, 317.41
333.87, 0.14, 317.48
333.75, 0.14, 317.57
333.63, 0.14, 317.66
333.50, 0.14, 317.75
333.36, 0.14, 317.85
333.21, 0.14, 317.96
333.05, 0.14, 318.07
332.88, 0.14, 318.19
332.69, 0.14, 318.33
332.49, 0.14, 318.47
332.28, 0.14, 318.63
332.04, 0.14, 318.80
331.78, 0.14, 318.98
331.49, 0.14, 319.19
330.69, 0.00, 319.76
330.31, 0.00, 320.04
329.89, 0.00, 320.34
329.41, 0.00, 320.69
328.86, 0.00, 321.08
328.24, 0.00, 321.52
327.56, 0.01, 322.01
326.87, 0.04, 322.50
334.69, 0.14, 316.94
¯334.62, 0.14, 317.00
334.54, 0.14, 317.05
334.46, 0.14, 317.11
334.38, 0.14, 317.17
334.29, 0.14, 317.24
334.20, 0.14, 317.30
334.10, 0.14, 317.37
334.00, 0.14, 317.45
333.89, 0.14, 317.53
333.78, 0.14, 317.61
333.66, 0.14, 317.70
333.53, 0.14, 317.80
333.39, 0.14, 317.90
333.24, 0.14, 318.01
333.08, 0.14, 318.12
332.91, 0.14, 318.25
332.73, 0.14, 318.38
332.53, 0.14, 318.53
332.31, 0.14, 318.69
332.08, 0.14, 318.86
331.82, 0.14, 319.05
331.54, 0.14, 319.26
330.74, 0.00, 319.85
330.36, 0.00, 320.13
329.94, 0.00, 320.44
329.46, 0.00, 320.79
328.92, 0.00, 321.19
328.30, 0.00, 321.65
327.64, 0.01, 322.14
326.93, 0.03, 322.65
334.71, 0.14, 316.98
334.64, 0.14, 317.03
334.57, 0.14, 317.09
334.49, 0.14, 317.15
334.41, 0.14, 317.21
334.32, 0.14, 317.27
334.23, 0.14, 317.34
334.13, 0.14, 317.41
334.03, 0.14, 317.49
333.92, 0.14, 317.57
333.81, 0.14, 317.66
333.69, 0.14, 317.75
333.56, 0.14, 317.85
333.42, 0.14, 317.95
333.28, 0.14, 318.06
333.12, 0.14, 318.18
332.95, 0.14, 318.31
332.77, 0.14, 318.44
332.57, 0.14, 318.59
332.35, 0.14, 318.76
332.12, 0.14, 318.93
¯331.86, 0.14, 319.13
331.58, 0.14, 319.34
330.79, 0.00, 319.94
330.42, 0.00, 320.22
330.00, 0.00, 320.54
329.52, 0.00, 320.90
328.98, 0.00, 321.30
328.37, 0.00, 321.77
327.71, 0.01, 322.26
326.99, 0.03, 322.80
334.74, 0.14, 317.01
334.66, 0.14, 317.06
334.59, 0.14, 317.12
334.51, 0.14, 317.18
334.43, 0.14, 317.25
334.34, 0.14, 317.31
334.25, 0.14, 317.38
334.16, 0.14, 317.46
334.06, 0.14, 317.53
333.95, 0.14, 317.62
333.84, 0.14, 317.70
333.72, 0.14, 317.80
333.59, 0.14, 317.89
333.46, 0.14, 318.00
333.31, 0.14, 318.11
333.15, 0.14, 318.23
332.99, 0.14, 318.36
332.80, 0.14, 318.50
332.61, 0.14, 318.65
332.39, 0.14, 318.82
332.16, 0.14, 319.00
331.91, 0.14, 319.20
331.63, 0.14, 319.41
330.84, 0.00, 320.02
330.47, 0.00, 320.31
330.05, 0.00, 320.64
329.58, 0.00, 321.00
329.05, 0.00, 321.41
328.43, 0.00, 321.89
327.77, 0.01, 322.40
327.05, 0.03, 322.95
334.76, 0.14, 317.04
334.69, 0.14, 317.10
334.61, 0.14, 317.16
334.54, 0.14, 317.22
334.46, 0.14, 317.28
334.37, 0.14, 317.35
334.28, 0.14, 317.42
334.19, 0.14, 317.50
334.09, 0.14, 317.57
333.98, 0.14, 317.66
¯333.87, 0.14, 317.75
333.75, 0.14, 317.84
333.62, 0.14, 317.94
333.49, 0.14, 318.05
333.34, 0.14, 318.16
333.19, 0.14, 318.29
333.02, 0.14, 318.42
332.84, 0.14, 318.56
332.65, 0.14, 318.72
332.43, 0.14, 318.88
332.20, 0.14, 319.07
331.95, 0.14, 319.27
331.67, 0.14, 319.49
330.90, 0.00, 320.11
330.52, 0.00, 320.40
330.11, 0.00, 320.73
329.64, 0.00, 321.11
329.11, 0.00, 321.53
328.50, 0.00, 322.01
327.83, 0.01, 322.54
327.11, 0.03, 323.11
334.78, 0.14, 317.08
334.71, 0.14, 317.13
334.64, 0.14, 317.19
334.56, 0.14, 317.25
334.48, 0.14, 317.32
334.40, 0.14, 317.39
334.31, 0.14, 317.46
334.21, 0.14, 317.54
334.12, 0.14, 317.62
334.01, 0.14, 317.70
333.90, 0.14, 317.79
333.78, 0.14, 317.89
333.66, 0.14, 317.99
333.52, 0.14, 318.10
333.38, 0.14, 318.22
333.22, 0.14, 318.34
333.06, 0.14, 318.48
332.88, 0.14, 318.62
332.69, 0.14, 318.78
332.48, 0.14, 318.95
332.25, 0.14, 319.14
331.99, 0.14, 319.34
331.72, 0.14, 319.56
330.95, 0.00, 320.20
330.58, 0.00, 320.50
330.17, 0.00, 320.83
329.70, 0.00, 321.21
329.17, 0.00, 321.64
328.56, 0.00, 322.13
327.89, 0.01, 322.68
¯327.18, 0.03, 323.26
334.81, 0.14, 317.11
334.74, 0.14, 317.17
334.66, 0.14, 317.23
334.59, 0.14, 317.29
334.51, 0.14, 317.36
334.42, 0.14, 317.43
334.34, 0.14, 317.50
334.24, 0.14, 317.58
334.14, 0.14, 317.66
334.04, 0.14, 317.74
333.93, 0.14, 317.84
333.81, 0.14, 317.93
333.69, 0.14, 318.04
333.56, 0.14, 318.15
333.41, 0.14, 318.27
333.26, 0.14, 318.39
333.10, 0.14, 318.53
332.92, 0.14, 318.68
332.73, 0.14, 318.84
332.52, 0.14, 319.01
332.29, 0.14, 319.20
332.04, 0.14, 319.41
331.76, 0.14, 319.64
331.00, 0.00, 320.28
330.63, 0.00, 320.59
330.22, 0.00, 320.93
329.76, 0.00, 321.32
329.23, 0.00, 321.75
328.63, 0.00, 322.26
327.95, 0.00, 322.82
327.24, 0.02, 323.41
334.83, 0.14, 317.14
334.76, 0.14, 317.20
334.69, 0.14, 317.26
334.61, 0.14, 317.32
334.53, 0.14, 317.39
334.45, 0.14, 317.46
334.36, 0.14, 317.54
334.27, 0.14, 317.62
334.17, 0.14, 317.70
334.07, 0.14, 317.79
333.96, 0.14, 317.88
333.85, 0.14, 317.98
333.72, 0.14, 318.09
333.59, 0.14, 318.20
333.45, 0.14, 318.32
333.30, 0.14, 318.45
333.13, 0.14, 318.59
332.96, 0.14, 318.74
332.77, 0.14, 318.90
¯332.56, 0.14, 319.08
332.33, 0.14, 319.27
332.08, 0.14, 319.48
331.81, 0.14, 319.72
331.05, 0.00, 320.37
330.69, 0.00, 320.68
330.28, 0.00, 321.03
329.82, 0.00, 321.42
329.30, 0.00, 321.87
328.70, 0.00, 322.38
328.01, 0.00, 322.97
327.30, 0.02, 323.57
334.85, 0.14, 317.17
334.79, 0.14, 317.23
334.71, 0.14, 317.29
334.64, 0.14, 317.36
334.56, 0.14, 317.43
334.48, 0.14, 317.50
334.39, 0.14, 317.58
334.30, 0.14, 317.66
334.20, 0.14, 317.74
334.10, 0.14, 317.83
333.99, 0.14, 317.92
333.88, 0.14, 318.03
333.75, 0.14, 318.13
333.62, 0.14, 318.25
333.48, 0.14, 318.37
333.33, 0.14, 318.50
333.17, 0.14, 318.64
333.00, 0.14, 318.80
332.81, 0.14, 318.96
332.60, 0.14, 319.14
332.38, 0.14, 319.34
332.13, 0.14, 319.55
331.86, 0.14, 319.79
331.11, 0.00, 320.46
330.74, 0.00, 320.77
330.34, 0.00, 321.13
329.88, 0.00, 321.53
329.36, 0.00, 321.98
328.77, 0.00, 322.50
328.07, 0.00, 323.11
327.36, 0.02, 323.73
334.88, 0.14, 317.20
334.81, 0.14, 317.26
334.74, 0.14, 317.33
334.67, 0.14, 317.39
334.59, 0.14, 317.46
334.51, 0.14, 317.54
334.42, 0.14, 317.61
334.33, 0.14, 317.70
¯334.23, 0.14, 317.78
334.13, 0.14, 317.87
334.02, 0.14, 317.97
333.91, 0.14, 318.07
333.79, 0.14, 318.18
333.66, 0.14, 318.30
333.52, 0.14, 318.42
333.37, 0.14, 318.56
333.21, 0.14, 318.70
333.04, 0.14, 318.85
332.85, 0.14, 319.02
332.64, 0.14, 319.21
332.42, 0.14, 319.41
332.18, 0.14, 319.63
331.91, 0.14, 319.87
331.61, 0.14, 320.13
330.80, 0.00, 320.87
330.40, 0.00, 321.23
329.94, 0.00, 321.64
329.42, 0.00, 322.10
328.84, 0.00, 322.62
328.14, 0.00, 323.25
327.43, 0.02, 323.89
334.90, 0.14, 317.24
334.84, 0.14, 317.30
334.77, 0.14, 317.36
334.69, 0.14, 317.43
334.62, 0.14, 317.50
334.53, 0.14, 317.57
334.45, 0.14, 317.65
334.36, 0.14, 317.73
334.26, 0.14, 317.82
334.16, 0.14, 317.91
334.06, 0.14, 318.01
333.94, 0.14, 318.12
333.82, 0.14, 318.23
333.69, 0.14, 318.35
333.56, 0.14, 318.47
333.41, 0.14, 318.61
333.25, 0.14, 318.75
333.08, 0.14, 318.91
332.89, 0.14, 319.08
332.69, 0.14, 319.27
332.47, 0.14, 319.47
332.22, 0.14, 319.70
331.95, 0.14, 319.94
331.66, 0.14, 320.22
330.86, 0.00, 320.96
330.46, 0.00, 321.33
330.00, 0.00, 321.74
329.49, 0.00, 322.22
¯328.92, 0.00, 322.74
328.21, 0.00, 323.39
327.49, 0.02, 324.05
334.93, 0.14, 317.27
334.86, 0.14, 317.33
334.79, 0.14, 317.40
334.72, 0.14, 317.46
334.64, 0.14, 317.54
334.56, 0.14, 317.61
334.48, 0.14, 317.69
334.39, 0.14, 317.77
334.30, 0.14, 317.86
334.20, 0.14, 317.96
334.09, 0.14, 318.06
333.98, 0.14, 318.16
333.86, 0.14, 318.27
333.73, 0.14, 318.39
333.59, 0.14, 318.52
333.45, 0.14, 318.66
333.29, 0.14, 318.81
333.12, 0.14, 318.97
332.93, 0.14, 319.15
332.73, 0.14, 319.33
332.51, 0.14, 319.54
332.27, 0.14, 319.77
332.00, 0.14, 320.02
331.71, 0.14, 320.30
330.91, 0.00, 321.05
330.52, 0.00, 321.43
330.07, 0.00, 321.85
329.56, 0.00, 322.33
328.99, 0.01, 322.86
328.29, 0.00, 323.52
327.56, 0.02, 324.21
334.95, 0.14, 317.30
334.89, 0.14, 317.36
334.82, 0.14, 317.43
334.75, 0.14, 317.50
334.67, 0.14, 317.57
334.59, 0.14, 317.65
334.51, 0.14, 317.73
334.42, 0.14, 317.81
334.33, 0.14, 317.90
334.23, 0.14, 318.00
334.12, 0.14, 318.10
334.01, 0.14, 318.21
333.89, 0.14, 318.32
333.77, 0.14, 318.44
333.63, 0.14, 318.57
333.48, 0.14, 318.71
333.33, 0.14, 318.87
¯333.16, 0.14, 319.03
332.97, 0.14, 319.21
332.77, 0.14, 319.40
332.56, 0.14, 319.61
332.32, 0.14, 319.84
332.05, 0.14, 320.09
331.76, 0.14, 320.38
330.97, 0.00, 321.15
330.58, 0.00, 321.53
330.13, 0.00, 321.96
329.63, 0.00, 322.44
329.06, 0.01, 322.99
328.36, 0.00, 323.66
327.64, 0.02, 324.36
334.98, 0.14, 317.33
334.91, 0.14, 317.39
334.85, 0.14, 317.46
334.77, 0.14, 317.53
334.70, 0.14, 317.61
334.62, 0.14, 317.68
334.54, 0.14, 317.77
334.45, 0.14, 317.85
334.36, 0.14, 317.94
334.26, 0.14, 318.04
334.16, 0.14, 318.14
334.05, 0.14, 318.25
333.93, 0.14, 318.37
333.80, 0.14, 318.49
333.67, 0.14, 318.63
333.52, 0.14, 318.77
333.37, 0.14, 318.92
333.20, 0.14, 319.09
333.02, 0.14, 319.27
332.82, 0.14, 319.46
332.60, 0.14, 319.68
332.36, 0.14, 319.91
332.10, 0.14, 320.17
331.81, 0.14, 320.46
331.03, 0.00, 321.24
330.64, 0.00, 321.63
330.19, 0.00, 322.07
329.70, 0.00, 322.56
329.14, 0.01, 323.11
328.44, 0.00, 323.80
327.72, 0.02, 324.50
335.01, 0.14, 317.36
334.94, 0.14, 317.43
334.87, 0.14, 317.49
334.80, 0.14, 317.57
334.73, 0.14, 317.64
334.65, 0.14, 317.72
¯334.57, 0.14, 317.80
334.48, 0.14, 317.89
334.39, 0.14, 317.98
334.29, 0.14, 318.08
334.19, 0.14, 318.19
334.08, 0.14, 318.30
333.96, 0.14, 318.41
333.84, 0.14, 318.54
333.71, 0.14, 318.68
333.56, 0.14, 318.82
333.41, 0.14, 318.98
333.24, 0.14, 319.15
333.06, 0.14, 319.33
332.86, 0.14, 319.53
332.65, 0.14, 319.75
332.41, 0.14, 319.98
332.15, 0.14, 320.25
331.86, 0.14, 320.54
331.09, 0.00, 321.33
330.70, 0.00, 321.73
330.26, 0.00, 322.18
329.77, 0.00, 322.67
329.21, 0.01, 323.23
328.51, 0.00, 323.94
327.81, 0.02, 324.65
335.03, 0.14, 317.39
334.97, 0.14, 317.46
334.90, 0.14, 317.53
334.83, 0.14, 317.60
334.76, 0.14, 317.68
334.68, 0.14, 317.76
334.60, 0.14, 317.84
334.51, 0.14, 317.93
334.42, 0.14, 318.02
334.33, 0.14, 318.12
334.22, 0.14, 318.23
334.12, 0.14, 318.34
334.00, 0.14, 318.46
333.88, 0.14, 318.59
333.74, 0.14, 318.73
333.60, 0.14, 318.87
333.45, 0.14, 319.03
333.28, 0.14, 319.20
333.10, 0.14, 319.39
332.91, 0.14, 319.59
332.70, 0.14, 319.81
332.46, 0.14, 320.06
332.20, 0.14, 320.32
331.92, 0.14, 320.62
331.15, 0.00, 321.43
330.76, 0.00, 321.83
¯330.32, 0.00, 322.28
329.84, 0.00, 322.78
329.29, 0.01, 323.36
328.59, 0.00, 324.08
327.89, 0.02, 324.80
335.06, 0.14, 317.42
335.00, 0.14, 317.49
334.93, 0.14, 317.56
334.86, 0.14, 317.63
334.79, 0.14, 317.71
334.71, 0.14, 317.79
334.63, 0.14, 317.88
334.55, 0.14, 317.97
334.46, 0.14, 318.06
334.36, 0.14, 318.16
334.26, 0.14, 318.27
334.15, 0.14, 318.39
334.04, 0.14, 318.51
333.91, 0.14, 318.64
333.78, 0.14, 318.78
333.64, 0.14, 318.93
333.49, 0.14, 319.09
333.33, 0.14, 319.26
333.15, 0.14, 319.45
332.96, 0.14, 319.66
332.74, 0.14, 319.88
332.51, 0.14, 320.13
332.25, 0.14, 320.40
331.97, 0.14, 320.70
331.21, 0.00, 321.52
330.82, 0.00, 321.93
330.39, 0.00, 322.39
329.91, 0.01, 322.90
329.36, 0.01, 323.48
328.67, 0.01, 324.22
327.98, 0.02, 324.95
335.09, 0.14, 317.45
335.02, 0.14, 317.52
334.96, 0.14, 317.59
334.89, 0.14, 317.67
334.82, 0.14, 317.75
334.74, 0.14, 317.83
334.66, 0.14, 317.91
334.58, 0.14, 318.01
334.49, 0.14, 318.10
334.39, 0.14, 318.21
334.29, 0.14, 318.31
334.19, 0.14, 318.43
334.07, 0.14, 318.55
333.95, 0.14, 318.69
333.82, 0.14, 318.83
¯333.68, 0.14, 318.98
333.53, 0.14, 319.14
333.37, 0.14, 319.32
333.19, 0.14, 319.51
333.00, 0.14, 319.72
332.79, 0.14, 319.95
332.56, 0.14, 320.20
332.31, 0.14, 320.48
332.02, 0.14, 320.78
331.27, 0.00, 321.62
330.89, 0.00, 322.03
330.47, 0.00, 322.49
329.98, 0.01, 323.01
329.44, 0.01, 323.61
328.75, 0.01, 324.35
328.06, 0.03, 325.10
335.11, 0.14, 317.48
335.05, 0.14, 317.55
334.99, 0.14, 317.63
334.92, 0.14, 317.70
334.85, 0.14, 317.78
334.77, 0.14, 317.86
334.69, 0.14, 317.95
334.61, 0.14, 318.04
334.52, 0.14, 318.14
334.43, 0.14, 318.25
334.33, 0.14, 318.36
334.22, 0.14, 318.47
334.11, 0.14, 318.60
333.99, 0.14, 318.73
333.86, 0.14, 318.88
333.72, 0.14, 319.03
333.58, 0.14, 319.20
333.41, 0.14, 319.38
333.24, 0.14, 319.57
333.05, 0.14, 319.78
332.84, 0.14, 320.02
332.61, 0.14, 320.27
332.36, 0.14, 320.55
332.08, 0.14, 320.87
331.33, 0.00, 321.71
330.95, 0.00, 322.14
330.54, 0.01, 322.59
330.06, 0.01, 323.13
329.51, 0.01, 323.74
328.84, 0.01, 324.48
328.15, 0.03, 325.25
335.14, 0.14, 317.51
335.08, 0.14, 317.58
335.02, 0.14, 317.66
334.95, 0.14, 317.73
¯334.88, 0.14, 317.81
334.80, 0.14, 317.90
334.73, 0.14, 317.99
334.64, 0.14, 318.08
334.56, 0.14, 318.18
334.46, 0.14, 318.29
334.37, 0.14, 318.40
334.26, 0.14, 318.52
334.15, 0.14, 318.65
334.03, 0.14, 318.78
333.90, 0.14, 318.93
333.77, 0.14, 319.08
333.62, 0.14, 319.25
333.46, 0.14, 319.43
333.29, 0.14, 319.63
333.10, 0.14, 319.85
332.89, 0.14, 320.08
332.66, 0.14, 320.34
332.41, 0.14, 320.63
332.13, 0.14, 320.95
331.39, 0.00, 321.81
331.01, 0.00, 322.24
330.61, 0.01, 322.70
330.13, 0.01, 323.25
329.59, 0.01, 323.87
328.93, 0.01, 324.61
328.25, 0.03, 325.40
335.17, 0.14, 317.54
335.11, 0.14, 317.62
335.04, 0.14, 317.69
334.98, 0.14, 317.77
334.91, 0.14, 317.85
334.84, 0.14, 317.93
334.76, 0.14, 318.02
334.68, 0.14, 318.12
334.59, 0.14, 318.22
334.50, 0.14, 318.33
334.40, 0.14, 318.44
334.30, 0.14, 318.56
334.19, 0.14, 318.69
334.07, 0.14, 318.83
333.94, 0.14, 318.98
333.81, 0.14, 319.14
333.66, 0.14, 319.31
333.50, 0.14, 319.49
333.33, 0.14, 319.69
333.14, 0.14, 319.91
332.94, 0.14, 320.15
332.71, 0.14, 320.42
332.47, 0.14, 320.71
332.19, 0.14, 321.03
¯331.46, 0.00, 321.90
331.08, 0.00, 322.34
330.69, 0.01, 322.80
330.21, 0.01, 323.36
329.66, 0.01, 324.00
329.02, 0.02, 324.75
328.34, 0.04, 325.54
335.20, 0.14, 317.57
335.14, 0.14, 317.65
335.07, 0.14, 317.72
335.01, 0.14, 317.80
334.94, 0.14, 317.88
334.87, 0.14, 317.97
334.79, 0.14, 318.06
334.71, 0.14, 318.16
334.62, 0.14, 318.26
334.53, 0.14, 318.37
334.44, 0.14, 318.48
334.34, 0.14, 318.61
334.23, 0.14, 318.74
334.11, 0.14, 318.88
333.99, 0.14, 319.03
333.85, 0.14, 319.19
333.71, 0.14, 319.36
333.55, 0.14, 319.55
333.38, 0.14, 319.75
333.19, 0.14, 319.98
332.99, 0.14, 320.22
332.77, 0.14, 320.49
332.52, 0.14, 320.78
332.25, 0.14, 321.11
331.52, 0.00, 322.00
331.16, 0.00, 322.43
330.76, 0.01, 322.90
330.29, 0.01, 323.47
329.74, 0.02, 324.13
329.12, 0.02, 324.88
328.44, 0.04, 325.69
335.22, 0.14, 317.60
335.17, 0.14, 317.68
335.10, 0.14, 317.75
335.04, 0.14, 317.83
334.97, 0.14, 317.92
334.90, 0.14, 318.00
334.82, 0.14, 318.10
334.74, 0.14, 318.20
334.66, 0.14, 318.30
334.57, 0.14, 318.41
334.48, 0.14, 318.53
334.37, 0.14, 318.65
334.27, 0.14, 318.78
¯334.15, 0.14, 318.92
334.03, 0.14, 319.08
333.89, 0.14, 319.24
333.75, 0.14, 319.42
333.60, 0.14, 319.61
333.43, 0.14, 319.82
333.24, 0.14, 320.04
333.04, 0.14, 320.29
332.82, 0.14, 320.56
332.58, 0.14, 320.86
332.30, 0.14, 321.20
332.00, 0.14, 321.57
331.23, 0.00, 322.53
330.84, 0.01, 323.01
330.37, 0.02, 323.59
329.82, 0.02, 324.26
329.21, 0.03, 325.01
328.54, 0.05, 325.83
335.25, 0.14, 317.63
335.20, 0.14, 317.71
335.13, 0.14, 317.78
335.07, 0.14, 317.86
335.00, 0.14, 317.95
334.93, 0.14, 318.04
334.86, 0.14, 318.13
334.78, 0.14, 318.23
334.69, 0.14, 318.34
334.61, 0.14, 318.45
334.51, 0.14, 318.57
334.41, 0.14, 318.69
334.31, 0.14, 318.83
334.19, 0.14, 318.97
334.07, 0.14, 319.13
333.94, 0.14, 319.29
333.80, 0.14, 319.47
333.64, 0.14, 319.67
333.47, 0.14, 319.88
333.29, 0.14, 320.11
333.09, 0.14, 320.36
332.87, 0.14, 320.63
332.63, 0.14, 320.94
332.36, 0.14, 321.28
332.06, 0.14, 321.66
331.30, 0.01, 322.63
330.92, 0.02, 323.11
330.44, 0.02, 323.71
329.91, 0.02, 324.39
329.30, 0.03, 325.15
328.64, 0.05, 325.98
335.28, 0.14, 317.66
335.23, 0.14, 317.74
¯335.17, 0.14, 317.82
335.10, 0.14, 317.90
335.04, 0.14, 317.98
334.97, 0.14, 318.07
334.89, 0.14, 318.17
334.81, 0.14, 318.27
334.73, 0.14, 318.38
334.64, 0.14, 318.49
334.55, 0.14, 318.61
334.45, 0.14, 318.74
334.35, 0.14, 318.87
334.23, 0.14, 319.02
334.11, 0.14, 319.18
333.98, 0.14, 319.34
333.84, 0.14, 319.53
333.69, 0.14, 319.72
333.52, 0.14, 319.94
333.34, 0.14, 320.17
333.15, 0.14, 320.43
332.93, 0.14, 320.71
332.69, 0.14, 321.02
332.42, 0.14, 321.36
332.12, 0.14, 321.75
331.38, 0.01, 322.73
330.99, 0.02, 323.22
330.52, 0.02, 323.82
329.99, 0.02, 324.51
329.39, 0.03, 325.28
328.74, 0.05, 326.13
335.31, 0.14, 317.69
335.26, 0.14, 317.77
335.20, 0.14, 317.85
335.13, 0.14, 317.93
335.07, 0.14, 318.02
335.00, 0.14, 318.11
334.93, 0.14, 318.20
334.85, 0.14, 318.31
334.77, 0.14, 318.41
334.68, 0.14, 318.53
334.59, 0.14, 318.65
334.49, 0.14, 318.78
334.39, 0.14, 318.92
334.27, 0.14, 319.07
334.15, 0.14, 319.23
334.03, 0.14, 319.40
333.89, 0.14, 319.58
333.74, 0.14, 319.78
333.57, 0.14, 320.00
333.39, 0.14, 320.23
333.20, 0.14, 320.49
332.98, 0.14, 320.78
¯332.74, 0.14, 321.10
332.48, 0.14, 321.45
332.18, 0.14, 321.84
331.45, 0.01, 322.83
331.07, 0.02, 323.33
330.61, 0.02, 323.94
330.08, 0.03, 324.63
329.49, 0.04, 325.42
328.84, 0.06, 326.28
335.34, 0.14, 317.72
335.29, 0.14, 317.80
335.23, 0.14, 317.88
335.17, 0.14, 317.96
335.10, 0.14, 318.05
335.03, 0.14, 318.14
334.96, 0.14, 318.24
334.88, 0.14, 318.34
334.80, 0.14, 318.45
334.72, 0.14, 318.57
334.63, 0.14, 318.69
334.53, 0.14, 318.82
334.43, 0.14, 318.96
334.32, 0.14, 319.11
334.20, 0.14, 319.28
334.07, 0.14, 319.45
333.93, 0.14, 319.64
333.78, 0.14, 319.84
333.62, 0.14, 320.06
333.45, 0.14, 320.30
333.25, 0.14, 320.56
333.04, 0.14, 320.85
332.80, 0.14, 321.17
332.54, 0.14, 321.53
332.25, 0.14, 321.92
331.52, 0.01, 322.92
331.15, 0.02, 323.44
330.69, 0.02, 324.06
330.17, 0.03, 324.76
329.58, 0.04, 325.56
328.94, 0.06, 326.43
335.37, 0.14, 317.75
335.32, 0.14, 317.83
335.26, 0.14, 317.91
335.20, 0.14, 317.99
335.13, 0.14, 318.08
335.07, 0.14, 318.18
335.00, 0.14, 318.28
334.92, 0.14, 318.38
334.84, 0.14, 318.49
334.76, 0.14, 318.61
334.67, 0.14, 318.73
¯334.57, 0.14, 318.87
334.47, 0.14, 319.01
334.36, 0.14, 319.16
334.24, 0.14, 319.32
334.12, 0.14, 319.50
333.98, 0.14, 319.69
333.83, 0.14, 319.90
333.67, 0.14, 320.12
333.50, 0.14, 320.36
333.31, 0.14, 320.63
333.09, 0.14, 320.93
332.86, 0.14, 321.25
332.60, 0.14, 321.62
332.32, 0.14, 322.01
331.60, 0.01, 323.02
331.22, 0.02, 323.55
330.77, 0.02, 324.18
330.26, 0.03, 324.88
329.68, 0.04, 325.70
329.04, 0.07, 326.58
335.40, 0.14, 317.78
335.35, 0.14, 317.86
335.29, 0.14, 317.94
335.23, 0.14, 318.02
335.17, 0.14, 318.11
335.10, 0.14, 318.21
335.03, 0.14, 318.31
334.96, 0.14, 318.42
334.88, 0.14, 318.53
334.79, 0.14, 318.65
334.71, 0.14, 318.77
334.61, 0.14, 318.91
334.51, 0.14, 319.05
334.40, 0.14, 319.21
334.29, 0.14, 319.37
334.16, 0.14, 319.55
334.03, 0.14, 319.74
333.88, 0.14, 319.95
333.72, 0.14, 320.18
333.55, 0.14, 320.43
333.36, 0.14, 320.70
333.15, 0.14, 321.00
332.92, 0.14, 321.33
332.66, 0.14, 321.70
332.38, 0.14, 322.10
331.68, 0.02, 323.12
331.30, 0.02, 323.66
330.85, 0.03, 324.30
330.36, 0.04, 325.01
329.77, 0.05, 325.84
329.15, 0.07, 326.74
¯335.43, 0.14, 317.81
335.38, 0.14, 317.89
335.32, 0.14, 317.97
335.26, 0.14, 318.06
335.20, 0.14, 318.15
335.14, 0.14, 318.24
335.07, 0.14, 318.35
334.99, 0.14, 318.45
334.92, 0.14, 318.57
334.83, 0.14, 318.69
334.75, 0.14, 318.82
334.65, 0.14, 318.95
334.55, 0.14, 319.10
334.45, 0.14, 319.26
334.33, 0.14, 319.42
334.21, 0.14, 319.60
334.08, 0.14, 319.80
333.93, 0.14, 320.01
333.78, 0.14, 320.24
333.60, 0.14, 320.49
333.42, 0.14, 320.77
333.21, 0.14, 321.07
332.98, 0.14, 321.41
332.73, 0.14, 321.78
332.45, 0.14, 322.18
331.75, 0.02, 323.22
331.38, 0.03, 323.77
330.94, 0.03, 324.41
330.45, 0.04, 325.14
329.87, 0.05, 325.98
329.25, 0.08, 326.89
335.46, 0.14, 317.83
335.41, 0.14, 317.91
335.36, 0.14, 318.00
335.30, 0.14, 318.09
335.24, 0.14, 318.18
335.17, 0.14, 318.28
335.10, 0.14, 318.38
335.03, 0.14, 318.49
334.95, 0.14, 318.60
334.87, 0.14, 318.73
334.79, 0.14, 318.86
334.69, 0.14, 319.00
334.60, 0.14, 319.14
334.49, 0.14, 319.30
334.38, 0.14, 319.47
334.26, 0.14, 319.66
334.13, 0.14, 319.85
333.98, 0.14, 320.07
333.83, 0.14, 320.30
333.66, 0.14, 320.56
¯333.47, 0.14, 320.84
333.27, 0.14, 321.15
333.04, 0.14, 321.49
332.79, 0.14, 321.86
332.52, 0.14, 322.27
331.83, 0.02, 323.32
331.47, 0.03, 323.88
331.03, 0.03, 324.53
330.54, 0.04, 325.27
329.97, 0.05, 326.13
329.35, 0.08, 327.05
335.50, 0.14, 317.86
335.44, 0.14, 317.94
335.39, 0.14, 318.03
335.33, 0.14, 318.12
335.27, 0.14, 318.21
335.21, 0.14, 318.31
335.14, 0.14, 318.41
335.07, 0.14, 318.52
334.99, 0.14, 318.64
334.91, 0.14, 318.77
334.83, 0.14, 318.90
334.74, 0.14, 319.04
334.64, 0.14, 319.19
334.54, 0.14, 319.35
334.42, 0.14, 319.52
334.30, 0.14, 319.71
334.17, 0.14, 319.91
334.03, 0.14, 320.13
333.88, 0.14, 320.36
333.71, 0.14, 320.62
333.53, 0.14, 320.91
333.33, 0.14, 321.22
333.10, 0.14, 321.57
332.86, 0.14, 321.94
332.59, 0.15, 322.36
331.91, 0.02, 323.43
331.55, 0.03, 323.99
331.12, 0.04, 324.65
330.63, 0.05, 325.40
330.07, 0.06, 326.27
329.46, 0.08, 327.21
335.53, 0.14, 317.89
335.48, 0.14, 317.97
335.42, 0.14, 318.06
335.37, 0.14, 318.15
335.31, 0.14, 318.24
335.24, 0.14, 318.34
335.18, 0.14, 318.45
335.11, 0.14, 318.56
335.03, 0.14, 318.68
¯334.95, 0.14, 318.80
334.87, 0.14, 318.94
334.78, 0.14, 319.08
334.68, 0.14, 319.23
334.58, 0.14, 319.40
334.47, 0.14, 319.57
334.35, 0.14, 319.76
334.22, 0.14, 319.96
334.09, 0.14, 320.18
333.93, 0.14, 320.42
333.77, 0.14, 320.69
333.59, 0.14, 320.98
333.38, 0.14, 321.30
333.17, 0.14, 321.64
332.93, 0.14, 322.02
332.66, 0.15, 322.45
331.99, 0.02, 323.53
331.63, 0.03, 324.10
331.21, 0.04, 324.77
330.73, 0.05, 325.53
330.18, 0.06, 326.41
329.57, 0.09, 327.37
335.56, 0.14, 317.92
335.51, 0.14, 318.00
335.46, 0.14, 318.09
335.40, 0.14, 318.18
335.34, 0.14, 318.28
335.28, 0.14, 318.38
335.21, 0.14, 318.48
335.14, 0.14, 318.60
335.07, 0.14, 318.72
334.99, 0.14, 318.84
334.91, 0.14, 318.98
334.82, 0.14, 319.12
334.73, 0.14, 319.28
334.63, 0.14, 319.44
334.52, 0.14, 319.62
334.40, 0.14, 319.81
334.27, 0.14, 320.02
334.14, 0.14, 320.24
333.99, 0.14, 320.49
333.82, 0.14, 320.75
333.64, 0.14, 321.05
333.45, 0.14, 321.37
333.23, 0.14, 321.72
333.00, 0.14, 322.10
332.73, 0.15, 322.54
332.07, 0.03, 323.63
331.71, 0.03, 324.21
331.30, 0.04, 324.89
330.83, 0.05, 325.66
¯330.28, 0.07, 326.55
329.67, 0.09, 327.54
335.59, 0.14, 317.95
335.54, 0.14, 318.03
335.49, 0.14, 318.12
335.44, 0.14, 318.21
335.38, 0.14, 318.31
335.32, 0.14, 318.41
335.25, 0.14, 318.52
335.18, 0.14, 318.63
335.11, 0.14, 318.75
335.03, 0.14, 318.88
334.95, 0.14, 319.02
334.87, 0.14, 319.16
334.77, 0.14, 319.32
334.67, 0.14, 319.49
334.57, 0.14, 319.67
334.45, 0.14, 319.86
334.33, 0.14, 320.07
334.19, 0.14, 320.30
334.04, 0.14, 320.55
333.88, 0.14, 320.82
333.70, 0.14, 321.12
333.51, 0.14, 321.44
333.30, 0.14, 321.79
333.06, 0.15, 322.19
332.80, 0.15, 322.63
332.16, 0.03, 323.73
331.80, 0.04, 324.32
331.39, 0.05, 325.01
330.92, 0.06, 325.80
330.39, 0.07, 326.69
329.78, 0.10, 327.70
335.63, 0.14, 317.97
335.58, 0.14, 318.06
335.52, 0.14, 318.15
335.47, 0.14, 318.24
335.41, 0.14, 318.34
335.35, 0.14, 318.44
335.29, 0.14, 318.55
335.22, 0.14, 318.67
335.15, 0.14, 318.79
335.08, 0.14, 318.92
335.00, 0.14, 319.06
334.91, 0.14, 319.21
334.82, 0.14, 319.36
334.72, 0.14, 319.53
334.61, 0.14, 319.72
334.50, 0.14, 319.91
334.38, 0.14, 320.13
334.24, 0.14, 320.36
¯334.10, 0.14, 320.61
333.94, 0.14, 320.88
333.76, 0.14, 321.19
333.57, 0.14, 321.51
333.37, 0.14, 321.87
333.13, 0.15, 322.27
332.88, 0.15, 322.71
332.59, 0.16, 323.20
331.89, 0.04, 324.43
331.49, 0.05, 325.13
331.02, 0.06, 325.93
330.50, 0.08, 326.84
329.89, 0.10, 327.87
335.66, 0.14, 318.00
335.61, 0.14, 318.09
335.56, 0.14, 318.18
335.51, 0.14, 318.27
335.45, 0.14, 318.37
335.39, 0.14, 318.47
335.33, 0.14, 318.58
335.26, 0.14, 318.70
335.19, 0.14, 318.83
335.12, 0.14, 318.96
335.04, 0.14, 319.10
334.95, 0.14, 319.25
334.86, 0.14, 319.41
334.77, 0.14, 319.58
334.66, 0.14, 319.77
334.55, 0.14, 319.96
334.43, 0.14, 320.18
334.30, 0.14, 320.41
334.15, 0.14, 320.67
334.00, 0.14, 320.95
333.82, 0.14, 321.26
333.64, 0.14, 321.58
333.43, 0.14, 321.95
333.21, 0.15, 322.35
332.95, 0.15, 322.80
332.67, 0.16, 323.30
331.98, 0.04, 324.55
331.58, 0.05, 325.25
331.12, 0.06, 326.07
330.60, 0.08, 326.98
330.00, 0.11, 328.04
335.69, 0.14, 318.03
335.64, 0.14, 318.11
335.59, 0.14, 318.20
335.54, 0.14, 318.30
335.49, 0.14, 318.40
335.43, 0.14, 318.51
335.37, 0.14, 318.62
¯335.30, 0.14, 318.74
335.23, 0.14, 318.86
335.16, 0.14, 319.00
335.08, 0.14, 319.14
335.00, 0.14, 319.29
334.91, 0.14, 319.45
334.82, 0.14, 319.63
334.71, 0.14, 319.81
334.60, 0.14, 320.02
334.48, 0.14, 320.23
334.35, 0.14, 320.47
334.21, 0.14, 320.73
334.06, 0.14, 321.02
333.89, 0.14, 321.32
333.70, 0.14, 321.66
333.50, 0.15, 322.02
333.28, 0.15, 322.44
333.03, 0.16, 322.89
332.75, 0.17, 323.39
332.07, 0.05, 324.65
331.68, 0.05, 325.37
331.22, 0.07, 326.21
330.71, 0.09, 327.13
330.12, 0.11, 328.21
335.73, 0.14, 318.05
335.68, 0.14, 318.14
335.63, 0.14, 318.23
335.58, 0.14, 318.33
335.52, 0.14, 318.43
335.47, 0.14, 318.54
335.41, 0.14, 318.65
335.34, 0.14, 318.77
335.28, 0.14, 318.90
335.20, 0.14, 319.03
335.13, 0.14, 319.18
335.05, 0.14, 319.33
334.96, 0.14, 319.50
334.86, 0.14, 319.67
334.76, 0.14, 319.86
334.65, 0.14, 320.07
334.54, 0.14, 320.29
334.41, 0.14, 320.53
334.27, 0.14, 320.79
334.11, 0.14, 321.08
333.95, 0.14, 321.39
333.77, 0.14, 321.73
333.57, 0.15, 322.10
333.35, 0.15, 322.52
333.11, 0.16, 322.97
332.83, 0.17, 323.49
332.17, 0.05, 324.76
¯331.77, 0.06, 325.50
331.33, 0.07, 326.34
330.83, 0.09, 327.28
330.24, 0.12, 328.37
335.76, 0.14, 318.08
335.71, 0.14, 318.17
335.67, 0.14, 318.26
335.62, 0.14, 318.36
335.56, 0.14, 318.46
335.51, 0.14, 318.57
335.45, 0.14, 318.68
335.38, 0.14, 318.81
335.32, 0.14, 318.93
335.25, 0.14, 319.07
335.17, 0.14, 319.22
335.09, 0.14, 319.37
335.01, 0.14, 319.54
334.91, 0.14, 319.72
334.81, 0.14, 319.91
334.71, 0.14, 320.12
334.59, 0.14, 320.34
334.46, 0.14, 320.59
334.33, 0.14, 320.86
334.18, 0.14, 321.15
334.02, 0.14, 321.46
333.84, 0.14, 321.80
333.64, 0.15, 322.18
333.43, 0.15, 322.60
333.19, 0.16, 323.06
332.92, 0.17, 323.58
332.26, 0.05, 324.87
331.87, 0.06, 325.63
331.43, 0.08, 326.47
330.94, 0.10, 327.43
330.36, 0.13, 328.54
335.79, 0.14, 318.10
335.75, 0.14, 318.19
335.70, 0.14, 318.29
335.65, 0.14, 318.39
335.60, 0.14, 318.49
335.55, 0.14, 318.60
335.49, 0.14, 318.72
335.43, 0.14, 318.84
335.36, 0.14, 318.97
335.29, 0.14, 319.11
335.22, 0.14, 319.26
335.14, 0.14, 319.41
335.05, 0.14, 319.58
334.96, 0.14, 319.76
334.87, 0.14, 319.96
334.76, 0.14, 320.17
¯334.65, 0.14, 320.40
