žVERSION 0.7
FIELDS x y z
SIZE 8 8 8
TYPE F F F
COUNT 1 1 1
WIDTH 2271
HEIGHT 1
VIEWPOINT 335.55, 7.22, 312.48 1 355.82, 3.87, 314.22
POINTS 2271
DATA ascii
357.51, 2.33, 319.31
357.82, 2.35, 319.62
358.17, 2.37, 319.96
358.57, 2.40, 320.34
359.02, 2.43, 320.78
359.52, 2.46, 321.28
360.11, 2.50, 321.85
360.95, 2.54, 322.67
362.37, 2.53, 324.05
364.42, 2.53, 326.05
355.94, 2.21, 317.70
356.08, 2.23, 317.83
356.23, 2.24, 317.97
356.41, 2.25, 318.14
356.60, 2.27, 318.33
356.81, 2.28, 318.53
357.04, 2.29, 318.75
357.30, 2.31, 318.99
¯357.58, 2.33, 319.26
357.89, 2.35, 319.56
358.25, 2.37, 319.90
358.65, 2.40, 320.28
359.11, 2.43, 320.71
359.61, 2.47, 321.19
360.22, 2.51, 321.77
361.09, 2.54, 322.60
362.53, 2.54, 323.97
364.62, 2.53, 325.96
355.99, 2.21, 317.66
356.12, 2.23, 317.79
356.28, 2.24, 317.93
356.46, 2.25, 318.10
356.65, 2.27, 318.28
356.87, 2.28, 318.48
357.10, 2.30, 318.69
357.36, 2.31, 318.93
357.64, 2.33, 319.20
357.96, 2.35, 319.50
358.32, 2.37, 319.83
358.73, 2.40, 320.21
359.19, 2.43, 320.64
359.69, 2.47, 321.10
360.32, 2.51, 321.69
361.22, 2.54, 322.52
362.69, 2.54, 323.89
364.82, 2.53, 325.86
356.03, 2.21, 317.62
356.17, 2.23, 317.74
356.33, 2.24, 317.89
356.51, 2.25, 318.05
356.70, 2.27, 318.23
356.92, 2.28, 318.43
357.16, 2.30, 318.64
357.42, 2.31, 318.88
357.71, 2.33, 319.14
358.03, 2.35, 319.44
358.40, 2.37, 319.77
358.81, 2.40, 320.14
359.26, 2.43, 320.55
359.78, 2.47, 321.02
360.43, 2.51, 321.61
361.35, 2.54, 322.44
362.85, 2.54, 323.80
365.02, 2.53, 325.76
356.07, 2.21, 317.58
356.21, 2.23, 317.70
356.37, 2.24, 317.84
356.55, 2.26, 318.00
356.76, 2.27, 318.18
¯356.97, 2.28, 318.37
357.21, 2.30, 318.59
357.48, 2.31, 318.82
357.77, 2.33, 319.08
358.10, 2.35, 319.37
358.47, 2.38, 319.70
358.89, 2.40, 320.07
359.34, 2.44, 320.47
359.87, 2.47, 320.93
360.54, 2.51, 321.53
361.48, 2.54, 322.36
363.00, 2.54, 323.71
365.15, 2.54, 325.60
356.11, 2.21, 317.53
356.26, 2.23, 317.66
356.42, 2.24, 317.80
356.60, 2.26, 317.96
356.81, 2.27, 318.13
357.03, 2.28, 318.32
357.27, 2.30, 318.53
357.54, 2.31, 318.76
357.84, 2.33, 319.02
358.17, 2.35, 319.31
358.54, 2.38, 319.63
358.96, 2.40, 319.99
359.41, 2.44, 320.38
359.95, 2.48, 320.85
360.64, 2.51, 321.45
361.61, 2.54, 322.27
363.16, 2.54, 323.61
365.34, 2.54, 325.49
356.15, 2.21, 317.49
356.30, 2.23, 317.61
356.46, 2.24, 317.75
356.65, 2.26, 317.91
356.86, 2.27, 318.08
357.08, 2.28, 318.27
357.33, 2.30, 318.48
357.60, 2.31, 318.71
357.90, 2.33, 318.96
358.24, 2.35, 319.25
358.62, 2.38, 319.56
359.03, 2.41, 319.91
359.49, 2.44, 320.30
360.04, 2.48, 320.77
360.75, 2.51, 321.36
361.73, 2.54, 322.19
363.31, 2.54, 323.51
365.53, 2.54, 325.38
356.20, 2.22, 317.45
356.34, 2.23, 317.57
¯356.51, 2.25, 317.70
356.70, 2.26, 317.86
356.90, 2.27, 318.03
357.13, 2.28, 318.22
357.38, 2.30, 318.42
357.66, 2.32, 318.65
357.96, 2.33, 318.90
358.30, 2.35, 319.18
358.69, 2.38, 319.49
359.09, 2.41, 319.83
359.56, 2.44, 320.21
360.13, 2.48, 320.68
360.86, 2.51, 321.28
361.85, 2.54, 322.09
363.45, 2.54, 323.41
365.72, 2.54, 325.26
356.24, 2.22, 317.40
356.38, 2.23, 317.52
356.55, 2.25, 317.66
356.74, 2.26, 317.81
356.95, 2.27, 317.98
357.18, 2.28, 318.16
357.44, 2.30, 318.37
357.71, 2.32, 318.59
358.02, 2.33, 318.84
358.37, 2.36, 319.11
358.75, 2.38, 319.42
359.16, 2.41, 319.74
359.64, 2.45, 320.13
360.22, 2.48, 320.60
360.96, 2.51, 321.19
361.98, 2.54, 322.00
363.60, 2.54, 323.30
365.91, 2.54, 325.14
371.77, 2.39, 329.83
356.28, 2.22, 317.36
356.42, 2.23, 317.48
356.59, 2.25, 317.61
356.79, 2.26, 317.76
357.00, 2.27, 317.93
357.23, 2.28, 318.11
357.49, 2.30, 318.31
357.77, 2.32, 318.53
358.08, 2.34, 318.77
358.43, 2.36, 319.05
358.81, 2.38, 319.34
359.22, 2.42, 319.66
359.71, 2.45, 320.05
360.31, 2.48, 320.51
361.06, 2.51, 321.10
362.10, 2.54, 321.91
¯363.74, 2.54, 323.19
366.09, 2.54, 325.02
371.39, 2.43, 329.14
356.31, 2.22, 317.31
356.47, 2.23, 317.43
356.64, 2.25, 317.56
356.83, 2.26, 317.71
357.05, 2.27, 317.87
357.28, 2.28, 318.05
357.54, 2.30, 318.25
357.83, 2.32, 318.47
358.14, 2.34, 318.71
358.50, 2.36, 318.98
358.87, 2.39, 319.26
359.28, 2.42, 319.58
359.79, 2.45, 319.96
360.40, 2.48, 320.42
361.16, 2.51, 321.01
362.21, 2.54, 321.81
363.88, 2.54, 323.08
366.26, 2.54, 324.88
370.69, 2.49, 328.25
356.35, 2.22, 317.27
356.51, 2.23, 317.38
356.68, 2.25, 317.51
356.88, 2.26, 317.66
357.09, 2.27, 317.82
357.33, 2.29, 318.00
357.59, 2.30, 318.19
357.88, 2.32, 318.40
358.20, 2.34, 318.64
358.55, 2.36, 318.90
358.92, 2.39, 319.18
359.35, 2.42, 319.50
359.86, 2.45, 319.87
360.48, 2.48, 320.33
361.26, 2.51, 320.91
362.33, 2.54, 321.71
364.02, 2.54, 322.96
366.44, 2.54, 324.75
370.40, 2.52, 327.69
372.27, 2.72, 329.08
356.39, 2.22, 317.22
356.55, 2.23, 317.33
356.72, 2.25, 317.46
356.92, 2.26, 317.61
357.14, 2.27, 317.77
357.38, 2.29, 317.94
357.64, 2.30, 318.13
357.94, 2.32, 318.34
358.26, 2.34, 318.58
¯358.60, 2.36, 318.82
358.98, 2.39, 319.10
359.42, 2.42, 319.41
359.93, 2.45, 319.79
360.56, 2.48, 320.24
361.36, 2.51, 320.82
362.45, 2.54, 321.61
364.15, 2.54, 322.84
366.61, 2.54, 324.61
370.27, 2.55, 327.25
372.41, 2.72, 328.81
356.43, 2.22, 317.18
356.58, 2.23, 317.29
356.76, 2.25, 317.41
356.96, 2.26, 317.55
357.19, 2.27, 317.71
357.43, 2.29, 317.88
357.69, 2.30, 318.07
357.99, 2.32, 318.28
358.32, 2.34, 318.51
358.65, 2.36, 318.75
359.03, 2.39, 319.01
359.48, 2.42, 319.33
360.01, 2.45, 319.70
360.65, 2.48, 320.15
361.46, 2.52, 320.72
362.56, 2.54, 321.50
364.28, 2.54, 322.71
366.78, 2.54, 324.47
369.56, 2.60, 326.43
372.55, 2.73, 328.54
356.47, 2.22, 317.13
356.62, 2.23, 317.24
356.80, 2.25, 317.36
357.01, 2.26, 317.50
357.23, 2.27, 317.65
357.47, 2.29, 317.82
357.74, 2.30, 318.01
358.04, 2.32, 318.21
358.36, 2.34, 318.43
358.71, 2.37, 318.67
359.09, 2.39, 318.93
359.55, 2.42, 319.25
360.08, 2.45, 319.61
360.73, 2.49, 320.06
361.55, 2.52, 320.63
362.67, 2.54, 321.39
364.41, 2.54, 322.59
366.94, 2.54, 324.32
369.64, 2.61, 326.18
372.69, 2.74, 328.27
¯356.50, 2.22, 317.08
356.66, 2.23, 317.19
356.84, 2.25, 317.31
357.05, 2.26, 317.45
357.27, 2.27, 317.60
357.52, 2.29, 317.76
357.79, 2.30, 317.95
358.09, 2.32, 318.15
358.41, 2.34, 318.36
358.75, 2.37, 318.59
359.15, 2.40, 318.85
359.61, 2.42, 319.16
360.15, 2.45, 319.53
360.81, 2.49, 319.97
361.65, 2.51, 320.53
362.78, 2.54, 321.29
364.54, 2.54, 322.46
367.10, 2.54, 324.17
369.72, 2.62, 325.92
372.82, 2.74, 327.99
356.54, 2.22, 317.03
356.70, 2.23, 317.14
356.88, 2.25, 317.26
357.09, 2.26, 317.39
357.32, 2.27, 317.54
357.57, 2.29, 317.70
357.84, 2.30, 317.88
358.14, 2.32, 318.08
358.46, 2.34, 318.28
358.80, 2.37, 318.51
359.20, 2.40, 318.77
359.67, 2.43, 319.07
360.22, 2.45, 319.44
360.89, 2.49, 319.87
361.74, 2.51, 320.43
362.89, 2.54, 321.17
364.66, 2.55, 322.32
367.26, 2.54, 324.02
369.80, 2.62, 325.67
372.93, 2.75, 327.71
356.57, 2.22, 316.99
356.74, 2.23, 317.09
356.92, 2.25, 317.20
357.13, 2.26, 317.34
357.36, 2.27, 317.48
357.61, 2.29, 317.64
357.89, 2.30, 317.82
358.19, 2.32, 318.01
358.50, 2.34, 318.21
358.85, 2.37, 318.43
359.26, 2.40, 318.69
¯359.73, 2.43, 318.99
360.29, 2.45, 319.35
360.97, 2.49, 319.78
361.83, 2.51, 320.32
363.00, 2.54, 321.06
364.77, 2.55, 322.19
367.40, 2.55, 323.85
369.87, 2.63, 325.42
371.97, 2.80, 326.75
356.61, 2.22, 316.94
356.77, 2.23, 317.04
356.95, 2.25, 317.15
357.17, 2.26, 317.28
357.40, 2.27, 317.43
357.65, 2.29, 317.58
357.93, 2.30, 317.76
358.23, 2.32, 317.94
358.55, 2.35, 318.13
358.90, 2.37, 318.35
359.31, 2.40, 318.61
359.79, 2.43, 318.90
360.36, 2.46, 319.26
361.05, 2.48, 319.68
361.93, 2.51, 320.22
363.10, 2.54, 320.94
364.89, 2.55, 322.05
367.51, 2.55, 323.67
369.94, 2.64, 325.16
372.07, 2.81, 326.48
356.64, 2.22, 316.89
356.81, 2.23, 316.99
356.99, 2.25, 317.10
357.21, 2.26, 317.23
357.44, 2.27, 317.37
357.70, 2.29, 317.52
357.98, 2.30, 317.69
358.27, 2.32, 317.87
358.59, 2.35, 318.06
358.95, 2.37, 318.27
359.37, 2.40, 318.52
359.85, 2.43, 318.81
360.43, 2.46, 319.16
361.13, 2.48, 319.58
362.01, 2.51, 320.11
363.20, 2.54, 320.83
365.00, 2.55, 321.90
367.62, 2.55, 323.48
370.01, 2.64, 324.91
372.16, 2.81, 326.21
356.68, 2.21, 316.84
356.84, 2.23, 316.94
¯357.03, 2.25, 317.04
357.24, 2.26, 317.17
357.48, 2.27, 317.31
357.74, 2.29, 317.46
358.02, 2.30, 317.62
358.31, 2.32, 317.79
358.63, 2.35, 317.98
359.00, 2.37, 318.19
359.42, 2.40, 318.44
359.91, 2.43, 318.73
360.50, 2.46, 319.07
361.21, 2.48, 319.48
362.10, 2.51, 320.01
363.30, 2.54, 320.71
365.11, 2.55, 321.76
367.73, 2.55, 323.29
370.07, 2.65, 324.66
372.25, 2.82, 325.93
356.71, 2.21, 316.79
356.88, 2.23, 316.88
357.06, 2.25, 316.99
357.28, 2.26, 317.11
357.52, 2.27, 317.25
357.78, 2.29, 317.40
358.06, 2.30, 317.55
358.35, 2.33, 317.72
358.67, 2.35, 317.90
359.04, 2.38, 318.11
359.47, 2.40, 318.36
359.97, 2.43, 318.64
360.56, 2.46, 318.98
361.28, 2.48, 319.38
362.18, 2.51, 319.90
363.39, 2.54, 320.58
365.21, 2.55, 321.61
367.83, 2.56, 323.10
370.13, 2.65, 324.41
372.33, 2.82, 325.66
356.74, 2.21, 316.74
356.91, 2.23, 316.83
357.10, 2.25, 316.93
357.32, 2.26, 317.05
357.56, 2.27, 317.19
357.82, 2.29, 317.33
358.09, 2.31, 317.48
358.39, 2.33, 317.64
358.71, 2.35, 317.82
359.09, 2.38, 318.03
359.52, 2.40, 318.27
360.02, 2.43, 318.55
360.62, 2.46, 318.88
¯361.35, 2.48, 319.28
362.27, 2.51, 319.79
363.49, 2.54, 320.46
365.31, 2.55, 321.46
367.93, 2.56, 322.91
370.19, 2.66, 324.15
372.41, 2.83, 325.38
356.78, 2.21, 316.69
356.95, 2.23, 316.78
357.13, 2.25, 316.88
357.35, 2.26, 317.00
357.59, 2.27, 317.13
357.86, 2.29, 317.27
358.13, 2.31, 317.41
358.42, 2.33, 317.57
358.75, 2.35, 317.74
359.14, 2.38, 317.95
359.57, 2.40, 318.19
360.33, 2.39, 318.59
361.25, 2.38, 319.08
362.09, 2.40, 319.54
362.69, 2.48, 319.86
363.58, 2.54, 320.33
365.40, 2.55, 321.31
368.02, 2.56, 322.71
370.28, 2.66, 323.92
372.48, 2.83, 325.10
356.81, 2.21, 316.64
356.98, 2.23, 316.72
357.16, 2.25, 316.82
357.39, 2.26, 316.94
357.63, 2.27, 317.06
357.89, 2.29, 317.20
358.16, 2.31, 317.34
358.46, 2.33, 317.49
358.79, 2.35, 317.67
359.18, 2.38, 317.87
360.14, 2.32, 318.37
360.69, 2.35, 318.65
361.31, 2.38, 318.98
362.18, 2.40, 319.43
363.20, 2.43, 319.96
363.86, 2.52, 320.31
365.49, 2.55, 321.15
368.10, 2.56, 322.51
370.37, 2.67, 323.69
372.55, 2.83, 324.82
374.48, 3.07, 325.83
356.84, 2.21, 316.58
357.01, 2.23, 316.67
357.20, 2.25, 316.76
¯357.42, 2.26, 316.88
357.67, 2.27, 317.00
357.92, 2.29, 317.13
358.19, 2.31, 317.27
358.49, 2.33, 317.42
358.83, 2.35, 317.59
359.73, 2.29, 318.05
360.20, 2.32, 318.28
360.75, 2.35, 318.56
361.39, 2.38, 318.88
362.27, 2.40, 319.32
363.26, 2.43, 319.83
364.53, 2.47, 320.47
365.57, 2.55, 320.99
368.18, 2.57, 322.31
370.46, 2.67, 323.46
372.61, 2.84, 324.55
374.54, 3.07, 325.52
356.87, 2.21, 316.53
357.04, 2.23, 316.62
357.23, 2.24, 316.71
357.45, 2.26, 316.82
357.70, 2.27, 316.94
357.95, 2.29, 317.06
358.23, 2.31, 317.20
358.53, 2.33, 317.34
359.37, 2.26, 317.76
359.79, 2.29, 317.96
360.26, 2.31, 318.19
360.80, 2.35, 318.46
361.46, 2.38, 318.78
362.33, 2.40, 319.21
363.35, 2.43, 319.70
365.13, 2.42, 320.57
365.65, 2.55, 320.83
368.25, 2.57, 322.10
370.54, 2.67, 323.22
372.68, 2.84, 324.27
374.60, 3.07, 325.21
356.90, 2.21, 316.48
357.07, 2.23, 316.56
357.26, 2.24, 316.65
357.49, 2.26, 316.76
357.73, 2.27, 316.87
357.98, 2.29, 316.99
358.26, 2.31, 317.12
359.05, 2.23, 317.50
359.42, 2.26, 317.68
359.85, 2.28, 317.88
360.32, 2.31, 318.10
360.86, 2.34, 318.36
¯361.54, 2.37, 318.68
362.39, 2.40, 319.08
363.44, 2.43, 319.58
365.22, 2.42, 320.43
365.96, 2.54, 320.78
368.32, 2.57, 321.90
370.62, 2.67, 322.99
372.74, 2.84, 323.99
374.65, 3.08, 324.90
356.93, 2.21, 316.43
357.10, 2.23, 316.51
357.29, 2.24, 316.59
357.52, 2.26, 316.70
357.76, 2.27, 316.81
358.01, 2.29, 316.92
358.77, 2.21, 317.27
359.10, 2.23, 317.42
359.47, 2.26, 317.60
359.90, 2.28, 317.79
360.38, 2.31, 318.01
360.92, 2.34, 318.26
361.60, 2.37, 318.57
362.44, 2.40, 318.96
363.52, 2.43, 319.46
365.30, 2.42, 320.27
366.46, 2.50, 320.81
368.38, 2.57, 321.69
370.69, 2.68, 322.75
372.79, 2.85, 323.72
374.70, 3.08, 324.60
356.96, 2.21, 316.37
357.13, 2.22, 316.45
357.32, 2.24, 316.54
357.55, 2.26, 316.64
357.78, 2.27, 316.74
358.50, 2.19, 317.06
358.81, 2.21, 317.20
359.15, 2.23, 317.35
359.52, 2.25, 317.52
359.96, 2.28, 317.71
360.44, 2.31, 317.92
360.99, 2.34, 318.17
361.65, 2.37, 318.46
362.50, 2.40, 318.84
363.61, 2.42, 319.33
365.37, 2.42, 320.12
367.07, 2.46, 320.87
368.42, 2.58, 321.48
370.76, 2.68, 322.52
372.85, 2.85, 323.44
374.75, 3.08, 324.29
¯356.98, 2.21, 316.32
357.16, 2.22, 316.40
357.35, 2.24, 316.48
357.58, 2.26, 316.57
358.26, 2.17, 316.87
358.54, 2.19, 316.99
358.85, 2.21, 317.12
359.19, 2.23, 317.27
359.57, 2.25, 317.43
360.01, 2.28, 317.62
360.50, 2.31, 317.83
361.05, 2.34, 318.07
361.70, 2.37, 318.35
362.55, 2.40, 318.71
363.69, 2.42, 319.20
365.44, 2.42, 319.96
367.65, 2.43, 320.91
368.47, 2.58, 321.26
370.83, 2.68, 322.28
372.90, 2.85, 323.17
374.80, 3.08, 323.98
357.01, 2.21, 316.26
357.19, 2.22, 316.34
357.38, 2.24, 316.42
358.03, 2.15, 316.69
358.29, 2.17, 316.80
358.58, 2.18, 316.92
358.89, 2.20, 317.05
359.23, 2.23, 317.19
359.62, 2.25, 317.35
360.06, 2.28, 317.53
360.55, 2.30, 317.74
361.10, 2.34, 317.97
361.76, 2.37, 318.24
362.60, 2.40, 318.59
363.76, 2.42, 319.07
365.51, 2.42, 319.80
367.71, 2.43, 320.72
368.52, 2.58, 321.05
370.89, 2.68, 322.04
372.94, 2.85, 322.89
374.84, 3.09, 323.68
357.04, 2.21, 316.21
357.22, 2.22, 316.28
357.82, 2.13, 316.53
358.07, 2.15, 316.62
358.33, 2.16, 316.73
358.62, 2.18, 316.84
358.93, 2.20, 316.97
359.28, 2.23, 317.11
359.67, 2.25, 317.27
¯360.11, 2.27, 317.44
360.61, 2.30, 317.64
361.16, 2.34, 317.86
361.83, 2.37, 318.13
362.65, 2.40, 318.46
363.84, 2.42, 318.94
365.57, 2.42, 319.64
367.77, 2.43, 320.52
369.11, 2.55, 321.06
370.95, 2.68, 321.80
372.99, 2.86, 322.62
374.89, 3.09, 323.38
357.06, 2.20, 316.15
357.25, 2.22, 316.23
357.85, 2.13, 316.46
358.10, 2.14, 316.56
358.36, 2.16, 316.66
358.65, 2.18, 316.77
358.97, 2.20, 316.89
359.32, 2.22, 317.03
359.71, 2.25, 317.18
360.16, 2.27, 317.36
360.66, 2.30, 317.55
361.21, 2.33, 317.76
361.89, 2.37, 318.03
362.70, 2.40, 318.34
363.89, 2.42, 318.80
365.63, 2.42, 319.48
367.82, 2.43, 320.33
369.89, 2.51, 321.13
371.00, 2.68, 321.56
373.03, 2.86, 322.34
374.93, 3.09, 323.08
357.09, 2.20, 316.10
357.66, 2.11, 316.31
357.88, 2.13, 316.40
358.13, 2.14, 316.49
358.40, 2.16, 316.59
358.69, 2.18, 316.70
359.01, 2.20, 316.82
359.36, 2.22, 316.95
359.76, 2.24, 317.10
360.21, 2.27, 317.27
360.70, 2.30, 317.45
361.26, 2.33, 317.66
361.95, 2.36, 317.92
362.76, 2.40, 318.22
363.94, 2.42, 318.66
365.68, 2.42, 319.31
367.87, 2.43, 320.13
370.09, 2.50, 320.96
¯371.05, 2.68, 321.32
373.07, 2.86, 322.07
374.97, 3.09, 322.78
357.48, 2.10, 316.18
357.69, 2.11, 316.25
357.92, 2.12, 316.33
358.16, 2.14, 316.42
358.43, 2.16, 316.52
358.72, 2.18, 316.62
359.04, 2.20, 316.74
359.40, 2.22, 316.87
359.80, 2.24, 317.01
360.25, 2.27, 317.17
360.75, 2.30, 317.35
361.30, 2.33, 317.55
362.01, 2.36, 317.80
362.83, 2.39, 318.10
363.98, 2.42, 318.52
365.73, 2.42, 319.15
367.92, 2.43, 319.93
370.12, 2.50, 320.73
371.77, 2.65, 321.32
373.10, 2.86, 321.80
375.00, 3.09, 322.48
357.51, 2.09, 316.12
357.72, 2.11, 316.19
357.95, 2.12, 316.27
358.19, 2.14, 316.35
358.46, 2.16, 316.45
358.76, 2.18, 316.55
359.08, 2.20, 316.66
359.44, 2.22, 316.78
359.85, 2.24, 316.93
360.29, 2.27, 317.08
360.79, 2.30, 317.25
361.35, 2.33, 317.45
362.06, 2.36, 317.69
362.89, 2.39, 317.98
364.02, 2.42, 318.37
365.78, 2.42, 318.98
367.96, 2.43, 319.73
370.15, 2.50, 320.49
372.18, 2.64, 321.20
373.13, 2.86, 321.52
375.04, 3.09, 322.18
357.53, 2.09, 316.06
357.75, 2.11, 316.13
357.98, 2.12, 316.20
358.22, 2.14, 316.29
358.49, 2.15, 316.38
358.79, 2.17, 316.47
¯359.11, 2.19, 316.58
359.48, 2.22, 316.70
359.88, 2.24, 316.84
360.33, 2.26, 316.99
360.83, 2.29, 317.15
361.40, 2.33, 317.34
362.12, 2.36, 317.58
362.94, 2.39, 317.85
364.10, 2.41, 318.24
365.82, 2.42, 318.81
368.00, 2.43, 319.54
370.19, 2.50, 320.26
372.22, 2.64, 320.94
374.13, 2.83, 321.57
375.07, 3.09, 321.88
357.56, 2.09, 316.00
357.77, 2.10, 316.07
358.01, 2.12, 316.14
358.26, 2.13, 316.22
358.53, 2.15, 316.30
358.82, 2.17, 316.40
359.15, 2.19, 316.50
359.51, 2.21, 316.62
359.92, 2.24, 316.75
360.37, 2.26, 316.89
360.87, 2.29, 317.05
361.45, 2.32, 317.24
362.17, 2.35, 317.47
362.99, 2.39, 317.73
364.17, 2.41, 318.10
365.86, 2.42, 318.64
368.03, 2.43, 319.34
370.23, 2.50, 320.04
372.26, 2.64, 320.68
374.17, 2.83, 321.29
375.61, 3.07, 321.75
357.59, 2.09, 315.94
357.80, 2.10, 316.00
358.03, 2.12, 316.07
358.28, 2.13, 316.15
358.56, 2.15, 316.23
358.86, 2.17, 316.32
359.18, 2.19, 316.42
359.55, 2.21, 316.54
359.95, 2.23, 316.66
360.40, 2.26, 316.80
360.91, 2.29, 316.95
361.50, 2.32, 317.13
362.22, 2.35, 317.35
363.04, 2.39, 317.60
364.24, 2.41, 317.97
¯365.90, 2.42, 318.47
368.07, 2.43, 319.14
370.27, 2.50, 319.81
372.29, 2.64, 320.43
374.21, 2.82, 321.01
375.99, 3.07, 321.56
357.61, 2.08, 315.87
357.83, 2.10, 315.94
358.06, 2.11, 316.01
358.31, 2.13, 316.08
358.59, 2.15, 316.16
358.89, 2.17, 316.25
359.21, 2.19, 316.34
359.58, 2.21, 316.45
359.99, 2.23, 316.57
360.44, 2.26, 316.70
360.95, 2.29, 316.85
361.54, 2.32, 317.02
362.27, 2.35, 317.23
363.08, 2.38, 317.47
364.31, 2.40, 317.83
365.93, 2.42, 318.30
368.12, 2.43, 318.95
370.30, 2.50, 319.59
372.31, 2.64, 320.17
374.25, 2.82, 320.74
376.02, 3.06, 321.25
357.63, 2.08, 315.81
357.85, 2.10, 315.87
358.09, 2.11, 315.94
358.34, 2.13, 316.01
358.62, 2.14, 316.09
358.92, 2.16, 316.17
359.25, 2.18, 316.26
359.61, 2.21, 316.36
360.02, 2.23, 316.48
360.47, 2.26, 316.60
360.98, 2.29, 316.75
361.58, 2.32, 316.91
362.30, 2.35, 317.12
363.12, 2.38, 317.34
364.37, 2.40, 317.69
365.95, 2.42, 318.13
368.16, 2.43, 318.75
370.34, 2.50, 319.36
372.34, 2.64, 319.92
374.28, 2.82, 320.46
376.04, 3.06, 320.95
357.66, 2.08, 315.75
357.88, 2.09, 315.81
358.11, 2.11, 315.87
¯358.37, 2.12, 315.94
358.65, 2.14, 316.01
358.95, 2.16, 316.09
359.28, 2.18, 316.18
359.64, 2.20, 316.28
360.05, 2.23, 316.39
360.50, 2.25, 316.51
361.02, 2.28, 316.64
361.63, 2.31, 316.81
362.34, 2.34, 317.00
363.16, 2.38, 317.21
364.43, 2.39, 317.55
365.97, 2.42, 317.96
368.20, 2.43, 318.56
370.36, 2.50, 319.13
372.36, 2.63, 319.66
374.31, 2.82, 320.18
376.07, 3.06, 320.64
357.68, 2.08, 315.69
357.90, 2.09, 315.74
358.14, 2.11, 315.81
358.40, 2.12, 315.87
358.67, 2.14, 315.94
358.98, 2.16, 316.02
359.30, 2.18, 316.10
359.67, 2.20, 316.19
360.08, 2.23, 316.30
360.54, 2.25, 316.41
361.05, 2.28, 316.54
361.66, 2.31, 316.70
362.38, 2.34, 316.88
363.20, 2.38, 317.08
364.45, 2.39, 317.40
365.99, 2.42, 317.79
368.24, 2.43, 318.36
370.39, 2.50, 318.90
372.38, 2.63, 319.41
374.32, 2.82, 319.89
376.09, 3.06, 320.34
357.70, 2.08, 315.63
357.92, 2.09, 315.68
358.16, 2.10, 315.74
358.42, 2.12, 315.80
358.70, 2.14, 315.87
359.00, 2.15, 315.94
359.33, 2.18, 316.02
359.70, 2.20, 316.11
360.11, 2.22, 316.20
360.57, 2.25, 316.31
361.08, 2.28, 316.44
361.69, 2.31, 316.58
¯362.41, 2.34, 316.76
363.24, 2.38, 316.95
364.46, 2.40, 317.25
366.00, 2.42, 317.62
368.25, 2.43, 318.16
370.41, 2.50, 318.68
372.39, 2.63, 319.15
374.33, 2.82, 319.61
376.09, 3.05, 320.03
357.72, 2.07, 315.56
357.94, 2.09, 315.61
358.18, 2.10, 315.67
358.44, 2.12, 315.73
358.73, 2.13, 315.79
359.03, 2.15, 315.86
359.36, 2.17, 315.93
359.73, 2.20, 316.02
360.14, 2.22, 316.11
360.60, 2.25, 316.22
361.12, 2.28, 316.33
361.72, 2.31, 316.47
362.44, 2.34, 316.63
363.27, 2.37, 316.82
364.47, 2.40, 317.09
366.01, 2.42, 317.45
368.25, 2.43, 317.95
370.43, 2.50, 318.45
372.40, 2.63, 318.90
374.33, 2.82, 319.33
376.09, 3.05, 319.73
357.74, 2.07, 315.50
357.97, 2.08, 315.55
358.21, 2.10, 315.60
358.47, 2.11, 315.66
358.75, 2.13, 315.72
359.05, 2.15, 315.78
359.38, 2.17, 315.85
359.76, 2.19, 315.93
360.17, 2.22, 316.02
360.63, 2.24, 316.12
361.15, 2.27, 316.23
361.75, 2.30, 316.36
362.47, 2.33, 316.51
363.31, 2.37, 316.69
364.47, 2.40, 316.94
366.02, 2.42, 317.27
368.25, 2.43, 317.75
370.43, 2.50, 318.22
372.41, 2.63, 318.64
374.33, 2.81, 319.05
376.09, 3.05, 319.43
¯357.76, 2.07, 315.44
357.99, 2.08, 315.48
358.23, 2.09, 315.53
358.49, 2.11, 315.58
358.77, 2.13, 315.64
359.07, 2.15, 315.70
359.41, 2.17, 315.77
359.78, 2.19, 315.84
360.20, 2.21, 315.93
360.66, 2.24, 316.02
361.18, 2.27, 316.12
361.79, 2.30, 316.25
362.50, 2.33, 316.39
363.35, 2.37, 316.56
364.48, 2.40, 316.79
366.02, 2.42, 317.10
368.25, 2.43, 317.55
370.42, 2.50, 317.99
372.42, 2.63, 318.39
374.33, 2.81, 318.77
376.10, 3.04, 319.13
357.78, 2.06, 315.37
358.00, 2.08, 315.42
358.25, 2.09, 315.46
358.51, 2.11, 315.51
358.79, 2.13, 315.56
359.09, 2.14, 315.62
359.43, 2.17, 315.68
359.81, 2.19, 315.76
360.23, 2.21, 315.83
360.69, 2.24, 315.92
361.20, 2.27, 316.02
361.82, 2.30, 316.13
362.53, 2.33, 316.27
363.37, 2.36, 316.43
364.48, 2.40, 316.64
366.02, 2.42, 316.93
368.24, 2.43, 317.35
370.41, 2.49, 317.76
372.40, 2.63, 318.13
374.33, 2.81, 318.50
376.11, 3.04, 318.83
357.80, 2.06, 315.31
358.02, 2.07, 315.35
358.27, 2.09, 315.39
358.53, 2.10, 315.44
358.81, 2.12, 315.49
359.11, 2.14, 315.54
359.45, 2.16, 315.60
359.83, 2.18, 315.67
360.25, 2.21, 315.74
¯360.72, 2.23, 315.82
361.23, 2.26, 315.91
361.84, 2.29, 316.02
362.56, 2.33, 316.15
363.41, 2.36, 316.30
364.48, 2.40, 316.48
366.01, 2.42, 316.75
368.22, 2.43, 317.15
370.39, 2.49, 317.53
372.38, 2.62, 317.88
374.31, 2.80, 318.22
376.12, 3.04, 318.53
357.81, 2.06, 315.24
358.04, 2.07, 315.28
358.29, 2.09, 315.32
358.55, 2.10, 315.36
358.83, 2.12, 315.41
359.13, 2.14, 315.46
359.47, 2.16, 315.52
359.85, 2.18, 315.58
360.28, 2.20, 315.65
360.74, 2.23, 315.72
361.25, 2.26, 315.81
361.87, 2.29, 315.91
362.59, 2.32, 316.02
363.44, 2.36, 316.16
364.49, 2.39, 316.34
366.00, 2.42, 316.58
368.20, 2.43, 316.94
370.37, 2.49, 317.30
372.36, 2.62, 317.62
374.29, 2.80, 317.94
376.10, 3.03, 318.23
357.83, 2.06, 315.18
358.06, 2.07, 315.21
358.30, 2.08, 315.25
358.56, 2.10, 315.29
358.84, 2.12, 315.33
359.15, 2.14, 315.38
359.49, 2.16, 315.43
359.87, 2.18, 315.49
360.30, 2.20, 315.55
360.76, 2.23, 315.62
361.27, 2.26, 315.70
361.90, 2.29, 315.79
362.62, 2.32, 315.90
363.47, 2.35, 316.03
364.53, 2.39, 316.19
365.98, 2.42, 316.41
368.18, 2.43, 316.74
370.35, 2.49, 317.07
¯372.33, 2.62, 317.37
374.26, 2.80, 317.66
376.06, 3.03, 317.93
357.84, 2.05, 315.11
358.07, 2.07, 315.15
358.32, 2.08, 315.18
358.58, 2.10, 315.22
358.86, 2.11, 315.26
359.17, 2.13, 315.30
359.51, 2.15, 315.35
359.89, 2.17, 315.40
360.32, 2.20, 315.46
360.78, 2.22, 315.52
361.29, 2.26, 315.59
361.92, 2.28, 315.68
362.65, 2.31, 315.78
363.50, 2.35, 315.90
364.56, 2.38, 316.04
365.77, 2.43, 316.21
368.16, 2.43, 316.54
370.32, 2.49, 316.84
372.30, 2.62, 317.12
374.21, 2.80, 317.38
376.01, 3.02, 317.63
357.86, 2.05, 315.05
358.09, 2.06, 315.08
358.33, 2.08, 315.11
358.59, 2.09, 315.14
358.88, 2.11, 315.18
359.18, 2.13, 315.22
359.53, 2.15, 315.26
359.91, 2.17, 315.31
360.34, 2.19, 315.36
360.80, 2.22, 315.42
361.31, 2.25, 315.48
361.94, 2.28, 315.56
362.67, 2.31, 315.65
363.53, 2.35, 315.76
364.60, 2.38, 315.90
365.56, 2.45, 316.02
368.01, 2.43, 316.33
370.29, 2.49, 316.62
372.27, 2.62, 316.87
374.16, 2.79, 317.10
375.96, 3.02, 317.33
357.87, 2.05, 314.98
358.10, 2.06, 315.01
358.34, 2.08, 315.04
358.60, 2.09, 315.07
358.89, 2.11, 315.10
359.20, 2.13, 315.13
¯359.54, 2.15, 315.17
359.93, 2.17, 315.22
360.35, 2.19, 315.27
360.81, 2.22, 315.32
361.32, 2.25, 315.38
361.96, 2.28, 315.45
362.69, 2.31, 315.53
363.56, 2.34, 315.63
364.60, 2.38, 315.75
365.35, 2.47, 315.83
367.63, 2.46, 316.09
370.26, 2.49, 316.39
372.23, 2.61, 316.62
374.11, 2.79, 316.83
375.92, 3.01, 317.03
357.88, 2.04, 314.92
358.11, 2.06, 314.94
358.35, 2.07, 314.97
358.62, 2.09, 314.99
358.90, 2.11, 315.02
359.21, 2.12, 315.05
359.56, 2.14, 315.09
359.95, 2.16, 315.13
360.37, 2.19, 315.17
360.83, 2.22, 315.22
361.34, 2.25, 315.27
361.98, 2.27, 315.33
362.71, 2.30, 315.41
363.58, 2.34, 315.49
364.54, 2.38, 315.59
365.20, 2.48, 315.66
367.26, 2.48, 315.87
370.28, 2.48, 316.18
372.19, 2.61, 316.37
374.06, 2.79, 316.56
375.88, 3.01, 316.74
357.89, 2.04, 314.85
358.12, 2.05, 314.87
358.36, 2.07, 314.89
358.63, 2.09, 314.92
358.91, 2.10, 314.94
359.23, 2.12, 314.97
359.57, 2.14, 315.00
359.96, 2.16, 315.04
360.38, 2.19, 315.07
360.84, 2.21, 315.11
361.36, 2.24, 315.16
361.99, 2.27, 315.22
362.73, 2.30, 315.28
363.60, 2.33, 315.36
364.48, 2.39, 315.44
¯365.13, 2.48, 315.49
366.98, 2.50, 315.66
370.30, 2.48, 315.96
372.11, 2.61, 316.12
374.02, 2.78, 316.29
375.83, 3.00, 316.44
357.90, 2.04, 314.79
358.13, 2.05, 314.80
358.37, 2.07, 314.82
358.64, 2.08, 314.84
358.92, 2.10, 314.86
359.24, 2.12, 314.89
359.59, 2.14, 314.91
359.97, 2.16, 314.94
360.39, 2.18, 314.98
360.85, 2.21, 315.01
361.37, 2.24, 315.05
362.01, 2.27, 315.10
362.75, 2.30, 315.16
363.62, 2.33, 315.22
364.41, 2.39, 315.28
365.06, 2.48, 315.33
366.74, 2.52, 315.46
370.31, 2.47, 315.74
372.03, 2.61, 315.87
373.99, 2.78, 316.02
375.54, 3.00, 316.13
376.83, 3.27, 316.22
357.91, 2.04, 314.72
358.14, 2.05, 314.73
358.38, 2.06, 314.75
358.65, 2.08, 314.77
358.93, 2.10, 314.79
359.25, 2.12, 314.81
359.60, 2.13, 314.83
359.98, 2.15, 314.85
360.40, 2.18, 314.88
360.86, 2.21, 314.91
361.38, 2.24, 314.94
362.02, 2.26, 314.98
362.76, 2.29, 315.03
363.64, 2.32, 315.09
364.35, 2.39, 315.13
364.99, 2.49, 315.17
366.49, 2.53, 315.27
370.29, 2.47, 315.52
371.95, 2.61, 315.62
373.96, 2.77, 315.75
375.22, 3.00, 315.83
376.50, 3.27, 315.90
376.64, 3.56, 315.90
¯376.77, 3.86, 315.90
376.91, 4.17, 315.91
357.92, 2.03, 314.65
358.14, 2.05, 314.67
358.39, 2.06, 314.68
358.66, 2.08, 314.69
358.94, 2.09, 314.71
359.26, 2.11, 314.72
359.61, 2.13, 314.74
359.99, 2.15, 314.76
360.41, 2.18, 314.78
360.87, 2.20, 314.81
361.39, 2.23, 314.83
362.03, 2.26, 314.87
362.77, 2.29, 314.91
363.65, 2.32, 314.95
364.29, 2.40, 314.98
364.92, 2.49, 315.01
366.25, 2.54, 315.08
370.22, 2.47, 315.30
371.86, 2.60, 315.38
373.93, 2.76, 315.49
374.95, 3.00, 315.53
376.19, 3.26, 315.59
376.32, 3.56, 315.59
376.45, 3.85, 315.59
376.59, 4.15, 315.59
376.72, 4.45, 315.59
376.86, 4.76, 315.58
357.92, 2.03, 314.59
358.15, 2.04, 314.60
358.40, 2.06, 314.61
358.66, 2.07, 314.62
358.95, 2.09, 314.63
359.27, 2.11, 314.64
359.62, 2.13, 314.65
359.99, 2.15, 314.67
360.41, 2.17, 314.68
360.88, 2.20, 314.70
361.40, 2.23, 314.72
362.04, 2.25, 314.75
362.78, 2.28, 314.78
363.65, 2.31, 314.81
364.22, 2.40, 314.83
364.85, 2.49, 314.86
366.02, 2.56, 314.90
370.16, 2.46, 315.08
371.77, 2.60, 315.14
373.86, 2.76, 315.22
374.79, 3.00, 315.25
375.88, 3.26, 315.29
¯376.01, 3.55, 315.28
376.14, 3.84, 315.28
376.27, 4.13, 315.28
376.40, 4.43, 315.27
376.53, 4.73, 315.27
376.67, 5.04, 315.27
376.81, 5.34, 315.26
376.94, 5.66, 315.26
357.93, 2.03, 314.52
358.16, 2.04, 314.53
358.40, 2.05, 314.53
358.67, 2.07, 314.54
358.96, 2.09, 314.55
359.27, 2.10, 314.56
359.62, 2.12, 314.57
360.00, 2.15, 314.58
360.42, 2.17, 314.59
360.88, 2.20, 314.60
361.41, 2.22, 314.61
362.05, 2.25, 314.63
362.79, 2.28, 314.65
363.60, 2.32, 314.68
364.16, 2.40, 314.69
364.78, 2.49, 314.70
365.79, 2.57, 314.73
370.10, 2.46, 314.86
371.73, 2.60, 314.90
373.71, 2.76, 314.95
374.62, 3.00, 314.97
375.58, 3.25, 314.99
375.71, 3.54, 314.99
375.83, 3.83, 314.98
375.96, 4.12, 314.98
376.09, 4.41, 314.97
376.22, 4.71, 314.97
376.35, 5.01, 314.96
376.48, 5.31, 314.95
376.62, 5.62, 314.95
376.75, 5.93, 314.94
357.93, 2.02, 314.45
358.16, 2.04, 314.46
358.41, 2.05, 314.46
358.67, 2.07, 314.46
358.96, 2.08, 314.47
359.28, 2.10, 314.47
359.62, 2.12, 314.48
360.00, 2.14, 314.48
360.42, 2.17, 314.49
360.89, 2.19, 314.50
361.41, 2.22, 314.51
362.06, 2.25, 314.52
¯362.80, 2.27, 314.53
363.54, 2.32, 314.54
364.09, 2.40, 314.54
364.70, 2.49, 314.55
365.57, 2.58, 314.56
367.22, 2.64, 314.59
371.68, 2.59, 314.66
373.56, 2.76, 314.69
374.46, 2.99, 314.70
375.29, 3.25, 314.70
375.41, 3.53, 314.70
375.53, 3.81, 314.69
375.66, 4.10, 314.68
375.78, 4.39, 314.68
375.91, 4.68, 314.67
376.03, 4.98, 314.66
376.16, 5.28, 314.65
376.29, 5.58, 314.65
376.43, 5.89, 314.64
357.94, 2.02, 314.39
358.17, 2.03, 314.39
358.41, 2.05, 314.39
358.68, 2.06, 314.39
358.97, 2.08, 314.39
359.29, 2.10, 314.39
359.63, 2.12, 314.39
360.01, 2.14, 314.39
360.43, 2.16, 314.39
360.89, 2.19, 314.39
361.42, 2.22, 314.40
362.06, 2.24, 314.40
362.80, 2.27, 314.40
363.48, 2.32, 314.40
364.03, 2.40, 314.40
364.64, 2.50, 314.40
365.43, 2.59, 314.40
367.02, 2.65, 314.41
371.09, 2.62, 314.43
373.24, 2.76, 314.43
374.09, 2.99, 314.43
375.01, 3.25, 314.42
375.12, 3.52, 314.41
375.24, 3.80, 314.41
375.36, 4.08, 314.40
375.49, 4.37, 314.39
375.61, 4.66, 314.38
375.73, 4.95, 314.37
375.86, 5.25, 314.36
375.99, 5.55, 314.35
376.12, 5.85, 314.34
357.94, 2.02, 314.32
¯358.17, 2.03, 314.32
358.42, 2.04, 314.32
358.69, 2.06, 314.31
358.98, 2.08, 314.31
359.29, 2.09, 314.31
359.63, 2.11, 314.30
360.01, 2.13, 314.30
360.43, 2.16, 314.30
360.90, 2.18, 314.29
361.42, 2.21, 314.29
362.06, 2.24, 314.28
362.81, 2.26, 314.27
363.43, 2.32, 314.27
363.98, 2.41, 314.26
364.57, 2.50, 314.25
365.46, 2.58, 314.24
367.04, 2.64, 314.23
370.85, 2.62, 314.20
370.94, 2.84, 314.19
371.03, 3.07, 314.18
371.66, 3.29, 314.17
373.49, 3.52, 314.15
374.36, 3.78, 314.13
375.09, 4.07, 314.12
375.20, 4.35, 314.11
375.32, 4.64, 314.10
375.45, 4.93, 314.09
375.57, 5.22, 314.08
375.69, 5.51, 314.06
375.82, 5.81, 314.05
357.95, 2.01, 314.25
358.18, 2.03, 314.25
358.42, 2.04, 314.24
358.69, 2.06, 314.24
358.98, 2.07, 314.23
359.29, 2.09, 314.22
359.64, 2.11, 314.22
360.02, 2.13, 314.21
360.44, 2.15, 314.20
360.90, 2.18, 314.19
361.42, 2.21, 314.18
362.07, 2.23, 314.16
362.81, 2.26, 314.15
363.38, 2.32, 314.13
363.92, 2.41, 314.12
364.51, 2.50, 314.11
365.49, 2.57, 314.08
367.03, 2.63, 314.05
370.62, 2.62, 313.98
370.71, 2.85, 313.97
370.79, 3.07, 313.96
¯370.88, 3.29, 313.95
370.96, 3.52, 313.94
371.05, 3.75, 313.93
372.40, 4.00, 313.90
373.73, 4.29, 313.86
375.05, 4.61, 313.82
375.17, 4.90, 313.81
375.29, 5.19, 313.80
375.41, 5.48, 313.78
375.53, 5.78, 313.77
357.95, 2.01, 314.19
358.18, 2.02, 314.18
358.43, 2.04, 314.17
358.70, 2.05, 314.16
358.99, 2.07, 314.15
359.30, 2.09, 314.14
359.64, 2.11, 314.13
360.02, 2.13, 314.11
360.44, 2.15, 314.10
360.91, 2.17, 314.08
361.42, 2.20, 314.07
362.06, 2.23, 314.05
362.81, 2.25, 314.02
363.33, 2.33, 314.00
363.86, 2.41, 313.98
364.45, 2.50, 313.96
365.52, 2.56, 313.92
367.01, 2.63, 313.87
370.28, 2.63, 313.77
370.48, 2.85, 313.75
370.56, 3.07, 313.74
370.64, 3.29, 313.73
370.73, 3.51, 313.72
370.81, 3.74, 313.71
370.90, 3.96, 313.70
370.98, 4.19, 313.69
371.07, 4.43, 313.68
373.13, 4.77, 313.60
373.97, 5.09, 313.56
375.13, 5.45, 313.51
375.25, 5.74, 313.50
357.95, 2.01, 314.12
358.18, 2.02, 314.11
358.43, 2.03, 314.10
358.70, 2.05, 314.08
358.99, 2.06, 314.07
359.30, 2.08, 314.06
359.64, 2.10, 314.04
360.02, 2.12, 314.02
360.44, 2.14, 314.00
360.91, 2.17, 313.98
¯361.41, 2.20, 313.96
362.06, 2.22, 313.93
362.77, 2.25, 313.90
363.27, 2.33, 313.87
363.80, 2.41, 313.84
364.39, 2.50, 313.82
365.54, 2.55, 313.76
367.00, 2.62, 313.70
369.92, 2.65, 313.56
370.26, 2.85, 313.54
370.34, 3.06, 313.53
370.42, 3.28, 313.52
370.50, 3.50, 313.51
370.58, 3.73, 313.50
370.66, 3.95, 313.48
370.75, 4.18, 313.47
370.83, 4.41, 313.46
370.92, 4.64, 313.45
371.00, 4.87, 313.43
371.09, 5.11, 313.42
373.36, 5.55, 313.31
357.95, 2.00, 314.05
358.18, 2.02, 314.04
358.43, 2.03, 314.02
358.70, 2.04, 314.01
358.99, 2.06, 313.99
359.30, 2.08, 313.97
359.64, 2.10, 313.95
360.02, 2.12, 313.93
360.44, 2.14, 313.90
360.90, 2.17, 313.88
361.41, 2.20, 313.85
362.06, 2.22, 313.81
362.72, 2.26, 313.77
363.22, 2.33, 313.74
363.74, 2.41, 313.71
364.32, 2.50, 313.67
365.56, 2.55, 313.60
366.98, 2.62, 313.52
369.58, 2.66, 313.37
370.04, 2.85, 313.34
370.12, 3.06, 313.32
370.20, 3.28, 313.31
370.28, 3.50, 313.30
370.36, 3.72, 313.29
370.44, 3.94, 313.27
370.52, 4.16, 313.26
370.60, 4.39, 313.25
370.68, 4.62, 313.23
370.77, 4.85, 313.22
370.85, 5.08, 313.21
¯370.94, 5.32, 313.19
357.95, 2.00, 313.98
358.18, 2.01, 313.97
358.43, 2.02, 313.95
358.70, 2.04, 313.93
358.99, 2.05, 313.91
359.29, 2.07, 313.89
359.64, 2.09, 313.86
360.02, 2.11, 313.84
360.44, 2.14, 313.81
360.90, 2.16, 313.77
361.40, 2.19, 313.74
362.05, 2.21, 313.69
362.67, 2.26, 313.65
363.16, 2.33, 313.61
363.69, 2.41, 313.57
364.26, 2.50, 313.53
365.58, 2.54, 313.44
366.96, 2.61, 313.34
369.25, 2.66, 313.18
369.83, 2.85, 313.13
369.90, 3.06, 313.12
369.98, 3.27, 313.11
370.06, 3.49, 313.09
370.14, 3.71, 313.08
370.21, 3.93, 313.07
370.29, 4.15, 313.05
370.37, 4.37, 313.04
370.46, 4.60, 313.02
370.54, 4.83, 313.01
370.62, 5.06, 312.99
370.70, 5.29, 312.98
357.95, 2.00, 313.92
358.18, 2.01, 313.90
358.43, 2.02, 313.88
358.70, 2.03, 313.85
358.99, 2.05, 313.83
359.29, 2.07, 313.80
359.64, 2.09, 313.78
360.02, 2.11, 313.74
360.44, 2.13, 313.71
360.89, 2.16, 313.67
361.40, 2.19, 313.63
362.04, 2.21, 313.58
362.62, 2.26, 313.53
363.11, 2.33, 313.49
363.63, 2.41, 313.44
364.21, 2.49, 313.39
365.60, 2.53, 313.28
366.94, 2.60, 313.16
368.94, 2.67, 313.00
¯369.62, 2.85, 312.94
369.69, 3.06, 312.92
369.77, 3.27, 312.91
369.84, 3.48, 312.89
369.92, 3.70, 312.88
370.00, 3.91, 312.86
370.07, 4.13, 312.85
370.15, 4.36, 312.83
370.23, 4.58, 312.82
370.31, 4.80, 312.80
370.39, 5.03, 312.79
370.47, 5.26, 312.77
357.95, 1.99, 313.85
358.18, 2.00, 313.83
358.43, 2.02, 313.80
358.70, 2.03, 313.78
358.98, 2.05, 313.75
359.29, 2.07, 313.72
359.63, 2.08, 313.69
360.01, 2.10, 313.65
360.43, 2.13, 313.61
360.88, 2.15, 313.57
361.39, 2.18, 313.52
362.03, 2.20, 313.46
362.57, 2.26, 313.41
363.05, 2.33, 313.36
363.57, 2.41, 313.31
364.22, 2.49, 313.24
365.61, 2.52, 313.11
366.92, 2.60, 312.99
368.64, 2.68, 312.82
369.42, 2.85, 312.74
369.49, 3.05, 312.73
369.56, 3.26, 312.71
369.64, 3.48, 312.70
369.71, 3.69, 312.68
369.78, 3.90, 312.67
369.86, 4.12, 312.65
369.94, 4.34, 312.64
370.01, 4.56, 312.62
370.09, 4.78, 312.60
370.17, 5.01, 312.59
370.25, 5.24, 312.57
357.95, 1.99, 313.78
358.18, 2.00, 313.76
358.43, 2.01, 313.73
358.69, 2.03, 313.70
358.98, 2.04, 313.67
359.28, 2.06, 313.64
359.63, 2.08, 313.60
360.01, 2.10, 313.56
¯360.43, 2.12, 313.51
360.87, 2.15, 313.47
361.38, 2.18, 313.41
362.02, 2.20, 313.34
362.51, 2.26, 313.29
362.99, 2.33, 313.23
363.50, 2.41, 313.18
364.23, 2.48, 313.10
365.62, 2.51, 312.95
366.89, 2.59, 312.81
368.35, 2.69, 312.65
369.22, 2.85, 312.56
369.29, 3.05, 312.54
369.36, 3.26, 312.52
369.43, 3.47, 312.51
369.50, 3.68, 312.49
369.58, 3.89, 312.47
369.65, 4.10, 312.46
369.73, 4.32, 312.44
369.80, 4.54, 312.42
369.88, 4.76, 312.41
369.95, 4.98, 312.39
370.03, 5.21, 312.37
357.94, 1.98, 313.71
358.17, 2.00, 313.69
358.42, 2.01, 313.66
358.69, 2.02, 313.62
358.97, 2.04, 313.59
359.28, 2.06, 313.55
359.62, 2.08, 313.51
360.00, 2.09, 313.47
360.42, 2.12, 313.42
360.86, 2.14, 313.36
361.36, 2.17, 313.30
362.01, 2.20, 313.23
362.46, 2.26, 313.17
362.93, 2.33, 313.11
363.44, 2.41, 313.05
364.23, 2.47, 312.95
365.61, 2.50, 312.79
366.86, 2.58, 312.64
368.05, 2.69, 312.49
368.91, 2.85, 312.38
369.09, 3.05, 312.35
369.16, 3.25, 312.34
369.23, 3.46, 312.32
369.31, 3.67, 312.30
369.38, 3.88, 312.28
369.45, 4.09, 312.27
369.52, 4.30, 312.25
369.59, 4.52, 312.23
¯369.67, 4.74, 312.21
369.74, 4.96, 312.20
369.82, 5.18, 312.18
357.94, 1.98, 313.65
358.17, 1.99, 313.62
358.42, 2.00, 313.58
358.68, 2.02, 313.55
358.96, 2.03, 313.51
359.27, 2.05, 313.47
359.61, 2.07, 313.42
360.00, 2.09, 313.37
360.41, 2.11, 313.32
360.85, 2.14, 313.26
361.35, 2.17, 313.19
361.97, 2.19, 313.11
362.40, 2.26, 313.05
362.87, 2.33, 312.99
363.38, 2.40, 312.92
364.24, 2.46, 312.80
365.58, 2.50, 312.63
366.82, 2.58, 312.46
367.51, 2.72, 312.37
368.31, 2.87, 312.26
368.86, 3.05, 312.18
368.94, 3.25, 312.16
369.02, 3.45, 312.14
369.10, 3.66, 312.12
369.18, 3.87, 312.10
369.25, 4.08, 312.08
369.32, 4.29, 312.06
369.39, 4.50, 312.04
369.47, 4.72, 312.03
369.54, 4.94, 312.01
369.61, 5.16, 311.99
357.93, 1.98, 313.58
358.16, 1.99, 313.55
358.41, 2.00, 313.51
358.68, 2.01, 313.47
358.96, 2.03, 313.43
359.26, 2.05, 313.39
359.61, 2.07, 313.34
359.99, 2.09, 313.28
360.40, 2.11, 313.22
360.84, 2.14, 313.16
361.34, 2.16, 313.08
361.92, 2.19, 313.00
362.35, 2.26, 312.94
362.81, 2.33, 312.87
363.32, 2.40, 312.79
364.24, 2.45, 312.66
365.55, 2.49, 312.47
¯366.74, 2.57, 312.30
367.13, 2.73, 312.23
367.75, 2.88, 312.14
368.58, 3.05, 312.01
368.72, 3.24, 311.98
368.80, 3.45, 311.96
368.88, 3.65, 311.94
368.96, 3.85, 311.92
369.04, 4.06, 311.90
369.12, 4.27, 311.88
369.20, 4.48, 311.86
369.27, 4.70, 311.84
369.34, 4.91, 311.82
369.41, 5.13, 311.80
357.93, 1.97, 313.51
358.16, 1.98, 313.48
358.41, 1.99, 313.44
358.67, 2.01, 313.40
358.95, 2.03, 313.35
359.25, 2.04, 313.30
359.60, 2.06, 313.25
359.98, 2.08, 313.19
360.38, 2.10, 313.12
360.83, 2.13, 313.05
361.32, 2.16, 312.98
361.87, 2.19, 312.89
362.29, 2.26, 312.82
362.75, 2.33, 312.75
363.25, 2.40, 312.67
364.24, 2.44, 312.51
365.47, 2.49, 312.32
366.66, 2.57, 312.13
366.98, 2.73, 312.07
367.23, 2.90, 312.03
368.00, 3.06, 311.90
368.50, 3.24, 311.81
368.58, 3.44, 311.79
368.65, 3.64, 311.77
368.73, 3.84, 311.75
368.81, 4.05, 311.73
368.89, 4.26, 311.71
368.97, 4.46, 311.68
369.06, 4.68, 311.66
369.14, 4.89, 311.64
369.21, 5.11, 311.62
357.92, 1.97, 313.44
358.15, 1.98, 313.40
358.40, 1.99, 313.36
358.66, 2.01, 313.32
358.94, 2.02, 313.27
359.24, 2.04, 313.22
¯359.59, 2.06, 313.16
359.97, 2.08, 313.10
360.37, 2.10, 313.03
360.81, 2.13, 312.95
361.30, 2.15, 312.87
361.82, 2.19, 312.78
362.23, 2.26, 312.71
362.69, 2.33, 312.63
363.19, 2.40, 312.54
364.33, 2.43, 312.35
365.40, 2.49, 312.17
366.57, 2.57, 311.97
366.84, 2.73, 311.91
367.05, 2.90, 311.87
367.46, 3.07, 311.79
368.25, 3.23, 311.65
368.36, 3.43, 311.63
368.44, 3.63, 311.60
368.51, 3.83, 311.58
368.59, 4.03, 311.56
368.67, 4.24, 311.54
368.75, 4.45, 311.51
368.83, 4.65, 311.49
368.91, 4.87, 311.47
368.99, 5.08, 311.44
357.91, 1.96, 313.38
358.14, 1.97, 313.33
358.39, 1.99, 313.29
358.65, 2.00, 313.24
358.93, 2.02, 313.19
359.23, 2.03, 313.14
359.57, 2.05, 313.07
359.95, 2.07, 313.00
360.35, 2.09, 312.93
360.79, 2.12, 312.85
361.29, 2.15, 312.76
361.76, 2.19, 312.67
362.18, 2.26, 312.59
362.63, 2.32, 312.51
363.13, 2.40, 312.42
364.43, 2.41, 312.18
365.33, 2.48, 312.02
366.49, 2.56, 311.80
366.69, 2.73, 311.76
366.90, 2.89, 311.71
367.11, 3.07, 311.67
367.69, 3.24, 311.55
368.15, 3.42, 311.46
368.22, 3.62, 311.44
368.30, 3.82, 311.42
368.37, 4.02, 311.39
¯368.45, 4.22, 311.37
368.53, 4.43, 311.35
368.60, 4.63, 311.32
368.68, 4.84, 311.30
368.76, 5.05, 311.27
357.90, 1.96, 313.31
358.13, 1.97, 313.26
358.38, 1.98, 313.22
358.64, 2.00, 313.17
358.92, 2.01, 313.11
359.22, 2.03, 313.05
359.56, 2.05, 312.99
359.93, 2.07, 312.91
360.33, 2.09, 312.83
360.78, 2.12, 312.75
361.27, 2.14, 312.65
361.71, 2.19, 312.56
362.12, 2.25, 312.48
362.57, 2.32, 312.39
363.07, 2.40, 312.29
364.53, 2.39, 312.01
365.25, 2.48, 311.87
366.35, 2.56, 311.65
366.55, 2.72, 311.60
366.75, 2.89, 311.56
366.96, 3.06, 311.51
367.18, 3.24, 311.46
367.93, 3.42, 311.30
368.01, 3.61, 311.28
368.09, 3.81, 311.26
368.16, 4.01, 311.23
368.23, 4.21, 311.21
368.31, 4.41, 311.18
368.39, 4.61, 311.16
368.46, 4.82, 311.13
368.54, 5.03, 311.11
357.89, 1.95, 313.24
358.12, 1.96, 313.19
358.36, 1.98, 313.14
358.62, 1.99, 313.09
358.90, 2.01, 313.03
359.21, 2.03, 312.97
359.55, 2.04, 312.90
359.92, 2.06, 312.82
360.32, 2.08, 312.74
360.76, 2.11, 312.65
361.25, 2.14, 312.54
361.66, 2.19, 312.46
362.07, 2.25, 312.37
362.52, 2.32, 312.27
363.22, 2.37, 312.13
¯364.60, 2.37, 311.84
365.20, 2.47, 311.72
366.21, 2.56, 311.50
366.41, 2.72, 311.45
366.61, 2.89, 311.40
366.82, 3.06, 311.35
367.03, 3.23, 311.30
367.39, 3.41, 311.22
367.81, 3.60, 311.12
367.88, 3.80, 311.10
367.95, 3.99, 311.07
368.02, 4.19, 311.05
368.10, 4.39, 311.02
368.17, 4.59, 311.00
368.25, 4.80, 310.97
368.32, 5.00, 310.95
357.88, 1.95, 313.18
358.11, 1.96, 313.13
358.35, 1.97, 313.07
358.61, 1.99, 313.02
358.89, 2.00, 312.95
359.19, 2.02, 312.89
359.53, 2.04, 312.81
359.90, 2.06, 312.73
360.30, 2.08, 312.64
360.74, 2.11, 312.55
361.22, 2.13, 312.44
361.61, 2.19, 312.35
362.02, 2.25, 312.26
362.46, 2.32, 312.16
363.33, 2.35, 311.97
364.56, 2.37, 311.70
365.15, 2.47, 311.56
366.08, 2.56, 311.36
366.27, 2.72, 311.31
366.47, 2.88, 311.25
366.67, 3.05, 311.20
366.88, 3.23, 311.15
367.09, 3.41, 311.09
367.61, 3.59, 310.97
367.68, 3.78, 310.94
367.75, 3.98, 310.92
367.82, 4.17, 310.89
367.89, 4.37, 310.87
367.96, 4.57, 310.84
368.03, 4.77, 310.82
368.11, 4.98, 310.79
357.87, 1.95, 313.11
358.10, 1.96, 313.06
358.34, 1.97, 313.00
358.60, 1.98, 312.94
¯358.88, 2.00, 312.87
359.18, 2.02, 312.80
359.52, 2.03, 312.72
359.88, 2.05, 312.64
360.27, 2.08, 312.55
360.71, 2.10, 312.44
361.19, 2.13, 312.33
361.56, 2.19, 312.24
361.96, 2.25, 312.15
362.41, 2.32, 312.04
363.40, 2.33, 311.81
364.51, 2.36, 311.55
365.10, 2.46, 311.41
365.94, 2.56, 311.21
366.13, 2.72, 311.16
366.33, 2.88, 311.11
366.52, 3.05, 311.05
366.73, 3.22, 311.00
366.94, 3.40, 310.94
367.16, 3.58, 310.88
367.48, 3.77, 310.79
367.55, 3.96, 310.77
367.62, 4.16, 310.74
367.69, 4.35, 310.72
367.76, 4.55, 310.69
367.83, 4.75, 310.66
367.90, 4.95, 310.64
357.86, 1.94, 313.04
358.08, 1.95, 312.99
358.32, 1.97, 312.93
358.58, 1.98, 312.86
358.86, 1.99, 312.80
359.16, 2.01, 312.72
359.50, 2.03, 312.64
359.86, 2.05, 312.55
360.25, 2.07, 312.45
360.69, 2.09, 312.34
361.14, 2.13, 312.23
361.51, 2.18, 312.14
361.91, 2.25, 312.04
362.35, 2.31, 311.93
363.48, 2.31, 311.65
364.46, 2.35, 311.41
365.05, 2.45, 311.26
365.81, 2.56, 311.07
366.00, 2.71, 311.02
366.19, 2.88, 310.96
366.38, 3.04, 310.90
366.58, 3.22, 310.85
366.79, 3.39, 310.79
367.00, 3.57, 310.73
¯367.29, 3.76, 310.65
367.35, 3.95, 310.62
367.42, 4.14, 310.59
367.49, 4.34, 310.57
367.56, 4.53, 310.54
367.63, 4.73, 310.51
367.71, 4.93, 310.48
357.85, 1.94, 312.98
358.07, 1.95, 312.92
358.31, 1.96, 312.86
358.56, 1.97, 312.79
358.84, 1.99, 312.72
359.15, 2.01, 312.64
359.48, 2.02, 312.55
359.84, 2.04, 312.46
360.23, 2.06, 312.36
360.67, 2.09, 312.24
361.10, 2.13, 312.13
361.46, 2.18, 312.03
361.86, 2.24, 311.93
362.29, 2.31, 311.81
363.55, 2.29, 311.49
364.42, 2.35, 311.26
365.00, 2.45, 311.11
365.68, 2.55, 310.93
365.86, 2.71, 310.87
366.05, 2.87, 310.82
366.24, 3.04, 310.76
366.44, 3.21, 310.70
366.64, 3.38, 310.64
366.85, 3.56, 310.57
367.06, 3.75, 310.51
367.18, 3.94, 310.47
367.25, 4.13, 310.44
367.32, 4.32, 310.41
367.40, 4.52, 310.38
367.47, 4.71, 310.35
367.55, 4.91, 310.32
357.83, 1.93, 312.91
358.05, 1.94, 312.85
358.29, 1.96, 312.78
358.55, 1.97, 312.71
358.83, 1.98, 312.64
359.13, 2.00, 312.56
359.45, 2.02, 312.47
359.81, 2.04, 312.37
360.20, 2.06, 312.26
360.64, 2.08, 312.14
361.05, 2.12, 312.03
361.41, 2.18, 311.93
361.80, 2.24, 311.82
¯362.23, 2.31, 311.70
363.62, 2.27, 311.33
364.37, 2.34, 311.12
364.95, 2.44, 310.96
365.55, 2.55, 310.79
365.73, 2.71, 310.73
365.91, 2.87, 310.68
366.10, 3.03, 310.62
366.30, 3.20, 310.55
366.49, 3.38, 310.49
366.68, 3.55, 310.43
366.88, 3.74, 310.37
367.02, 3.93, 310.32
367.09, 4.11, 310.29
367.16, 4.31, 310.26
367.24, 4.50, 310.23
367.31, 4.69, 310.20
367.38, 4.89, 310.17
357.82, 1.93, 312.84
358.04, 1.94, 312.78
358.27, 1.95, 312.71
358.53, 1.97, 312.64
358.81, 1.98, 312.56
359.11, 2.00, 312.47
359.43, 2.01, 312.38
359.79, 2.03, 312.28
360.18, 2.05, 312.17
360.61, 2.08, 312.04
361.00, 2.12, 311.93
361.35, 2.18, 311.83
361.75, 2.24, 311.71
362.17, 2.30, 311.59
363.68, 2.25, 311.16
364.32, 2.33, 310.98
364.90, 2.43, 310.81
365.42, 2.55, 310.65
365.60, 2.71, 310.60
365.78, 2.86, 310.54
365.95, 3.03, 310.48
366.13, 3.20, 310.42
366.32, 3.37, 310.35
366.51, 3.55, 310.29
366.71, 3.73, 310.23
366.85, 3.91, 310.17
366.93, 4.10, 310.14
367.00, 4.29, 310.11
367.07, 4.48, 310.08
367.15, 4.68, 310.05
367.22, 4.87, 310.02
357.80, 1.92, 312.78
358.02, 1.94, 312.71
¯358.26, 1.95, 312.64
358.51, 1.96, 312.56
358.79, 1.97, 312.48
359.09, 1.99, 312.39
359.41, 2.01, 312.30
359.76, 2.03, 312.19
360.15, 2.05, 312.07
360.58, 2.07, 311.94
360.95, 2.12, 311.83
361.30, 2.17, 311.72
361.69, 2.24, 311.61
362.11, 2.30, 311.48
363.74, 2.23, 311.00
364.27, 2.32, 310.84
364.85, 2.42, 310.66
365.29, 2.55, 310.52
365.46, 2.70, 310.46
365.62, 2.86, 310.40
365.80, 3.02, 310.34
365.97, 3.19, 310.28
366.16, 3.36, 310.22
366.34, 3.54, 310.15
366.53, 3.72, 310.09
366.70, 3.90, 310.03
366.77, 4.09, 310.00
366.84, 4.27, 309.96
366.91, 4.46, 309.93
366.98, 4.66, 309.90
367.06, 4.85, 309.87
357.78, 1.92, 312.71
358.00, 1.93, 312.64
358.24, 1.94, 312.57
358.49, 1.96, 312.49
358.77, 1.97, 312.40
359.06, 1.99, 312.31
359.38, 2.00, 312.21
359.73, 2.02, 312.10
360.12, 2.04, 311.98
360.55, 2.07, 311.84
360.90, 2.11, 311.73
361.25, 2.17, 311.62
361.63, 2.23, 311.50
362.05, 2.30, 311.37
363.69, 2.23, 310.86
364.22, 2.32, 310.69
364.78, 2.42, 310.52
365.15, 2.55, 310.39
365.31, 2.70, 310.33
365.47, 2.86, 310.27
365.64, 3.02, 310.21
365.82, 3.18, 310.15
¯365.99, 3.35, 310.09
366.18, 3.53, 310.02
366.36, 3.71, 309.95
366.54, 3.89, 309.89
366.61, 4.07, 309.85
366.68, 4.26, 309.82
366.75, 4.45, 309.79
366.82, 4.64, 309.75
366.89, 4.83, 309.72
357.76, 1.92, 312.65
357.98, 1.93, 312.57
358.22, 1.94, 312.50
358.47, 1.95, 312.42
358.74, 1.96, 312.33
359.04, 1.98, 312.23
359.36, 2.00, 312.13
359.71, 2.02, 312.01
360.09, 2.04, 311.89
360.52, 2.06, 311.75
360.85, 2.11, 311.64
361.20, 2.17, 311.52
361.57, 2.23, 311.40
361.99, 2.29, 311.26
363.64, 2.22, 310.73
364.16, 2.31, 310.55
364.65, 2.42, 310.39
365.03, 2.54, 310.26
365.17, 2.70, 310.21
365.32, 2.85, 310.15
365.49, 3.01, 310.08
365.66, 3.18, 310.02
365.83, 3.35, 309.95
366.01, 3.52, 309.89
366.20, 3.70, 309.82
366.39, 3.88, 309.74
366.45, 4.06, 309.71
366.52, 4.25, 309.68
366.59, 4.43, 309.65
366.66, 4.62, 309.61
366.73, 4.81, 309.58
357.74, 1.91, 312.58
357.96, 1.92, 312.51
358.19, 1.93, 312.43
358.45, 1.95, 312.34
358.72, 1.96, 312.25
359.02, 1.97, 312.15
359.33, 1.99, 312.04
359.68, 2.01, 311.92
360.06, 2.03, 311.79
360.49, 2.06, 311.65
360.80, 2.11, 311.54
¯361.14, 2.17, 311.42
361.52, 2.23, 311.29
361.93, 2.29, 311.15
363.59, 2.21, 310.59
364.05, 2.31, 310.43
364.53, 2.41, 310.26
364.90, 2.54, 310.13
365.04, 2.69, 310.08
365.18, 2.85, 310.02
365.34, 3.01, 309.96
365.51, 3.17, 309.89
365.68, 3.34, 309.82
365.85, 3.51, 309.75
366.03, 3.68, 309.68
366.22, 3.86, 309.61
366.30, 4.05, 309.57
366.37, 4.23, 309.54
366.44, 4.42, 309.50
366.50, 4.60, 309.47
366.57, 4.79, 309.44
357.72, 1.91, 312.52
357.94, 1.92, 312.44
358.17, 1.93, 312.36
358.42, 1.94, 312.27
358.70, 1.95, 312.17
358.99, 1.97, 312.07
359.30, 1.99, 311.96
359.65, 2.01, 311.84
360.03, 2.03, 311.70
360.44, 2.05, 311.56
360.75, 2.11, 311.44
361.09, 2.16, 311.32
361.46, 2.22, 311.19
362.00, 2.27, 310.99
363.50, 2.21, 310.47
363.94, 2.31, 310.31
364.41, 2.41, 310.14
364.77, 2.54, 310.01
364.91, 2.69, 309.95
365.05, 2.85, 309.89
365.20, 3.00, 309.83
365.35, 3.16, 309.77
365.52, 3.33, 309.70
365.69, 3.50, 309.63
365.87, 3.67, 309.55
366.05, 3.85, 309.48
366.15, 4.03, 309.43
366.21, 4.22, 309.40
366.28, 4.40, 309.37
366.35, 4.59, 309.33
366.42, 4.78, 309.30
¯357.70, 1.90, 312.45
357.92, 1.91, 312.37
358.15, 1.92, 312.29
358.40, 1.94, 312.19
358.67, 1.95, 312.09
358.96, 1.96, 311.99
359.27, 1.98, 311.87
359.62, 2.00, 311.75
360.00, 2.02, 311.61
360.39, 2.05, 311.46
360.70, 2.10, 311.35
361.03, 2.16, 311.22
361.40, 2.22, 311.09
362.09, 2.24, 310.83
363.40, 2.21, 310.36
363.83, 2.31, 310.20
364.29, 2.41, 310.02
364.65, 2.54, 309.88
364.78, 2.69, 309.82
364.92, 2.84, 309.76
365.06, 3.00, 309.70
365.21, 3.16, 309.64
365.37, 3.32, 309.57
365.54, 3.49, 309.50
365.71, 3.66, 309.43
365.89, 3.84, 309.35
366.00, 4.02, 309.30
366.06, 4.20, 309.26
366.13, 4.38, 309.23
366.20, 4.57, 309.19
366.26, 4.76, 309.16
357.68, 1.90, 312.39
357.89, 1.91, 312.30
358.13, 1.92, 312.22
358.38, 1.93, 312.12
358.65, 1.94, 312.02
358.94, 1.96, 311.91
359.24, 1.98, 311.79
359.58, 2.00, 311.66
359.96, 2.02, 311.52
360.34, 2.05, 311.37
360.65, 2.10, 311.25
360.98, 2.15, 311.12
361.34, 2.21, 310.98
362.17, 2.22, 310.67
363.29, 2.21, 310.25
363.71, 2.30, 310.08
364.17, 2.41, 309.90
364.52, 2.53, 309.76
364.65, 2.68, 309.70
364.79, 2.84, 309.64
¯364.93, 2.99, 309.58
365.07, 3.15, 309.51
365.22, 3.31, 309.45
365.38, 3.48, 309.37
365.55, 3.65, 309.30
365.73, 3.83, 309.22
365.85, 4.01, 309.16
365.91, 4.19, 309.13
365.98, 4.37, 309.09
