ŸVERSION 0.7
FIELDS x y z
SIZE 8 8 8
TYPE F F F
COUNT 1 1 1
WIDTH 2271
HEIGHT 1
VIEWPOINT 427.45, 15.08, 247.42 1 445.56, 9.85, 255.75
POINTS 2271
DATA ascii
441.90, 7.59, 261.74
441.87, 7.58, 262.01
441.85, 7.57, 262.30
441.82, 7.55, 262.62
441.78, 7.54, 262.97
441.75, 7.52, 263.35
441.71, 7.50, 263.76
441.67, 7.48, 264.22
441.62, 7.46, 264.72
441.57, 7.44, 265.27
441.51, 7.42, 265.91
441.44, 7.39, 266.61
441.36, 7.36, 267.41
441.28, 7.34, 268.28
441.19, 7.31, 269.29
441.08, 7.28, 270.45
440.94, 7.23, 271.91
¯440.78, 7.18, 273.60
440.59, 7.12, 275.63
440.37, 7.07, 278.01
441.97, 7.59, 261.74
441.95, 7.58, 262.02
441.93, 7.57, 262.31
441.90, 7.55, 262.63
441.87, 7.53, 262.98
441.84, 7.52, 263.35
441.81, 7.50, 263.77
441.77, 7.48, 264.23
441.73, 7.46, 264.72
441.68, 7.44, 265.28
441.63, 7.42, 265.91
441.58, 7.39, 266.62
441.51, 7.36, 267.41
441.44, 7.34, 268.29
441.36, 7.31, 269.29
441.26, 7.28, 270.45
441.14, 7.23, 271.90
441.01, 7.18, 273.59
440.84, 7.13, 275.61
440.65, 7.08, 277.99
442.05, 7.59, 261.75
442.03, 7.58, 262.02
442.01, 7.56, 262.31
441.99, 7.55, 262.63
441.96, 7.53, 262.98
441.94, 7.52, 263.36
441.91, 7.50, 263.78
441.88, 7.48, 264.23
441.84, 7.46, 264.73
441.80, 7.44, 265.28
441.76, 7.42, 265.92
441.71, 7.39, 266.62
441.66, 7.36, 267.41
441.59, 7.34, 268.29
441.52, 7.31, 269.29
441.44, 7.28, 270.45
441.34, 7.23, 271.89
441.23, 7.18, 273.57
441.09, 7.13, 275.59
440.92, 7.08, 277.96
442.12, 7.59, 261.75
442.11, 7.58, 262.03
442.09, 7.56, 262.32
442.07, 7.55, 262.64
442.05, 7.53, 262.99
442.03, 7.52, 263.36
442.01, 7.50, 263.78
441.98, 7.48, 264.24
¯441.95, 7.46, 264.73
441.92, 7.44, 265.29
441.89, 7.42, 265.92
441.85, 7.39, 266.62
441.80, 7.36, 267.41
441.75, 7.34, 268.29
441.69, 7.31, 269.29
441.63, 7.28, 270.44
441.55, 7.23, 271.87
441.45, 7.18, 273.55
441.33, 7.13, 275.57
441.20, 7.08, 277.93
442.20, 7.59, 261.76
442.19, 7.58, 262.03
442.17, 7.56, 262.32
442.16, 7.55, 262.64
442.14, 7.53, 262.99
442.13, 7.52, 263.37
442.11, 7.50, 263.79
442.09, 7.48, 264.24
442.07, 7.46, 264.73
442.04, 7.44, 265.29
442.01, 7.42, 265.92
441.98, 7.39, 266.62
441.95, 7.36, 267.41
441.91, 7.34, 268.28
441.86, 7.31, 269.28
441.81, 7.28, 270.44
441.75, 7.24, 271.85
441.67, 7.19, 273.53
441.58, 7.13, 275.55
441.47, 7.09, 277.90
442.28, 7.59, 261.76
442.27, 7.57, 262.03
442.26, 7.56, 262.32
442.25, 7.55, 262.64
442.23, 7.53, 263.00
442.22, 7.52, 263.37
442.21, 7.50, 263.79
442.19, 7.48, 264.24
442.18, 7.46, 264.74
442.16, 7.44, 265.29
442.14, 7.42, 265.92
442.12, 7.39, 266.62
442.09, 7.36, 267.41
442.06, 7.34, 268.28
442.03, 7.31, 269.27
441.99, 7.28, 270.43
441.95, 7.24, 271.83
441.89, 7.19, 273.51
441.83, 7.14, 275.51
¯441.75, 7.09, 277.86
442.35, 7.59, 261.76
442.34, 7.57, 262.04
442.34, 7.56, 262.33
442.33, 7.55, 262.65
442.33, 7.53, 263.00
442.32, 7.52, 263.37
442.31, 7.50, 263.79
442.30, 7.48, 264.24
442.29, 7.46, 264.73
442.28, 7.44, 265.29
442.26, 7.42, 265.92
442.25, 7.39, 266.62
442.23, 7.36, 267.40
442.22, 7.34, 268.27
442.20, 7.31, 269.26
442.17, 7.28, 270.42
442.14, 7.24, 271.81
442.11, 7.19, 273.48
442.07, 7.14, 275.47
442.02, 7.09, 277.82
442.43, 7.59, 261.76
442.42, 7.57, 262.04
442.42, 7.56, 262.33
442.42, 7.55, 262.65
442.42, 7.53, 263.00
442.41, 7.52, 263.37
442.41, 7.50, 263.79
442.41, 7.48, 264.24
442.40, 7.46, 264.73
442.40, 7.44, 265.28
442.39, 7.42, 265.91
442.39, 7.39, 266.61
442.38, 7.36, 267.39
442.37, 7.34, 268.26
442.36, 7.31, 269.25
442.35, 7.28, 270.40
442.34, 7.24, 271.78
442.33, 7.20, 273.45
442.31, 7.14, 275.43
442.29, 7.10, 277.78
442.50, 7.59, 261.76
442.50, 7.57, 262.04
442.50, 7.56, 262.33
442.50, 7.55, 262.64
442.51, 7.53, 263.00
442.51, 7.52, 263.37
442.51, 7.50, 263.79
442.51, 7.48, 264.23
442.51, 7.46, 264.73
442.51, 7.44, 265.28
¯442.52, 7.42, 265.91
442.52, 7.39, 266.60
442.52, 7.36, 267.38
442.53, 7.34, 268.25
442.53, 7.31, 269.24
442.54, 7.28, 270.39
442.54, 7.25, 271.75
442.55, 7.20, 273.42
442.56, 7.15, 275.40
442.56, 7.10, 277.73
442.58, 7.59, 261.76
442.58, 7.57, 262.04
442.59, 7.56, 262.32
442.59, 7.55, 262.64
442.60, 7.53, 262.99
442.60, 7.51, 263.37
442.61, 7.50, 263.78
442.62, 7.48, 264.23
442.62, 7.46, 264.72
442.63, 7.44, 265.27
442.64, 7.42, 265.90
442.65, 7.39, 266.60
442.67, 7.37, 267.37
442.68, 7.34, 268.23
442.70, 7.32, 269.22
442.72, 7.29, 270.37
442.74, 7.25, 271.72
442.76, 7.20, 273.38
442.80, 7.15, 275.36
442.83, 7.10, 277.68
442.65, 7.58, 261.76
442.66, 7.57, 262.03
442.67, 7.56, 262.32
442.68, 7.55, 262.64
442.69, 7.53, 262.99
442.70, 7.51, 263.36
442.71, 7.50, 263.78
442.72, 7.48, 264.22
442.74, 7.46, 264.72
442.75, 7.44, 265.26
442.77, 7.42, 265.89
442.79, 7.39, 266.58
442.81, 7.37, 267.36
442.84, 7.34, 268.22
442.86, 7.32, 269.20
442.90, 7.29, 270.35
442.93, 7.25, 271.69
442.98, 7.20, 273.34
443.04, 7.15, 275.32
443.10, 7.11, 277.62
443.15, 7.18, 279.37
¯443.16, 7.48, 279.36
443.16, 7.77, 279.36
442.73, 7.58, 261.76
442.74, 7.57, 262.03
442.75, 7.56, 262.32
442.76, 7.55, 262.63
442.78, 7.53, 262.98
442.79, 7.51, 263.36
442.81, 7.50, 263.77
442.83, 7.48, 264.21
442.85, 7.46, 264.71
442.87, 7.44, 265.25
442.89, 7.42, 265.88
442.92, 7.39, 266.57
442.95, 7.37, 267.34
442.99, 7.34, 268.20
443.03, 7.32, 269.18
443.08, 7.29, 270.33
443.13, 7.25, 271.66
443.20, 7.21, 273.30
443.28, 7.16, 275.27
443.37, 7.11, 277.57
443.42, 7.25, 278.70
443.42, 7.54, 278.69
443.42, 7.83, 278.68
442.80, 7.58, 261.75
442.82, 7.57, 262.02
442.83, 7.56, 262.31
442.85, 7.55, 262.63
442.87, 7.53, 262.98
442.89, 7.51, 263.35
442.91, 7.50, 263.77
442.93, 7.48, 264.21
442.96, 7.46, 264.70
442.99, 7.44, 265.24
443.02, 7.42, 265.87
443.06, 7.39, 266.56
443.10, 7.37, 267.32
443.14, 7.35, 268.18
443.19, 7.32, 269.16
443.25, 7.29, 270.30
443.32, 7.26, 271.63
443.41, 7.21, 273.25
443.52, 7.16, 275.22
443.64, 7.11, 277.51
443.78, 7.08, 280.16
443.78, 7.39, 280.16
443.78, 7.69, 280.16
442.88, 7.58, 261.75
442.90, 7.57, 262.02
442.91, 7.56, 262.30
¯442.93, 7.55, 262.62
442.96, 7.53, 262.97
442.98, 7.51, 263.34
443.01, 7.50, 263.76
443.04, 7.48, 264.20
443.07, 7.46, 264.69
443.10, 7.44, 265.23
443.14, 7.42, 265.85
443.19, 7.39, 266.54
443.24, 7.37, 267.30
443.29, 7.35, 268.15
443.36, 7.32, 269.13
443.43, 7.29, 270.27
443.52, 7.26, 271.59
443.62, 7.21, 273.21
443.75, 7.16, 275.17
443.98, 6.96, 278.71
444.09, 7.06, 280.28
444.09, 7.37, 280.28
444.09, 7.67, 280.29
442.95, 7.58, 261.74
442.97, 7.57, 262.01
443.00, 7.56, 262.30
443.02, 7.54, 262.61
443.05, 7.53, 262.96
443.08, 7.51, 263.33
443.11, 7.50, 263.75
443.14, 7.48, 264.18
443.18, 7.46, 264.67
443.22, 7.44, 265.21
443.27, 7.42, 265.84
443.32, 7.39, 266.52
443.38, 7.37, 267.28
443.45, 7.35, 268.13
443.52, 7.32, 269.11
443.61, 7.29, 270.24
443.71, 7.26, 271.55
443.84, 7.22, 273.16
443.99, 7.16, 275.12
444.26, 6.96, 278.64
444.38, 7.07, 280.20
444.39, 7.37, 280.20
444.39, 7.68, 280.19
443.03, 7.58, 261.73
443.05, 7.57, 262.00
443.08, 7.56, 262.29
443.11, 7.54, 262.60
443.14, 7.53, 262.95
443.17, 7.51, 263.32
443.21, 7.50, 263.73
443.25, 7.48, 264.17
¯443.29, 7.46, 264.66
443.34, 7.44, 265.20
443.39, 7.42, 265.82
443.46, 7.40, 266.50
443.52, 7.37, 267.26
443.60, 7.35, 268.10
443.69, 7.32, 269.08
443.79, 7.29, 270.21
443.90, 7.26, 271.51
444.05, 7.22, 273.10
444.22, 7.17, 275.05
444.54, 6.96, 278.56
444.64, 7.12, 279.71
444.64, 7.42, 279.71
444.65, 7.72, 279.70
443.10, 7.58, 261.72
443.13, 7.57, 261.99
443.16, 7.56, 262.28
443.19, 7.54, 262.59
443.23, 7.53, 262.94
443.26, 7.51, 263.31
443.31, 7.50, 263.72
443.35, 7.48, 264.16
443.40, 7.46, 264.64
443.46, 7.44, 265.18
443.52, 7.42, 265.80
443.59, 7.40, 266.48
443.66, 7.37, 267.24
443.75, 7.35, 268.08
443.85, 7.33, 269.04
443.96, 7.30, 270.17
444.10, 7.27, 271.46
444.26, 7.23, 273.05
444.46, 7.17, 274.98
444.81, 6.97, 278.48
444.89, 7.17, 279.23
444.89, 7.46, 279.23
444.90, 7.75, 279.24
444.95, 8.01, 279.69
443.18, 7.58, 261.71
443.21, 7.57, 261.98
443.24, 7.56, 262.27
443.28, 7.54, 262.58
443.32, 7.53, 262.93
443.36, 7.52, 263.29
443.41, 7.50, 263.71
443.45, 7.48, 264.14
443.51, 7.46, 264.63
443.57, 7.45, 265.16
443.64, 7.42, 265.78
443.72, 7.40, 266.45
¯443.81, 7.37, 267.21
443.90, 7.35, 268.05
444.01, 7.33, 269.01
444.14, 7.30, 270.13
444.29, 7.27, 271.41
444.47, 7.23, 272.99
444.82, 7.01, 276.07
445.09, 6.97, 278.40
445.27, 7.07, 279.99
445.27, 7.38, 280.00
445.28, 7.68, 280.00
445.28, 7.98, 280.00
443.25, 7.58, 261.70
443.29, 7.57, 261.97
443.32, 7.56, 262.26
443.36, 7.55, 262.57
443.41, 7.53, 262.91
443.45, 7.52, 263.28
443.50, 7.50, 263.69
443.56, 7.48, 264.12
443.62, 7.46, 264.61
443.69, 7.45, 265.14
443.77, 7.42, 265.76
443.85, 7.40, 266.43
443.95, 7.38, 267.18
444.05, 7.35, 268.01
444.17, 7.33, 268.97
444.32, 7.30, 270.09
444.48, 7.27, 271.36
444.68, 7.23, 272.92
445.06, 7.02, 276.00
445.36, 6.98, 278.32
443.33, 7.58, 261.69
443.36, 7.57, 261.96
443.40, 7.56, 262.24
443.45, 7.55, 262.56
443.49, 7.53, 262.90
443.54, 7.52, 263.26
443.60, 7.50, 263.67
443.66, 7.48, 264.11
443.73, 7.46, 264.59
443.80, 7.45, 265.12
443.89, 7.42, 265.73
443.98, 7.40, 266.40
444.09, 7.38, 267.15
444.20, 7.36, 267.98
444.33, 7.33, 268.94
444.49, 7.30, 270.05
444.67, 7.28, 271.31
444.88, 7.24, 272.86
445.31, 7.02, 275.93
¯445.63, 6.98, 278.23
443.40, 7.58, 261.68
443.44, 7.57, 261.95
443.48, 7.56, 262.23
443.53, 7.55, 262.54
443.58, 7.53, 262.88
443.64, 7.52, 263.24
443.70, 7.50, 263.65
443.77, 7.48, 264.09
443.84, 7.47, 264.57
443.92, 7.45, 265.10
444.01, 7.42, 265.71
444.11, 7.40, 266.37
444.23, 7.38, 267.12
444.35, 7.36, 267.94
444.50, 7.33, 268.90
444.66, 7.30, 270.00
444.85, 7.28, 271.25
445.09, 7.24, 272.79
445.55, 7.03, 275.85
445.90, 6.99, 278.14
443.47, 7.58, 261.67
443.52, 7.57, 261.93
443.56, 7.56, 262.21
443.62, 7.55, 262.52
443.67, 7.53, 262.86
443.73, 7.52, 263.23
443.80, 7.50, 263.63
443.87, 7.48, 264.06
443.95, 7.47, 264.54
444.03, 7.45, 265.07
444.13, 7.42, 265.68
444.24, 7.40, 266.34
444.36, 7.38, 267.08
444.50, 7.36, 267.90
444.66, 7.33, 268.85
444.84, 7.31, 269.95
445.04, 7.28, 271.20
445.47, 7.08, 273.80
445.79, 7.03, 275.77
446.16, 6.99, 278.04
443.55, 7.58, 261.65
443.60, 7.57, 261.92
443.64, 7.56, 262.20
443.70, 7.55, 262.51
443.76, 7.53, 262.85
443.82, 7.52, 263.21
443.89, 7.50, 263.61
443.97, 7.48, 264.04
444.05, 7.47, 264.52
444.15, 7.45, 265.05
¯444.25, 7.43, 265.65
444.37, 7.40, 266.31
444.50, 7.38, 267.05
444.65, 7.36, 267.86
444.81, 7.34, 268.81
445.01, 7.31, 269.91
445.23, 7.28, 271.14
445.68, 7.08, 273.72
446.03, 7.03, 275.69
446.43, 6.99, 277.95
443.62, 7.58, 261.64
443.67, 7.57, 261.90
443.73, 7.56, 262.18
443.78, 7.55, 262.49
443.85, 7.53, 262.83
443.92, 7.52, 263.19
443.99, 7.50, 263.59
444.07, 7.48, 264.02
444.16, 7.47, 264.49
444.26, 7.45, 265.02
444.38, 7.43, 265.62
444.50, 7.41, 266.27
444.64, 7.38, 267.01
444.79, 7.36, 267.82
444.97, 7.34, 268.76
445.18, 7.31, 269.85
445.41, 7.29, 271.09
445.90, 7.09, 273.64
446.27, 7.04, 275.60
446.69, 7.00, 277.84
443.70, 7.58, 261.62
443.75, 7.57, 261.88
443.80, 7.56, 262.16
443.87, 7.55, 262.47
443.93, 7.53, 262.81
444.01, 7.52, 263.16
444.09, 7.50, 263.57
444.17, 7.48, 263.99
444.27, 7.47, 264.46
444.38, 7.45, 264.99
444.50, 7.43, 265.59
444.63, 7.41, 266.24
444.78, 7.38, 266.97
444.94, 7.36, 267.78
445.13, 7.34, 268.72
445.35, 7.31, 269.80
445.60, 7.29, 271.03
446.11, 7.09, 273.56
446.50, 7.04, 275.51
446.95, 7.00, 277.74
443.77, 7.58, 261.60
¯443.82, 7.57, 261.87
443.88, 7.56, 262.14
443.95, 7.55, 262.45
444.02, 7.53, 262.78
444.10, 7.52, 263.14
444.18, 7.50, 263.54
444.28, 7.49, 263.97
444.38, 7.47, 264.43
444.49, 7.45, 264.96
444.62, 7.43, 265.55
444.76, 7.41, 266.20
444.91, 7.39, 266.93
445.09, 7.37, 267.74
445.29, 7.34, 268.67
445.52, 7.31, 269.74
445.98, 7.13, 271.89
446.32, 7.09, 273.48
446.74, 7.04, 275.42
447.21, 7.01, 277.63
443.84, 7.58, 261.58
443.90, 7.57, 261.85
443.96, 7.56, 262.12
444.03, 7.55, 262.43
444.11, 7.53, 262.76
444.19, 7.52, 263.12
444.28, 7.50, 263.51
444.38, 7.49, 263.94
444.48, 7.47, 264.40
444.60, 7.45, 264.93
444.74, 7.43, 265.52
444.88, 7.41, 266.16
445.05, 7.39, 266.89
445.23, 7.37, 267.69
445.44, 7.34, 268.61
445.69, 7.32, 269.69
446.17, 7.14, 271.83
446.53, 7.10, 273.39
446.97, 7.05, 275.32
447.47, 7.01, 277.52
443.91, 7.58, 261.56
443.98, 7.57, 261.83
444.04, 7.56, 262.10
444.12, 7.55, 262.40
444.20, 7.53, 262.74
444.28, 7.52, 263.09
444.38, 7.50, 263.49
444.48, 7.49, 263.91
444.59, 7.47, 264.37
444.71, 7.45, 264.89
444.85, 7.43, 265.48
445.01, 7.41, 266.12
¯445.18, 7.39, 266.84
445.38, 7.37, 267.64
445.60, 7.35, 268.56
445.85, 7.32, 269.62
446.37, 7.14, 271.77
446.74, 7.10, 273.30
447.20, 7.05, 275.22
447.73, 7.02, 277.41
443.99, 7.58, 261.54
444.05, 7.57, 261.80
444.12, 7.56, 262.08
444.20, 7.55, 262.38
444.28, 7.53, 262.71
444.37, 7.52, 263.06
444.47, 7.50, 263.46
444.58, 7.49, 263.88
444.69, 7.47, 264.34
444.83, 7.45, 264.86
444.97, 7.43, 265.44
445.14, 7.41, 266.08
445.32, 7.39, 266.80
445.52, 7.37, 267.59
445.75, 7.35, 268.50
446.24, 7.16, 270.44
446.56, 7.14, 271.70
446.94, 7.11, 273.21
447.43, 7.06, 275.11
447.98, 7.02, 277.30
444.06, 7.59, 261.52
444.13, 7.57, 261.78
444.20, 7.56, 262.06
444.28, 7.55, 262.35
444.37, 7.53, 262.68
444.46, 7.52, 263.04
444.57, 7.50, 263.43
444.68, 7.49, 263.85
444.80, 7.47, 264.30
444.94, 7.46, 264.82
445.09, 7.43, 265.39
445.26, 7.41, 266.03
445.45, 7.39, 266.75
445.66, 7.37, 267.54
445.90, 7.35, 268.44
446.41, 7.17, 270.36
446.75, 7.14, 271.64
447.15, 7.11, 273.13
447.65, 7.06, 275.00
448.23, 7.03, 277.18
444.13, 7.59, 261.50
444.20, 7.57, 261.76
444.28, 7.56, 262.03
¯444.36, 7.55, 262.33
444.45, 7.53, 262.66
444.55, 7.52, 263.01
444.66, 7.51, 263.39
444.78, 7.49, 263.81
444.90, 7.47, 264.27
445.05, 7.46, 264.78
445.21, 7.44, 265.35
445.39, 7.42, 265.99
445.58, 7.39, 266.70
445.80, 7.37, 267.48
446.06, 7.35, 268.38
446.59, 7.17, 270.29
446.95, 7.14, 271.57
447.36, 7.11, 273.05
447.87, 7.07, 274.89
448.48, 7.03, 277.06
444.20, 7.59, 261.48
444.28, 7.57, 261.73
444.36, 7.56, 262.01
444.44, 7.55, 262.30
444.54, 7.54, 262.63
444.64, 7.52, 262.98
444.75, 7.51, 263.36
444.88, 7.49, 263.78
445.01, 7.48, 264.23
445.16, 7.46, 264.74
445.32, 7.44, 265.31
445.51, 7.42, 265.94
445.72, 7.40, 266.65
445.94, 7.38, 267.43
446.43, 7.20, 269.10
446.76, 7.17, 270.21
447.14, 7.14, 271.50
447.57, 7.11, 272.97
448.10, 7.08, 274.77
448.73, 7.03, 276.93
444.27, 7.59, 261.45
444.35, 7.57, 261.71
444.43, 7.56, 261.98
444.52, 7.55, 262.27
444.62, 7.54, 262.60
444.73, 7.52, 262.94
444.85, 7.51, 263.33
444.97, 7.49, 263.74
445.11, 7.48, 264.19
445.27, 7.46, 264.70
445.44, 7.44, 265.26
445.63, 7.42, 265.89
445.85, 7.40, 266.59
446.08, 7.38, 267.37
¯446.59, 7.20, 269.03
446.93, 7.18, 270.12
447.32, 7.14, 271.41
447.77, 7.12, 272.89
448.32, 7.08, 274.65
448.97, 7.04, 276.80
444.34, 7.59, 261.43
444.42, 7.57, 261.68
444.51, 7.56, 261.95
444.60, 7.55, 262.24
444.71, 7.54, 262.57
444.82, 7.52, 262.91
444.94, 7.51, 263.29
445.07, 7.49, 263.71
445.21, 7.48, 264.15
445.37, 7.46, 264.66
445.55, 7.44, 265.22
445.75, 7.42, 265.84
445.98, 7.40, 266.54
446.46, 7.22, 268.04
446.75, 7.21, 268.95
447.10, 7.18, 270.04
447.50, 7.15, 271.31
447.98, 7.12, 272.80
448.54, 7.08, 274.54
449.22, 7.04, 276.68
444.41, 7.59, 261.40
444.50, 7.58, 261.66
444.59, 7.56, 261.92
444.68, 7.55, 262.21
444.79, 7.54, 262.53
444.90, 7.52, 262.88
445.03, 7.51, 263.25
445.17, 7.49, 263.67
445.32, 7.48, 264.11
445.48, 7.46, 264.61
445.67, 7.44, 265.17
445.88, 7.42, 265.79
446.11, 7.40, 266.48
446.61, 7.23, 267.98
446.91, 7.21, 268.89
447.26, 7.18, 269.96
447.68, 7.16, 271.20
448.18, 7.12, 272.71
448.76, 7.09, 274.45
449.40, 7.07, 276.36
444.48, 7.59, 261.37
444.57, 7.58, 261.63
444.66, 7.57, 261.89
444.76, 7.55, 262.18
444.87, 7.54, 262.50
¯444.99, 7.53, 262.84
445.12, 7.51, 263.22
445.26, 7.49, 263.63
445.42, 7.48, 264.07
445.59, 7.46, 264.57
445.78, 7.44, 265.12
446.00, 7.42, 265.74
446.23, 7.40, 266.43
446.75, 7.23, 267.92
447.07, 7.21, 268.82
447.43, 7.19, 269.86
447.85, 7.16, 271.09
448.38, 7.12, 272.62
448.98, 7.09, 274.34
449.57, 7.10, 276.05
450.62, 7.00, 279.07
444.55, 7.59, 261.35
444.64, 7.58, 261.60
444.74, 7.57, 261.86
444.84, 7.55, 262.15
444.96, 7.54, 262.47
445.08, 7.53, 262.81
445.21, 7.51, 263.18
445.36, 7.50, 263.59
445.52, 7.48, 264.03
445.70, 7.46, 264.52
445.89, 7.45, 265.07
446.12, 7.43, 265.68
446.61, 7.25, 267.05
446.90, 7.23, 267.86
447.22, 7.21, 268.75
447.59, 7.19, 269.77
448.03, 7.17, 270.98
448.57, 7.13, 272.49
449.20, 7.09, 274.24
449.53, 7.21, 275.13
450.70, 7.07, 278.38
444.62, 7.59, 261.32
444.71, 7.58, 261.57
444.81, 7.57, 261.83
444.92, 7.56, 262.12
445.04, 7.54, 262.43
445.16, 7.53, 262.77
445.30, 7.51, 263.14
445.46, 7.50, 263.55
445.62, 7.48, 263.98
445.80, 7.47, 264.47
446.01, 7.45, 265.02
446.24, 7.43, 265.63
446.74, 7.25, 266.99
447.05, 7.23, 267.79
¯447.38, 7.21, 268.68
447.76, 7.19, 269.70
448.20, 7.18, 270.87
448.75, 7.14, 272.35
449.31, 7.14, 273.83
449.62, 7.27, 274.66
450.55, 7.21, 277.14
444.69, 7.59, 261.29
444.79, 7.58, 261.54
444.89, 7.57, 261.80
445.00, 7.56, 262.08
445.12, 7.54, 262.39
445.25, 7.53, 262.73
445.39, 7.51, 263.10
445.55, 7.50, 263.50
445.72, 7.48, 263.94
445.91, 7.47, 264.42
446.12, 7.45, 264.96
446.60, 7.27, 266.21
446.88, 7.25, 266.92
447.19, 7.23, 267.73
447.53, 7.21, 268.61
447.93, 7.20, 269.62
448.37, 7.18, 270.76
448.94, 7.15, 272.22
449.33, 7.21, 273.24
449.71, 7.32, 274.20
450.05, 7.45, 275.07
444.76, 7.59, 261.26
444.86, 7.58, 261.50
444.96, 7.57, 261.77
445.08, 7.56, 262.05
445.20, 7.54, 262.35
445.33, 7.53, 262.69
445.48, 7.52, 263.06
445.64, 7.50, 263.46
445.82, 7.49, 263.89
446.01, 7.47, 264.37
446.23, 7.45, 264.91
446.73, 7.27, 266.15
447.01, 7.25, 266.86
447.33, 7.23, 267.66
447.69, 7.22, 268.54
448.09, 7.20, 269.55
448.54, 7.19, 270.66
449.11, 7.15, 272.08
449.38, 7.27, 272.74
449.59, 7.43, 273.25
450.13, 7.50, 274.59
444.83, 7.59, 261.23
444.93, 7.58, 261.47
¯445.04, 7.57, 261.73
445.15, 7.56, 262.01
445.28, 7.55, 262.31
445.42, 7.53, 262.65
445.57, 7.52, 263.01
445.74, 7.50, 263.41
445.92, 7.49, 263.84
446.11, 7.47, 264.32
446.34, 7.45, 264.85
446.85, 7.28, 266.09
447.14, 7.26, 266.79
447.47, 7.24, 267.58
447.84, 7.22, 268.46
448.26, 7.20, 269.46
448.72, 7.19, 270.57
449.24, 7.18, 271.81
449.43, 7.33, 272.27
449.63, 7.49, 272.75
449.84, 7.66, 273.25
450.57, 7.70, 274.99
444.89, 7.59, 261.20
445.00, 7.58, 261.44
445.11, 7.57, 261.70
445.23, 7.56, 261.97
445.36, 7.55, 262.28
445.50, 7.53, 262.61
445.66, 7.52, 262.97
445.83, 7.50, 263.37
446.01, 7.49, 263.79
446.22, 7.47, 264.27
446.70, 7.30, 265.39
446.97, 7.28, 266.02
447.27, 7.26, 266.72
447.61, 7.24, 267.50
447.99, 7.22, 268.38
448.42, 7.20, 269.38
448.90, 7.19, 270.48
449.33, 7.22, 271.49
449.47, 7.39, 271.81
449.67, 7.54, 272.27
449.88, 7.71, 272.75
450.10, 7.88, 273.26
444.96, 7.59, 261.16
445.07, 7.58, 261.40
445.18, 7.57, 261.66
445.30, 7.56, 261.94
445.44, 7.55, 262.23
445.59, 7.53, 262.57
445.75, 7.52, 262.92
445.92, 7.50, 263.32
446.11, 7.49, 263.74
¯446.32, 7.47, 264.21
446.82, 7.30, 265.33
447.10, 7.28, 265.95
447.40, 7.26, 266.64
447.75, 7.24, 267.41
448.14, 7.22, 268.29
448.58, 7.20, 269.29
449.08, 7.19, 270.39
449.43, 7.26, 271.19
449.63, 7.40, 271.64
449.76, 7.58, 271.92
449.91, 7.76, 272.27
450.13, 7.93, 272.75
450.36, 8.11, 273.26
445.03, 7.59, 261.13
445.14, 7.58, 261.36
445.25, 7.57, 261.62
445.38, 7.56, 261.90
445.52, 7.55, 262.19
445.67, 7.53, 262.52
445.83, 7.52, 262.88
446.01, 7.51, 263.27
446.21, 7.49, 263.69
446.68, 7.32, 264.71
446.93, 7.30, 265.26
447.22, 7.28, 265.89
447.53, 7.26, 266.56
447.88, 7.25, 267.33
448.28, 7.23, 268.20
448.75, 7.20, 269.20
449.24, 7.20, 270.27
449.52, 7.29, 270.89
449.81, 7.40, 271.52
449.94, 7.58, 271.79
450.07, 7.77, 272.08
450.21, 7.96, 272.37
450.38, 8.15, 272.75
450.62, 8.33, 273.26
445.09, 7.59, 261.09
445.20, 7.59, 261.33
445.33, 7.57, 261.58
445.46, 7.56, 261.86
445.60, 7.55, 262.15
445.75, 7.54, 262.48
445.92, 7.52, 262.83
446.10, 7.51, 263.22
446.30, 7.49, 263.64
446.79, 7.32, 264.66
447.05, 7.30, 265.20
447.34, 7.28, 265.81
447.65, 7.27, 266.48
¯448.01, 7.25, 267.24
448.43, 7.23, 268.10
448.90, 7.21, 269.10
449.32, 7.23, 269.99
449.61, 7.33, 270.59
449.92, 7.43, 271.25
450.12, 7.59, 271.67
450.26, 7.77, 271.95
450.40, 7.96, 272.24
450.54, 8.16, 272.54
450.69, 8.36, 272.86
450.88, 8.56, 273.26
445.16, 7.60, 261.06
445.27, 7.59, 261.29
445.40, 7.57, 261.54
445.53, 7.56, 261.81
445.67, 7.55, 262.11
445.83, 7.54, 262.43
446.00, 7.52, 262.78
446.19, 7.51, 263.16
446.65, 7.34, 264.11
446.89, 7.32, 264.60
447.16, 7.30, 265.14
447.46, 7.29, 265.74
447.78, 7.27, 266.40
448.15, 7.25, 267.15
448.57, 7.23, 268.01
449.05, 7.21, 269.00
449.41, 7.26, 269.72
449.70, 7.36, 270.31
450.01, 7.46, 270.94
450.30, 7.59, 271.54
450.44, 7.77, 271.82
450.58, 7.96, 272.11
450.73, 8.16, 272.41
450.89, 8.36, 272.72
451.04, 8.57, 273.04
451.20, 8.79, 273.36
445.22, 7.60, 261.02
445.34, 7.59, 261.25
445.47, 7.58, 261.50
445.60, 7.56, 261.77
445.75, 7.55, 262.06
445.91, 7.54, 262.38
446.09, 7.53, 262.73
446.28, 7.51, 263.11
446.76, 7.34, 264.05
447.00, 7.32, 264.54
447.28, 7.30, 265.08
447.58, 7.29, 265.67
447.90, 7.27, 266.32
¯448.28, 7.26, 267.06
448.71, 7.24, 267.91
449.20, 7.21, 268.89
449.56, 7.27, 269.60
449.79, 7.39, 270.05
450.09, 7.50, 270.64
450.42, 7.61, 271.30
450.62, 7.78, 271.69
450.77, 7.97, 271.98
450.92, 8.16, 272.27
451.08, 8.36, 272.58
451.23, 8.57, 272.87
451.37, 8.79, 273.15
451.51, 9.02, 273.43
445.29, 7.60, 260.99
445.41, 7.59, 261.21
445.54, 7.58, 261.46
445.68, 7.57, 261.73
445.83, 7.55, 262.02
445.99, 7.54, 262.34
446.17, 7.53, 262.68
446.63, 7.35, 263.56
446.86, 7.34, 264.00
447.11, 7.32, 264.48
447.39, 7.31, 265.01
447.69, 7.29, 265.60
448.03, 7.28, 266.24
448.41, 7.26, 266.97
448.85, 7.24, 267.81
449.31, 7.24, 268.70
449.69, 7.28, 269.43
449.95, 7.39, 269.92
450.20, 7.52, 270.40
450.50, 7.64, 270.98
450.80, 7.78, 271.56
450.95, 7.97, 271.84
451.11, 8.16, 272.14
451.25, 8.37, 272.41
451.39, 8.58, 272.67
451.53, 8.80, 272.94
451.67, 9.03, 273.21
452.00, 9.25, 273.84
445.35, 7.60, 260.95
445.47, 7.59, 261.17
445.61, 7.58, 261.42
445.75, 7.57, 261.69
445.90, 7.56, 261.97
446.07, 7.54, 262.29
446.25, 7.53, 262.63
446.72, 7.35, 263.50
446.96, 7.34, 263.94
¯447.21, 7.32, 264.42
447.50, 7.31, 264.94
447.81, 7.29, 265.53
448.15, 7.28, 266.16
448.54, 7.26, 266.88
448.98, 7.25, 267.71
449.40, 7.26, 268.50
449.79, 7.31, 269.21
450.10, 7.40, 269.79
450.36, 7.52, 270.27
450.63, 7.66, 270.77
450.94, 7.79, 271.35
451.14, 7.97, 271.71
451.27, 8.17, 271.96
451.41, 8.37, 272.21
451.55, 8.59, 272.47
451.69, 8.80, 272.73
451.84, 9.03, 273.00
451.99, 9.26, 273.28
452.56, 9.48, 274.34
445.42, 7.60, 260.91
445.54, 7.59, 261.13
445.68, 7.58, 261.38
445.82, 7.57, 261.64
445.98, 7.56, 261.93
446.15, 7.54, 262.24
446.34, 7.53, 262.58
446.82, 7.36, 263.44
447.06, 7.34, 263.88
447.32, 7.32, 264.35
447.60, 7.31, 264.87
447.93, 7.29, 265.45
448.28, 7.28, 266.08
448.67, 7.27, 266.79
449.12, 7.25, 267.61
449.50, 7.28, 268.30
449.89, 7.33, 268.99
450.26, 7.40, 269.66
450.52, 7.53, 270.13
450.79, 7.66, 270.63
451.08, 7.80, 271.16
451.28, 7.98, 271.51
451.43, 8.18, 271.77
451.56, 8.38, 272.02
451.70, 8.59, 272.27
451.85, 8.81, 272.53
452.00, 9.03, 272.79
452.15, 9.26, 273.07
452.31, 9.50, 273.35
445.48, 7.60, 260.87
445.61, 7.59, 261.09
¯445.74, 7.58, 261.33
445.89, 7.57, 261.60
446.05, 7.56, 261.88
446.23, 7.55, 262.19
446.68, 7.37, 262.98
446.91, 7.36, 263.38
447.15, 7.34, 263.82
447.42, 7.33, 264.28
447.71, 7.31, 264.80
448.04, 7.30, 265.37
448.40, 7.28, 266.00
448.80, 7.27, 266.71
449.25, 7.26, 267.49
449.59, 7.30, 268.10
449.98, 7.35, 268.78
450.41, 7.41, 269.53
450.67, 7.53, 270.00
450.95, 7.67, 270.49
451.21, 7.82, 270.94
451.35, 8.00, 271.19
451.51, 8.20, 271.46
451.67, 8.40, 271.74
451.83, 8.60, 272.03
452.00, 8.81, 272.32
452.15, 9.04, 272.59
452.31, 9.27, 272.86
452.47, 9.50, 273.14
452.63, 9.75, 273.42
445.54, 7.60, 260.83
445.67, 7.59, 261.05
445.81, 7.58, 261.29
445.96, 7.57, 261.55
446.13, 7.56, 261.83
446.30, 7.55, 262.13
446.77, 7.38, 262.93
447.00, 7.36, 263.32
447.25, 7.34, 263.76
447.52, 7.33, 264.21
447.82, 7.31, 264.72
448.15, 7.30, 265.29
448.52, 7.28, 265.92
448.93, 7.27, 266.62
449.35, 7.27, 267.34
449.70, 7.32, 267.93
450.07, 7.38, 268.57
450.50, 7.43, 269.31
450.83, 7.54, 269.86
451.11, 7.67, 270.34
451.28, 7.84, 270.64
451.43, 8.03, 270.89
451.58, 8.22, 271.14
¯451.74, 8.42, 271.40
451.90, 8.62, 271.68
452.07, 8.83, 271.97
452.25, 9.04, 272.28
452.43, 9.27, 272.59
452.62, 9.50, 272.91
452.79, 9.75, 273.20
445.60, 7.60, 260.79
445.73, 7.59, 261.01
445.88, 7.58, 261.24
446.03, 7.57, 261.50
446.20, 7.56, 261.78
446.64, 7.39, 262.51
446.85, 7.38, 262.87
447.09, 7.36, 263.26
447.35, 7.34, 263.69
447.62, 7.33, 264.14
447.92, 7.32, 264.65
448.26, 7.30, 265.21
448.64, 7.28, 265.84
449.06, 7.27, 266.53
449.45, 7.29, 267.19
449.82, 7.33, 267.80
450.18, 7.39, 268.39
450.59, 7.45, 269.08
450.98, 7.54, 269.72
451.22, 7.69, 270.12
451.36, 7.87, 270.35
451.50, 8.05, 270.59
451.65, 8.24, 270.84
451.81, 8.43, 271.09
451.97, 8.63, 271.35
452.13, 8.84, 271.63
452.31, 9.06, 271.92
452.49, 9.28, 272.22
452.68, 9.51, 272.53
452.88, 9.75, 272.86
453.08, 9.99, 273.20
445.66, 7.60, 260.75
445.80, 7.59, 260.96
445.94, 7.58, 261.20
446.10, 7.57, 261.45
446.27, 7.56, 261.73
446.72, 7.39, 262.46
446.94, 7.38, 262.81
447.18, 7.36, 263.20
447.44, 7.34, 263.62
447.72, 7.33, 264.07
448.03, 7.32, 264.57
448.37, 7.30, 265.13
448.76, 7.29, 265.75
¯449.18, 7.27, 266.44
449.55, 7.30, 267.04
449.94, 7.34, 267.66
450.31, 7.40, 268.25
450.70, 7.47, 268.90
451.13, 7.55, 269.59
451.29, 7.71, 269.84
451.43, 7.89, 270.07
451.58, 8.07, 270.30
451.72, 8.26, 270.54
451.88, 8.45, 270.78
452.04, 8.65, 271.04
452.20, 8.85, 271.30
452.37, 9.07, 271.58
452.55, 9.29, 271.87
452.74, 9.51, 272.17
452.93, 9.75, 272.48
453.37, 9.99, 273.19
445.72, 7.61, 260.70
445.86, 7.60, 260.92
446.01, 7.59, 261.15
446.17, 7.58, 261.40
446.60, 7.41, 262.08
446.80, 7.39, 262.40
447.02, 7.38, 262.75
447.27, 7.36, 263.13
447.53, 7.35, 263.55
447.82, 7.33, 264.00
448.13, 7.32, 264.49
448.48, 7.30, 265.05
448.88, 7.29, 265.67
449.29, 7.28, 266.31
449.65, 7.31, 266.88
450.06, 7.35, 267.52
450.43, 7.41, 268.11
450.83, 7.48, 268.74
451.21, 7.57, 269.34
451.38, 7.73, 269.60
451.51, 7.91, 269.80
451.65, 8.09, 270.01
451.79, 8.28, 270.25
451.95, 8.47, 270.48
452.10, 8.66, 270.73
452.27, 8.87, 270.98
452.43, 9.08, 271.25
452.61, 9.29, 271.52
452.79, 9.52, 271.81
452.99, 9.75, 272.11
445.78, 7.61, 260.66
445.92, 7.60, 260.87
446.07, 7.59, 261.10
¯446.24, 7.58, 261.35
446.68, 7.41, 262.03
446.88, 7.40, 262.34
447.11, 7.38, 262.69
447.35, 7.37, 263.07
447.62, 7.35, 263.48
447.91, 7.34, 263.92
448.23, 7.32, 264.41
448.59, 7.31, 264.96
448.99, 7.29, 265.58
449.38, 7.30, 266.17
449.75, 7.33, 266.73
450.16, 7.36, 267.36
450.55, 7.42, 267.96
450.96, 7.49, 268.59
451.27, 7.60, 269.05
451.45, 7.76, 269.34
451.62, 7.92, 269.60
451.76, 8.10, 269.80
451.89, 8.29, 270.01
452.04, 8.48, 270.23
452.18, 8.68, 270.45
452.33, 8.88, 270.68
452.50, 9.09, 270.93
452.67, 9.30, 271.19
452.85, 9.52, 271.46
453.04, 9.75, 271.76
445.84, 7.61, 260.62
445.99, 7.60, 260.83
446.14, 7.59, 261.06
446.56, 7.42, 261.68
446.75, 7.41, 261.97
446.96, 7.40, 262.28
447.19, 7.38, 262.63
447.44, 7.37, 263.00
447.71, 7.35, 263.40
448.01, 7.34, 263.85
448.34, 7.32, 264.33
448.70, 7.31, 264.88
449.11, 7.29, 265.49
449.47, 7.31, 266.03
449.84, 7.34, 266.58
450.25, 7.38, 267.19
450.67, 7.42, 267.82
451.09, 7.49, 268.44
451.31, 7.63, 268.77
451.50, 7.78, 269.05
451.69, 7.94, 269.33
451.87, 8.11, 269.59
452.01, 8.30, 269.80
452.15, 8.49, 270.01
¯452.29, 8.68, 270.23
452.45, 8.88, 270.45
452.60, 9.09, 270.68
452.76, 9.30, 270.92
452.93, 9.52, 271.17
453.10, 9.75, 271.42
445.90, 7.61, 260.57
446.05, 7.60, 260.78
446.20, 7.59, 261.01
446.63, 7.43, 261.63
446.83, 7.41, 261.91
447.04, 7.40, 262.22
447.27, 7.38, 262.56
447.52, 7.37, 262.93
447.80, 7.36, 263.33
448.11, 7.34, 263.77
448.44, 7.33, 264.25
448.80, 7.31, 264.79
449.22, 7.29, 265.39
449.58, 7.32, 265.91
449.94, 7.35, 266.43
450.35, 7.39, 267.03
450.79, 7.43, 267.68
451.19, 7.51, 268.25
451.36, 7.66, 268.50
451.54, 7.81, 268.77
451.73, 7.97, 269.04
451.93, 8.13, 269.32
452.11, 8.31, 269.59
452.26, 8.50, 269.80
452.41, 8.69, 270.01
452.56, 8.89, 270.23
452.71, 9.10, 270.46
452.87, 9.31, 270.69
453.04, 9.53, 270.93
453.40, 9.75, 271.45
445.96, 7.61, 260.53
446.11, 7.60, 260.73
446.27, 7.59, 260.96
446.70, 7.43, 261.57
446.90, 7.41, 261.86
447.12, 7.40, 262.16
447.35, 7.39, 262.49
447.61, 7.37, 262.86
447.89, 7.36, 263.25
448.20, 7.34, 263.69
448.53, 7.33, 264.17
448.91, 7.31, 264.70
449.32, 7.30, 265.28
449.70, 7.32, 265.82
450.05, 7.36, 266.32
¯450.44, 7.40, 266.87
450.90, 7.44, 267.52
451.24, 7.54, 267.99
451.41, 7.68, 268.24
451.59, 7.83, 268.49
451.78, 7.99, 268.75
451.97, 8.16, 269.03
452.17, 8.33, 269.32
452.37, 8.51, 269.59
452.51, 8.70, 269.79
452.67, 8.90, 270.01
452.82, 9.10, 270.23
452.98, 9.31, 270.46
453.21, 9.53, 270.77
454.70, 9.73, 272.88
446.02, 7.61, 260.48
446.17, 7.60, 260.69
446.58, 7.44, 261.26
446.77, 7.43, 261.52
446.97, 7.42, 261.80
447.19, 7.40, 262.10
447.43, 7.39, 262.43
447.69, 7.38, 262.78
447.97, 7.36, 263.18
448.29, 7.35, 263.61
448.63, 7.33, 264.09
449.01, 7.32, 264.61
449.42, 7.31, 265.17
449.83, 7.32, 265.73
450.18, 7.36, 266.22
450.58, 7.40, 266.77
451.01, 7.45, 267.36
451.28, 7.56, 267.74
451.45, 7.71, 267.98
451.63, 7.86, 268.22
451.82, 8.01, 268.48
452.01, 8.18, 268.74
452.21, 8.35, 269.02
452.42, 8.52, 269.31
452.62, 8.71, 269.58
452.78, 8.90, 269.79
452.93, 9.10, 270.01
453.09, 9.31, 270.23
453.57, 9.52, 270.88
446.08, 7.61, 260.43
446.23, 7.60, 260.64
446.65, 7.44, 261.21
446.84, 7.43, 261.46
447.04, 7.42, 261.74
447.27, 7.40, 262.04
447.51, 7.39, 262.36
¯447.77, 7.38, 262.71
448.06, 7.36, 263.10
448.38, 7.35, 263.53
448.73, 7.33, 264.00
449.12, 7.32, 264.52
449.52, 7.32, 265.06
449.95, 7.32, 265.64
450.31, 7.36, 266.13
450.71, 7.40, 266.67
451.15, 7.45, 267.26
451.34, 7.59, 267.50
451.51, 7.73, 267.73
451.68, 7.88, 267.97
451.86, 8.04, 268.21
452.05, 8.20, 268.46
452.25, 8.36, 268.73
452.46, 8.54, 269.01
452.67, 8.72, 269.30
452.88, 8.91, 269.58
453.04, 9.11, 269.79
453.37, 9.31, 270.24
453.94, 9.51, 271.00
446.13, 7.61, 260.38
446.54, 7.45, 260.92
446.72, 7.44, 261.15
446.91, 7.43, 261.40
447.12, 7.42, 261.68
447.34, 7.41, 261.97
447.58, 7.39, 262.29
447.85, 7.38, 262.64
448.14, 7.37, 263.02
448.47, 7.35, 263.45
448.82, 7.34, 263.91
449.22, 7.32, 264.43
449.61, 7.32, 264.95
450.05, 7.32, 265.52
450.44, 7.36, 266.03
450.85, 7.40, 266.57
451.22, 7.47, 267.05
451.39, 7.61, 267.27
451.56, 7.75, 267.50
451.74, 7.90, 267.73
451.92, 8.05, 267.97
452.11, 8.21, 268.21
452.30, 8.38, 268.47
452.50, 8.55, 268.73
452.71, 8.73, 269.00
452.93, 8.92, 269.29
453.19, 9.11, 269.63
453.73, 9.30, 270.34
454.33, 9.51, 271.12
¯446.19, 7.62, 260.34
446.60, 7.45, 260.87
446.78, 7.44, 261.10
446.98, 7.43, 261.34
447.19, 7.42, 261.61
447.41, 7.41, 261.90
447.66, 7.40, 262.22
447.93, 7.38, 262.56
448.23, 7.37, 262.94
448.56, 7.35, 263.36
448.92, 7.34, 263.83
449.31, 7.33, 264.32
449.70, 7.33, 264.83
450.15, 7.33, 265.40
450.57, 7.36, 265.94
450.98, 7.40, 266.46
451.27, 7.50, 266.83
451.44, 7.63, 267.04
451.61, 7.77, 267.27
451.79, 7.92, 267.50
451.97, 8.07, 267.73
452.16, 8.23, 267.97
452.35, 8.40, 268.21
452.56, 8.57, 268.47
452.76, 8.74, 268.74
452.98, 8.93, 269.01
453.28, 9.12, 269.40
454.00, 9.29, 270.32
454.73, 9.50, 271.24
446.49, 7.47, 260.60
446.66, 7.46, 260.81
446.84, 7.45, 261.04
447.04, 7.43, 261.28
447.26, 7.42, 261.55
447.49, 7.41, 261.84
447.73, 7.40, 262.15
448.01, 7.39, 262.49
448.31, 7.37, 262.86
448.64, 7.36, 263.28
449.01, 7.34, 263.74
449.39, 7.33, 264.22
449.80, 7.34, 264.72
450.25, 7.34, 265.28
450.70, 7.36, 265.84
451.12, 7.40, 266.36
451.31, 7.52, 266.61
451.48, 7.66, 266.82
451.66, 7.80, 267.03
451.84, 7.94, 267.26
452.03, 8.09, 267.49
452.21, 8.25, 267.73
¯452.41, 8.41, 267.97
452.61, 8.58, 268.21
452.81, 8.76, 268.47
453.03, 8.94, 268.74
453.38, 9.12, 269.17
453.97, 9.30, 269.91
454.85, 9.50, 271.01
446.55, 7.47, 260.55
446.72, 7.46, 260.76
446.91, 7.45, 260.98
447.11, 7.44, 261.22
447.32, 7.42, 261.49
447.56, 7.41, 261.77
447.81, 7.40, 262.08
448.09, 7.39, 262.41
448.39, 7.38, 262.78
448.73, 7.36, 263.19
449.10, 7.34, 263.65
449.48, 7.34, 264.11
449.89, 7.34, 264.60
450.34, 7.34, 265.16
450.82, 7.35, 265.74
451.20, 7.41, 266.20
451.36, 7.54, 266.39
451.53, 7.68, 266.60
451.70, 7.82, 266.81
451.88, 7.96, 267.03
452.07, 8.11, 267.25
452.26, 8.26, 267.49
452.46, 8.42, 267.72
452.66, 8.59, 267.96
452.86, 8.77, 268.21
453.08, 8.95, 268.47
453.47, 9.12, 268.95
453.94, 9.31, 269.53
454.80, 9.51, 270.57
446.61, 7.47, 260.49
446.78, 7.46, 260.70
446.97, 7.45, 260.92
447.17, 7.44, 261.16
447.39, 7.43, 261.42
447.63, 7.41, 261.71
447.89, 7.40, 262.01
448.17, 7.39, 262.34
448.47, 7.38, 262.70
448.81, 7.36, 263.11
449.19, 7.35, 263.56
449.57, 7.35, 264.00
449.98, 7.35, 264.49
450.44, 7.35, 265.03
450.95, 7.35, 265.64
¯451.25, 7.44, 265.99
451.41, 7.57, 266.18
451.57, 7.70, 266.38
451.75, 7.84, 266.59
451.93, 7.98, 266.80
452.11, 8.13, 267.02
452.30, 8.28, 267.24
452.50, 8.44, 267.48
452.70, 8.60, 267.72
452.91, 8.78, 267.96
453.12, 8.96, 268.21
453.56, 9.13, 268.73
454.03, 9.32, 269.29
454.76, 9.51, 270.15
446.67, 7.47, 260.44
446.84, 7.46, 260.64
447.03, 7.45, 260.86
447.24, 7.44, 261.10
447.46, 7.43, 261.36
447.70, 7.42, 261.64
447.96, 7.40, 261.94
448.24, 7.39, 262.27
448.56, 7.38, 262.63
448.90, 7.36, 263.03
449.28, 7.35, 263.47
449.67, 7.35, 263.92
450.08, 7.35, 264.39
450.54, 7.35, 264.92
451.05, 7.36, 265.51
451.29, 7.46, 265.79
451.45, 7.59, 265.98
451.62, 7.72, 266.17
451.79, 7.86, 266.37
451.97, 8.00, 266.57
452.15, 8.14, 266.78
452.34, 8.30, 267.00
452.54, 8.45, 267.23
452.75, 8.62, 267.47
452.96, 8.79, 267.71
453.21, 8.96, 268.00
453.65, 9.13, 268.51
454.12, 9.32, 269.06
454.71, 9.52, 269.74
446.72, 7.47, 260.39
446.90, 7.46, 260.59
447.09, 7.45, 260.80
447.30, 7.44, 261.04
447.52, 7.43, 261.29
447.77, 7.42, 261.57
448.04, 7.40, 261.87
448.32, 7.39, 262.19
¯448.64, 7.38, 262.55
448.99, 7.37, 262.94
449.37, 7.35, 263.38
449.77, 7.34, 263.83
450.19, 7.35, 264.30
450.65, 7.35, 264.82
451.17, 7.36, 265.41
451.38, 7.47, 265.64
451.54, 7.60, 265.82
451.70, 7.73, 266.00
451.87, 7.87, 266.19
452.04, 8.01, 266.38
452.21, 8.16, 266.58
452.40, 8.31, 266.79
452.59, 8.47, 267.00
452.79, 8.63, 267.23
453.00, 8.80, 267.46
453.29, 8.97, 267.80
453.73, 9.14, 268.29
454.21, 9.32, 268.83
454.73, 9.52, 269.42
446.78, 7.47, 260.33
446.96, 7.46, 260.53
447.15, 7.45, 260.74
447.36, 7.44, 260.97
447.59, 7.43, 261.22
447.84, 7.42, 261.50
448.11, 7.41, 261.80
448.40, 7.39, 262.11
448.72, 7.38, 262.47
449.07, 7.37, 262.86
449.46, 7.35, 263.28
449.88, 7.34, 263.74
450.30, 7.35, 264.21
450.77, 7.35, 264.72
451.22, 7.38, 265.22
451.43, 7.49, 265.46
451.64, 7.60, 265.68
451.80, 7.73, 265.86
451.97, 7.87, 266.05
452.14, 8.01, 266.24
452.32, 8.16, 266.43
452.51, 8.31, 266.64
452.70, 8.47, 266.85
452.90, 8.63, 267.07
453.10, 8.80, 267.29
453.37, 8.97, 267.59
453.82, 9.14, 268.08
454.29, 9.33, 268.60
454.81, 9.52, 269.17
446.83, 7.47, 260.27
¯447.01, 7.47, 260.47
447.21, 7.46, 260.68
447.42, 7.45, 260.91
447.65, 7.43, 261.16
447.91, 7.42, 261.43
448.18, 7.41, 261.72
448.47, 7.40, 262.04
448.80, 7.38, 262.39
449.15, 7.37, 262.77
449.54, 7.36, 263.19
449.98, 7.34, 263.65
450.40, 7.35, 264.11
450.88, 7.35, 264.62
451.26, 7.40, 265.04
451.48, 7.50, 265.27
451.71, 7.62, 265.51
451.90, 7.74, 265.72
452.07, 7.88, 265.90
452.25, 8.02, 266.09
452.43, 8.17, 266.28
452.61, 8.32, 266.48
452.81, 8.47, 266.69
453.01, 8.64, 266.91
453.24, 8.80, 267.16
453.51, 8.97, 267.45
453.89, 9.15, 267.86
454.37, 9.33, 268.37
454.89, 9.53, 268.93
446.89, 7.48, 260.22
447.07, 7.47, 260.41
447.27, 7.46, 260.62
447.48, 7.45, 260.84
447.72, 7.44, 261.09
447.97, 7.42, 261.35
448.25, 7.41, 261.65
448.55, 7.40, 261.96
448.87, 7.38, 262.30
449.24, 7.37, 262.68
449.63, 7.36, 263.09
450.06, 7.35, 263.55
450.51, 7.35, 264.02
450.99, 7.35, 264.52
451.31, 7.42, 264.85
451.52, 7.52, 265.08
451.75, 7.63, 265.32
451.98, 7.75, 265.56
452.17, 7.88, 265.76
452.35, 8.02, 265.94
452.53, 8.17, 266.14
452.72, 8.32, 266.33
452.91, 8.48, 266.54
¯453.12, 8.64, 266.75
453.38, 8.80, 267.02
453.66, 8.97, 267.31
453.97, 9.15, 267.64
454.45, 9.33, 268.14
454.97, 9.53, 268.69
446.94, 7.48, 260.16
447.12, 7.47, 260.35
447.33, 7.46, 260.56
447.54, 7.45, 260.78
447.78, 7.44, 261.02
448.04, 7.43, 261.28
448.32, 7.41, 261.57
448.62, 7.40, 261.88
448.95, 7.39, 262.22
449.32, 7.37, 262.59
449.71, 7.36, 263.00
450.15, 7.35, 263.45
450.61, 7.35, 263.92
451.10, 7.35, 264.42
451.35, 7.44, 264.67
451.57, 7.54, 264.89
451.79, 7.65, 265.12
452.02, 7.77, 265.36
452.27, 7.89, 265.61
452.45, 8.03, 265.80
452.64, 8.17, 265.99
452.83, 8.32, 266.18
453.02, 8.48, 266.38
453.25, 8.64, 266.62
453.52, 8.80, 266.89
453.80, 8.97, 267.18
454.10, 9.15, 267.48
454.53, 9.34, 267.92
455.05, 9.53, 268.45
446.99, 7.48, 260.10
447.18, 7.47, 260.29
447.38, 7.46, 260.49
447.60, 7.45, 260.71
447.84, 7.44, 260.95
448.10, 7.43, 261.21
448.38, 7.41, 261.49
448.69, 7.40, 261.80
449.03, 7.39, 262.13
449.39, 7.38, 262.50
449.79, 7.36, 262.90
450.24, 7.35, 263.34
450.72, 7.34, 263.82
451.19, 7.36, 264.29
451.39, 7.46, 264.50
451.61, 7.56, 264.71
¯451.83, 7.67, 264.93
452.06, 7.78, 265.17
452.31, 7.90, 265.41
452.55, 8.03, 265.65
452.74, 8.18, 265.84
452.93, 8.33, 266.03
453.13, 8.48, 266.23
453.39, 8.64, 266.49
453.66, 8.80, 266.76
453.94, 8.97, 267.04
454.24, 9.15, 267.34
454.60, 9.34, 267.70
447.04, 7.48, 260.04
447.23, 7.47, 260.23
447.44, 7.46, 260.43
447.66, 7.45, 260.64
447.90, 7.44, 260.88
448.16, 7.43, 261.13
448.45, 7.42, 261.41
448.76, 7.40, 261.72
449.10, 7.39, 262.05
449.47, 7.38, 262.41
449.87, 7.37, 262.80
450.32, 7.36, 263.24
450.82, 7.34, 263.72
451.23, 7.37, 264.12
451.43, 7.47, 264.32
451.65, 7.58, 264.53
451.87, 7.69, 264.75
452.10, 7.80, 264.97
452.35, 7.92, 265.21
452.60, 8.04, 265.46
452.84, 8.18, 265.69
453.03, 8.33, 265.88
453.26, 8.48, 266.10
453.52, 8.64, 266.36
453.80, 8.80, 266.62
454.09, 8.97, 266.91
454.39, 9.15, 267.20
454.71, 9.34, 267.51
447.09, 7.48, 259.98
447.28, 7.47, 260.17
447.49, 7.46, 260.36
447.72, 7.45, 260.58
447.96, 7.44, 260.81
448.22, 7.43, 261.06
448.51, 7.42, 261.33
448.83, 7.40, 261.64
449.18, 7.39, 261.96
449.54, 7.38, 262.31
449.95, 7.37, 262.70
¯450.41, 7.36, 263.13
450.92, 7.34, 263.62
451.27, 7.39, 263.95
451.47, 7.49, 264.15
451.69, 7.60, 264.35
451.91, 7.70, 264.56
452.14, 7.82, 264.78
452.38, 7.94, 265.01
452.64, 8.06, 265.26
452.91, 8.19, 265.51
453.14, 8.33, 265.73
453.39, 8.48, 265.97
453.66, 8.64, 266.23
453.94, 8.80, 266.49
454.23, 8.97, 266.77
454.54, 9.15, 267.06
454.86, 9.34, 267.37
447.14, 7.48, 259.92
447.34, 7.48, 260.10
447.55, 7.47, 260.30
447.77, 7.46, 260.51
448.02, 7.45, 260.74
448.29, 7.43, 260.98
448.58, 7.42, 261.25
448.90, 7.41, 261.55
449.25, 7.39, 261.88
449.62, 7.38, 262.22
450.03, 7.37, 262.60
450.49, 7.36, 263.03
451.00, 7.35, 263.50
451.31, 7.41, 263.79
451.51, 7.51, 263.98
451.73, 7.61, 264.18
451.95, 7.72, 264.38
452.18, 7.83, 264.60
452.43, 7.95, 264.83
452.68, 8.07, 265.06
452.95, 8.20, 265.31
453.21, 8.34, 265.56
453.46, 8.49, 265.79
453.72, 8.64, 266.03
454.00, 8.81, 266.28
454.28, 8.98, 266.55
454.58, 9.16, 266.83
454.90, 9.34, 267.12
447.19, 7.49, 259.86
447.39, 7.48, 260.04
447.60, 7.47, 260.23
447.83, 7.46, 260.44
448.08, 7.45, 260.66
448.35, 7.44, 260.91
¯448.64, 7.42, 261.17
448.96, 7.41, 261.47
449.32, 7.40, 261.79
449.69, 7.39, 262.12
450.11, 7.38, 262.50
450.57, 7.36, 262.92
451.09, 7.35, 263.39
451.36, 7.42, 263.63
451.57, 7.52, 263.82
451.78, 7.62, 264.02
452.00, 7.73, 264.22
452.23, 7.84, 264.43
452.48, 7.96, 264.65
452.73, 8.08, 264.88
453.00, 8.21, 265.12
453.26, 8.35, 265.35
453.50, 8.50, 265.58
453.76, 8.65, 265.81
454.04, 8.81, 266.06
454.32, 8.98, 266.32
454.62, 9.16, 266.59
454.93, 9.35, 266.87
447.24, 7.49, 259.80
447.44, 7.48, 259.98
447.65, 7.47, 260.16
447.88, 7.46, 260.37
448.13, 7.45, 260.59
448.40, 7.44, 260.83
448.70, 7.43, 261.09
449.03, 7.41, 261.38
449.38, 7.40, 261.70
449.76, 7.39, 262.03
450.18, 7.38, 262.40
450.65, 7.37, 262.81
451.17, 7.35, 263.27
451.39, 7.44, 263.47
451.62, 7.53, 263.67
451.83, 7.64, 263.86
452.05, 7.74, 264.05
452.28, 7.86, 264.26
452.53, 7.97, 264.47
452.78, 8.09, 264.70
453.05, 8.22, 264.93
453.30, 8.36, 265.15
453.54, 8.51, 265.37
453.80, 8.66, 265.60
454.07, 8.82, 265.84
454.36, 8.99, 266.09
454.65, 9.17, 266.35
454.97, 9.35, 266.63
447.29, 7.49, 259.74
¯447.49, 7.48, 259.91
447.70, 7.47, 260.10
447.93, 7.46, 260.30
448.19, 7.45, 260.52
448.46, 7.44, 260.75
448.76, 7.43, 261.01
449.09, 7.42, 261.29
449.45, 7.40, 261.60
449.83, 7.39, 261.93
450.25, 7.38, 262.30
450.72, 7.37, 262.70
451.20, 7.37, 263.11
451.42, 7.46, 263.30
451.64, 7.55, 263.49
451.88, 7.65, 263.70
452.10, 7.76, 263.89
452.33, 7.87, 264.09
452.57, 7.98, 264.30
452.83, 8.11, 264.52
453.10, 8.23, 264.75
453.34, 8.37, 264.95
453.58, 8.52, 265.17
453.84, 8.67, 265.39
454.11, 8.83, 265.62
454.39, 9.00, 265.86
454.69, 9.17, 266.12
455.00, 9.36, 266.39
447.33, 7.49, 259.68
447.53, 7.48, 259.85
447.75, 7.48, 260.03
447.99, 7.47, 260.23
448.24, 7.46, 260.44
448.52, 7.44, 260.67
448.82, 7.43, 260.93
449.15, 7.42, 261.21
449.51, 7.41, 261.51
449.90, 7.39, 261.84
450.33, 7.38, 262.19
450.80, 7.37, 262.59
451.23, 7.39, 262.96
451.45, 7.48, 263.14
451.67, 7.57, 263.33
451.91, 7.66, 263.52
452.15, 7.77, 263.73
452.38, 7.88, 263.92
452.62, 7.99, 264.12
452.88, 8.12, 264.34
453.14, 8.24, 264.56
453.38, 8.38, 264.76
453.62, 8.53, 264.96
453.88, 8.68, 265.18
¯454.15, 8.84, 265.41
454.43, 9.00, 265.64
454.72, 9.18, 265.89
455.03, 9.36, 266.15
447.38, 7.49, 259.62
447.58, 7.49, 259.78
447.80, 7.48, 259.96
448.04, 7.47, 260.15
448.29, 7.46, 260.36
448.57, 7.45, 260.59
448.88, 7.43, 260.84
449.21, 7.42, 261.12
449.57, 7.41, 261.41
449.97, 7.40, 261.74
450.40, 7.39, 262.09
450.87, 7.38, 262.48
451.26, 7.41, 262.80
451.48, 7.49, 262.97
451.70, 7.59, 263.16
451.93, 7.68, 263.35
452.18, 7.78, 263.55
452.43, 7.89, 263.75
452.67, 8.00, 263.95
452.92, 8.13, 264.16
453.18, 8.25, 264.37
453.41, 8.39, 264.56
453.66, 8.54, 264.76
453.91, 8.69, 264.97
454.18, 8.85, 265.19
454.46, 9.01, 265.42
454.75, 9.18, 265.66
455.06, 9.36, 265.92
447.43, 7.49, 259.55
447.63, 7.49, 259.72
447.85, 7.48, 259.89
448.09, 7.47, 260.08
448.35, 7.46, 260.29
448.63, 7.45, 260.51
448.94, 7.44, 260.76
449.27, 7.42, 261.03
449.63, 7.41, 261.32
450.03, 7.40, 261.64
450.47, 7.39, 261.98
450.95, 7.38, 262.37
451.29, 7.42, 262.64
451.50, 7.51, 262.81
451.73, 7.60, 262.99
451.96, 7.70, 263.18
452.21, 7.80, 263.38
452.46, 7.90, 263.58
452.72, 8.01, 263.78
¯452.97, 8.14, 263.99
453.22, 8.26, 264.19
453.45, 8.40, 264.37
453.70, 8.55, 264.57
453.95, 8.70, 264.77
454.22, 8.85, 264.99
454.50, 9.02, 265.21
454.79, 9.19, 265.44
447.47, 7.50, 259.49
447.68, 7.49, 259.65
447.90, 7.48, 259.82
448.14, 7.47, 260.01
448.40, 7.46, 260.21
448.68, 7.45, 260.43
448.99, 7.44, 260.68
449.33, 7.43, 260.94
449.69, 7.42, 261.22
450.09, 7.40, 261.54
450.53, 7.39, 261.88
451.02, 7.38, 262.26
451.32, 7.44, 262.49
451.53, 7.53, 262.66
451.75, 7.62, 262.83
451.99, 7.71, 263.01
452.23, 7.81, 263.20
452.48, 7.92, 263.40
452.75, 8.03, 263.61
453.01, 8.14, 263.81
453.25, 8.27, 264.00
453.49, 8.41, 264.18
453.73, 8.55, 264.37
453.99, 8.70, 264.57
454.27, 8.86, 264.79
454.61, 9.02, 265.06
454.97, 9.19, 265.34
447.52, 7.50, 259.43
447.72, 7.49, 259.58
447.94, 7.48, 259.75
448.19, 7.47, 259.94
448.45, 7.46, 260.14
448.73, 7.45, 260.35
449.05, 7.44, 260.59
449.38, 7.43, 260.85
449.75, 7.42, 261.13
450.15, 7.41, 261.43
450.60, 7.40, 261.77
451.09, 7.39, 262.14
451.34, 7.45, 262.34
451.56, 7.54, 262.50
451.78, 7.63, 262.67
452.01, 7.73, 262.84
¯452.25, 7.83, 263.03
452.51, 7.93, 263.22
452.77, 8.04, 263.42
453.05, 8.15, 263.64
453.31, 8.28, 263.83
453.60, 8.41, 264.05
453.90, 8.55, 264.28
454.22, 8.69, 264.52
454.55, 8.84, 264.78
454.91, 9.00, 265.05
447.56, 7.50, 259.36
447.77, 7.49, 259.52
447.99, 7.49, 259.68
448.23, 7.48, 259.86
448.50, 7.47, 260.06
448.79, 7.46, 260.27
449.10, 7.44, 260.50
449.44, 7.43, 260.76
449.81, 7.42, 261.03
450.21, 7.41, 261.33
450.66, 7.40, 261.66
451.16, 7.39, 262.03
451.37, 7.47, 262.19
451.58, 7.56, 262.34
451.80, 7.65, 262.51
452.03, 7.74, 262.68
452.27, 7.84, 262.86
452.54, 7.94, 263.06
452.86, 8.04, 263.29
453.21, 8.15, 263.55
453.55, 8.26, 263.81
453.85, 8.39, 264.03
454.16, 8.53, 264.26
454.49, 8.68, 264.50
454.84, 8.83, 264.76
447.60, 7.50, 259.30
447.81, 7.49, 259.45
448.04, 7.49, 259.61
448.28, 7.48, 259.79
448.55, 7.47, 259.98
448.84, 7.46, 260.19
449.15, 7.45, 260.42
449.49, 7.44, 260.66
449.86, 7.43, 260.93
450.27, 7.42, 261.23
450.72, 7.40, 261.55
451.19, 7.40, 261.89
451.39, 7.48, 262.04
451.61, 7.57, 262.19
451.84, 7.66, 262.36
452.11, 7.74, 262.55
¯452.39, 7.83, 262.76
452.69, 7.93, 262.98
453.01, 8.03, 263.21
453.42, 8.13, 263.50
453.80, 8.24, 263.78
454.11, 8.37, 264.00
454.43, 8.51, 264.24
454.78, 8.66, 264.49
447.65, 7.50, 259.23
447.86, 7.49, 259.38
448.08, 7.49, 259.54
448.33, 7.48, 259.71
448.59, 7.47, 259.90
448.88, 7.46, 260.11
449.20, 7.45, 260.33
449.54, 7.44, 260.57
449.92, 7.43, 260.83
450.33, 7.42, 261.12
450.78, 7.41, 261.44
451.23, 7.41, 261.75
451.46, 7.49, 261.92
451.71, 7.57, 262.10
451.97, 7.65, 262.28
452.25, 7.73, 262.47
452.54, 7.82, 262.68
452.84, 7.92, 262.90
453.18, 8.02, 263.13
453.64, 8.11, 263.45
454.06, 8.22, 263.75
454.38, 8.35, 263.98
454.71, 8.49, 264.21
455.07, 8.64, 264.46
447.69, 7.50, 259.17
447.90, 7.50, 259.31
448.13, 7.49, 259.47
448.37, 7.48, 259.64
448.64, 7.47, 259.82
448.93, 7.46, 260.02
449.25, 7.45, 260.24
449.59, 7.44, 260.48
449.97, 7.43, 260.73
450.38, 7.42, 261.02
450.84, 7.41, 261.33
451.31, 7.41, 261.65
451.59, 7.48, 261.84
451.84, 7.55, 262.02
452.11, 7.63, 262.20
452.39, 7.72, 262.39
452.68, 7.81, 262.60
453.00, 7.91, 262.81
453.39, 8.00, 263.08
¯453.86, 8.09, 263.40
454.32, 8.19, 263.72
454.65, 8.33, 263.95
455.00, 8.47, 264.19
447.73, 7.50, 259.10
447.94, 7.50, 259.24
448.17, 7.49, 259.40
448.42, 7.48, 259.56
448.68, 7.48, 259.74
448.98, 7.47, 259.94
449.30, 7.46, 260.15
449.64, 7.45, 260.38
450.02, 7.44, 260.63
450.44, 7.43, 260.91
450.90, 7.41, 261.23
451.35, 7.42, 261.52
451.71, 7.46, 261.76
451.97, 7.54, 261.94
452.24, 7.62, 262.12
452.53, 7.71, 262.31
452.83, 7.80, 262.51
453.16, 7.89, 262.73
453.60, 7.98, 263.03
454.08, 8.07, 263.35
454.59, 8.17, 263.69
454.93, 8.31, 263.92
447.77, 7.51, 259.04
447.98, 7.50, 259.18
448.21, 7.49, 259.33
448.46, 7.49, 259.49
448.73, 7.48, 259.66
449.02, 7.47, 259.85
449.35, 7.46, 260.06
449.69, 7.45, 260.29
450.07, 7.44, 260.54
450.50, 7.43, 260.81
450.97, 7.42, 261.12
451.40, 7.43, 261.40
451.80, 7.46, 261.66
452.10, 7.53, 261.86
452.38, 7.61, 262.04
452.67, 7.70, 262.23
452.98, 7.79, 262.43
453.36, 7.87, 262.68
453.82, 7.96, 262.97
454.31, 8.05, 263.30
454.85, 8.15, 263.65
456.89, 8.07, 264.97
447.81, 7.51, 258.97
448.02, 7.50, 259.11
448.25, 7.49, 259.25
¯448.50, 7.49, 259.41
448.78, 7.48, 259.58
449.07, 7.47, 259.77
449.39, 7.46, 259.97
449.74, 7.45, 260.19
450.13, 7.44, 260.44
450.55, 7.43, 260.71
451.02, 7.42, 261.01
451.44, 7.44, 261.27
451.85, 7.47, 261.53
452.23, 7.51, 261.77
452.51, 7.60, 261.95
452.81, 7.68, 262.14
453.13, 7.77, 262.34
453.56, 7.85, 262.62
454.04, 7.93, 262.92
454.55, 8.03, 263.24
455.02, 8.14, 263.54
447.84, 7.51, 258.90
448.06, 7.50, 259.04
448.29, 7.50, 259.18
448.55, 7.49, 259.34
448.82, 7.48, 259.50
449.11, 7.47, 259.69
449.44, 7.47, 259.88
449.79, 7.46, 260.10
450.18, 7.45, 260.34
450.61, 7.43, 260.60
451.08, 7.42, 260.90
451.48, 7.44, 261.15
451.89, 7.47, 261.40
452.33, 7.51, 261.67
452.65, 7.58, 261.87
452.96, 7.67, 262.05
453.32, 7.75, 262.28
453.77, 7.83, 262.56
454.26, 7.91, 262.86
454.64, 8.03, 263.09
455.04, 8.15, 263.34
447.88, 7.51, 258.83
448.10, 7.50, 258.97
448.33, 7.50, 259.11
448.59, 7.49, 259.26
448.86, 7.48, 259.42
449.16, 7.48, 259.60
449.48, 7.47, 259.80
449.84, 7.46, 260.01
450.23, 7.45, 260.24
450.66, 7.44, 260.50
451.14, 7.42, 260.79
451.52, 7.45, 261.02
¯451.93, 7.48, 261.26
452.37, 7.52, 261.53
452.79, 7.57, 261.78
453.10, 7.66, 261.97
453.52, 7.73, 262.22
453.93, 7.82, 262.46
454.28, 7.92, 262.67
454.65, 8.04, 262.90
455.05, 8.16, 263.14
447.92, 7.51, 258.77
