žVERSION 0.7
FIELDS x y z
SIZE 8 8 8
TYPE F F F
COUNT 1 1 1
WIDTH 2271
HEIGHT 1
VIEWPOINT 426.12, 9.79, 362.29 1 433.31, 7.20, 343.15
POINTS 2271
DATA ascii
436.98, 6.22, 335.61
437.24, 6.34, 335.02
437.55, 6.48, 334.34
437.93, 6.63, 333.47
438.45, 6.81, 332.30
439.43, 7.03, 330.11
434.81, 5.21, 340.30
434.89, 5.25, 340.09
434.99, 5.28, 339.87
435.09, 5.33, 339.64
435.19, 5.37, 339.41
435.29, 5.42, 339.16
435.41, 5.48, 338.90
435.52, 5.54, 338.63
435.66, 5.60, 338.33
435.79, 5.67, 338.01
435.94, 5.74, 337.67
436.09, 5.82, 337.31
436.26, 5.91, 336.92
436.44, 6.00, 336.51
436.63, 6.11, 336.06
436.84, 6.22, 335.57
437.10, 6.34, 334.98
437.39, 6.48, 334.29
437.77, 6.63, 333.42
438.27, 6.81, 332.26
439.20, 7.03, 330.11
434.73, 5.21, 340.27
434.82, 5.25, 340.07
434.91, 5.29, 339.85
435.00, 5.33, 339.62
¯435.10, 5.37, 339.37
435.21, 5.42, 339.13
435.31, 5.48, 338.87
435.43, 5.54, 338.59
435.55, 5.60, 338.30
435.69, 5.67, 337.97
435.83, 5.74, 337.64
435.98, 5.82, 337.28
436.14, 5.91, 336.88
436.32, 6.00, 336.46
436.50, 6.11, 336.02
436.71, 6.22, 335.52
436.95, 6.34, 334.94
437.24, 6.48, 334.25
437.60, 6.63, 333.37
438.08, 6.80, 332.23
438.96, 7.03, 330.10
434.66, 5.21, 340.25
434.74, 5.25, 340.04
434.83, 5.29, 339.82
434.92, 5.33, 339.59
435.02, 5.37, 339.35
435.12, 5.43, 339.10
435.22, 5.48, 338.84
435.33, 5.54, 338.56
435.45, 5.60, 338.26
435.58, 5.67, 337.94
435.72, 5.74, 337.60
435.86, 5.82, 337.24
436.02, 5.91, 336.85
436.19, 6.00, 336.42
436.37, 6.11, 335.98
436.57, 6.22, 335.48
436.80, 6.34, 334.90
437.08, 6.48, 334.21
437.44, 6.63, 333.32
437.89, 6.80, 332.19
438.73, 7.02, 330.10
434.58, 5.21, 340.23
434.66, 5.25, 340.02
434.75, 5.29, 339.80
434.84, 5.33, 339.57
434.93, 5.38, 339.32
435.03, 5.43, 339.07
435.13, 5.48, 338.81
435.24, 5.54, 338.53
435.35, 5.60, 338.23
435.48, 5.67, 337.91
435.61, 5.74, 337.57
435.75, 5.82, 337.21
435.90, 5.91, 336.81
¯436.07, 6.00, 336.39
436.24, 6.11, 335.94
436.44, 6.22, 335.43
436.66, 6.34, 334.86
436.92, 6.48, 334.17
437.27, 6.63, 333.28
437.71, 6.80, 332.16
438.50, 7.02, 330.11
434.50, 5.21, 340.20
434.58, 5.25, 339.99
434.66, 5.29, 339.77
434.75, 5.33, 339.54
434.84, 5.38, 339.30
434.94, 5.43, 339.04
435.03, 5.48, 338.78
435.14, 5.54, 338.50
435.25, 5.60, 338.20
435.37, 5.67, 337.88
435.50, 5.74, 337.54
435.63, 5.82, 337.17
435.78, 5.91, 336.78
435.94, 6.00, 336.35
436.11, 6.11, 335.90
436.30, 6.22, 335.39
436.51, 6.34, 334.82
436.77, 6.48, 334.13
437.10, 6.63, 333.24
437.52, 6.80, 332.12
438.27, 7.02, 330.11
434.43, 5.21, 340.18
434.50, 5.25, 339.97
434.58, 5.29, 339.75
434.67, 5.33, 339.52
434.76, 5.38, 339.27
434.85, 5.43, 339.02
434.94, 5.48, 338.75
435.04, 5.54, 338.47
435.15, 5.60, 338.17
435.27, 5.67, 337.85
435.39, 5.74, 337.50
435.52, 5.82, 337.14
435.66, 5.91, 336.75
435.82, 6.00, 336.31
435.98, 6.11, 335.86
436.16, 6.22, 335.35
436.36, 6.34, 334.79
436.61, 6.48, 334.10
436.93, 6.63, 333.21
437.34, 6.80, 332.08
438.04, 7.01, 330.13
434.35, 5.22, 340.16
¯434.43, 5.25, 339.95
434.50, 5.29, 339.73
434.58, 5.33, 339.50
434.67, 5.38, 339.25
434.76, 5.43, 338.99
434.85, 5.48, 338.73
434.95, 5.54, 338.44
435.05, 5.60, 338.14
435.16, 5.67, 337.82
435.28, 5.74, 337.47
435.41, 5.82, 337.11
435.54, 5.91, 336.71
435.69, 6.00, 336.28
435.85, 6.10, 335.82
436.03, 6.22, 335.31
436.22, 6.34, 334.75
436.46, 6.47, 334.06
436.77, 6.62, 333.17
437.16, 6.80, 332.04
437.81, 7.01, 330.14
434.28, 5.22, 340.14
434.35, 5.25, 339.93
434.42, 5.29, 339.71
434.50, 5.33, 339.48
434.58, 5.38, 339.23
434.67, 5.43, 338.96
434.75, 5.48, 338.70
434.85, 5.54, 338.42
434.95, 5.60, 338.11
435.06, 5.67, 337.79
435.17, 5.74, 337.44
435.29, 5.82, 337.07
435.42, 5.91, 336.68
435.57, 6.00, 336.25
435.72, 6.10, 335.78
435.89, 6.22, 335.27
436.08, 6.34, 334.71
436.30, 6.47, 334.03
436.60, 6.62, 333.14
436.97, 6.80, 332.01
437.59, 7.01, 330.16
434.20, 5.22, 340.12
434.27, 5.25, 339.91
434.34, 5.29, 339.69
434.41, 5.33, 339.46
434.49, 5.38, 339.21
434.58, 5.43, 338.94
434.66, 5.48, 338.67
434.75, 5.54, 338.39
434.85, 5.60, 338.09
434.95, 5.67, 337.76
¯435.06, 5.74, 337.41
435.18, 5.82, 337.04
435.31, 5.91, 336.64
435.44, 6.00, 336.21
435.59, 6.10, 335.75
435.75, 6.21, 335.23
435.93, 6.34, 334.67
436.15, 6.47, 334.00
436.43, 6.62, 333.10
436.79, 6.79, 331.97
437.37, 7.00, 330.15
434.13, 5.22, 340.10
434.19, 5.25, 339.89
434.26, 5.29, 339.67
434.33, 5.33, 339.44
434.40, 5.38, 339.19
434.48, 5.43, 338.92
434.57, 5.48, 338.65
434.65, 5.54, 338.37
434.75, 5.60, 338.06
434.85, 5.67, 337.73
434.95, 5.74, 337.38
435.07, 5.82, 337.01
435.19, 5.90, 336.61
435.32, 6.00, 336.18
435.46, 6.10, 335.71
435.62, 6.21, 335.20
435.79, 6.33, 334.63
435.99, 6.47, 333.97
436.27, 6.62, 333.06
436.61, 6.79, 331.94
437.15, 7.00, 330.14
434.05, 5.22, 340.08
434.11, 5.25, 339.87
434.17, 5.29, 339.65
434.24, 5.33, 339.42
434.32, 5.38, 339.17
434.39, 5.43, 338.90
434.47, 5.48, 338.63
434.56, 5.54, 338.34
434.64, 5.60, 338.04
434.74, 5.67, 337.71
434.84, 5.74, 337.35
434.95, 5.82, 336.98
435.07, 5.90, 336.58
435.19, 6.00, 336.15
435.33, 6.10, 335.68
435.48, 6.21, 335.16
435.64, 6.33, 334.59
435.84, 6.47, 333.93
436.10, 6.62, 333.03
¯436.43, 6.79, 331.90
436.94, 7.00, 330.15
438.19, 7.84, 325.83
438.12, 8.09, 326.07
438.11, 8.35, 326.10
438.10, 8.61, 326.08
438.10, 8.87, 326.07
438.11, 9.14, 326.05
438.11, 9.40, 326.02
438.12, 9.67, 325.97
433.88, 5.29, 340.38
433.96, 5.31, 340.09
434.09, 5.29, 339.64
434.16, 5.33, 339.40
434.23, 5.38, 339.15
434.30, 5.43, 338.89
434.38, 5.48, 338.60
434.46, 5.54, 338.32
434.54, 5.60, 338.01
434.63, 5.66, 337.68
434.73, 5.74, 337.33
434.84, 5.82, 336.95
434.95, 5.90, 336.55
435.07, 5.99, 336.12
435.20, 6.10, 335.64
435.34, 6.21, 335.13
435.50, 6.33, 334.56
435.68, 6.46, 333.90
435.79, 6.62, 333.50
436.04, 6.78, 332.59
436.46, 6.98, 331.09
437.94, 7.84, 325.76
437.85, 8.08, 326.07
437.84, 8.34, 326.09
437.84, 8.60, 326.08
437.84, 8.86, 326.06
437.84, 9.12, 326.04
437.84, 9.39, 326.02
437.84, 9.66, 325.98
433.80, 5.30, 340.41
433.86, 5.33, 340.19
433.91, 5.37, 339.98
433.97, 5.41, 339.75
434.04, 5.44, 339.49
434.12, 5.48, 339.19
434.20, 5.53, 338.88
434.29, 5.57, 338.55
434.38, 5.63, 338.23
434.53, 5.66, 337.66
434.62, 5.73, 337.30
434.65, 5.84, 337.20
¯434.75, 5.93, 336.82
434.85, 6.02, 336.44
434.95, 6.12, 336.04
435.06, 6.23, 335.61
435.21, 6.35, 335.07
435.37, 6.48, 334.47
435.56, 6.62, 333.72
435.82, 6.78, 332.76
436.16, 6.97, 331.46
438.29, 7.66, 323.44
437.69, 7.83, 325.69
437.59, 8.07, 326.05
437.58, 8.33, 326.07
437.57, 8.59, 326.06
437.57, 8.85, 326.04
437.57, 9.11, 326.02
437.57, 9.38, 326.00
437.58, 9.64, 325.97
433.73, 5.30, 340.40
433.78, 5.33, 340.18
433.83, 5.37, 339.97
433.89, 5.41, 339.74
433.95, 5.45, 339.49
434.02, 5.49, 339.24
434.08, 5.54, 338.97
434.16, 5.59, 338.68
434.23, 5.65, 338.37
434.31, 5.71, 338.06
434.40, 5.78, 337.72
434.49, 5.86, 337.35
434.59, 5.94, 336.96
434.69, 6.03, 336.54
434.81, 6.12, 336.09
434.93, 6.23, 335.58
435.07, 6.35, 335.03
435.22, 6.47, 334.43
435.41, 6.62, 333.69
435.65, 6.78, 332.72
435.97, 6.97, 331.44
436.65, 7.22, 328.76
438.17, 7.67, 322.77
437.43, 7.83, 325.63
437.33, 8.06, 326.02
437.31, 8.32, 326.05
437.31, 8.58, 326.04
437.31, 8.84, 326.02
437.31, 9.10, 326.00
437.31, 9.37, 325.98
437.31, 9.63, 325.95
433.65, 5.30, 340.39
433.71, 5.33, 340.17
¯433.76, 5.37, 339.95
433.81, 5.41, 339.73
433.87, 5.45, 339.48
433.93, 5.49, 339.22
433.99, 5.54, 338.95
434.06, 5.59, 338.66
434.14, 5.65, 338.35
434.21, 5.71, 338.04
434.29, 5.78, 337.70
434.38, 5.86, 337.33
434.47, 5.94, 336.94
434.57, 6.02, 336.52
434.68, 6.12, 336.07
434.80, 6.23, 335.55
434.93, 6.34, 335.00
435.07, 6.47, 334.40
435.25, 6.61, 333.65
435.48, 6.77, 332.69
435.78, 6.96, 331.43
436.40, 7.21, 328.85
437.18, 7.82, 325.56
437.08, 8.06, 325.97
437.06, 8.31, 326.03
437.05, 8.57, 326.02
437.05, 8.83, 326.00
437.05, 9.09, 325.98
437.05, 9.35, 325.96
437.05, 9.62, 325.93
433.58, 5.30, 340.38
433.63, 5.33, 340.16
433.68, 5.37, 339.94
433.73, 5.41, 339.71
433.78, 5.45, 339.47
433.84, 5.49, 339.21
433.90, 5.54, 338.94
433.97, 5.59, 338.65
434.04, 5.65, 338.34
434.11, 5.71, 338.02
434.19, 5.78, 337.68
434.27, 5.85, 337.31
434.36, 5.93, 336.92
434.45, 6.02, 336.50
434.55, 6.12, 336.05
434.67, 6.22, 335.52
434.79, 6.34, 334.97
434.93, 6.47, 334.37
435.09, 6.61, 333.62
435.31, 6.77, 332.67
435.59, 6.96, 331.43
436.16, 7.21, 328.92
436.93, 7.82, 325.49
¯436.83, 8.05, 325.90
436.80, 8.30, 326.01
436.79, 8.56, 326.00
436.79, 8.82, 325.98
436.79, 9.08, 325.96
436.79, 9.34, 325.94
436.79, 9.61, 325.91
433.51, 5.30, 340.37
433.55, 5.33, 340.15
433.60, 5.37, 339.93
433.65, 5.41, 339.70
433.70, 5.45, 339.46
433.75, 5.49, 339.20
433.81, 5.54, 338.93
433.87, 5.59, 338.64
433.94, 5.65, 338.32
434.01, 5.71, 338.01
434.08, 5.78, 337.67
434.16, 5.85, 337.29
434.24, 5.93, 336.90
434.33, 6.02, 336.49
434.42, 6.12, 336.03
434.54, 6.22, 335.50
434.65, 6.34, 334.94
434.78, 6.46, 334.34
434.94, 6.60, 333.59
435.14, 6.76, 332.64
435.40, 6.95, 331.42
435.92, 7.20, 329.00
436.67, 7.81, 325.43
436.58, 8.05, 325.83
436.54, 8.29, 325.99
436.53, 8.55, 325.98
436.53, 8.81, 325.96
436.53, 9.07, 325.94
436.53, 9.33, 325.92
436.53, 9.60, 325.87
433.43, 5.30, 340.36
433.48, 5.33, 340.14
433.52, 5.37, 339.92
433.57, 5.41, 339.69
433.61, 5.45, 339.45
433.67, 5.49, 339.19
433.72, 5.54, 338.91
433.78, 5.59, 338.62
433.84, 5.65, 338.31
433.90, 5.71, 337.99
433.97, 5.78, 337.65
434.05, 5.85, 337.27
434.13, 5.93, 336.88
434.21, 6.02, 336.47
¯434.30, 6.11, 336.02
434.40, 6.22, 335.47
434.51, 6.33, 334.92
434.63, 6.46, 334.31
434.78, 6.60, 333.56
434.97, 6.76, 332.62
435.21, 6.95, 331.41
435.68, 7.19, 329.08
436.45, 7.81, 325.19
436.33, 8.04, 325.77
436.29, 8.29, 325.95
436.28, 8.54, 325.95
436.28, 8.80, 325.93
436.27, 9.06, 325.91
436.27, 9.33, 325.88
436.28, 9.59, 325.81
433.36, 5.30, 340.36
433.40, 5.33, 340.13
433.44, 5.37, 339.91
433.49, 5.40, 339.68
433.53, 5.45, 339.44
433.58, 5.49, 339.18
433.63, 5.54, 338.90
433.68, 5.59, 338.61
433.74, 5.64, 338.30
433.80, 5.71, 337.98
433.87, 5.77, 337.64
433.94, 5.85, 337.26
434.01, 5.93, 336.86
434.08, 6.02, 336.46
434.17, 6.11, 336.00
434.27, 6.21, 335.45
434.37, 6.33, 334.89
434.49, 6.46, 334.28
434.63, 6.60, 333.54
434.80, 6.76, 332.59
435.02, 6.94, 331.41
435.44, 7.18, 329.17
436.24, 7.82, 324.90
436.08, 8.04, 325.69
436.04, 8.28, 325.86
436.04, 8.54, 325.86
436.04, 8.80, 325.82
436.04, 9.07, 325.74
436.07, 9.35, 325.54
436.13, 9.66, 325.22
433.29, 5.30, 340.35
433.33, 5.33, 340.12
433.36, 5.37, 339.91
433.40, 5.40, 339.68
433.45, 5.44, 339.43
¯433.49, 5.49, 339.17
433.54, 5.53, 338.89
433.59, 5.59, 338.60
433.65, 5.64, 338.28
433.70, 5.70, 337.97
433.76, 5.77, 337.63
433.82, 5.84, 337.24
433.89, 5.92, 336.85
433.96, 6.01, 336.44
434.04, 6.11, 335.99
434.14, 6.21, 335.42
434.24, 6.32, 334.86
434.34, 6.45, 334.25
434.47, 6.59, 333.51
434.63, 6.75, 332.57
434.83, 6.93, 331.41
435.21, 7.17, 329.26
436.08, 7.84, 324.28
435.90, 8.05, 325.22
435.94, 8.34, 324.98
435.98, 8.63, 324.69
436.06, 8.95, 324.21
436.20, 9.32, 323.36
436.18, 9.60, 323.43
436.16, 9.88, 323.49
433.21, 5.30, 340.34
433.25, 5.33, 340.11
433.29, 5.36, 339.90
433.32, 5.40, 339.67
433.36, 5.44, 339.43
433.41, 5.49, 339.16
433.45, 5.53, 338.88
433.50, 5.58, 338.59
433.55, 5.64, 338.27
433.60, 5.70, 337.96
433.65, 5.77, 337.61
433.71, 5.84, 337.23
433.78, 5.92, 336.83
433.84, 6.01, 336.43
433.91, 6.10, 335.98
434.01, 6.20, 335.40
434.10, 6.32, 334.84
434.19, 6.45, 334.23
434.31, 6.59, 333.49
434.46, 6.75, 332.55
434.64, 6.93, 331.41
434.98, 7.16, 329.36
436.19, 7.94, 321.93
436.02, 8.18, 322.91
436.08, 8.51, 322.47
436.05, 8.80, 322.57
¯436.11, 9.13, 322.16
433.14, 5.30, 340.34
433.18, 5.33, 340.11
433.21, 5.36, 339.89
433.24, 5.40, 339.66
433.28, 5.44, 339.42
433.32, 5.48, 339.15
433.36, 5.53, 338.88
433.40, 5.58, 338.58
433.45, 5.64, 338.26
433.50, 5.70, 337.94
433.55, 5.77, 337.60
433.60, 5.84, 337.22
433.66, 5.92, 336.82
433.72, 6.01, 336.42
433.79, 6.10, 335.96
433.87, 6.20, 335.38
433.96, 6.32, 334.82
434.05, 6.44, 334.20
434.15, 6.58, 333.46
434.29, 6.74, 332.53
434.46, 6.92, 331.41
434.75, 7.15, 329.46
433.07, 5.30, 340.33
433.10, 5.33, 340.10
433.13, 5.36, 339.89
433.16, 5.40, 339.66
433.19, 5.44, 339.41
433.23, 5.48, 339.14
433.27, 5.53, 338.87
433.31, 5.58, 338.58
433.35, 5.63, 338.25
433.39, 5.70, 337.94
433.44, 5.76, 337.59
433.49, 5.83, 337.20
433.54, 5.91, 336.80
433.60, 6.00, 336.41
433.66, 6.10, 335.95
433.74, 6.20, 335.36
433.81, 6.31, 334.79
433.90, 6.44, 334.18
434.00, 6.58, 333.44
434.12, 6.73, 332.51
434.27, 6.92, 331.40
434.53, 7.14, 329.53
433.00, 5.30, 340.33
433.02, 5.33, 340.10
433.05, 5.36, 339.88
433.08, 5.40, 339.65
433.11, 5.44, 339.41
433.14, 5.48, 339.13
¯433.18, 5.53, 338.86
433.21, 5.58, 338.57
433.25, 5.63, 338.25
433.29, 5.69, 337.93
433.33, 5.76, 337.58
433.38, 5.83, 337.19
433.43, 5.91, 336.79
433.48, 6.00, 336.40
433.53, 6.09, 335.95
433.61, 6.19, 335.34
433.67, 6.31, 334.77
433.75, 6.43, 334.15
433.84, 6.57, 333.42
433.95, 6.73, 332.50
434.09, 6.91, 331.39
434.31, 7.13, 329.57
432.92, 5.30, 340.33
432.95, 5.32, 340.09
432.97, 5.36, 339.88
433.00, 5.40, 339.65
433.02, 5.44, 339.41
433.06, 5.48, 339.13
433.08, 5.52, 338.86
433.12, 5.58, 338.57
433.15, 5.63, 338.24
433.19, 5.69, 337.92
433.23, 5.76, 337.58
433.27, 5.83, 337.18
433.31, 5.91, 336.78
433.35, 6.00, 336.39
433.40, 6.09, 335.94
433.47, 6.19, 335.32
433.53, 6.30, 334.75
433.60, 6.43, 334.13
433.68, 6.57, 333.40
433.78, 6.72, 332.48
433.90, 6.90, 331.39
434.10, 7.13, 329.62
432.85, 5.30, 340.33
432.87, 5.32, 340.09
432.89, 5.36, 339.87
432.92, 5.39, 339.65
432.94, 5.44, 339.40
432.97, 5.47, 339.12
432.99, 5.52, 338.85
433.02, 5.57, 338.56
433.05, 5.63, 338.24
433.09, 5.69, 337.91
433.12, 5.75, 337.57
433.16, 5.82, 337.17
433.20, 5.90, 336.77
¯433.23, 5.99, 336.38
433.28, 6.09, 335.93
433.34, 6.18, 335.30
433.39, 6.29, 334.74
433.45, 6.42, 334.11
433.52, 6.56, 333.38
433.61, 6.72, 332.47
433.72, 6.90, 331.38
433.89, 7.12, 329.66
432.78, 5.30, 340.33
432.80, 5.32, 340.09
432.82, 5.36, 339.87
432.84, 5.39, 339.64
432.86, 5.43, 339.40
432.88, 5.47, 339.12
432.90, 5.52, 338.85
432.93, 5.57, 338.56
432.96, 5.62, 338.23
432.98, 5.68, 337.91
433.01, 5.75, 337.56
433.05, 5.82, 337.16
433.08, 5.90, 336.76
433.11, 5.99, 336.37
433.15, 6.08, 335.92
433.20, 6.18, 335.29
433.25, 6.29, 334.72
433.30, 6.41, 334.09
433.37, 6.55, 333.36
433.44, 6.71, 332.46
433.54, 6.89, 331.38
433.68, 7.11, 329.71
432.70, 5.29, 340.33
432.72, 5.32, 340.09
432.74, 5.35, 339.87
432.75, 5.39, 339.64
432.77, 5.43, 339.40
432.79, 5.47, 339.12
432.81, 5.52, 338.85
432.83, 5.57, 338.55
432.86, 5.62, 338.23
432.88, 5.68, 337.90
432.91, 5.75, 337.56
432.93, 5.82, 337.16
432.96, 5.89, 336.76
432.99, 5.98, 336.36
433.02, 6.08, 335.92
433.07, 6.17, 335.27
433.11, 6.28, 334.70
433.16, 6.41, 334.07
433.21, 6.55, 333.35
433.27, 6.70, 332.45
¯433.35, 6.88, 331.37
433.47, 7.10, 329.76
432.63, 5.29, 340.33
432.65, 5.32, 340.09
432.66, 5.35, 339.87
432.67, 5.39, 339.64
432.69, 5.43, 339.40
432.71, 5.47, 339.12
432.72, 5.51, 338.84
432.74, 5.56, 338.55
432.76, 5.62, 338.23
432.78, 5.68, 337.90
432.80, 5.74, 337.55
432.82, 5.81, 337.15
432.85, 5.89, 336.75
432.87, 5.98, 336.35
432.90, 6.07, 335.91
432.94, 6.16, 335.26
432.97, 6.28, 334.69
433.01, 6.40, 334.06
433.05, 6.54, 333.33
433.10, 6.70, 332.44
433.17, 6.87, 331.37
433.26, 7.09, 329.81
432.56, 5.29, 340.33
432.57, 5.32, 340.09
432.58, 5.35, 339.87
432.59, 5.39, 339.64
432.60, 5.43, 339.40
432.62, 5.46, 339.12
432.63, 5.51, 338.84
432.65, 5.56, 338.55
432.66, 5.61, 338.23
432.68, 5.67, 337.89
432.69, 5.74, 337.55
432.71, 5.81, 337.15
432.73, 5.88, 336.74
432.75, 5.97, 336.35
432.77, 6.07, 335.91
432.80, 6.16, 335.25
432.83, 6.27, 334.68
432.86, 6.40, 334.04
432.89, 6.53, 333.32
432.93, 6.69, 332.43
432.98, 6.87, 331.37
433.06, 7.08, 329.87
432.49, 5.29, 340.33
432.50, 5.31, 340.10
432.50, 5.35, 339.87
432.51, 5.38, 339.64
432.52, 5.42, 339.40
¯432.53, 5.46, 339.12
432.54, 5.51, 338.84
432.55, 5.56, 338.55
432.56, 5.61, 338.23
432.57, 5.67, 337.89
432.59, 5.73, 337.55
432.60, 5.80, 337.15
432.61, 5.88, 336.74
432.63, 5.97, 336.34
432.64, 6.06, 335.91
432.67, 6.15, 335.23
432.69, 6.26, 334.66
432.71, 6.39, 334.03
432.73, 6.53, 333.30
432.76, 6.68, 332.43
432.80, 6.86, 331.37
432.85, 7.07, 329.93
432.41, 5.29, 340.34
432.42, 5.31, 340.10
432.43, 5.34, 339.87
432.43, 5.38, 339.65
432.44, 5.42, 339.40
432.44, 5.46, 339.12
432.45, 5.50, 338.84
432.46, 5.55, 338.55
432.46, 5.61, 338.23
432.47, 5.66, 337.89
432.48, 5.73, 337.55
432.49, 5.80, 337.15
432.50, 5.87, 336.74
432.51, 5.96, 336.34
432.52, 6.06, 335.91
432.53, 6.15, 335.22
432.54, 6.26, 334.65
432.56, 6.38, 334.01
432.57, 6.52, 333.29
432.59, 6.67, 332.42
432.62, 6.85, 331.37
432.65, 7.06, 329.99
432.34, 5.29, 340.34
432.35, 5.31, 340.11
432.35, 5.34, 339.88
432.35, 5.38, 339.65
432.35, 5.42, 339.41
432.36, 5.46, 339.13
432.36, 5.50, 338.85
432.36, 5.55, 338.56
432.37, 5.60, 338.23
432.37, 5.66, 337.89
432.37, 5.73, 337.55
432.38, 5.79, 337.15
¯432.38, 5.87, 336.73
432.39, 5.95, 336.33
432.39, 6.05, 335.91
432.40, 6.14, 335.23
432.40, 6.25, 334.64
432.41, 6.37, 334.00
432.42, 6.51, 333.28
432.42, 6.67, 332.42
432.44, 6.84, 331.38
432.45, 7.05, 330.03
432.27, 5.28, 340.35
432.27, 5.31, 340.11
432.27, 5.34, 339.88
432.27, 5.38, 339.65
432.27, 5.41, 339.41
432.27, 5.45, 339.13
432.27, 5.50, 338.85
432.27, 5.55, 338.56
432.27, 5.60, 338.24
432.27, 5.66, 337.89
432.27, 5.72, 337.55
432.27, 5.79, 337.15
432.27, 5.86, 336.73
432.26, 5.95, 336.33
432.26, 6.04, 335.91
432.26, 6.13, 335.25
432.26, 6.24, 334.63
432.26, 6.37, 333.99
432.26, 6.50, 333.28
432.25, 6.66, 332.42
432.25, 6.83, 331.38
432.25, 7.04, 330.05
432.20, 5.28, 340.35
432.20, 5.31, 340.12
432.19, 5.34, 339.88
432.19, 5.37, 339.66
432.19, 5.41, 339.42
432.18, 5.45, 339.14
432.18, 5.49, 338.85
432.17, 5.54, 338.56
432.17, 5.59, 338.24
432.17, 5.65, 337.89
432.16, 5.72, 337.55
432.15, 5.78, 337.15
432.15, 5.86, 336.73
432.14, 5.94, 336.33
432.14, 6.04, 335.91
432.13, 6.13, 335.26
432.12, 6.24, 334.62
432.11, 6.36, 333.98
432.10, 6.50, 333.27
¯432.08, 6.65, 332.42
432.07, 6.82, 331.39
432.05, 7.03, 330.07
432.13, 5.28, 340.36
432.12, 5.30, 340.13
432.12, 5.33, 339.89
432.11, 5.37, 339.66
432.10, 5.41, 339.42
432.10, 5.45, 339.14
432.09, 5.49, 338.86
432.08, 5.54, 338.57
432.07, 5.59, 338.25
432.06, 5.65, 337.90
432.05, 5.71, 337.55
432.04, 5.78, 337.16
432.03, 5.85, 336.73
432.02, 5.94, 336.32
432.01, 6.03, 335.91
431.99, 6.12, 335.28
431.98, 6.23, 334.62
431.96, 6.35, 333.97
431.94, 6.49, 333.26
431.92, 6.64, 332.42
431.89, 6.81, 331.40
431.85, 7.02, 330.10
432.05, 5.28, 340.37
432.05, 5.30, 340.14
432.04, 5.33, 339.90
432.03, 5.37, 339.67
432.02, 5.41, 339.43
432.01, 5.44, 339.15
432.00, 5.49, 338.86
431.99, 5.53, 338.57
431.98, 5.59, 338.25
431.96, 5.64, 337.90
431.95, 5.70, 337.56
431.93, 5.77, 337.16
431.92, 5.84, 336.73
431.90, 5.93, 336.32
431.88, 6.02, 335.92
431.86, 6.12, 335.30
431.83, 6.22, 334.61
431.81, 6.34, 333.96
431.78, 6.48, 333.26
431.75, 6.63, 332.42
431.71, 6.80, 331.42
431.66, 7.01, 330.13
431.98, 5.28, 340.38
431.97, 5.30, 340.15
431.96, 5.33, 339.90
431.95, 5.36, 339.68
¯431.94, 5.40, 339.44
431.92, 5.44, 339.16
431.91, 5.48, 338.87
431.89, 5.53, 338.58
431.88, 5.58, 338.26
431.86, 5.64, 337.90
431.84, 5.70, 337.56
431.82, 5.77, 337.17
431.80, 5.84, 336.73
431.78, 5.92, 336.32
431.76, 6.02, 335.92
431.73, 6.11, 335.33
431.69, 6.21, 334.61
431.66, 6.33, 333.95
431.62, 6.47, 333.25
431.57, 6.62, 332.41
431.52, 6.79, 331.44
431.46, 7.00, 330.16
431.91, 5.27, 340.39
431.90, 5.30, 340.16
431.88, 5.32, 339.91
431.87, 5.36, 339.68
431.85, 5.40, 339.44
431.84, 5.44, 339.17
431.82, 5.48, 338.88
431.80, 5.53, 338.59
431.78, 5.58, 338.27
431.76, 5.63, 337.91
431.74, 5.69, 337.57
431.71, 5.76, 337.17
431.68, 5.83, 336.74
431.66, 5.92, 336.32
431.63, 6.01, 335.92
431.59, 6.11, 335.35
431.55, 6.20, 334.60
431.50, 6.33, 333.94
431.46, 6.46, 333.24
431.40, 6.61, 332.41
431.34, 6.79, 331.44
431.26, 6.98, 330.19
431.84, 5.27, 340.40
431.82, 5.30, 340.17
431.81, 5.32, 339.92
431.79, 5.36, 339.69
431.77, 5.39, 339.45
431.75, 5.43, 339.18
431.73, 5.47, 338.88
431.71, 5.52, 338.60
431.68, 5.57, 338.28
431.66, 5.62, 337.92
431.63, 5.69, 337.57
¯431.60, 5.75, 337.18
431.57, 5.82, 336.74
431.53, 5.91, 336.33
431.50, 6.00, 335.92
431.46, 6.10, 335.38
431.40, 6.20, 334.60
431.35, 6.32, 333.94
431.30, 6.45, 333.23
431.23, 6.60, 332.40
431.16, 6.77, 331.45
430.99, 6.99, 329.03
431.77, 5.27, 340.41
431.75, 5.29, 340.18
431.73, 5.32, 339.94
431.71, 5.35, 339.70
431.69, 5.39, 339.46
431.67, 5.43, 339.19
431.64, 5.47, 338.89
431.61, 5.52, 338.60
431.59, 5.57, 338.29
431.56, 5.62, 337.94
431.52, 5.68, 337.58
431.49, 5.75, 337.19
431.45, 5.82, 336.75
431.41, 5.90, 336.33
431.38, 6.00, 335.93
431.33, 6.09, 335.41
431.26, 6.19, 334.60
431.20, 6.31, 333.94
431.14, 6.44, 333.23
431.06, 6.59, 332.40
430.98, 6.76, 331.45
430.78, 6.97, 329.13
431.70, 5.27, 340.42
431.68, 5.29, 340.19
431.65, 5.32, 339.95
431.63, 5.35, 339.71
431.61, 5.39, 339.47
431.58, 5.42, 339.21
431.55, 5.46, 338.91
431.52, 5.51, 338.62
431.49, 5.56, 338.30
431.45, 5.61, 337.95
431.42, 5.68, 337.59
431.38, 5.74, 337.20
431.33, 5.81, 336.75
431.29, 5.89, 336.33
431.25, 5.99, 335.93
431.20, 6.09, 335.44
431.12, 6.18, 334.60
431.05, 6.30, 333.94
¯430.98, 6.43, 333.22
430.89, 6.58, 332.40
430.80, 6.75, 331.45
430.58, 6.96, 329.19
431.63, 5.26, 340.43
431.61, 5.29, 340.21
431.58, 5.31, 339.96
431.55, 5.34, 339.72
431.52, 5.38, 339.49
431.49, 5.42, 339.22
431.46, 5.46, 338.92
431.43, 5.50, 338.63
431.39, 5.56, 338.31
431.35, 5.61, 337.96
431.31, 5.67, 337.60
431.27, 5.73, 337.21
431.22, 5.80, 336.77
431.17, 5.89, 336.34
431.12, 5.98, 335.93
431.07, 6.08, 335.47
430.97, 6.17, 334.60
430.90, 6.29, 333.94
430.81, 6.42, 333.22
430.72, 6.57, 332.40
430.53, 6.74, 330.69
430.37, 6.95, 329.23
431.56, 5.26, 340.45
431.53, 5.28, 340.22
431.50, 5.31, 339.98
431.47, 5.34, 339.74
431.44, 5.38, 339.50
431.41, 5.42, 339.23
431.37, 5.45, 338.94
431.34, 5.50, 338.64
431.30, 5.55, 338.33
431.25, 5.60, 337.98
431.21, 5.66, 337.61
431.16, 5.73, 337.23
431.10, 5.80, 336.78
431.05, 5.88, 336.34
430.99, 5.97, 335.94
430.93, 6.07, 335.48
430.83, 6.16, 334.60
430.74, 6.28, 333.94
430.65, 6.41, 333.22
430.55, 6.56, 332.40
430.34, 6.73, 330.71
430.16, 6.94, 329.27
431.49, 5.26, 340.46
431.46, 5.28, 340.24
431.43, 5.31, 340.00
¯431.39, 5.34, 339.75
431.36, 5.37, 339.51
431.33, 5.41, 339.25
431.28, 5.45, 338.95
431.24, 5.49, 338.65
431.20, 5.54, 338.34
431.15, 5.60, 337.99
431.10, 5.66, 337.62
431.05, 5.72, 337.24
430.99, 5.79, 336.79
430.92, 5.87, 336.35
430.87, 5.96, 335.94
430.80, 6.06, 335.49
430.68, 6.15, 334.60
430.59, 6.27, 333.94
430.49, 6.40, 333.22
430.29, 6.54, 331.71
430.15, 6.72, 330.72
429.96, 6.92, 329.31
431.42, 5.26, 340.48
431.39, 5.28, 340.25
431.35, 5.30, 340.01
431.32, 5.33, 339.76
431.28, 5.37, 339.53
431.24, 5.41, 339.27
431.20, 5.44, 338.97
431.15, 5.49, 338.67
431.10, 5.54, 338.36
431.05, 5.59, 338.01
431.00, 5.65, 337.63
430.94, 5.71, 337.26
430.87, 5.78, 336.81
430.80, 5.86, 336.36
430.74, 5.95, 335.95
430.67, 6.05, 335.50
430.54, 6.14, 334.61
430.44, 6.26, 333.95
430.33, 6.39, 333.22
430.11, 6.53, 331.72
429.96, 6.71, 330.73
429.75, 6.91, 329.35
431.35, 5.25, 340.50
431.32, 5.28, 340.27
431.28, 5.30, 340.03
431.24, 5.33, 339.78
431.20, 5.36, 339.54
431.16, 5.40, 339.28
431.11, 5.44, 338.99
431.06, 5.48, 338.68
431.01, 5.53, 338.37
430.95, 5.58, 338.02
¯430.89, 5.64, 337.65
430.83, 5.71, 337.27
430.76, 5.77, 336.83
430.68, 5.85, 336.37
430.61, 5.94, 335.96
430.54, 6.04, 335.52
430.40, 6.13, 334.65
430.28, 6.25, 333.95
430.07, 6.36, 332.59
429.93, 6.52, 331.73
429.76, 6.69, 330.74
429.55, 6.90, 329.44
431.28, 5.25, 340.51
431.24, 5.27, 340.29
431.20, 5.30, 340.05
431.16, 5.32, 339.80
431.12, 5.36, 339.56
431.07, 5.40, 339.30
431.02, 5.43, 339.01
430.97, 5.48, 338.70
430.91, 5.53, 338.39
430.85, 5.58, 338.04
430.79, 5.63, 337.66
430.72, 5.70, 337.29
430.64, 5.77, 336.85
430.56, 5.84, 336.38
430.48, 5.94, 335.97
430.41, 6.04, 335.53
430.26, 6.12, 334.69
430.13, 6.24, 333.96
429.90, 6.35, 332.59
429.75, 6.50, 331.74
429.60, 6.68, 330.92
429.45, 6.88, 330.12
431.21, 5.25, 340.53
431.17, 5.27, 340.31
431.13, 5.29, 340.07
431.08, 5.32, 339.82
431.04, 5.35, 339.57
430.99, 5.39, 339.32
430.93, 5.43, 339.03
430.87, 5.47, 338.71
430.82, 5.52, 338.41
430.75, 5.57, 338.06
430.68, 5.63, 337.68
430.61, 5.69, 337.31
430.53, 5.76, 336.86
430.44, 5.83, 336.39
430.36, 5.93, 335.98
430.27, 6.03, 335.54
430.12, 6.12, 334.74
¯429.98, 6.23, 333.97
429.73, 6.34, 332.60
429.60, 6.50, 331.92
429.46, 6.67, 331.22
429.31, 6.86, 330.45
431.15, 5.24, 340.55
431.10, 5.27, 340.33
431.06, 5.29, 340.09
431.00, 5.32, 339.84
430.96, 5.35, 339.59
430.91, 5.39, 339.34
430.85, 5.42, 339.05
430.78, 5.46, 338.73
430.72, 5.51, 338.43
430.65, 5.57, 338.08
430.58, 5.62, 337.71
430.50, 5.68, 337.33
430.41, 5.75, 336.88
430.32, 5.83, 336.41
430.23, 5.92, 335.99
430.14, 6.02, 335.55
429.99, 6.11, 334.79
429.71, 6.19, 333.35
429.60, 6.33, 332.82
429.48, 6.49, 332.29
429.32, 6.66, 331.51
429.17, 6.85, 330.77
431.08, 5.24, 340.57
431.03, 5.26, 340.35
430.98, 5.29, 340.11
430.93, 5.31, 339.86
430.87, 5.34, 339.61
430.82, 5.38, 339.36
430.76, 5.42, 339.07
430.69, 5.46, 338.75
430.63, 5.51, 338.45
430.55, 5.56, 338.10
430.47, 5.61, 337.73
430.39, 5.68, 337.34
430.30, 5.74, 336.91
430.19, 5.82, 336.42
430.10, 5.91, 336.00
430.01, 6.01, 335.56
429.85, 6.10, 334.84
429.59, 6.18, 333.59
429.48, 6.33, 333.11
429.37, 6.48, 332.60
429.24, 6.65, 332.05
429.03, 6.83, 331.08
428.86, 7.04, 330.29
431.01, 5.24, 340.59
¯430.96, 5.26, 340.37
430.91, 5.28, 340.14
430.85, 5.31, 339.89
430.79, 5.34, 339.63
430.74, 5.38, 339.38
430.67, 5.41, 339.09
430.60, 5.45, 338.78
430.53, 5.50, 338.47
430.45, 5.55, 338.13
430.37, 5.61, 337.75
430.28, 5.67, 337.36
430.18, 5.73, 336.93
430.07, 5.81, 336.44
429.97, 5.90, 336.01
429.87, 5.99, 335.58
429.72, 6.09, 334.89
429.48, 6.18, 333.82
429.37, 6.33, 333.39
429.26, 6.48, 332.90
429.13, 6.64, 332.36
428.93, 6.82, 331.51
428.73, 7.02, 330.61
430.94, 5.23, 340.61
430.89, 5.26, 340.39
430.84, 5.28, 340.16
430.78, 5.30, 339.91
430.71, 5.33, 339.65
430.66, 5.37, 339.40
430.59, 5.41, 339.12
430.51, 5.45, 338.80
430.44, 5.49, 338.49
430.36, 5.54, 338.15
430.27, 5.60, 337.78
430.17, 5.66, 337.38
430.07, 5.73, 336.95
429.95, 5.80, 336.47
429.85, 5.89, 336.03
429.74, 5.98, 335.59
429.47, 6.05, 334.45
429.35, 6.18, 333.96
429.26, 6.32, 333.62
429.15, 6.47, 333.18
429.02, 6.63, 332.67
428.88, 6.80, 332.12
428.60, 7.00, 330.93
428.39, 7.22, 330.12
430.88, 5.23, 340.63
430.82, 5.25, 340.42
430.76, 5.27, 340.19
430.70, 5.30, 339.94
430.63, 5.33, 339.67
¯430.57, 5.37, 339.42
430.50, 5.40, 339.14
430.42, 5.44, 338.83
430.34, 5.49, 338.51
430.26, 5.54, 338.17
430.16, 5.59, 337.80
430.06, 5.65, 337.40
429.95, 5.72, 336.98
429.83, 5.79, 336.49
429.72, 5.87, 336.04
429.60, 5.97, 335.60
429.37, 6.05, 334.65
429.24, 6.17, 334.16
429.13, 6.31, 333.77
429.04, 6.46, 333.42
428.92, 6.62, 332.97
428.78, 6.79, 332.44
428.58, 6.98, 331.69
428.27, 7.19, 330.46
430.81, 5.23, 340.66
430.75, 5.25, 340.44
430.69, 5.27, 340.21
430.63, 5.30, 339.96
430.56, 5.32, 339.70
430.49, 5.36, 339.45
430.42, 5.40, 339.17
430.33, 5.44, 338.86
430.25, 5.48, 338.53
430.16, 5.53, 338.20
430.06, 5.58, 337.83
429.95, 5.64, 337.42
429.84, 5.71, 337.00
429.71, 5.78, 336.52
429.59, 5.86, 336.06
429.47, 5.96, 335.62
429.27, 6.05, 334.85
429.14, 6.17, 334.37
429.01, 6.31, 333.91
428.91, 6.45, 333.57
428.81, 6.61, 333.21
428.68, 6.78, 332.75
428.52, 6.96, 332.21
428.23, 7.16, 331.11
430.74, 5.22, 340.68
430.68, 5.24, 340.47
430.62, 5.27, 340.24
430.55, 5.29, 339.99
430.48, 5.32, 339.72
430.41, 5.35, 339.47
430.33, 5.39, 339.20
430.25, 5.43, 338.89
¯430.15, 5.47, 338.55
430.06, 5.52, 338.23
429.96, 5.58, 337.86
429.85, 5.63, 337.45
429.73, 5.70, 337.03
429.59, 5.77, 336.55
429.46, 5.85, 336.07
429.29, 5.94, 335.47
429.17, 6.05, 335.04
429.04, 6.17, 334.58
428.89, 6.30, 334.08
428.78, 6.45, 333.71
428.67, 6.60, 333.36
428.56, 6.77, 332.99
428.43, 6.94, 332.53
428.24, 7.13, 331.88
427.85, 7.37, 330.48
430.68, 5.22, 340.70
430.61, 5.24, 340.49
430.55, 5.26, 340.26
430.48, 5.29, 340.02
430.40, 5.31, 339.75
430.33, 5.35, 339.49
430.25, 5.38, 339.22
430.16, 5.42, 338.91
430.06, 5.46, 338.58
429.96, 5.51, 338.25
429.86, 5.57, 337.88
429.74, 5.63, 337.48
429.61, 5.69, 337.06
429.47, 5.76, 336.58
429.33, 5.84, 336.09
429.17, 5.93, 335.53
429.07, 6.05, 335.23
428.94, 6.17, 334.78
428.79, 6.29, 334.30
428.66, 6.44, 333.85
428.55, 6.59, 333.51
428.43, 6.75, 333.15
428.31, 6.92, 332.76
428.16, 7.11, 332.29
427.87, 7.32, 331.32
430.61, 5.21, 340.73
430.55, 5.24, 340.52
430.48, 5.26, 340.29
430.40, 5.28, 340.05
430.33, 5.31, 339.79
430.24, 5.34, 339.52
430.16, 5.38, 339.25
430.07, 5.42, 338.94
429.97, 5.46, 338.61
¯429.87, 5.51, 338.28
429.75, 5.56, 337.91
429.63, 5.62, 337.51
429.50, 5.68, 337.09
429.36, 5.75, 336.61
429.10, 5.80, 335.77
429.03, 5.92, 335.54
428.95, 6.04, 335.30
428.84, 6.16, 334.98
428.69, 6.29, 334.51
428.53, 6.43, 334.00
428.42, 6.58, 333.66
428.30, 6.74, 333.30
428.18, 6.91, 332.92
428.05, 7.09, 332.52
427.89, 7.28, 332.05
427.42, 7.54, 330.52
430.55, 5.21, 340.76
430.48, 5.23, 340.55
430.41, 5.25, 340.32
430.33, 5.28, 340.08
430.25, 5.30, 339.82
430.16, 5.33, 339.54
430.08, 5.37, 339.28
429.98, 5.41, 338.98
429.88, 5.45, 338.64
429.77, 5.50, 338.31
429.65, 5.55, 337.94
429.53, 5.61, 337.54
429.39, 5.67, 337.12
429.24, 5.74, 336.64
428.97, 5.79, 335.78
428.89, 5.90, 335.55
428.81, 6.03, 335.31
428.72, 6.15, 335.06
428.60, 6.28, 334.72
428.44, 6.42, 334.22
428.30, 6.57, 333.80
428.18, 6.73, 333.45
428.05, 6.90, 333.08
427.91, 7.07, 332.69
427.77, 7.26, 332.28
427.48, 7.49, 331.38
430.48, 5.21, 340.78
430.41, 5.23, 340.57
430.34, 5.25, 340.35
430.26, 5.27, 340.11
430.17, 5.30, 339.85
430.08, 5.33, 339.57
430.00, 5.37, 339.31
429.89, 5.40, 339.01
¯429.79, 5.44, 338.68
429.67, 5.49, 338.34
429.55, 5.54, 337.98
429.42, 5.60, 337.58
429.28, 5.66, 337.15
428.95, 5.67, 336.14
428.83, 5.77, 335.80
428.75, 5.89, 335.57
428.66, 6.01, 335.33
428.57, 6.14, 335.08
428.48, 6.27, 334.82
428.35, 6.41, 334.44
428.17, 6.56, 333.95
428.05, 6.71, 333.60
427.92, 6.88, 333.24
427.78, 7.06, 332.86
427.66, 7.24, 332.52
427.54, 7.44, 332.19
426.97, 7.72, 330.49
430.42, 5.20, 340.81
430.34, 5.22, 340.60
430.27, 5.25, 340.38
430.19, 5.27, 340.14
430.10, 5.29, 339.88
430.00, 5.32, 339.60
429.91, 5.36, 339.34
429.81, 5.40, 339.04
429.69, 5.44, 338.71
429.58, 5.48, 338.37
429.45, 5.53, 338.01
429.31, 5.59, 337.61
429.16, 5.65, 337.18
428.83, 5.66, 336.17
428.70, 5.76, 335.81
428.61, 5.88, 335.58
428.52, 6.00, 335.34
428.43, 6.13, 335.09
428.33, 6.26, 334.83
428.22, 6.40, 334.56
428.08, 6.55, 334.15
427.93, 6.70, 333.75
427.80, 6.87, 333.40
427.67, 7.04, 333.07
427.56, 7.22, 332.77
427.43, 7.41, 332.45
427.30, 7.61, 332.12
430.35, 5.20, 340.84
430.28, 5.22, 340.63
430.20, 5.24, 340.41
430.11, 5.26, 340.17
430.02, 5.29, 339.92
¯429.92, 5.32, 339.64
429.83, 5.35, 339.37
429.72, 5.39, 339.07
429.60, 5.43, 338.75
429.48, 5.47, 338.40
429.35, 5.53, 338.04
429.21, 5.58, 337.65
429.05, 5.64, 337.22
428.70, 5.65, 336.21
428.56, 5.75, 335.83
428.47, 5.86, 335.60
428.38, 5.99, 335.36
428.28, 6.11, 335.11
428.18, 6.25, 334.85
428.07, 6.39, 334.57
427.96, 6.54, 334.28
427.81, 6.69, 333.90
427.69, 6.85, 333.59
427.57, 7.02, 333.31
427.46, 7.20, 333.02
427.33, 7.39, 332.71
427.20, 7.59, 332.39
427.07, 7.79, 332.05
430.29, 5.19, 340.87
430.21, 5.21, 340.66
430.13, 5.24, 340.44
430.04, 5.26, 340.21
429.95, 5.28, 339.95
429.85, 5.31, 339.68
429.74, 5.35, 339.40
429.64, 5.38, 339.11
429.52, 5.42, 338.79
429.38, 5.46, 338.43
429.25, 5.52, 338.08
429.10, 5.57, 337.68
428.76, 5.57, 336.74
428.58, 5.64, 336.25
428.43, 5.73, 335.85
428.33, 5.85, 335.62
428.23, 5.97, 335.38
428.13, 6.10, 335.12
428.02, 6.23, 334.86
427.91, 6.37, 334.59
427.79, 6.52, 334.30
427.69, 6.68, 334.05
427.59, 6.84, 333.81
427.48, 7.01, 333.54
427.36, 7.18, 333.26
427.24, 7.37, 332.96
427.11, 7.56, 332.65
426.97, 7.76, 332.32
¯430.22, 5.19, 340.89
430.15, 5.21, 340.69
430.06, 5.23, 340.47
429.97, 5.25, 340.24
429.88, 5.28, 339.99
429.77, 5.31, 339.71
429.66, 5.34, 339.43
429.55, 5.38, 339.15
429.43, 5.41, 338.82
429.29, 5.46, 338.47
429.15, 5.51, 338.11
429.00, 5.56, 337.72
428.65, 5.56, 336.78
428.46, 5.63, 336.29
428.29, 5.72, 335.86
428.19, 5.84, 335.63
428.09, 5.96, 335.39
427.98, 6.09, 335.14
427.87, 6.22, 334.88
427.76, 6.36, 334.60
427.67, 6.51, 334.41
427.59, 6.66, 334.22
427.50, 6.82, 334.03
427.39, 6.99, 333.78
427.27, 7.16, 333.49
427.14, 7.34, 333.20
427.01, 7.53, 332.90
426.88, 7.73, 332.59
426.73, 7.94, 332.25
430.16, 5.19, 340.92
430.08, 5.21, 340.72
429.99, 5.23, 340.51
429.90, 5.25, 340.27
429.80, 5.27, 340.02
429.69, 5.30, 339.75
429.58, 5.33, 339.46
429.47, 5.37, 339.18
429.34, 5.41, 338.86
429.20, 5.45, 338.51
429.05, 5.50, 338.15
428.90, 5.55, 337.76
428.53, 5.55, 336.82
428.34, 5.62, 336.34
428.15, 5.70, 335.88
428.05, 5.82, 335.65
427.94, 5.94, 335.41
427.83, 6.07, 335.16
427.72, 6.21, 334.91
427.65, 6.35, 334.74
427.56, 6.50, 334.57
427.48, 6.65, 334.39
¯427.40, 6.81, 334.21
427.31, 6.97, 334.02
427.19, 7.14, 333.75
427.06, 7.32, 333.45
426.92, 7.51, 333.15
426.78, 7.70, 332.84
426.64, 7.91, 332.52
426.49, 8.13, 332.19
430.10, 5.18, 340.95
430.02, 5.20, 340.76
429.93, 5.22, 340.54
429.83, 5.24, 340.31
429.73, 5.27, 340.06
429.62, 5.30, 339.79
429.50, 5.32, 339.50
429.38, 5.36, 339.22
429.25, 5.40, 338.90
429.10, 5.44, 338.55
428.95, 5.49, 338.19
428.60, 5.47, 337.31
428.42, 5.54, 336.87
428.21, 5.61, 336.38
428.01, 5.69, 335.90
427.91, 5.81, 335.67
427.80, 5.93, 335.43
427.70, 6.06, 335.22
427.62, 6.20, 335.06
427.54, 6.34, 334.89
427.46, 6.49, 334.73
427.38, 6.64, 334.55
427.29, 6.80, 334.37
427.20, 6.96, 334.19
427.11, 7.12, 334.00
426.98, 7.30, 333.72
426.84, 7.48, 333.42
426.70, 7.68, 333.11
426.55, 7.88, 332.78
426.40, 8.09, 332.46
426.24, 8.31, 332.12
430.04, 5.18, 340.98
429.95, 5.20, 340.79
429.86, 5.22, 340.58
429.76, 5.24, 340.35
429.66, 5.26, 340.10
429.54, 5.29, 339.83
429.42, 5.32, 339.54
429.30, 5.35, 339.26
429.16, 5.39, 338.94
429.01, 5.43, 338.60
428.85, 5.48, 338.23
428.49, 5.46, 337.35
¯428.30, 5.52, 336.91
428.09, 5.59, 336.43
427.87, 5.67, 335.92
427.76, 5.79, 335.69
427.68, 5.92, 335.52
427.60, 6.05, 335.36
427.53, 6.19, 335.21
427.44, 6.33, 335.05
427.36, 6.48, 334.88
427.28, 6.63, 334.71
427.19, 6.78, 334.54
427.10, 6.94, 334.36
427.00, 7.11, 334.17
426.91, 7.28, 333.97
426.77, 7.46, 333.69
426.63, 7.65, 333.39
426.48, 7.84, 333.07
426.32, 8.05, 332.74
426.15, 8.27, 332.39
429.97, 5.17, 341.02
429.89, 5.19, 340.82
429.79, 5.21, 340.61
429.69, 5.23, 340.38
429.59, 5.26, 340.14
429.47, 5.28, 339.87
429.34, 5.31, 339.59
429.21, 5.35, 339.30
429.07, 5.38, 338.98
428.92, 5.42, 338.64
428.56, 5.39, 337.79
428.38, 5.45, 337.39
428.18, 5.51, 336.95
427.97, 5.58, 336.47
427.73, 5.66, 335.94
427.66, 5.78, 335.80
427.58, 5.91, 335.66
427.51, 6.05, 335.51
427.43, 6.18, 335.35
427.35, 6.32, 335.20
427.26, 6.47, 335.04
427.18, 6.62, 334.87
427.09, 6.77, 334.70
427.00, 6.93, 334.52
426.90, 7.09, 334.34
426.81, 7.26, 334.15
426.70, 7.43, 333.95
426.56, 7.62, 333.66
426.41, 7.81, 333.36
426.25, 8.02, 333.04
426.08, 8.23, 332.70
429.91, 5.17, 341.05
¯429.82, 5.19, 340.86
429.73, 5.21, 340.65
429.63, 5.23, 340.42
429.51, 5.25, 340.18
429.39, 5.28, 339.92
429.26, 5.31, 339.63
429.13, 5.34, 339.34
428.99, 5.38, 339.02
428.83, 5.42, 338.68
428.45, 5.38, 337.83
428.27, 5.44, 337.43
428.07, 5.50, 337.00
427.85, 5.57, 336.52
427.67, 5.66, 336.15
427.56, 5.78, 335.92
427.49, 5.91, 335.78
427.41, 6.04, 335.64
427.33, 6.17, 335.50
427.25, 6.31, 335.35
427.17, 6.46, 335.19
427.08, 6.60, 335.03
426.99, 6.75, 334.86
426.90, 6.91, 334.69
426.80, 7.07, 334.51
426.70, 7.24, 334.33
426.60, 7.41, 334.14
426.49, 7.59, 333.92
426.34, 7.78, 333.63
426.18, 7.98, 333.32
426.02, 8.19, 333.00
429.85, 5.16, 341.08
429.76, 5.18, 340.89
429.66, 5.20, 340.68
429.56, 5.22, 340.46
429.44, 5.25, 340.22
429.32, 5.27, 339.96
429.19, 5.30, 339.68
429.05, 5.33, 339.37
428.90, 5.37, 339.07
428.74, 5.41, 338.73
428.35, 5.37, 337.88
428.16, 5.43, 337.48
427.96, 5.49, 337.05
427.73, 5.56, 336.58
427.61, 5.66, 336.34
427.49, 5.78, 336.10
427.38, 5.90, 335.89
427.31, 6.03, 335.76
427.23, 6.16, 335.62
427.15, 6.30, 335.48
427.07, 6.44, 335.33
¯426.98, 6.59, 335.18
426.89, 6.74, 335.02
426.80, 6.90, 334.85
426.70, 7.06, 334.67
426.61, 7.22, 334.50
426.50, 7.39, 334.31
426.40, 7.57, 334.12
426.27, 7.75, 333.89
426.12, 7.95, 333.60
425.95, 8.15, 333.29
429.79, 5.16, 341.11
429.70, 5.18, 340.93
429.60, 5.20, 340.72
429.49, 5.22, 340.50
429.37, 5.24, 340.26
429.25, 5.27, 340.00
429.11, 5.29, 339.72
428.96, 5.32, 339.42
428.81, 5.36, 339.11
428.43, 5.32, 338.30
428.25, 5.36, 337.92
428.05, 5.42, 337.53
427.84, 5.48, 337.09
427.67, 5.56, 336.76
427.56, 5.67, 336.54
427.43, 5.78, 336.30
427.30, 5.89, 336.05
427.20, 6.02, 335.87
427.12, 6.15, 335.73
427.04, 6.29, 335.59
426.96, 6.43, 335.45
426.88, 6.58, 335.30
426.79, 6.73, 335.15
426.70, 6.88, 334.99
426.61, 7.04, 334.83
426.51, 7.20, 334.66
426.40, 7.37, 334.48
426.30, 7.54, 334.29
426.19, 7.72, 334.10
426.06, 7.91, 333.87
425.89, 8.12, 333.57
429.73, 5.15, 341.15
429.64, 5.17, 340.97
429.53, 5.19, 340.76
429.42, 5.21, 340.54
429.30, 5.24, 340.30
429.18, 5.26, 340.05
429.04, 5.29, 339.77
428.89, 5.32, 339.47
428.73, 5.35, 339.16
428.34, 5.30, 338.35
¯428.15, 5.35, 337.97
427.95, 5.41, 337.57
427.73, 5.47, 337.15
427.62, 5.57, 336.94
427.50, 5.67, 336.72
427.38, 5.78, 336.50
427.25, 5.89, 336.26
427.11, 6.01, 336.01
427.02, 6.14, 335.84
426.94, 6.28, 335.70
426.85, 6.42, 335.56
426.77, 6.57, 335.42
426.68, 6.71, 335.27
426.59, 6.87, 335.12
426.49, 7.02, 334.96
426.40, 7.19, 334.80
426.30, 7.35, 334.63
426.20, 7.52, 334.46
426.09, 7.70, 334.28
425.97, 7.89, 334.08
425.83, 8.08, 333.84
429.67, 5.14, 341.18
429.58, 5.17, 341.00
429.47, 5.19, 340.80
429.36, 5.21, 340.58
429.24, 5.23, 340.35
429.10, 5.25, 340.09
428.96, 5.28, 339.82
428.81, 5.31, 339.52
428.65, 5.34, 339.20
428.24, 5.29, 338.40
428.04, 5.34, 338.02
427.84, 5.39, 337.62
427.68, 5.47, 337.32
427.56, 5.57, 337.12
427.45, 5.67, 336.91
427.32, 5.78, 336.69
427.20, 5.89, 336.46
427.06, 6.01, 336.22
426.92, 6.13, 335.96
426.83, 6.27, 335.82
426.75, 6.41, 335.68
426.66, 6.55, 335.54
426.57, 6.70, 335.39
426.48, 6.85, 335.24
426.38, 7.01, 335.08
426.29, 7.17, 334.93
426.19, 7.33, 334.76
426.08, 7.50, 334.59
425.98, 7.68, 334.42
425.86, 7.86, 334.24
¯425.75, 8.05, 334.04
429.61, 5.14, 341.22
429.51, 5.16, 341.04
429.41, 5.18, 340.84
429.29, 5.20, 340.62
429.17, 5.22, 340.39
429.03, 5.25, 340.14
428.89, 5.27, 339.86
428.73, 5.30, 339.57
428.34, 5.25, 338.81
428.15, 5.29, 338.45
427.94, 5.33, 338.07
427.73, 5.38, 337.67
427.62, 5.48, 337.49
427.51, 5.57, 337.29
427.40, 5.68, 337.09
427.27, 5.78, 336.87
427.15, 5.89, 336.65
427.01, 6.01, 336.42
426.87, 6.13, 336.18
426.73, 6.26, 335.93
426.64, 6.40, 335.79
426.55, 6.54, 335.65
426.46, 6.69, 335.51
426.37, 6.84, 335.36
426.27, 6.99, 335.21
426.18, 7.15, 335.05
426.07, 7.32, 334.89
425.97, 7.49, 334.72
425.86, 7.66, 334.55
425.74, 7.84, 334.37
425.61, 8.03, 334.16
429.55, 5.13, 341.25
429.45, 5.16, 341.08
429.35, 5.18, 340.88
429.23, 5.20, 340.66
429.10, 5.22, 340.43
428.96, 5.24, 340.18
428.82, 5.27, 339.91
428.65, 5.30, 339.62
428.25, 5.24, 338.86
428.06, 5.28, 338.51
427.85, 5.32, 338.13
427.68, 5.39, 337.83
427.57, 5.48, 337.65
427.46, 5.58, 337.46
427.34, 5.68, 337.26
427.22, 5.78, 337.06
427.10, 5.89, 336.84
426.96, 6.01, 336.62
426.82, 6.13, 336.38
¯426.68, 6.25, 336.13
426.54, 6.39, 335.91
426.45, 6.53, 335.77
426.36, 6.67, 335.63
426.26, 6.82, 335.48
426.17, 6.98, 335.33
426.07, 7.14, 335.18
425.96, 7.30, 335.02
425.86, 7.47, 334.86
425.74, 7.64, 334.68
425.62, 7.82, 334.48
425.48, 8.01, 334.27
429.49, 5.13, 341.29
429.39, 5.15, 341.11
429.28, 5.17, 340.92
429.16, 5.19, 340.71
429.03, 5.21, 340.48
428.89, 5.24, 340.23
428.74, 5.26, 339.96
428.58, 5.29, 339.67
428.17, 5.23, 338.92
427.97, 5.27, 338.57
427.75, 5.31, 338.19
427.57, 5.37, 337.86
427.48, 5.47, 337.73
427.39, 5.58, 337.59
427.30, 5.68, 337.43
427.17, 5.78, 337.23
427.05, 5.89, 337.03
426.91, 6.00, 336.81
426.78, 6.12, 336.58
426.63, 6.25, 336.34
426.48, 6.38, 336.09
426.34, 6.51, 335.88
426.25, 6.66, 335.74
426.16, 6.81, 335.60
426.06, 6.96, 335.45
425.96, 7.12, 335.30
425.85, 7.28, 335.15
425.74, 7.45, 334.98
425.62, 7.62, 334.79
425.49, 7.80, 334.59
425.35, 7.99, 334.39
429.43, 5.12, 341.33
429.33, 5.14, 341.15
429.22, 5.17, 340.96
429.10, 5.19, 340.75
428.97, 5.21, 340.52
428.82, 5.23, 340.28
428.67, 5.26, 340.01
428.27, 5.19, 339.29
¯428.08, 5.22, 338.97
427.88, 5.26, 338.63
427.67, 5.30, 338.26
427.45, 5.36, 337.89
427.36, 5.46, 337.76
427.27, 5.56, 337.62
427.18, 5.66, 337.47
427.08, 5.77, 337.33
426.98, 5.89, 337.17
426.87, 6.00, 337.00
426.73, 6.12, 336.78
426.58, 6.24, 336.55
426.43, 6.37, 336.31
426.27, 6.50, 336.05
426.15, 6.65, 335.86
426.05, 6.79, 335.72
425.95, 6.95, 335.57
425.85, 7.10, 335.43
425.74, 7.26, 335.26
425.62, 7.43, 335.08
425.49, 7.61, 334.90
425.36, 7.79, 334.70
425.22, 7.97, 334.50
429.38, 5.12, 341.37
429.27, 5.14, 341.19
429.16, 5.16, 341.01
429.04, 5.18, 340.80
428.90, 5.20, 340.57
428.76, 5.22, 340.33
428.60, 5.25, 340.06
428.19, 5.18, 339.35
428.00, 5.21, 339.03
427.79, 5.25, 338.69
427.58, 5.30, 338.34
427.36, 5.35, 337.98
427.24, 5.44, 337.79
427.15, 5.54, 337.65
427.05, 5.65, 337.50
426.95, 5.76, 337.36
426.85, 5.87, 337.20
426.74, 5.99, 337.04
426.64, 6.11, 336.88
426.52, 6.23, 336.71
426.39, 6.36, 336.51
426.23, 6.49, 336.27
426.07, 6.63, 336.01
425.95, 6.78, 335.84
425.85, 6.93, 335.69
425.74, 7.09, 335.54
425.62, 7.25, 335.37
425.49, 7.42, 335.19
¯425.37, 7.59, 335.00
425.23, 7.77, 334.81
425.09, 7.95, 334.61
429.32, 5.11, 341.41
429.21, 5.13, 341.23
429.10, 5.15, 341.05
428.97, 5.17, 340.84
428.84, 5.19, 340.62
428.69, 5.22, 340.38
428.53, 5.24, 340.12
428.11, 5.17, 339.40
427.91, 5.20, 339.09
427.71, 5.24, 338.76
427.50, 5.29, 338.42
427.28, 5.34, 338.06
427.12, 5.42, 337.82
427.02, 5.53, 337.68
426.93, 5.63, 337.53
426.82, 5.74, 337.38
426.72, 5.85, 337.23
426.61, 5.97, 337.07
426.50, 6.09, 336.91
426.38, 6.22, 336.74
426.26, 6.35, 336.57
426.14, 6.48, 336.38
426.01, 6.62, 336.20
425.85, 6.76, 335.97
425.74, 6.92, 335.81
425.62, 7.07, 335.64
425.50, 7.23, 335.47
425.37, 7.40, 335.29
425.24, 7.57, 335.11
425.11, 7.75, 334.92
424.97, 7.94, 334.72
429.27, 5.11, 341.45
429.15, 5.13, 341.27
429.04, 5.15, 341.09
428.91, 5.17, 340.89
428.77, 5.19, 340.67
428.62, 5.21, 340.43
428.21, 5.13, 339.74
428.03, 5.16, 339.46
427.83, 5.20, 339.15
427.63, 5.24, 338.83
427.42, 5.28, 338.50
427.19, 5.34, 338.15
427.00, 5.41, 337.85
426.90, 5.51, 337.71
426.80, 5.62, 337.56
426.69, 5.72, 337.42
426.59, 5.84, 337.26
¯426.47, 5.95, 337.10
426.36, 6.08, 336.94
426.24, 6.20, 336.77
426.12, 6.33, 336.60
425.99, 6.46, 336.41
425.85, 6.60, 336.22
425.73, 6.75, 336.06
425.63, 6.90, 335.92
425.51, 7.06, 335.75
425.38, 7.22, 335.58
425.25, 7.38, 335.40
425.12, 7.55, 335.21
424.98, 7.73, 335.03
424.84, 7.92, 334.83
429.21, 5.10, 341.49
429.10, 5.12, 341.31
428.98, 5.14, 341.13
428.85, 5.16, 340.93
428.71, 5.18, 340.71
428.56, 5.20, 340.48
428.13, 5.12, 339.80
427.95, 5.15, 339.51
427.75, 5.19, 339.21
427.55, 5.23, 338.91
427.34, 5.28, 338.58
427.11, 5.33, 338.23
426.88, 5.39, 337.88
426.78, 5.49, 337.74
426.67, 5.60, 337.59
426.56, 5.71, 337.45
426.45, 5.82, 337.29
426.34, 5.94, 337.13
426.22, 6.06, 336.97
426.10, 6.18, 336.80
425.97, 6.31, 336.63
425.84, 6.45, 336.44
425.72, 6.59, 336.29
425.62, 6.74, 336.16
425.52, 6.88, 336.02
425.40, 7.04, 335.87
425.28, 7.20, 335.70
425.14, 7.36, 335.52
425.01, 7.53, 335.34
424.86, 7.71, 335.15
424.72, 7.90, 334.95
429.16, 5.10, 341.54
429.04, 5.12, 341.36
428.92, 5.14, 341.18
428.79, 5.16, 340.98
428.64, 5.18, 340.76
428.49, 5.20, 340.53
¯428.06, 5.11, 339.85
427.87, 5.14, 339.57
427.67, 5.18, 339.28
427.48, 5.22, 338.98
427.26, 5.27, 338.67
427.03, 5.32, 338.32
426.77, 5.38, 337.94
426.65, 5.47, 337.77
426.54, 5.58, 337.63
426.43, 5.69, 337.48
426.32, 5.80, 337.32
426.20, 5.92, 337.17
426.08, 6.04, 337.00
425.95, 6.17, 336.83
425.82, 6.30, 336.66
425.71, 6.43, 336.52
425.61, 6.58, 336.39
425.51, 6.72, 336.26
425.41, 6.87, 336.12
425.30, 7.02, 335.99
425.17, 7.18, 335.83
425.04, 7.35, 335.65
424.90, 7.52, 335.47
424.76, 7.69, 335.28
424.61, 7.88, 335.09
429.11, 5.09, 341.58
428.99, 5.11, 341.40
428.86, 5.13, 341.22
428.73, 5.15, 341.03
428.58, 5.17, 340.81
428.42, 5.19, 340.58
427.98, 5.11, 339.91
427.79, 5.14, 339.63
427.60, 5.17, 339.35
427.40, 5.22, 339.06
427.18, 5.26, 338.75
426.95, 5.31, 338.41
426.69, 5.37, 338.03
426.52, 5.46, 337.80
426.41, 5.56, 337.66
426.30, 5.67, 337.51
426.18, 5.79, 337.36
426.06, 5.90, 337.20
425.94, 6.02, 337.03
425.81, 6.15, 336.86
425.70, 6.28, 336.73
425.61, 6.42, 336.61
425.50, 6.56, 336.49
425.40, 6.71, 336.36
425.29, 6.85, 336.23
425.18, 7.01, 336.09
¯425.07, 7.16, 335.95
424.94, 7.33, 335.78
424.80, 7.50, 335.60
424.65, 7.67, 335.42
424.50, 7.85, 335.23
429.05, 5.09, 341.62
428.93, 5.11, 341.45
428.80, 5.12, 341.27
428.67, 5.14, 341.08
428.52, 5.16, 340.86
428.10, 5.08, 340.24
427.91, 5.10, 339.97
427.72, 5.13, 339.69
427.53, 5.17, 339.43
427.33, 5.21, 339.14
427.11, 5.26, 338.83
426.87, 5.31, 338.49
426.61, 5.36, 338.12
426.40, 5.44, 337.83
426.28, 5.54, 337.69
426.17, 5.65, 337.54
426.05, 5.77, 337.39
425.92, 5.89, 337.23
425.80, 6.01, 337.07
425.70, 6.14, 336.95
425.60, 6.27, 336.83
425.50, 6.41, 336.71
425.40, 6.55, 336.58
425.29, 6.69, 336.46
425.18, 6.84, 336.33
425.07, 6.99, 336.19
424.95, 7.15, 336.05
424.83, 7.31, 335.91
424.69, 7.48, 335.73
424.54, 7.65, 335.55
424.39, 7.83, 335.36
429.00, 5.08, 341.67
428.88, 5.10, 341.50
428.75, 5.12, 341.31
428.61, 5.14, 341.13
428.46, 5.16, 340.92
428.03, 5.07, 340.30
427.84, 5.09, 340.03
427.65, 5.12, 339.76
427.46, 5.16, 339.50
427.25, 5.20, 339.22
427.03, 5.25, 338.91
426.79, 5.30, 338.58
426.52, 5.35, 338.22
426.27, 5.42, 337.87
426.15, 5.53, 337.72
¯426.03, 5.64, 337.57
425.91, 5.75, 337.42
425.78, 5.87, 337.26
425.69, 5.99, 337.15
425.59, 6.12, 337.04
425.49, 6.26, 336.92
425.39, 6.39, 336.80
425.29, 6.53, 336.68
425.18, 6.68, 336.56
425.07, 6.82, 336.43
424.96, 6.98, 336.29
424.84, 7.13, 336.16
424.72, 7.29, 336.02
424.59, 7.46, 335.86
424.44, 7.63, 335.68
424.29, 7.81, 335.50
428.95, 5.08, 341.71
428.82, 5.10, 341.54
428.69, 5.11, 341.36
428.55, 5.13, 341.17
428.40, 5.15, 340.97
427.97, 5.06, 340.36
427.78, 5.09, 340.10
427.57, 5.11, 339.82
427.38, 5.15, 339.57
427.18, 5.20, 339.30
426.95, 5.24, 339.00
426.71, 5.29, 338.67
426.44, 5.34, 338.31
426.15, 5.40, 337.92
426.02, 5.51, 337.76
425.90, 5.62, 337.61
425.77, 5.73, 337.46
425.68, 5.85, 337.35
425.59, 5.98, 337.24
425.49, 6.11, 337.13
425.39, 6.24, 337.02
425.28, 6.38, 336.90
425.18, 6.52, 336.78
425.07, 6.66, 336.65
424.96, 6.81, 336.53
424.84, 6.96, 336.40
424.73, 7.12, 336.26
424.61, 7.28, 336.12
424.48, 7.44, 335.98
424.34, 7.61, 335.81
424.18, 7.79, 335.63
428.90, 5.07, 341.76
428.77, 5.09, 341.59
428.64, 5.11, 341.41
428.49, 5.12, 341.22
¯428.09, 5.04, 340.66
427.90, 5.06, 340.42
427.71, 5.08, 340.16
427.50, 5.10, 339.88
427.30, 5.14, 339.63
427.09, 5.19, 339.36
426.87, 5.23, 339.07
426.63, 5.28, 338.75
426.36, 5.34, 338.40
426.07, 5.39, 338.02
425.89, 5.49, 337.79
425.77, 5.60, 337.65
425.67, 5.72, 337.55
425.58, 5.84, 337.44
425.48, 5.97, 337.33
425.38, 6.10, 337.22
425.28, 6.23, 337.11
425.18, 6.36, 336.99
425.07, 6.50, 336.88
424.96, 6.65, 336.75
424.85, 6.79, 336.63
424.73, 6.94, 336.50
424.61, 7.10, 336.37
424.49, 7.26, 336.23
424.36, 7.42, 336.09
424.23, 7.59, 335.94
424.08, 7.77, 335.76
428.85, 5.07, 341.80
428.72, 5.08, 341.64
428.58, 5.10, 341.46
428.44, 5.12, 341.27
428.02, 5.03, 340.72
427.84, 5.05, 340.48
427.64, 5.07, 340.23
427.43, 5.10, 339.95
427.22, 5.13, 339.69
427.01, 5.17, 339.42
426.78, 5.22, 339.13
426.54, 5.27, 338.82
426.27, 5.32, 338.48
425.98, 5.38, 338.11
425.76, 5.47, 337.84
425.67, 5.59, 337.74
425.58, 5.71, 337.64
425.48, 5.83, 337.53
425.38, 5.95, 337.43
425.28, 6.08, 337.32
