ŸVERSION 0.7
FIELDS x y z
SIZE 8 8 8
TYPE F F F
COUNT 1 1 1
WIDTH 2271
HEIGHT 1
VIEWPOINT 414.48, 12.74, 325.71 1 395.45, 7.61, 331.77
POINTS 2271
DATA ascii
384.87, 4.76, 328.37
383.62, 4.66, 328.18
¯381.99, 4.51, 327.93
390.95, 5.14, 329.37
390.69, 5.13, 329.33
390.40, 5.12, 329.29
390.09, 5.10, 329.25
389.75, 5.08, 329.20
389.37, 5.06, 329.15
388.96, 5.04, 329.09
388.50, 5.02, 329.03
387.97, 4.99, 328.95
387.39, 4.95, 328.87
386.70, 4.91, 328.78
385.87, 4.85, 328.66
384.87, 4.77, 328.52
383.63, 4.66, 328.35
382.01, 4.51, 328.12
390.94, 5.14, 329.44
390.68, 5.13, 329.41
390.40, 5.12, 329.38
390.09, 5.10, 329.34
389.74, 5.08, 329.29
389.37, 5.07, 329.25
388.96, 5.04, 329.19
388.50, 5.02, 329.13
387.97, 4.99, 329.07
387.39, 4.95, 328.99
386.71, 4.91, 328.91
385.88, 4.85, 328.80
384.88, 4.77, 328.68
382.52, 4.43, 328.37
373.45, 2.81, 327.20
390.94, 5.14, 329.52
390.68, 5.13, 329.49
390.39, 5.12, 329.46
390.08, 5.10, 329.42
389.74, 5.09, 329.38
389.37, 5.07, 329.34
388.96, 5.05, 329.29
388.50, 5.02, 329.24
387.97, 4.99, 329.18
387.39, 4.96, 329.12
386.71, 4.91, 329.04
385.88, 4.85, 328.94
383.91, 4.55, 328.71
382.54, 4.43, 328.56
373.48, 2.82, 327.50
390.94, 5.14, 329.60
390.68, 5.13, 329.57
390.39, 5.12, 329.54
390.08, 5.10, 329.51
389.74, 5.09, 329.48
¯389.37, 5.07, 329.44
388.96, 5.05, 329.40
388.50, 5.02, 329.35
387.98, 4.99, 329.30
387.39, 4.96, 329.24
386.72, 4.92, 329.17
385.04, 4.65, 328.99
383.93, 4.56, 328.88
382.56, 4.44, 328.74
373.51, 2.82, 327.79
390.94, 5.14, 329.67
390.68, 5.13, 329.65
390.39, 5.12, 329.62
390.08, 5.10, 329.60
389.74, 5.09, 329.57
389.37, 5.07, 329.53
388.96, 5.05, 329.50
388.50, 5.02, 329.46
387.98, 4.99, 329.41
387.40, 4.96, 329.36
385.95, 4.72, 329.22
385.05, 4.66, 329.14
383.95, 4.56, 329.04
382.59, 4.44, 328.92
373.55, 2.83, 328.09
390.94, 5.14, 329.75
390.68, 5.13, 329.73
390.39, 5.12, 329.71
390.08, 5.11, 329.68
389.74, 5.09, 329.66
389.37, 5.07, 329.63
388.96, 5.05, 329.60
388.51, 5.03, 329.56
387.99, 5.00, 329.52
386.74, 4.79, 329.42
385.96, 4.73, 329.36
385.07, 4.66, 329.29
383.97, 4.57, 329.21
382.62, 4.45, 329.10
373.64, 2.85, 328.39
390.94, 5.14, 329.83
390.68, 5.13, 329.81
390.40, 5.12, 329.79
390.08, 5.11, 329.77
389.75, 5.09, 329.75
389.38, 5.07, 329.72
388.97, 5.05, 329.70
388.33, 4.97, 329.66
387.37, 4.83, 329.59
386.75, 4.79, 329.55
385.98, 4.73, 329.50
¯385.09, 4.66, 329.44
384.00, 4.57, 329.37
382.65, 4.46, 329.28
380.88, 4.29, 329.17
390.94, 5.15, 329.90
390.68, 5.13, 329.89
390.40, 5.12, 329.87
390.09, 5.11, 329.86
389.75, 5.09, 329.84
389.38, 5.07, 329.82
388.43, 4.89, 329.77
387.93, 4.86, 329.74
387.38, 4.83, 329.71
386.76, 4.79, 329.68
386.00, 4.74, 329.64
385.11, 4.67, 329.59
384.02, 4.58, 329.53
382.69, 4.46, 329.46
380.93, 4.30, 329.37
390.94, 5.15, 329.98
390.68, 5.14, 329.97
390.40, 5.12, 329.96
390.09, 5.11, 329.94
389.75, 5.09, 329.93
388.87, 4.91, 329.89
388.44, 4.89, 329.87
387.94, 4.86, 329.85
387.39, 4.83, 329.83
386.78, 4.80, 329.81
386.02, 4.74, 329.78
385.13, 4.67, 329.74
384.05, 4.58, 329.70
382.73, 4.47, 329.64
380.99, 4.31, 329.57
390.94, 5.15, 330.05
390.69, 5.14, 330.05
390.41, 5.13, 330.04
390.10, 5.11, 330.03
389.28, 4.93, 330.00
388.88, 4.92, 329.99
388.45, 4.89, 329.98
387.96, 4.87, 329.97
387.41, 4.83, 329.95
386.80, 4.80, 329.93
386.04, 4.74, 329.91
385.16, 4.68, 329.89
384.09, 4.59, 329.86
382.78, 4.48, 329.82
381.04, 4.31, 329.77
390.95, 5.15, 330.13
390.69, 5.14, 330.12
¯390.37, 5.11, 330.12
389.64, 4.95, 330.11
389.29, 4.94, 330.10
388.90, 4.92, 330.09
388.46, 4.90, 330.09
387.97, 4.87, 330.08
387.42, 4.84, 330.07
386.81, 4.80, 330.06
386.06, 4.75, 330.05
385.19, 4.68, 330.03
384.12, 4.60, 330.02
382.82, 4.49, 329.99
381.10, 4.32, 329.97
390.95, 5.15, 330.20
390.28, 4.98, 330.20
389.98, 4.97, 330.20
389.65, 4.95, 330.20
389.29, 4.94, 330.20
388.90, 4.92, 330.19
388.47, 4.90, 330.19
387.98, 4.87, 330.19
387.44, 4.84, 330.19
386.83, 4.80, 330.19
386.08, 4.75, 330.18
385.21, 4.69, 330.18
384.16, 4.60, 330.18
382.87, 4.49, 330.17
381.17, 4.33, 330.16
390.57, 5.00, 330.28
390.29, 4.99, 330.28
389.98, 4.97, 330.29
389.66, 4.96, 330.29
389.30, 4.94, 330.29
388.91, 4.92, 330.29
388.48, 4.90, 330.30
387.99, 4.87, 330.30
387.45, 4.84, 330.31
386.85, 4.81, 330.31
386.10, 4.75, 330.32
385.24, 4.69, 330.33
384.20, 4.61, 330.33
382.92, 4.50, 330.34
381.23, 4.34, 330.36
390.57, 5.00, 330.36
390.30, 4.99, 330.37
389.99, 4.97, 330.37
389.67, 4.96, 330.38
389.31, 4.94, 330.39
388.93, 4.92, 330.39
388.50, 4.90, 330.40
388.01, 4.87, 330.41
¯387.47, 4.84, 330.43
386.87, 4.81, 330.44
386.13, 4.76, 330.45
385.26, 4.69, 330.47
384.25, 4.62, 330.49
382.97, 4.51, 330.52
381.30, 4.35, 330.55
390.58, 5.00, 330.44
390.30, 4.99, 330.45
390.00, 4.97, 330.46
389.68, 4.96, 330.47
389.32, 4.94, 330.48
388.94, 4.92, 330.49
388.51, 4.90, 330.51
388.03, 4.88, 330.52
387.49, 4.85, 330.54
386.89, 4.81, 330.56
386.15, 4.76, 330.59
385.29, 4.70, 330.61
384.29, 4.62, 330.65
383.03, 4.52, 330.69
381.37, 4.36, 330.74
390.59, 5.00, 330.52
390.31, 4.99, 330.53
390.02, 4.97, 330.55
389.69, 4.96, 330.56
389.34, 4.94, 330.58
388.95, 4.93, 330.59
388.53, 4.90, 330.61
388.04, 4.88, 330.64
387.51, 4.85, 330.66
386.91, 4.81, 330.69
386.18, 4.76, 330.72
385.33, 4.70, 330.76
384.34, 4.63, 330.80
383.09, 4.52, 330.86
381.43, 4.37, 330.93
390.60, 5.00, 330.60
390.33, 4.99, 330.62
390.03, 4.98, 330.63
389.70, 4.96, 330.65
389.35, 4.94, 330.67
388.97, 4.93, 330.69
388.54, 4.91, 330.72
388.06, 4.88, 330.75
387.53, 4.85, 330.78
386.93, 4.82, 330.81
386.21, 4.77, 330.85
385.37, 4.71, 330.90
384.39, 4.64, 330.96
383.15, 4.53, 331.03
¯381.50, 4.38, 331.12
390.62, 5.00, 330.68
390.34, 4.99, 330.70
390.04, 4.98, 330.72
389.72, 4.96, 330.74
389.37, 4.95, 330.77
388.99, 4.93, 330.79
388.56, 4.91, 330.82
388.08, 4.88, 330.86
387.55, 4.85, 330.89
386.96, 4.82, 330.93
386.24, 4.77, 330.98
385.41, 4.71, 331.04
384.45, 4.64, 331.11
383.21, 4.54, 331.19
381.58, 4.39, 331.31
390.63, 5.01, 330.76
390.35, 4.99, 330.78
390.06, 4.98, 330.80
389.73, 4.96, 330.83
389.38, 4.95, 330.86
389.00, 4.93, 330.89
388.58, 4.91, 330.93
388.11, 4.88, 330.96
387.58, 4.85, 331.01
386.98, 4.82, 331.06
386.27, 4.77, 331.11
385.45, 4.72, 331.18
384.50, 4.65, 331.26
383.28, 4.55, 331.36
381.65, 4.40, 331.49
390.64, 5.01, 330.84
390.37, 4.99, 330.86
390.07, 4.98, 330.89
389.75, 4.97, 330.92
389.40, 4.95, 330.95
389.02, 4.93, 330.99
388.60, 4.91, 331.03
388.13, 4.89, 331.07
387.60, 4.86, 331.12
387.01, 4.82, 331.18
386.31, 4.78, 331.25
385.50, 4.72, 331.32
384.56, 4.66, 331.41
383.35, 4.56, 331.52
381.74, 4.41, 331.68
390.66, 5.01, 330.91
390.38, 5.00, 330.94
390.09, 4.98, 330.98
389.77, 4.97, 331.01
389.42, 4.95, 331.05
¯389.04, 4.93, 331.09
388.63, 4.91, 331.13
388.15, 4.89, 331.18
387.63, 4.86, 331.24
387.04, 4.83, 331.30
386.35, 4.78, 331.37
385.54, 4.73, 331.46
384.62, 4.67, 331.56
383.42, 4.57, 331.69
381.82, 4.42, 331.86
390.67, 5.01, 330.99
390.40, 5.00, 331.03
390.11, 4.98, 331.06
389.79, 4.97, 331.10
389.44, 4.95, 331.14
389.07, 4.94, 331.18
388.65, 4.92, 331.23
388.18, 4.89, 331.29
387.66, 4.86, 331.35
387.07, 4.83, 331.42
386.38, 4.79, 331.50
385.59, 4.73, 331.60
384.68, 4.67, 331.71
383.49, 4.58, 331.85
381.91, 4.43, 332.04
390.69, 5.01, 331.07
390.42, 5.00, 331.11
390.12, 4.99, 331.15
389.81, 4.97, 331.19
389.46, 4.96, 331.23
389.09, 4.94, 331.28
388.68, 4.92, 331.34
388.21, 4.89, 331.40
387.69, 4.87, 331.47
387.11, 4.83, 331.54
386.43, 4.79, 331.63
385.64, 4.74, 331.73
384.75, 4.68, 331.85
383.57, 4.59, 332.01
382.02, 4.44, 332.21
390.70, 5.01, 331.15
390.44, 5.00, 331.19
390.14, 4.99, 331.23
389.83, 4.97, 331.27
389.49, 4.96, 331.32
389.11, 4.94, 331.38
388.70, 4.92, 331.44
388.24, 4.90, 331.50
387.72, 4.87, 331.58
387.14, 4.84, 331.66
386.47, 4.79, 331.76
¯385.70, 4.75, 331.87
384.81, 4.69, 332.00
383.64, 4.60, 332.17
382.13, 4.46, 332.38
390.72, 5.01, 331.23
390.46, 5.00, 331.27
390.17, 4.99, 331.31
389.85, 4.97, 331.36
389.51, 4.96, 331.42
389.14, 4.94, 331.47
388.73, 4.92, 331.54
388.27, 4.90, 331.61
387.75, 4.87, 331.69
387.18, 4.84, 331.78
386.52, 4.80, 331.88
385.75, 4.75, 332.00
384.87, 4.70, 332.14
383.72, 4.61, 332.32
382.24, 4.47, 332.55
390.74, 5.01, 331.30
390.48, 5.00, 331.35
390.19, 4.99, 331.40
389.88, 4.98, 331.45
389.54, 4.96, 331.51
389.17, 4.94, 331.57
388.76, 4.93, 331.64
388.30, 4.90, 331.72
387.79, 4.87, 331.80
387.22, 4.84, 331.90
386.57, 4.81, 332.01
385.81, 4.76, 332.14
384.93, 4.70, 332.29
383.81, 4.62, 332.48
382.36, 4.49, 332.72
390.76, 5.02, 331.38
390.50, 5.01, 331.43
390.21, 4.99, 331.48
389.90, 4.98, 331.54
389.56, 4.96, 331.60
389.19, 4.95, 331.67
388.79, 4.93, 331.74
388.34, 4.90, 331.82
387.83, 4.88, 331.91
387.26, 4.85, 332.02
386.62, 4.81, 332.13
385.86, 4.76, 332.27
385.00, 4.71, 332.43
383.89, 4.63, 332.63
382.47, 4.50, 332.88
390.78, 5.02, 331.46
390.52, 5.01, 331.51
¯390.24, 4.99, 331.56
389.93, 4.98, 331.62
389.59, 4.97, 331.69
389.22, 4.95, 331.76
388.82, 4.93, 331.84
388.37, 4.91, 331.93
387.86, 4.88, 332.02
387.30, 4.85, 332.13
386.67, 4.82, 332.26
385.92, 4.77, 332.40
385.07, 4.72, 332.57
383.98, 4.64, 332.78
382.59, 4.52, 333.05
390.81, 5.02, 331.53
390.55, 5.01, 331.59
390.26, 5.00, 331.65
389.95, 4.98, 331.71
389.62, 4.97, 331.78
389.25, 4.95, 331.85
388.85, 4.93, 331.94
388.41, 4.91, 332.03
387.90, 4.88, 332.13
387.34, 4.85, 332.25
386.73, 4.82, 332.38
385.99, 4.78, 332.53
385.14, 4.72, 332.71
384.07, 4.65, 332.93
382.72, 4.54, 333.21
380.91, 4.37, 333.58
390.83, 5.02, 331.61
390.57, 5.01, 331.66
390.29, 5.00, 331.73
389.98, 4.98, 331.79
389.65, 4.97, 331.87
389.29, 4.95, 331.95
388.89, 4.94, 332.03
388.44, 4.91, 332.13
387.94, 4.89, 332.24
387.39, 4.86, 332.37
386.78, 4.83, 332.50
386.05, 4.78, 332.66
385.21, 4.73, 332.84
384.16, 4.66, 333.07
382.84, 4.55, 333.36
381.07, 4.39, 333.75
390.85, 5.02, 331.68
390.60, 5.01, 331.74
390.31, 5.00, 331.81
390.01, 4.99, 331.88
389.68, 4.97, 331.96
389.32, 4.96, 332.04
¯388.92, 4.94, 332.13
388.48, 4.92, 332.24
387.99, 4.89, 332.35
387.43, 4.86, 332.48
386.83, 4.83, 332.62
386.11, 4.79, 332.79
385.28, 4.74, 332.98
384.25, 4.67, 333.22
382.95, 4.56, 333.52
381.22, 4.41, 333.92
390.88, 5.02, 331.76
390.62, 5.02, 331.82
390.34, 5.00, 331.89
390.04, 4.99, 331.96
389.71, 4.97, 332.05
389.35, 4.96, 332.13
388.96, 4.94, 332.23
388.52, 4.92, 332.34
388.03, 4.89, 332.46
387.48, 4.86, 332.59
386.88, 4.84, 332.74
386.18, 4.80, 332.91
385.35, 4.75, 333.12
384.35, 4.68, 333.36
383.06, 4.57, 333.68
381.48, 4.45, 334.06
390.90, 5.03, 331.83
390.65, 5.02, 331.90
390.37, 5.00, 331.97
390.07, 4.99, 332.05
389.74, 4.98, 332.13
389.39, 4.96, 332.23
389.00, 4.94, 332.33
388.57, 4.92, 332.44
388.07, 4.90, 332.56
387.53, 4.87, 332.71
386.94, 4.84, 332.86
386.25, 4.80, 333.04
385.43, 4.75, 333.25
384.44, 4.69, 333.50
383.17, 4.59, 333.83
381.80, 4.50, 334.19
390.93, 5.03, 331.91
390.68, 5.02, 331.98
390.40, 5.01, 332.05
390.10, 4.99, 332.13
389.78, 4.98, 332.22
389.42, 4.96, 332.32
389.04, 4.95, 332.42
388.61, 4.93, 332.54
388.12, 4.90, 332.67
¯387.58, 4.87, 332.82
387.00, 4.85, 332.98
386.31, 4.81, 333.16
385.50, 4.76, 333.38
384.54, 4.70, 333.64
383.28, 4.60, 333.98
382.11, 4.55, 334.30
390.96, 5.03, 331.98
390.71, 5.02, 332.05
390.43, 5.01, 332.13
390.14, 5.00, 332.22
389.81, 4.98, 332.31
389.46, 4.97, 332.41
389.08, 4.95, 332.52
388.65, 4.93, 332.64
388.17, 4.90, 332.78
387.63, 4.88, 332.93
387.06, 4.85, 333.09
386.39, 4.82, 333.28
385.58, 4.77, 333.51
384.64, 4.71, 333.78
383.49, 4.63, 334.11
382.41, 4.59, 334.42
390.99, 5.03, 332.05
390.74, 5.02, 332.13
390.47, 5.01, 332.21
390.17, 5.00, 332.30
389.85, 4.98, 332.39
389.50, 4.97, 332.50
389.12, 4.95, 332.61
388.70, 4.93, 332.74
388.22, 4.91, 332.88
387.68, 4.88, 333.04
387.12, 4.86, 333.21
386.46, 4.82, 333.40
385.66, 4.78, 333.64
384.74, 4.72, 333.92
383.69, 4.66, 334.23
382.70, 4.64, 334.53
391.02, 5.03, 332.13
390.77, 5.02, 332.20
390.50, 5.01, 332.29
390.21, 5.00, 332.38
389.89, 4.99, 332.48
389.54, 4.97, 332.59
389.16, 4.95, 332.71
388.74, 4.94, 332.84
388.27, 4.91, 332.98
387.74, 4.88, 333.15
387.18, 4.86, 333.32
386.53, 4.83, 333.52
¯385.74, 4.78, 333.77
384.85, 4.73, 334.05
383.89, 4.69, 334.35
382.93, 4.67, 334.65
391.05, 5.03, 332.20
390.80, 5.03, 332.28
390.53, 5.02, 332.37
390.24, 5.00, 332.46
389.92, 4.99, 332.56
389.58, 4.97, 332.68
389.20, 4.96, 332.80
388.79, 4.94, 332.93
388.32, 4.92, 333.09
387.80, 4.89, 333.26
387.24, 4.87, 333.44
386.61, 4.84, 333.64
385.83, 4.79, 333.90
384.98, 4.75, 334.17
384.09, 4.72, 334.46
383.13, 4.70, 334.77
382.03, 4.68, 335.13
391.08, 5.04, 332.27
390.83, 5.03, 332.35
390.57, 5.02, 332.44
390.28, 5.01, 332.54
389.96, 4.99, 332.65
389.62, 4.98, 332.76
389.25, 4.96, 332.89
388.84, 4.94, 333.03
388.37, 4.92, 333.19
387.86, 4.89, 333.36
387.30, 4.87, 333.55
386.68, 4.85, 333.76
385.92, 4.80, 334.02
385.11, 4.77, 334.29
384.28, 4.75, 334.57
383.33, 4.73, 334.90
382.35, 4.73, 335.23
391.11, 5.04, 332.34
390.87, 5.03, 332.43
390.61, 5.02, 332.52
390.32, 5.01, 332.62
390.00, 4.99, 332.73
389.66, 4.98, 332.85
389.29, 4.96, 332.98
388.88, 4.95, 333.13
388.43, 4.92, 333.29
387.92, 4.90, 333.47
387.37, 4.88, 333.66
386.76, 4.85, 333.88
386.03, 4.82, 334.13
¯385.24, 4.78, 334.41
384.47, 4.78, 334.68
383.52, 4.75, 335.02
382.66, 4.77, 335.32
391.14, 5.04, 332.41
390.90, 5.03, 332.50
390.64, 5.02, 332.60
390.36, 5.01, 332.70
390.05, 5.00, 332.82
389.71, 4.98, 332.94
389.34, 4.97, 333.07
388.93, 4.95, 333.22
388.48, 4.93, 333.39
387.98, 4.90, 333.57
387.44, 4.88, 333.77
386.83, 4.86, 333.99
386.15, 4.83, 334.24
385.36, 4.80, 334.53
384.67, 4.81, 334.79
383.71, 4.78, 335.13
382.91, 4.81, 335.43
391.18, 5.04, 332.48
390.94, 5.03, 332.58
390.68, 5.03, 332.67
390.40, 5.01, 332.78
390.09, 5.00, 332.90
389.75, 4.99, 333.03
389.39, 4.97, 333.16
388.99, 4.95, 333.32
388.54, 4.93, 333.49
388.04, 4.91, 333.68
387.50, 4.89, 333.88
386.91, 4.86, 334.11
386.26, 4.85, 334.35
385.49, 4.82, 334.64
384.83, 4.83, 334.90
383.90, 4.80, 335.25
383.12, 4.83, 335.55
391.21, 5.04, 332.55
390.97, 5.04, 332.65
390.72, 5.03, 332.75
390.44, 5.02, 332.86
390.13, 5.00, 332.98
389.80, 4.99, 333.11
389.44, 4.97, 333.25
389.04, 4.96, 333.41
388.60, 4.94, 333.58
388.11, 4.91, 333.78
387.57, 4.89, 333.99
386.99, 4.87, 334.22
386.38, 4.86, 334.46
¯385.62, 4.83, 334.76
384.97, 4.84, 335.02
384.09, 4.83, 335.36
383.33, 4.86, 335.66
391.24, 5.05, 332.62
391.01, 5.04, 332.72
390.76, 5.03, 332.82
390.48, 5.02, 332.94
390.18, 5.01, 333.06
389.85, 4.99, 333.20
389.49, 4.98, 333.34
389.09, 4.96, 333.50
388.65, 4.94, 333.68
388.17, 4.92, 333.88
387.65, 4.90, 334.09
387.07, 4.88, 334.33
386.50, 4.88, 334.56
385.75, 4.85, 334.87
385.10, 4.86, 335.13
384.28, 4.85, 335.47
383.53, 4.88, 335.78
391.28, 5.05, 332.69
391.05, 5.04, 332.79
390.80, 5.03, 332.90
390.52, 5.02, 333.01
390.22, 5.01, 333.14
389.89, 4.99, 333.28
389.54, 4.98, 333.43
389.14, 4.96, 333.60
388.71, 4.94, 333.78
388.24, 4.92, 333.98
387.72, 4.91, 334.20
387.15, 4.89, 334.44
386.61, 4.89, 334.67
385.88, 4.86, 334.98
385.24, 4.88, 335.25
384.48, 4.88, 335.57
383.73, 4.91, 335.89
391.32, 5.05, 332.76
391.09, 5.04, 332.86
390.84, 5.03, 332.97
390.57, 5.02, 333.09
390.27, 5.01, 333.22
389.94, 5.00, 333.36
389.59, 4.98, 333.52
389.20, 4.97, 333.69
388.77, 4.95, 333.87
388.31, 4.93, 334.08
387.80, 4.91, 334.30
387.24, 4.89, 334.55
386.73, 4.90, 334.77
¯386.01, 4.88, 335.08
385.38, 4.89, 335.36
384.68, 4.91, 335.66
391.36, 5.05, 332.83
391.12, 5.04, 332.93
390.88, 5.04, 333.05
390.61, 5.03, 333.17
390.31, 5.01, 333.30
389.99, 5.00, 333.45
389.64, 4.99, 333.60
389.26, 4.97, 333.78
388.83, 4.95, 333.97
388.38, 4.94, 334.18
387.87, 4.92, 334.40
387.32, 4.90, 334.65
386.82, 4.91, 334.88
386.14, 4.89, 335.19
385.51, 4.91, 335.47
384.85, 4.93, 335.77
391.39, 5.05, 332.90
391.17, 5.05, 333.00
390.92, 5.04, 333.12
390.66, 5.03, 333.24
390.36, 5.02, 333.38
390.04, 5.00, 333.53
389.69, 4.99, 333.69
389.31, 4.97, 333.87
388.89, 4.96, 334.06
388.45, 4.94, 334.27
387.95, 4.93, 334.50
387.41, 4.91, 334.76
386.91, 4.92, 334.99
386.27, 4.91, 335.29
385.65, 4.92, 335.58
385.00, 4.94, 335.88
391.43, 5.06, 332.96
391.21, 5.05, 333.07
390.96, 5.04, 333.19
390.70, 5.03, 333.32
390.41, 5.02, 333.46
390.09, 5.01, 333.61
389.75, 4.99, 333.77
389.37, 4.98, 333.96
388.96, 4.96, 334.16
388.52, 4.95, 334.37
388.03, 4.93, 334.60
387.50, 4.92, 334.86
387.01, 4.93, 335.10
386.40, 4.92, 335.39
385.78, 4.93, 335.69
385.15, 4.96, 335.99
¯391.47, 5.06, 333.03
391.25, 5.05, 333.14
391.01, 5.04, 333.26
390.75, 5.03, 333.39
390.46, 5.02, 333.53
390.15, 5.01, 333.69
389.81, 5.00, 333.86
389.43, 4.98, 334.04
389.02, 4.96, 334.25
388.60, 4.95, 334.46
388.11, 4.94, 334.70
387.59, 4.92, 334.96
387.10, 4.94, 335.20
386.53, 4.94, 335.49
385.92, 4.95, 335.79
385.32, 4.98, 336.09
391.51, 5.06, 333.10
391.29, 5.05, 333.21
391.05, 5.05, 333.33
390.79, 5.04, 333.46
390.51, 5.03, 333.61
390.20, 5.01, 333.77
389.86, 5.00, 333.94
389.49, 4.98, 334.13
389.08, 4.97, 334.34
388.67, 4.96, 334.55
388.19, 4.94, 334.80
387.68, 4.93, 335.06
387.20, 4.94, 335.31
386.66, 4.95, 335.58
386.05, 4.96, 335.89
385.48, 5.00, 336.19
391.56, 5.06, 333.16
391.33, 5.06, 333.28
391.10, 5.05, 333.40
390.84, 5.04, 333.54
390.56, 5.03, 333.68
390.26, 5.02, 333.85
389.92, 5.00, 334.02
389.55, 4.99, 334.22
389.15, 4.97, 334.43
388.74, 4.96, 334.64
388.27, 4.95, 334.89
387.77, 4.94, 335.16
387.29, 4.95, 335.41
386.77, 4.96, 335.69
386.19, 4.98, 335.99
385.63, 5.01, 336.29
391.60, 5.07, 333.23
391.38, 5.06, 333.34
391.14, 5.05, 333.47
¯390.89, 5.04, 333.61
390.62, 5.03, 333.76
390.31, 5.02, 333.92
389.98, 5.01, 334.11
389.62, 4.99, 334.30
389.22, 4.97, 334.52
388.82, 4.97, 334.74
388.36, 4.96, 334.99
387.86, 4.95, 335.26
387.39, 4.96, 335.51
386.87, 4.97, 335.79
386.34, 5.00, 336.08
385.79, 5.03, 336.38
391.64, 5.07, 333.29
391.42, 5.06, 333.41
391.19, 5.05, 333.54
390.94, 5.04, 333.68
390.67, 5.04, 333.83
390.37, 5.02, 334.00
390.04, 5.01, 334.19
389.68, 5.00, 334.39
389.28, 4.98, 334.61
388.89, 4.97, 334.83
388.44, 4.96, 335.08
387.95, 4.95, 335.36
387.49, 4.97, 335.61
386.98, 4.98, 335.90
386.49, 5.01, 336.17
385.95, 5.05, 336.48
391.68, 5.07, 333.35
391.47, 5.06, 333.48
391.24, 5.06, 333.61
390.99, 5.05, 333.75
390.72, 5.04, 333.91
390.42, 5.03, 334.08
390.10, 5.01, 334.27
389.74, 5.00, 334.47
389.35, 4.98, 334.69
388.96, 4.98, 334.92
388.52, 4.97, 335.17
388.04, 4.96, 335.45
387.58, 4.97, 335.71
387.08, 4.99, 336.00
386.63, 5.03, 336.26
386.10, 5.06, 336.57
391.73, 5.07, 333.42
391.52, 5.06, 333.54
391.29, 5.06, 333.68
391.04, 5.05, 333.82
390.77, 5.04, 333.98
390.48, 5.03, 334.15
¯390.16, 5.02, 334.34
389.81, 5.00, 334.55
389.42, 4.99, 334.78
389.04, 4.98, 335.01
388.61, 4.98, 335.26
388.13, 4.97, 335.55
387.68, 4.98, 335.81
387.18, 4.99, 336.11
386.76, 5.04, 336.36
386.26, 5.08, 336.66
391.77, 5.07, 333.48
391.56, 5.07, 333.61
391.34, 5.06, 333.74
391.09, 5.05, 333.89
390.83, 5.04, 334.05
390.54, 5.03, 334.23
390.22, 5.02, 334.42
389.87, 5.01, 334.63
389.49, 4.99, 334.87
389.11, 4.99, 335.10
388.69, 4.98, 335.35
388.22, 4.98, 335.64
387.78, 4.99, 335.91
387.27, 5.00, 336.22
386.86, 5.05, 336.47
386.41, 5.10, 336.74
391.82, 5.08, 333.54
391.61, 5.07, 333.67
391.39, 5.06, 333.81
391.14, 5.05, 333.96
390.88, 5.05, 334.12
390.60, 5.04, 334.30
390.29, 5.02, 334.50
389.94, 5.01, 334.71
389.57, 5.00, 334.95
389.19, 4.99, 335.19
388.78, 4.99, 335.44
388.31, 4.98, 335.73
387.87, 4.99, 336.01
387.37, 5.00, 336.32
386.97, 5.05, 336.57
386.56, 5.11, 336.83
386.02, 5.15, 337.17
391.87, 5.08, 333.60
391.66, 5.07, 333.73
391.44, 5.07, 333.88
391.20, 5.06, 334.03
390.94, 5.05, 334.20
390.66, 5.04, 334.38
390.35, 5.03, 334.58
390.01, 5.01, 334.79
¯389.64, 5.00, 335.03
389.27, 5.00, 335.27
388.86, 4.99, 335.53
388.41, 4.99, 335.82
387.97, 5.00, 336.11
387.47, 5.01, 336.42
387.08, 5.06, 336.68
386.72, 5.13, 336.91
386.18, 5.17, 337.25
391.91, 5.08, 333.66
391.71, 5.07, 333.80
391.49, 5.07, 333.94
391.25, 5.06, 334.10
391.00, 5.05, 334.27
390.72, 5.04, 334.45
390.41, 5.03, 334.65
390.08, 5.02, 334.87
389.71, 5.01, 335.11
389.34, 5.00, 335.36
388.94, 5.00, 335.62
388.50, 5.00, 335.91
388.06, 5.01, 336.20
387.57, 5.02, 336.53
387.18, 5.06, 336.79
386.83, 5.13, 337.02
386.35, 5.18, 337.34
391.96, 5.08, 333.72
391.76, 5.08, 333.86
391.54, 5.07, 334.01
391.31, 5.06, 334.16
391.05, 5.06, 334.34
390.78, 5.05, 334.52
390.48, 5.04, 334.72
390.15, 5.02, 334.95
389.79, 5.01, 335.19
389.42, 5.01, 335.44
389.02, 5.00, 335.71
388.59, 5.00, 336.00
388.16, 5.01, 336.30
387.67, 5.02, 336.63
387.29, 5.07, 336.89
386.94, 5.14, 337.13
386.51, 5.20, 337.42
392.01, 5.09, 333.78
391.81, 5.08, 333.92
391.59, 5.07, 334.07
391.36, 5.07, 334.23
391.11, 5.06, 334.40
390.84, 5.05, 334.59
390.55, 5.04, 334.80
390.22, 5.03, 335.03
¯389.86, 5.01, 335.27
389.50, 5.01, 335.52
389.11, 5.01, 335.80
388.68, 5.01, 336.09
388.25, 5.02, 336.39
387.78, 5.03, 336.73
387.39, 5.08, 336.99
387.05, 5.14, 337.23
386.66, 5.21, 337.50
392.06, 5.09, 333.84
391.86, 5.08, 333.98
391.65, 5.08, 334.13
391.42, 5.07, 334.30
391.17, 5.06, 334.47
390.90, 5.05, 334.66
390.61, 5.04, 334.87
390.29, 5.03, 335.10
389.94, 5.02, 335.35
389.58, 5.02, 335.61
389.19, 5.01, 335.88
388.77, 5.01, 336.18
388.35, 5.02, 336.49
387.88, 5.03, 336.82
387.50, 5.08, 337.09
387.16, 5.15, 337.34
386.80, 5.22, 337.60
392.11, 5.09, 333.89
391.91, 5.08, 334.04
391.70, 5.08, 334.19
391.48, 5.07, 334.36
391.23, 5.06, 334.54
390.97, 5.06, 334.73
390.68, 5.05, 334.94
390.36, 5.03, 335.18
390.01, 5.02, 335.43
389.66, 5.02, 335.69
389.28, 5.02, 335.97
388.86, 5.02, 336.27
388.44, 5.03, 336.58
387.98, 5.04, 336.92
387.61, 5.09, 337.20
387.27, 5.15, 337.44
386.91, 5.23, 337.71
392.16, 5.09, 333.95
391.97, 5.09, 334.10
391.76, 5.08, 334.25
391.53, 5.07, 334.42
391.29, 5.07, 334.60
391.03, 5.06, 334.80
390.75, 5.05, 335.01
390.43, 5.04, 335.25
¯390.09, 5.03, 335.51
389.74, 5.02, 335.77
389.37, 5.02, 336.05
388.96, 5.02, 336.36
388.54, 5.03, 336.67
388.09, 5.04, 337.02
387.71, 5.09, 337.30
387.38, 5.16, 337.55
387.03, 5.23, 337.81
392.21, 5.10, 334.01
392.02, 5.09, 334.16
391.81, 5.08, 334.32
391.59, 5.08, 334.49
391.35, 5.07, 334.67
391.10, 5.06, 334.87
390.82, 5.05, 335.08
390.51, 5.04, 335.32
390.17, 5.03, 335.58
389.83, 5.03, 335.85
389.45, 5.03, 336.14
389.05, 5.03, 336.45
388.64, 5.04, 336.76
388.19, 5.05, 337.11
387.82, 5.10, 337.40
387.49, 5.16, 337.65
387.13, 5.23, 337.93
392.26, 5.10, 334.06
392.07, 5.09, 334.21
391.87, 5.09, 334.37
391.65, 5.08, 334.55
391.42, 5.07, 334.73
391.16, 5.06, 334.94
390.88, 5.06, 335.15
390.58, 5.05, 335.39
390.25, 5.04, 335.66
389.91, 5.03, 335.92
389.54, 5.03, 336.22
389.14, 5.03, 336.53
388.74, 5.04, 336.85
388.29, 5.05, 337.20
387.93, 5.10, 337.49
387.60, 5.17, 337.75
387.19, 5.23, 338.08
392.32, 5.10, 334.12
392.13, 5.09, 334.27
391.93, 5.09, 334.43
391.71, 5.08, 334.61
391.48, 5.08, 334.80
391.23, 5.07, 335.00
390.95, 5.06, 335.22
390.66, 5.05, 335.47
¯390.33, 5.04, 335.73
389.99, 5.04, 336.00
389.63, 5.04, 336.30
389.24, 5.04, 336.62
388.84, 5.05, 336.94
388.40, 5.06, 337.29
388.03, 5.11, 337.59
387.72, 5.17, 337.85
387.25, 5.22, 338.23
392.37, 5.10, 334.17
392.18, 5.10, 334.33
391.99, 5.09, 334.49
391.77, 5.09, 334.67
391.54, 5.08, 334.86
391.29, 5.07, 335.07
391.02, 5.06, 335.29
390.73, 5.05, 335.54
390.41, 5.04, 335.80
390.08, 5.04, 336.08
389.72, 5.04, 336.38
389.33, 5.04, 336.70
388.94, 5.05, 337.03
388.51, 5.07, 337.38
388.14, 5.11, 337.69
387.80, 5.17, 337.97
387.31, 5.21, 338.38
392.42, 5.11, 334.23
392.24, 5.10, 334.38
392.04, 5.09, 334.55
391.83, 5.09, 334.73
391.61, 5.08, 334.92
391.36, 5.07, 335.13
391.09, 5.07, 335.36
390.80, 5.06, 335.61
390.49, 5.05, 335.88
390.16, 5.05, 336.15
389.81, 5.05, 336.45
389.42, 5.05, 336.78
389.04, 5.06, 337.11
388.61, 5.07, 337.47
388.25, 5.11, 337.78
387.86, 5.16, 338.11
387.38, 5.20, 338.53
392.48, 5.11, 334.28
392.30, 5.10, 334.44
392.10, 5.10, 334.61
391.89, 5.09, 334.79
391.67, 5.08, 334.98
391.43, 5.08, 335.20
391.16, 5.07, 335.43
390.88, 5.06, 335.68
¯390.57, 5.05, 335.95
390.25, 5.05, 336.23
389.90, 5.05, 336.53
389.52, 5.05, 336.86
389.14, 5.06, 337.20
388.72, 5.08, 337.56
388.36, 5.12, 337.88
387.92, 5.15, 338.25
392.53, 5.11, 334.33
392.35, 5.11, 334.49
392.16, 5.10, 334.66
391.96, 5.09, 334.85
391.74, 5.09, 335.04
391.50, 5.08, 335.26
391.24, 5.07, 335.49
390.95, 5.06, 335.74
390.65, 5.06, 336.02
390.33, 5.06, 336.30
389.99, 5.05, 336.61
389.62, 5.06, 336.94
389.24, 5.07, 337.28
388.83, 5.08, 337.65
388.43, 5.11, 338.01
387.99, 5.15, 338.40
392.59, 5.11, 334.38
392.41, 5.11, 334.54
392.22, 5.10, 334.72
392.02, 5.10, 334.90
391.80, 5.09, 335.10
391.57, 5.08, 335.32
391.31, 5.08, 335.55
391.03, 5.07, 335.81
390.72, 5.06, 336.09
390.42, 5.06, 336.37
390.08, 5.06, 336.68
389.71, 5.06, 337.02
389.34, 5.07, 337.36
388.93, 5.09, 337.73
388.49, 5.10, 338.14
388.06, 5.14, 338.54
392.64, 5.12, 334.43
392.47, 5.11, 334.60
392.28, 5.11, 334.77
392.08, 5.10, 334.96
391.87, 5.09, 335.16
391.64, 5.09, 335.38
391.38, 5.08, 335.62
391.11, 5.07, 335.88
390.80, 5.06, 336.17
390.51, 5.06, 336.44
390.17, 5.06, 336.75
¯389.81, 5.06, 337.10
389.44, 5.08, 337.44
389.04, 5.09, 337.82
388.56, 5.09, 338.27
388.12, 5.13, 338.68
392.70, 5.12, 334.48
392.53, 5.11, 334.65
392.34, 5.11, 334.83
392.15, 5.10, 335.02
391.94, 5.10, 335.22
391.71, 5.09, 335.44
391.46, 5.08, 335.68
391.19, 5.07, 335.94
390.87, 5.06, 336.24
390.60, 5.07, 336.51
390.27, 5.07, 336.83
389.91, 5.07, 337.17
389.55, 5.08, 337.52
389.15, 5.10, 337.90
388.63, 5.09, 338.41
388.19, 5.12, 338.82
392.76, 5.12, 334.53
392.59, 5.12, 334.70
392.41, 5.11, 334.88
392.21, 5.11, 335.07
392.00, 5.10, 335.28
391.78, 5.09, 335.50
391.53, 5.09, 335.74
391.26, 5.08, 336.01
390.95, 5.06, 336.31
390.68, 5.07, 336.58
390.36, 5.07, 336.90
390.01, 5.07, 337.25
389.65, 5.09, 337.60
389.25, 5.10, 337.99
388.71, 5.08, 338.53
388.27, 5.11, 338.97
392.81, 5.12, 334.58
392.65, 5.12, 334.75
392.47, 5.11, 334.93
392.28, 5.11, 335.12
392.07, 5.10, 335.33
391.85, 5.10, 335.56
391.61, 5.09, 335.80
391.33, 5.08, 336.08
391.03, 5.06, 336.39
390.76, 5.07, 336.66
390.46, 5.08, 336.97
390.10, 5.08, 337.32
389.75, 5.09, 337.68
389.35, 5.10, 338.08
¯388.82, 5.08, 338.62
388.34, 5.10, 339.11
392.87, 5.13, 334.63
392.71, 5.12, 334.80
392.53, 5.12, 334.98
392.34, 5.11, 335.18
392.14, 5.11, 335.39
391.92, 5.10, 335.62
391.68, 5.09, 335.86
391.41, 5.08, 336.15
391.11, 5.06, 336.46
390.84, 5.07, 336.73
390.55, 5.08, 337.04
390.21, 5.08, 337.39
389.86, 5.10, 337.75
389.45, 5.10, 338.17
388.93, 5.08, 338.72
388.41, 5.09, 339.25
392.93, 5.13, 334.68
392.77, 5.12, 334.85
392.60, 5.12, 335.03
392.41, 5.11, 335.23
392.21, 5.11, 335.44
391.99, 5.10, 335.67
391.76, 5.10, 335.92
391.49, 5.08, 336.21
391.19, 5.07, 336.53
390.93, 5.08, 336.81
390.64, 5.09, 337.11
390.31, 5.09, 337.46
389.96, 5.10, 337.83
389.56, 5.10, 338.26
389.04, 5.09, 338.81
388.49, 5.08, 339.40
392.99, 5.13, 334.72
392.83, 5.13, 334.90
392.66, 5.12, 335.08
392.48, 5.12, 335.28
392.28, 5.11, 335.50
392.07, 5.11, 335.73
391.83, 5.10, 335.98
391.56, 5.08, 336.28
391.27, 5.07, 336.60
391.01, 5.08, 336.88
390.73, 5.09, 337.18
390.41, 5.09, 337.53
390.07, 5.10, 337.90
389.66, 5.10, 338.35
389.15, 5.09, 338.90
388.56, 5.07, 339.54
393.05, 5.13, 334.77
¯392.89, 5.13, 334.94
392.72, 5.13, 335.13
392.54, 5.12, 335.33
392.35, 5.12, 335.55
392.14, 5.11, 335.78
391.91, 5.10, 336.04
391.64, 5.08, 336.34
391.35, 5.07, 336.67
391.09, 5.08, 336.95
390.82, 5.09, 337.26
390.51, 5.10, 337.60
390.17, 5.11, 337.98
389.76, 5.11, 338.43
389.27, 5.09, 338.99
388.64, 5.06, 339.68
393.11, 5.14, 334.81
392.95, 5.13, 334.99
392.79, 5.13, 335.18
392.61, 5.12, 335.38
392.42, 5.12, 335.60
392.21, 5.11, 335.83
391.98, 5.10, 336.10
391.72, 5.09, 336.40
391.43, 5.07, 336.73
391.18, 5.08, 337.02
390.91, 5.09, 337.33
390.61, 5.10, 337.67
390.27, 5.11, 338.06
389.87, 5.11, 338.52
389.38, 5.10, 339.07
388.75, 5.06, 339.80
393.17, 5.14, 334.86
393.02, 5.14, 335.03
392.85, 5.13, 335.22
392.68, 5.13, 335.43
392.49, 5.12, 335.65
392.29, 5.12, 335.89
392.06, 5.10, 336.16
391.80, 5.09, 336.46
391.51, 5.07, 336.80
391.26, 5.08, 337.09
391.00, 5.09, 337.40
390.71, 5.10, 337.74
390.37, 5.11, 338.14
389.97, 5.11, 338.60
389.50, 5.10, 339.16
393.23, 5.14, 334.90
393.08, 5.14, 335.08
392.92, 5.13, 335.27
392.75, 5.13, 335.48
392.56, 5.12, 335.70
¯392.37, 5.12, 335.94
392.13, 5.11, 336.22
391.88, 5.09, 336.53
391.60, 5.07, 336.86
391.35, 5.08, 337.16
391.09, 5.09, 337.47
390.80, 5.11, 337.82
390.47, 5.11, 338.22
390.08, 5.11, 338.68
389.61, 5.10, 339.24
393.29, 5.14, 334.94
393.14, 5.14, 335.12
392.99, 5.14, 335.32
392.82, 5.13, 335.52
392.64, 5.13, 335.75
392.44, 5.12, 335.99
392.21, 5.11, 336.28
391.96, 5.09, 336.58
391.68, 5.08, 336.93
391.44, 5.08, 337.23
391.18, 5.09, 337.55
390.90, 5.11, 337.89
390.57, 5.11, 338.30
390.19, 5.11, 338.76
389.73, 5.10, 339.33
393.35, 5.15, 334.98
393.21, 5.14, 335.17
393.05, 5.14, 335.36
392.89, 5.14, 335.57
392.71, 5.13, 335.80
392.51, 5.12, 336.05
392.29, 5.11, 336.33
392.04, 5.09, 336.64
391.77, 5.08, 336.99
391.52, 5.08, 337.29
391.27, 5.10, 337.62
391.00, 5.11, 337.95
390.68, 5.12, 338.35
390.30, 5.11, 338.84
389.85, 5.11, 339.41
393.42, 5.15, 335.02
393.27, 5.15, 335.21
393.12, 5.14, 335.40
392.96, 5.14, 335.62
392.78, 5.13, 335.84
392.59, 5.13, 336.10
392.36, 5.11, 336.39
392.12, 5.10, 336.70
391.85, 5.08, 337.05
391.61, 5.08, 337.36
391.36, 5.10, 337.68
¯391.11, 5.12, 338.01
390.82, 5.13, 338.38
390.41, 5.12, 338.92
389.97, 5.11, 339.49
393.48, 5.15, 335.06
393.34, 5.15, 335.25
393.19, 5.15, 335.45
393.03, 5.14, 335.66
392.86, 5.14, 335.89
392.68, 5.14, 336.13
392.44, 5.11, 336.44
392.20, 5.10, 336.76
391.94, 5.08, 337.11
391.70, 5.09, 337.43
391.45, 5.10, 337.75
391.22, 5.12, 338.06
390.96, 5.15, 338.41
390.52, 5.12, 339.00
390.09, 5.11, 339.56
393.54, 5.16, 335.10
393.40, 5.15, 335.29
393.26, 5.15, 335.49
393.10, 5.14, 335.70
392.93, 5.14, 335.93
392.77, 5.15, 336.16
392.52, 5.11, 336.49
392.29, 5.10, 336.81
392.03, 5.08, 337.16
391.79, 5.09, 337.49
391.55, 5.10, 337.82
391.33, 5.13, 338.12
391.09, 5.16, 338.44
390.63, 5.12, 339.08
390.21, 5.12, 339.64
393.60, 5.16, 335.14
393.47, 5.16, 335.33
393.33, 5.15, 335.53
393.17, 5.15, 335.75
393.01, 5.15, 335.97
392.85, 5.15, 336.19
392.61, 5.12, 336.54
392.37, 5.10, 336.87
392.12, 5.09, 337.22
391.88, 5.09, 337.55
391.64, 5.10, 337.89
391.44, 5.14, 338.17
391.22, 5.17, 338.47
390.77, 5.14, 339.10
390.34, 5.12, 339.71
393.67, 5.16, 335.18
393.54, 5.16, 335.37
¯393.40, 5.15, 335.57
393.24, 5.15, 335.79
393.09, 5.15, 336.01
392.94, 5.16, 336.23
392.70, 5.13, 336.56
392.46, 5.10, 336.92
392.21, 5.09, 337.28
391.97, 5.09, 337.62
391.75, 5.10, 337.94
391.55, 5.14, 338.22
391.33, 5.18, 338.53
390.92, 5.15, 339.12
390.46, 5.12, 339.78
393.73, 5.16, 335.22
393.60, 5.16, 335.41
393.46, 5.16, 335.61
393.32, 5.15, 335.83
393.17, 5.16, 336.05
393.02, 5.17, 336.27
392.80, 5.14, 336.59
392.54, 5.11, 336.97
392.30, 5.09, 337.33
392.06, 5.09, 337.68
391.85, 5.11, 337.99
391.66, 5.15, 338.28
391.45, 5.19, 338.58
391.07, 5.17, 339.14
393.80, 5.17, 335.25
393.67, 5.16, 335.44
393.53, 5.16, 335.65
393.39, 5.16, 335.87
393.25, 5.16, 336.08
393.10, 5.17, 336.30
392.90, 5.15, 336.61
392.64, 5.11, 337.01
392.39, 5.09, 337.38
392.15, 5.09, 337.74
391.95, 5.11, 338.04
391.76, 5.15, 338.33
391.56, 5.19, 338.63
391.21, 5.18, 339.16
393.86, 5.17, 335.29
393.74, 5.17, 335.48
393.60, 5.16, 335.69
393.46, 5.16, 335.91
393.33, 5.17, 336.12
393.18, 5.18, 336.34
393.00, 5.17, 336.63
392.74, 5.13, 337.03
392.48, 5.10, 337.44
392.25, 5.09, 337.80
¯392.06, 5.12, 338.09
391.87, 5.16, 338.38
391.67, 5.20, 338.69
391.36, 5.20, 339.18
393.93, 5.17, 335.32
393.81, 5.17, 335.52
393.68, 5.17, 335.72
393.54, 5.16, 335.94
393.41, 5.17, 336.15
393.27, 5.18, 336.37
393.09, 5.18, 336.65
392.85, 5.14, 337.05
392.57, 5.10, 337.49
392.34, 5.09, 337.86
392.16, 5.12, 338.14
391.98, 5.16, 338.43
391.79, 5.20, 338.74
391.50, 5.21, 339.19
393.99, 5.17, 335.36
393.87, 5.17, 335.55
393.75, 5.17, 335.76
393.61, 5.17, 335.98
393.49, 5.18, 336.19
393.35, 5.19, 336.41
393.19, 5.19, 336.67
392.95, 5.15, 337.07
392.68, 5.11, 337.51
392.44, 5.09, 337.91
392.27, 5.13, 338.18
392.09, 5.17, 338.47
391.90, 5.21, 338.78
391.64, 5.23, 339.21
394.06, 5.18, 335.39
393.94, 5.18, 335.59
393.82, 5.17, 335.80
393.69, 5.17, 336.01
393.57, 5.18, 336.22
393.43, 5.19, 336.44
393.29, 5.20, 336.69
393.05, 5.16, 337.08
392.79, 5.12, 337.52
392.54, 5.10, 337.96
392.37, 5.13, 338.23
392.20, 5.17, 338.52
392.02, 5.21, 338.83
391.79, 5.24, 339.22
394.12, 5.18, 335.42
394.01, 5.18, 335.62
393.89, 5.18, 335.83
393.77, 5.18, 336.04
393.65, 5.19, 336.25
¯393.52, 5.20, 336.47
393.38, 5.21, 336.71
393.16, 5.18, 337.10
392.90, 5.14, 337.54
392.64, 5.11, 337.99
392.48, 5.14, 338.27
392.31, 5.18, 338.57
392.13, 5.22, 338.88
391.93, 5.26, 339.23
394.19, 5.18, 335.45
394.08, 5.18, 335.65
393.96, 5.18, 335.86
393.84, 5.18, 336.07
393.73, 5.19, 336.28
393.60, 5.20, 336.51
393.47, 5.21, 336.75
393.26, 5.19, 337.11
393.02, 5.15, 337.55
392.76, 5.12, 338.01
392.59, 5.14, 338.32
392.42, 5.18, 338.61
392.24, 5.22, 338.93
392.05, 5.26, 339.27
394.26, 5.19, 335.48
394.15, 5.18, 335.68
394.03, 5.18, 335.90
393.92, 5.19, 336.10
393.81, 5.20, 336.31
393.68, 5.21, 336.54
393.55, 5.22, 336.78
393.36, 5.20, 337.12
393.13, 5.16, 337.56
392.88, 5.13, 338.02
392.70, 5.15, 338.35
392.53, 5.18, 338.66
392.36, 5.22, 338.97
392.17, 5.27, 339.31
394.32, 5.19, 335.51
394.22, 5.19, 335.71
394.11, 5.18, 335.93
394.00, 5.19, 336.13
393.89, 5.20, 336.34
393.77, 5.21, 336.57
393.64, 5.22, 336.81
393.47, 5.21, 337.14
393.24, 5.18, 337.57
393.00, 5.15, 338.03
392.81, 5.16, 338.38
392.64, 5.19, 338.69
392.47, 5.23, 339.02
392.29, 5.27, 339.36
¯394.39, 5.19, 335.54
394.29, 5.19, 335.74
394.18, 5.19, 335.96
394.08, 5.20, 336.16
393.97, 5.21, 336.37
393.85, 5.22, 336.59
393.73, 5.23, 336.84
393.57, 5.23, 337.15
393.35, 5.19, 337.58
393.11, 5.16, 338.03
392.92, 5.17, 338.41
392.76, 5.20, 338.72
392.58, 5.23, 339.06
392.41, 5.28, 339.40
394.46, 5.19, 335.57
394.36, 5.19, 335.77
394.25, 5.19, 335.98
394.15, 5.20, 336.18
394.05, 5.21, 336.40
393.93, 5.22, 336.62
393.81, 5.23, 336.87
393.67, 5.24, 337.15
393.46, 5.20, 337.58
393.23, 5.18, 338.03
393.03, 5.17, 338.44
392.88, 5.21, 338.75
392.71, 5.24, 339.09
392.53, 5.28, 339.45
394.53, 5.20, 335.60
394.43, 5.20, 335.80
394.33, 5.20, 336.01
394.23, 5.21, 336.21
394.13, 5.22, 336.42
394.02, 5.23, 336.65
393.90, 5.24, 336.89
393.77, 5.25, 337.16
393.56, 5.22, 337.59
393.35, 5.19, 338.04
393.14, 5.18, 338.46
392.99, 5.21, 338.78
392.83, 5.25, 339.12
392.65, 5.29, 339.48
394.59, 5.20, 335.62
394.50, 5.20, 335.83
394.40, 5.20, 336.03
394.31, 5.21, 336.23
394.21, 5.22, 336.45
394.10, 5.23, 336.68
393.99, 5.24, 336.92
393.87, 5.26, 337.18
393.67, 5.23, 337.59
¯393.47, 5.20, 338.04
393.27, 5.20, 338.46
393.11, 5.22, 338.80
392.95, 5.26, 339.14
392.78, 5.30, 339.51
394.66, 5.20, 335.65
394.57, 5.20, 335.85
394.48, 5.21, 336.06
394.39, 5.22, 336.26
394.29, 5.23, 336.47
394.19, 5.24, 336.70
394.08, 5.25, 336.95
393.96, 5.26, 337.21
393.78, 5.24, 337.60
393.58, 5.22, 338.04
393.39, 5.21, 338.46
393.22, 5.23, 338.83
393.07, 5.26, 339.17
392.90, 5.30, 339.53
394.73, 5.21, 335.68
394.64, 5.20, 335.88
394.55, 5.21, 336.08
394.47, 5.22, 336.28
394.37, 5.23, 336.50
394.27, 5.24, 336.73
394.16, 5.25, 336.97
394.05, 5.27, 337.23
393.89, 5.26, 337.60
393.70, 5.23, 338.04
393.51, 5.23, 338.46
393.34, 5.24, 338.85
393.19, 5.27, 339.19
393.03, 5.31, 339.56
394.80, 5.21, 335.70
394.71, 5.21, 335.90
394.63, 5.21, 336.11
394.54, 5.22, 336.30
394.45, 5.24, 336.52
394.35, 5.25, 336.75
394.25, 5.26, 336.99
394.14, 5.27, 337.26
394.00, 5.27, 337.60
393.81, 5.25, 338.03
393.63, 5.24, 338.45
393.45, 5.24, 338.88
393.31, 5.28, 339.21
393.15, 5.32, 339.58
394.87, 5.21, 335.72
394.79, 5.21, 335.93
394.70, 5.21, 336.14
394.62, 5.23, 336.33
¯394.53, 5.24, 336.54
394.44, 5.25, 336.77
394.34, 5.26, 337.02
394.23, 5.28, 337.28
394.10, 5.28, 337.60
393.92, 5.26, 338.03
393.75, 5.25, 338.45
393.57, 5.25, 338.90
393.43, 5.29, 339.24
393.28, 5.33, 339.60
394.94, 5.21, 335.74
394.86, 5.21, 335.95
394.77, 5.21, 336.17
394.69, 5.23, 336.36
394.61, 5.24, 336.57
394.52, 5.26, 336.79
394.43, 5.27, 337.04
394.32, 5.28, 337.30
394.21, 5.29, 337.59
394.04, 5.27, 338.03
393.87, 5.27, 338.44
393.69, 5.26, 338.89
393.55, 5.29, 339.26
393.40, 5.33, 339.62
395.01, 5.22, 335.77
394.93, 5.22, 335.97
394.85, 5.22, 336.19
394.77, 5.23, 336.39
394.69, 5.24, 336.60
394.60, 5.26, 336.82
394.51, 5.27, 337.06
394.41, 5.29, 337.33
394.30, 5.30, 337.61
394.15, 5.29, 338.02
393.99, 5.28, 338.43
393.82, 5.28, 338.88
393.67, 5.30, 339.28
393.53, 5.34, 339.64
395.08, 5.22, 335.79
395.00, 5.22, 335.99
394.92, 5.22, 336.21
394.84, 5.23, 336.42
394.77, 5.24, 336.63
394.69, 5.26, 336.85
394.60, 5.28, 337.09
394.50, 5.29, 337.35
394.40, 5.31, 337.63
394.26, 5.30, 338.01
394.11, 5.30, 338.42
393.94, 5.29, 338.87
393.79, 5.31, 339.30
¯393.65, 5.35, 339.66
395.15, 5.22, 335.81
395.07, 5.22, 336.01
395.00, 5.22, 336.23
394.92, 5.23, 336.45
394.85, 5.24, 336.66
394.77, 5.26, 336.88
394.68, 5.28, 337.12
394.59, 5.29, 337.37
394.49, 5.31, 337.65
394.37, 5.31, 338.01
394.23, 5.31, 338.41
394.07, 5.31, 338.86
393.91, 5.31, 339.32
393.78, 5.35, 339.68
395.22, 5.23, 335.83
395.15, 5.23, 336.03
395.07, 5.23, 336.25
395.00, 5.23, 336.47
394.92, 5.25, 336.69
394.85, 5.26, 336.91
394.77, 5.28, 337.15
394.68, 5.30, 337.40
394.59, 5.31, 337.68
394.48, 5.33, 338.00
394.34, 5.32, 338.40
394.19, 5.32, 338.84
394.02, 5.32, 339.33
393.90, 5.36, 339.70
395.29, 5.23, 335.84
395.22, 5.23, 336.05
395.15, 5.23, 336.27
395.07, 5.23, 336.50
395.00, 5.25, 336.71
394.93, 5.26, 336.94
394.85, 5.28, 337.18
394.77, 5.30, 337.43
394.68, 5.32, 337.71
394.58, 5.33, 338.00
394.46, 5.34, 338.39
394.31, 5.34, 338.83
394.15, 5.34, 339.31
394.02, 5.37, 339.71
395.36, 5.23, 335.86
395.29, 5.23, 336.07
395.22, 5.23, 336.29
395.15, 5.23, 336.52
395.08, 5.25, 336.74
395.01, 5.26, 336.96
394.94, 5.28, 337.21
394.86, 5.30, 337.46
¯394.77, 5.32, 337.74
394.68, 5.34, 338.02
394.57, 5.35, 338.39
394.43, 5.35, 338.81
394.28, 5.35, 339.29
394.15, 5.37, 339.73
395.43, 5.23, 335.88
395.37, 5.23, 336.09
395.30, 5.24, 336.30
395.23, 5.24, 336.54
395.16, 5.25, 336.76
395.09, 5.26, 336.99
395.02, 5.28, 337.23
394.94, 5.30, 337.49
394.86, 5.32, 337.77
394.77, 5.34, 338.05
394.67, 5.35, 338.40
394.55, 5.36, 338.80
394.41, 5.37, 339.27
394.27, 5.38, 339.74
395.50, 5.24, 335.89
395.44, 5.24, 336.10
395.38, 5.24, 336.32
395.31, 5.24, 336.55
395.24, 5.25, 336.79
395.18, 5.27, 337.02
395.11, 5.28, 337.26
395.03, 5.30, 337.52
394.95, 5.32, 337.79
394.87, 5.34, 338.08
394.77, 5.36, 338.42
394.66, 5.37, 338.82
394.54, 5.38, 339.25
394.39, 5.39, 339.76
395.57, 5.24, 335.91
395.51, 5.24, 336.12
395.45, 5.24, 336.34
395.39, 5.24, 336.57
395.32, 5.25, 336.81
395.26, 5.27, 337.04
395.19, 5.28, 337.28
395.12, 5.30, 337.54
395.05, 5.32, 337.82
394.97, 5.34, 338.11
394.88, 5.36, 338.44
394.77, 5.37, 338.83
394.65, 5.38, 339.27
394.52, 5.40, 339.75
395.64, 5.24, 335.92
395.59, 5.24, 336.13
395.53, 5.25, 336.35
¯395.47, 5.25, 336.59
395.40, 5.25, 336.83
395.34, 5.27, 337.06
395.28, 5.28, 337.31
395.21, 5.30, 337.57
395.14, 5.32, 337.85
395.06, 5.34, 338.13
394.98, 5.37, 338.45
394.88, 5.38, 338.85
394.76, 5.39, 339.28
394.64, 5.40, 339.76
395.71, 5.24, 335.94
395.66, 5.25, 336.14
395.60, 5.25, 336.36
395.55, 5.25, 336.60
395.48, 5.25, 336.85
395.43, 5.27, 337.09
395.37, 5.28, 337.33
395.30, 5.30, 337.59
395.23, 5.32, 337.87
395.16, 5.35, 338.16
395.08, 5.37, 338.47
394.99, 5.38, 338.86
394.88, 5.39, 339.30
394.76, 5.41, 339.78
395.78, 5.25, 335.95
395.73, 5.25, 336.16
395.68, 5.25, 336.38
395.63, 5.25, 336.61
395.57, 5.26, 336.86
395.51, 5.27, 337.11
395.45, 5.28, 337.35
395.39, 5.30, 337.62
395.32, 5.32, 337.90
395.26, 5.35, 338.18
395.18, 5.37, 338.49
395.09, 5.39, 338.88
394.99, 5.40, 339.31
394.88, 5.41, 339.79
395.85, 5.25, 335.96
395.81, 5.25, 336.17
395.76, 5.25, 336.39
395.71, 5.26, 336.62
395.65, 5.26, 336.88
395.59, 5.27, 337.13
395.54, 5.29, 337.38
395.48, 5.30, 337.64
395.42, 5.32, 337.92
395.35, 5.35, 338.21
395.29, 5.37, 338.51
395.20, 5.39, 338.89
¯395.11, 5.40, 339.32
395.00, 5.42, 339.80
395.92, 5.25, 335.97
395.88, 5.26, 336.18
395.83, 5.26, 336.40
395.78, 5.26, 336.64
395.73, 5.26, 336.89
395.68, 5.27, 337.15
395.63, 5.29, 337.40
395.57, 5.30, 337.66
395.51, 5.32, 337.94
395.45, 5.35, 338.23
395.39, 5.38, 338.54
395.31, 5.40, 338.90
395.22, 5.41, 339.33
395.12, 5.42, 339.81
395.99, 5.26, 335.98
395.95, 5.26, 336.19
395.91, 5.26, 336.41
395.86, 5.26, 336.65
395.81, 5.27, 336.90
395.76, 5.27, 337.17
395.71, 5.29, 337.42
395.66, 5.30, 337.68
395.61, 5.32, 337.96
395.55, 5.35, 338.25
395.49, 5.38, 338.56
395.42, 5.40, 338.91
395.33, 5.41, 339.34
395.24, 5.43, 339.82
396.07, 5.26, 335.99
396.03, 5.26, 336.20
395.99, 5.26, 336.42
395.94, 5.27, 336.66
395.90, 5.27, 336.91
395.85, 5.27, 337.18
395.80, 5.29, 337.44
395.75, 5.31, 337.70
395.70, 5.33, 337.98
395.65, 5.35, 338.27
395.59, 5.38, 338.58
395.53, 5.40, 338.92
395.45, 5.42, 339.35
395.36, 5.43, 339.83
396.14, 5.26, 336.00
396.10, 5.26, 336.21
396.06, 5.27, 336.43
396.02, 5.27, 336.66
395.98, 5.27, 336.92
395.93, 5.28, 337.19
395.89, 5.29, 337.46
¯395.84, 5.31, 337.72
395.79, 5.33, 338.00
395.74, 5.35, 338.29
395.69, 5.38, 338.60
395.63, 5.41, 338.94
395.56, 5.42, 339.36
395.48, 5.44, 339.84
396.21, 5.26, 336.01
396.18, 5.27, 336.21
396.14, 5.27, 336.43
396.10, 5.27, 336.67
396.06, 5.28, 336.92
396.02, 5.28, 337.20
395.98, 5.29, 337.48
395.93, 5.31, 337.74
395.89, 5.33, 338.02
395.84, 5.35, 338.31
395.79, 5.38, 338.62
395.74, 5.41, 338.96
395.67, 5.43, 339.37
396.28, 5.27, 336.01
396.25, 5.27, 336.22
396.22, 5.27, 336.44
396.18, 5.28, 336.68
396.15, 5.28, 336.93
396.11, 5.28, 337.20
396.06, 5.29, 337.49
396.02, 5.31, 337.76
395.98, 5.33, 338.04
395.94, 5.35, 338.33
395.89, 5.38, 338.64
395.85, 5.41, 338.98
395.79, 5.43, 339.37
396.35, 5.27, 336.02
396.32, 5.27, 336.23
396.29, 5.28, 336.45
396.26, 5.28, 336.68
396.23, 5.28, 336.94
396.19, 5.29, 337.21
396.15, 5.29, 337.50
396.12, 5.31, 337.78
396.08, 5.33, 338.06
396.04, 5.35, 338.35
396.00, 5.38, 338.66
395.95, 5.41, 339.00
395.90, 5.44, 339.38
396.42, 5.27, 336.02
396.40, 5.28, 336.23
396.37, 5.28, 336.45
396.34, 5.28, 336.69
396.31, 5.29, 336.94
¯396.28, 5.29, 337.21
396.24, 5.29, 337.51
396.21, 5.31, 337.79
396.17, 5.33, 338.07
396.14, 5.35, 338.37
396.10, 5.38, 338.68
396.06, 5.41, 339.02
396.01, 5.44, 339.38
396.49, 5.28, 336.03
396.47, 5.28, 336.23
396.45, 5.28, 336.46
396.42, 5.29, 336.69
396.39, 5.29, 336.95
396.36, 5.29, 337.22
396.33, 5.30, 337.51
396.30, 5.31, 337.81
396.27, 5.33, 338.09
396.24, 5.35, 338.38
396.20, 5.38, 338.70
396.17, 5.41, 339.04
396.13, 5.44, 339.40
396.57, 5.28, 336.02
396.54, 5.28, 336.23
396.52, 5.29, 336.46
396.50, 5.29, 336.70
396.48, 5.29, 336.95
396.45, 5.30, 337.22
396.42, 5.30, 337.51
396.39, 5.31, 337.82
396.36, 5.33, 338.10
396.34, 5.35, 338.40
396.31, 5.38, 338.71
396.27, 5.41, 339.05
396.24, 5.44, 339.42
396.64, 5.28, 336.02
396.62, 5.29, 336.23
396.60, 5.29, 336.45
396.58, 5.29, 336.69
396.56, 5.30, 336.95
396.54, 5.30, 337.22
396.51, 5.31, 337.51
396.49, 5.31, 337.83
396.46, 5.33, 338.12
396.44, 5.35, 338.41
396.41, 5.38, 338.73
396.38, 5.41, 339.07
396.35, 5.44, 339.43
396.71, 5.29, 336.02
396.69, 5.29, 336.23
396.68, 5.30, 336.45
396.66, 5.30, 336.69
¯396.64, 5.30, 336.94
396.62, 5.31, 337.21
396.60, 5.31, 337.51
396.58, 5.32, 337.82
396.56, 5.33, 338.14
396.53, 5.35, 338.43
396.51, 5.38, 338.75
396.49, 5.41, 339.08
396.46, 5.44, 339.45
396.78, 5.29, 336.02
396.77, 5.30, 336.22
396.75, 5.30, 336.44
396.74, 5.30, 336.68
396.72, 5.31, 336.93
396.71, 5.31, 337.21
396.69, 5.32, 337.50
396.67, 5.32, 337.81
396.65, 5.32, 338.16
396.63, 5.35, 338.46
396.61, 5.38, 338.78
396.59, 5.41, 339.11
396.57, 5.44, 339.48
396.55, 5.47, 339.91
396.85, 5.30, 336.02
396.84, 5.30, 336.22
396.83, 5.31, 336.44
396.82, 5.31, 336.67
396.81, 5.31, 336.93
396.79, 5.32, 337.20
396.78, 5.32, 337.49
396.77, 5.33, 337.80
396.75, 5.32, 338.19
396.73, 5.35, 338.48
396.72, 5.37, 338.80
396.70, 5.40, 339.14
396.68, 5.44, 339.51
396.66, 5.46, 339.98
396.92, 5.30, 336.01
396.91, 5.31, 336.22
396.91, 5.31, 336.43
396.90, 5.31, 336.67
396.89, 5.32, 336.92
396.88, 5.32, 337.19
396.87, 5.33, 337.48
396.86, 5.33, 337.79
396.85, 5.32, 338.19
396.83, 5.34, 338.51
396.82, 5.37, 338.83
396.81, 5.40, 339.17
396.80, 5.43, 339.54
396.78, 5.44, 340.05
¯396.99, 5.30, 336.01
396.99, 5.31, 336.21
396.98, 5.32, 336.42
396.98, 5.32, 336.66
396.97, 5.32, 336.91
396.97, 5.33, 337.18
396.96, 5.33, 337.47
396.95, 5.34, 337.78
396.94, 5.33, 338.17
396.93, 5.34, 338.53
396.93, 5.37, 338.85
396.92, 5.40, 339.20
396.91, 5.43, 339.57
396.90, 5.43, 340.12
397.06, 5.31, 336.00
397.06, 5.31, 336.20
397.06, 5.32, 336.42
397.06, 5.32, 336.65
397.05, 5.33, 336.90
397.05, 5.33, 337.17
397.05, 5.34, 337.46
397.04, 5.34, 337.77
397.04, 5.34, 338.16
397.04, 5.34, 338.56
397.03, 5.36, 338.88
397.03, 5.39, 339.23
397.02, 5.42, 339.60
397.02, 5.42, 340.19
397.13, 5.31, 336.00
397.13, 5.32, 336.20
397.13, 5.32, 336.41
397.13, 5.33, 336.64
397.13, 5.33, 336.89
397.14, 5.34, 337.16
397.14, 5.34, 337.45
397.14, 5.35, 337.76
397.14, 5.34, 338.14
397.14, 5.33, 338.58
397.14, 5.36, 338.90
397.14, 5.39, 339.25
397.14, 5.42, 339.63
397.14, 5.41, 340.26
397.20, 5.32, 335.99
397.21, 5.32, 336.19
397.21, 5.33, 336.40
397.21, 5.33, 336.63
397.22, 5.34, 336.88
397.22, 5.34, 337.15
397.22, 5.35, 337.43
397.23, 5.36, 337.74
397.23, 5.35, 338.12
¯397.24, 5.33, 338.58
397.24, 5.36, 338.93
397.25, 5.38, 339.28
397.25, 5.42, 339.66
397.26, 5.40, 340.33
397.27, 5.32, 335.98
397.28, 5.33, 336.18
397.28, 5.33, 336.40
397.29, 5.34, 336.62
397.30, 5.34, 336.87
397.30, 5.35, 337.13
397.31, 5.36, 337.42
397.32, 5.36, 337.73
397.33, 5.36, 338.10
397.34, 5.34, 338.55
397.35, 5.35, 338.95
397.36, 5.38, 339.30
397.37, 5.41, 339.68
397.39, 5.38, 340.39
397.34, 5.32, 335.97
397.35, 5.33, 336.17
397.36, 5.34, 336.39
397.37, 5.34, 336.61
397.38, 5.35, 336.85
397.39, 5.36, 337.12
397.40, 5.36, 337.40
397.41, 5.37, 337.71
397.42, 5.37, 338.08
397.44, 5.35, 338.53
397.46, 5.35, 338.97
397.47, 5.38, 339.33
397.49, 5.41, 339.71
397.52, 5.37, 340.46
397.41, 5.33, 335.96
397.42, 5.33, 336.16
397.43, 5.34, 336.38
397.45, 5.35, 336.60
397.46, 5.35, 336.84
397.47, 5.36, 337.10
397.49, 5.37, 337.39
397.50, 5.37, 337.69
397.52, 5.37, 338.05
397.54, 5.36, 338.50
397.57, 5.34, 338.99
397.59, 5.37, 339.35
397.60, 5.40, 339.73
397.65, 5.36, 340.52
397.48, 5.33, 335.96
397.50, 5.34, 336.15
397.51, 5.34, 336.36
397.52, 5.35, 336.59
¯397.54, 5.36, 336.83
397.55, 5.37, 337.09
397.57, 5.37, 337.37
397.59, 5.38, 337.67
397.61, 5.38, 338.03
397.64, 5.36, 338.48
397.67, 5.35, 338.97
397.70, 5.37, 339.37
397.72, 5.40, 339.76
397.78, 5.35, 340.58
397.55, 5.33, 335.94
397.57, 5.34, 336.14
397.58, 5.35, 336.35
397.60, 5.35, 336.58
397.62, 5.36, 336.82
397.64, 5.37, 337.07
397.66, 5.38, 337.35
397.68, 5.38, 337.65
397.71, 5.39, 338.00
397.74, 5.37, 338.45
397.78, 5.36, 338.94
397.81, 5.36, 339.39
397.84, 5.39, 339.78
397.91, 5.34, 340.64
394.22, 5.09, 324.05
394.11, 5.09, 323.79
393.99, 5.08, 323.51
393.87, 5.07, 323.20
393.73, 5.06, 322.87
393.57, 5.05, 322.50
393.40, 5.04, 322.11
393.22, 5.02, 321.67
393.01, 5.01, 321.18
392.78, 4.99, 320.64
392.63, 5.04, 320.27
392.59, 5.15, 320.18
392.53, 5.26, 320.05
392.46, 5.37, 319.90
392.39, 5.48, 319.74
392.32, 5.59, 319.58
392.25, 5.71, 319.42
392.17, 5.83, 319.25
392.10, 5.95, 319.08
392.02, 6.08, 318.91
391.94, 6.21, 318.73
391.85, 6.34, 318.54
391.77, 6.48, 318.34
391.67, 6.62, 318.13
391.58, 6.77, 317.91
391.47, 6.92, 317.68
391.37, 7.08, 317.44
¯391.26, 7.24, 317.19
391.14, 7.41, 316.94
394.15, 5.09, 324.08
394.04, 5.08, 323.82
393.91, 5.07, 323.54
393.78, 5.06, 323.23
393.64, 5.05, 322.90
393.48, 5.04, 322.54
393.30, 5.03, 322.14
393.11, 5.02, 321.71
392.90, 5.00, 321.22
392.67, 4.99, 320.68
392.44, 4.99, 320.17
392.37, 5.10, 320.02
392.30, 5.20, 319.87
392.23, 5.31, 319.71
392.16, 5.43, 319.55
392.08, 5.54, 319.38
392.00, 5.66, 319.21
391.92, 5.78, 319.04
391.84, 5.91, 318.86
391.76, 6.04, 318.68
391.67, 6.17, 318.49
391.58, 6.30, 318.28
391.48, 6.45, 318.07
