ŸVERSION 0.7
FIELDS x y z
SIZE 8 8 8
TYPE F F F
COUNT 1 1 1
WIDTH 2263
HEIGHT 1
VIEWPOINT 430.23, 10.97, 347.74 1 432.29, 9.62, 327.28
POINTS 2263
DATA ascii
421.68, 7.33, 314.82
420.74, 7.40, 313.57
419.53, 7.47, 311.97
417.95, 7.55, 309.86
426.57, 6.97, 321.48
426.21, 6.96, 321.01
425.80, 6.95, 320.48
425.43, 6.98, 320.00
425.04, 7.00, 319.49
424.59, 7.04, 318.92
424.10, 7.07, 318.28
423.59, 7.12, 317.62
423.02, 7.18, 316.90
422.37, 7.24, 316.06
421.62, 7.31, 315.09
420.71, 7.39, 313.92
419.54, 7.47, 312.41
418.02, 7.54, 310.44
426.50, 6.96, 321.59
426.14, 6.95, 321.12
425.74, 6.95, 320.61
425.36, 6.97, 320.14
424.97, 7.00, 319.64
424.53, 7.03, 319.09
424.03, 7.06, 318.46
423.51, 7.11, 317.81
422.95, 7.17, 317.10
422.30, 7.23, 316.30
421.55, 7.30, 315.36
420.69, 7.38, 314.28
419.54, 7.45, 312.83
418.07, 7.53, 310.97
426.43, 6.95, 321.69
426.07, 6.94, 321.23
425.68, 6.94, 320.75
425.30, 6.96, 320.28
424.90, 6.99, 319.79
¯424.46, 7.02, 319.25
423.96, 7.05, 318.64
423.44, 7.10, 318.01
422.87, 7.15, 317.31
422.23, 7.22, 316.53
421.49, 7.29, 315.63
420.65, 7.37, 314.60
420.18, 7.54, 314.06
418.88, 7.62, 312.45
426.37, 6.94, 321.80
426.00, 6.93, 321.35
425.62, 6.94, 320.89
425.24, 6.95, 320.43
424.83, 6.98, 319.94
424.39, 7.01, 319.41
423.90, 7.04, 318.82
423.37, 7.09, 318.19
422.80, 7.14, 317.52
422.17, 7.20, 316.76
421.44, 7.27, 315.89
421.05, 7.43, 315.45
420.15, 7.52, 314.39
418.87, 7.60, 312.85
426.31, 6.93, 321.90
425.94, 6.93, 321.46
425.57, 6.93, 321.02
425.18, 6.95, 320.57
424.77, 6.97, 320.09
424.33, 7.00, 319.57
423.83, 7.03, 318.99
423.31, 7.08, 318.38
422.74, 7.13, 317.72
422.10, 7.19, 316.98
421.38, 7.26, 316.15
421.06, 7.42, 315.81
420.10, 7.50, 314.70
418.86, 7.58, 313.24
417.24, 7.67, 311.35
426.25, 6.93, 322.01
425.88, 6.92, 321.58
425.51, 6.93, 321.16
425.13, 6.94, 320.72
424.71, 6.96, 320.24
424.26, 6.99, 319.73
423.77, 7.02, 319.17
423.25, 7.07, 318.58
422.67, 7.12, 317.93
422.04, 7.18, 317.21
421.52, 7.28, 316.63
421.01, 7.41, 316.07
420.06, 7.49, 315.00
¯418.85, 7.57, 313.63
417.29, 7.65, 311.84
426.19, 6.92, 322.12
425.82, 6.91, 321.69
425.46, 6.92, 321.30
425.08, 6.94, 320.87
424.65, 6.96, 320.39
424.20, 6.98, 319.89
423.72, 7.01, 319.35
423.19, 7.06, 318.77
422.61, 7.11, 318.13
421.98, 7.16, 317.43
421.63, 7.30, 317.08
420.95, 7.39, 316.33
420.02, 7.47, 315.30
418.83, 7.55, 313.99
417.32, 7.64, 312.30
426.13, 6.91, 322.22
425.76, 6.90, 321.81
425.41, 6.92, 321.43
425.03, 6.93, 321.01
424.60, 6.95, 320.55
424.15, 6.97, 320.06
423.66, 7.01, 319.53
423.14, 7.05, 318.97
422.56, 7.09, 318.34
421.92, 7.15, 317.65
421.70, 7.31, 317.44
420.90, 7.37, 316.58
419.98, 7.45, 315.60
418.83, 7.53, 314.35
417.36, 7.62, 312.75
426.09, 6.91, 322.35
425.71, 6.90, 321.94
425.37, 6.91, 321.57
424.98, 6.93, 321.16
424.56, 6.94, 320.71
424.09, 6.96, 320.22
423.61, 7.00, 319.71
423.09, 7.04, 319.16
422.51, 7.08, 318.54
421.87, 7.14, 317.87
421.64, 7.29, 317.66
420.85, 7.36, 316.84
419.95, 7.44, 315.89
418.84, 7.52, 314.72
417.39, 7.60, 313.19
426.06, 6.91, 322.48
425.67, 6.89, 322.07
425.32, 6.91, 321.70
424.94, 6.92, 321.31
¯424.51, 6.94, 320.87
424.04, 6.96, 320.38
423.56, 6.99, 319.88
423.04, 7.03, 319.35
422.46, 7.07, 318.75
421.88, 7.14, 318.16
421.58, 7.28, 317.88
420.81, 7.34, 317.09
419.89, 7.41, 316.15
418.84, 7.50, 315.07
417.43, 7.58, 313.61
415.47, 7.66, 311.59
426.02, 6.90, 322.60
425.62, 6.89, 322.19
425.27, 6.90, 321.84
424.89, 6.91, 321.45
424.47, 6.93, 321.02
424.00, 6.95, 320.55
423.51, 6.98, 320.05
422.99, 7.02, 319.53
422.41, 7.06, 318.95
421.93, 7.14, 318.48
421.53, 7.26, 318.10
420.75, 7.32, 317.32
419.85, 7.40, 316.42
418.81, 7.48, 315.38
417.46, 7.57, 314.02
415.57, 7.64, 312.12
425.97, 6.90, 322.71
425.58, 6.88, 322.31
425.22, 6.89, 321.96
424.84, 6.91, 321.58
424.42, 6.92, 321.16
423.95, 6.94, 320.70
423.45, 6.97, 320.21
422.93, 7.00, 319.71
422.35, 7.05, 319.14
421.98, 7.15, 318.80
421.48, 7.24, 318.32
420.71, 7.31, 317.56
419.81, 7.38, 316.69
418.79, 7.46, 315.69
417.49, 7.55, 314.42
415.68, 7.63, 312.63
425.93, 6.89, 322.82
425.54, 6.88, 322.44
425.18, 6.88, 322.09
424.79, 6.90, 321.72
424.37, 6.91, 321.31
423.90, 6.93, 320.86
423.40, 6.95, 320.38
¯422.88, 6.99, 319.88
422.30, 7.03, 319.33
421.98, 7.15, 319.05
421.44, 7.23, 318.54
420.66, 7.29, 317.80
419.78, 7.36, 316.96
418.78, 7.44, 316.00
417.53, 7.53, 314.81
415.78, 7.61, 313.14
425.88, 6.88, 322.93
425.51, 6.87, 322.57
425.13, 6.88, 322.21
424.74, 6.89, 321.85
424.32, 6.90, 321.45
423.85, 6.92, 321.01
423.36, 6.95, 320.55
422.83, 6.98, 320.05
422.25, 7.02, 319.52
421.98, 7.14, 319.29
421.39, 7.21, 318.75
420.59, 7.27, 318.00
419.75, 7.34, 317.23
418.77, 7.42, 316.31
417.53, 7.51, 315.16
415.89, 7.59, 313.63
425.84, 6.88, 323.04
425.48, 6.87, 322.70
425.09, 6.87, 322.35
424.70, 6.88, 321.99
424.28, 6.89, 321.60
423.81, 6.91, 321.17
423.32, 6.94, 320.72
422.78, 6.96, 320.23
422.20, 7.00, 319.70
421.97, 7.14, 319.52
421.34, 7.20, 318.95
420.55, 7.25, 318.24
419.72, 7.32, 317.48
418.74, 7.40, 316.60
417.56, 7.49, 315.52
415.99, 7.58, 314.09
425.80, 6.87, 323.15
425.45, 6.87, 322.83
425.06, 6.87, 322.49
424.66, 6.87, 322.12
424.23, 6.89, 321.74
423.77, 6.90, 321.32
423.28, 6.93, 320.89
422.73, 6.95, 320.40
422.15, 6.99, 319.89
421.96, 7.13, 319.75
¯421.29, 7.18, 319.16
420.52, 7.23, 318.47
419.68, 7.30, 317.73
418.69, 7.38, 316.86
417.60, 7.47, 315.89
416.07, 7.56, 314.54
425.77, 6.87, 323.27
425.42, 6.87, 322.96
425.04, 6.86, 322.62
424.62, 6.86, 322.25
424.19, 6.88, 321.88
423.73, 6.89, 321.48
423.24, 6.92, 321.06
422.70, 6.94, 320.58
422.11, 6.98, 320.07
421.96, 7.12, 319.97
421.25, 7.16, 319.36
420.49, 7.22, 318.70
419.65, 7.29, 317.98
418.67, 7.36, 317.14
417.58, 7.45, 316.20
416.16, 7.54, 314.97
414.07, 7.62, 313.15
425.74, 6.86, 323.39
425.39, 6.86, 323.09
425.01, 6.86, 322.76
424.59, 6.86, 322.40
424.15, 6.87, 322.03
423.69, 6.88, 321.64
423.21, 6.91, 321.22
422.66, 6.93, 320.76
422.06, 6.96, 320.26
421.92, 7.11, 320.16
421.21, 7.15, 319.57
420.46, 7.20, 318.93
419.58, 7.26, 318.20
418.66, 7.34, 317.42
417.57, 7.43, 316.51
416.22, 7.52, 315.37
414.21, 7.60, 313.67
425.72, 6.86, 323.51
425.37, 6.86, 323.22
424.99, 6.86, 322.90
424.57, 6.86, 322.55
424.12, 6.86, 322.17
423.66, 6.88, 321.79
423.17, 6.90, 321.39
422.63, 6.92, 320.94
422.03, 6.95, 320.45
421.88, 7.09, 320.35
421.18, 7.13, 319.77
¯420.39, 7.18, 319.12
419.53, 7.24, 318.42
418.66, 7.32, 317.71
417.59, 7.41, 316.83
416.29, 7.50, 315.77
414.34, 7.58, 314.16
425.69, 6.86, 323.63
425.35, 6.86, 323.35
424.97, 6.86, 323.04
424.55, 6.85, 322.70
424.09, 6.85, 322.32
423.63, 6.87, 321.95
423.14, 6.89, 321.55
422.60, 6.91, 321.12
421.99, 6.94, 320.63
421.84, 7.08, 320.54
421.14, 7.12, 319.98
420.35, 7.16, 319.34
419.52, 7.22, 318.67
418.61, 7.30, 317.95
417.58, 7.39, 317.13
416.32, 7.48, 316.12
414.49, 7.56, 314.65
425.67, 6.86, 323.75
425.33, 6.85, 323.47
424.95, 6.85, 323.17
424.53, 6.85, 322.84
424.07, 6.85, 322.48
423.60, 6.86, 322.10
423.11, 6.88, 321.71
422.56, 6.90, 321.28
421.96, 6.92, 320.81
421.81, 7.06, 320.72
421.10, 7.10, 320.17
420.33, 7.14, 319.56
419.50, 7.20, 318.92
418.60, 7.28, 318.22
417.55, 7.36, 317.40
416.35, 7.46, 316.47
414.65, 7.54, 315.13
425.65, 6.85, 323.86
425.31, 6.85, 323.60
424.93, 6.85, 323.31
424.52, 6.85, 322.98
424.04, 6.84, 322.62
423.56, 6.85, 322.24
423.07, 6.86, 321.86
422.52, 6.89, 321.45
421.92, 6.91, 320.98
421.78, 7.05, 320.91
421.06, 7.08, 320.36
¯420.30, 7.13, 319.78
419.47, 7.18, 319.14
418.54, 7.25, 318.44
417.53, 7.34, 317.68
416.39, 7.44, 316.82
414.80, 7.53, 315.61
425.63, 6.85, 323.98
425.29, 6.85, 323.72
424.91, 6.84, 323.43
424.48, 6.84, 323.11
424.01, 6.83, 322.75
423.53, 6.84, 322.39
423.03, 6.85, 322.02
422.49, 6.87, 321.61
421.89, 6.90, 321.16
421.75, 7.04, 321.09
421.04, 7.07, 320.56
420.28, 7.11, 320.00
419.39, 7.15, 319.34
418.48, 7.22, 318.66
417.54, 7.32, 317.97
416.40, 7.41, 317.13
414.94, 7.51, 316.05
412.72, 7.59, 314.39
425.61, 6.85, 324.09
425.26, 6.84, 323.84
424.87, 6.84, 323.55
424.45, 6.83, 323.24
423.98, 6.82, 322.89
423.50, 6.83, 322.54
423.00, 6.84, 322.17
422.46, 6.86, 321.78
421.86, 6.88, 321.35
421.72, 7.02, 321.27
421.02, 7.05, 320.76
420.22, 7.09, 320.18
419.38, 7.14, 319.57
418.48, 7.20, 318.92
417.52, 7.29, 318.24
416.41, 7.39, 317.44
413.96, 7.38, 315.64
412.93, 7.57, 314.92
425.58, 6.84, 324.20
425.23, 6.83, 323.95
424.84, 6.83, 323.67
424.42, 6.82, 323.37
423.95, 6.81, 323.03
423.48, 6.82, 322.69
422.97, 6.83, 322.33
422.43, 6.85, 321.94
421.83, 6.87, 321.52
¯421.70, 7.01, 321.46
421.00, 7.04, 320.96
420.19, 7.07, 320.39
419.37, 7.12, 319.81
418.48, 7.18, 319.18
417.51, 7.27, 318.51
416.41, 7.36, 317.74
413.96, 7.35, 315.98
412.43, 7.49, 314.91
425.56, 6.83, 324.31
425.20, 6.82, 324.06
424.82, 6.82, 323.79
424.39, 6.81, 323.49
423.93, 6.80, 323.17
423.46, 6.81, 322.84
422.95, 6.82, 322.49
422.40, 6.83, 322.10
421.80, 6.85, 321.69
421.68, 6.99, 321.64
420.98, 7.02, 321.15
420.18, 7.05, 320.60
419.35, 7.10, 320.04
418.41, 7.15, 319.39
417.46, 7.24, 318.74
416.40, 7.33, 318.03
413.97, 7.31, 316.32
412.07, 7.41, 315.01
425.54, 6.83, 324.42
425.17, 6.82, 324.17
424.79, 6.81, 323.91
424.37, 6.80, 323.62
423.90, 6.79, 323.30
423.44, 6.80, 322.99
422.93, 6.81, 322.65
422.37, 6.82, 322.27
421.78, 6.84, 321.87
421.66, 6.98, 321.82
420.94, 7.00, 321.33
420.17, 7.04, 320.82
419.28, 7.07, 320.22
418.36, 7.13, 319.60
417.40, 7.21, 318.97
416.40, 7.31, 318.31
413.92, 7.28, 316.62
412.07, 7.38, 315.38
425.52, 6.83, 324.54
425.15, 6.81, 324.29
424.76, 6.80, 324.03
424.34, 6.79, 323.75
423.88, 6.79, 323.44
423.42, 6.79, 323.13
¯422.92, 6.80, 322.80
422.36, 6.81, 322.44
421.76, 6.83, 322.04
421.64, 6.97, 321.99
420.93, 6.99, 321.53
420.16, 7.02, 321.03
419.27, 7.05, 320.44
418.36, 7.11, 319.85
417.39, 7.18, 319.23
415.59, 7.18, 318.03
413.87, 7.24, 316.90
412.08, 7.34, 315.74
425.51, 6.82, 324.65
425.14, 6.81, 324.41
424.74, 6.79, 324.15
424.32, 6.79, 323.88
423.86, 6.78, 323.57
423.40, 6.78, 323.28
422.90, 6.79, 322.96
422.35, 6.80, 322.60
421.74, 6.81, 322.21
421.60, 6.95, 322.16
420.92, 6.97, 321.72
420.11, 7.00, 321.21
419.27, 7.04, 320.67
418.33, 7.08, 320.07
417.34, 7.15, 319.46
415.52, 7.14, 318.28
413.82, 7.20, 317.19
412.09, 7.30, 316.10
425.49, 6.82, 324.76
425.13, 6.80, 324.53
424.73, 6.79, 324.27
424.30, 6.78, 324.00
423.84, 6.77, 323.71
423.39, 6.77, 323.43
422.89, 6.78, 323.12
422.34, 6.79, 322.77
421.72, 6.80, 322.39
421.56, 6.93, 322.32
420.91, 6.96, 321.92
420.11, 6.98, 321.41
419.27, 7.02, 320.90
418.26, 7.05, 320.27
417.28, 7.12, 319.67
415.44, 7.10, 318.51
413.77, 7.16, 317.47
412.10, 7.26, 316.45
425.48, 6.81, 324.87
425.12, 6.80, 324.64
424.72, 6.78, 324.40
¯424.28, 6.77, 324.13
423.82, 6.76, 323.84
423.37, 6.77, 323.57
422.88, 6.77, 323.27
422.33, 6.78, 322.94
421.72, 6.79, 322.57
421.52, 6.91, 322.47
420.91, 6.95, 322.11
420.11, 6.97, 321.62
419.21, 6.99, 321.08
418.27, 7.03, 320.51
417.27, 7.10, 319.92
415.35, 7.07, 318.74
413.72, 7.12, 317.76
412.05, 7.22, 316.76
425.47, 6.81, 324.98
425.11, 6.80, 324.76
424.71, 6.78, 324.52
424.27, 6.76, 324.26
423.81, 6.75, 323.98
423.36, 6.76, 323.72
422.87, 6.77, 323.43
422.32, 6.77, 323.10
421.72, 6.78, 322.75
421.49, 6.89, 322.63
420.91, 6.93, 322.30
420.11, 6.95, 321.83
419.21, 6.97, 321.30
418.26, 7.01, 320.75
417.21, 7.06, 320.13
415.27, 7.03, 318.97
413.68, 7.08, 318.04
412.01, 7.18, 317.07
425.46, 6.81, 325.09
425.10, 6.79, 324.88
424.71, 6.78, 324.65
424.27, 6.76, 324.39
423.80, 6.74, 324.12
423.35, 6.75, 323.86
422.86, 6.76, 323.58
422.32, 6.76, 323.27
421.72, 6.77, 322.92
421.43, 6.87, 322.78
420.89, 6.92, 322.47
420.12, 6.94, 322.04
419.22, 6.96, 321.52
418.20, 6.98, 320.94
417.16, 7.03, 320.35
415.19, 6.99, 319.20
413.62, 7.04, 318.31
411.97, 7.14, 317.38
¯425.45, 6.80, 325.20
425.10, 6.79, 324.99
424.70, 6.77, 324.77
424.27, 6.75, 324.52
423.79, 6.74, 324.25
423.34, 6.74, 324.00
422.86, 6.75, 323.73
422.32, 6.75, 323.43
421.72, 6.76, 323.10
421.38, 6.84, 322.93
420.90, 6.91, 322.67
420.09, 6.92, 322.22
419.23, 6.94, 321.74
418.21, 6.96, 321.17
417.14, 7.01, 320.58
415.11, 6.95, 319.43
413.53, 7.00, 318.56
411.93, 7.10, 317.68
425.45, 6.80, 325.31
425.09, 6.78, 325.11
424.70, 6.77, 324.89
424.27, 6.75, 324.65
423.78, 6.73, 324.39
423.34, 6.73, 324.14
422.85, 6.74, 323.88
422.32, 6.75, 323.59
421.72, 6.75, 323.27
421.32, 6.82, 323.07
420.91, 6.89, 322.86
420.09, 6.90, 322.41
419.20, 6.92, 321.93
418.24, 6.95, 321.41
417.08, 6.97, 320.79
414.98, 6.90, 319.63
413.42, 6.95, 318.80
411.90, 7.05, 317.99
425.44, 6.80, 325.42
425.09, 6.78, 325.23
424.70, 6.77, 325.02
424.26, 6.74, 324.78
423.78, 6.72, 324.52
423.34, 6.73, 324.29
422.85, 6.73, 324.03
422.32, 6.74, 323.75
421.73, 6.74, 323.44
421.26, 6.79, 323.20
420.92, 6.88, 323.05
420.11, 6.89, 322.62
419.19, 6.90, 322.13
418.19, 6.92, 321.61
417.09, 6.95, 321.04
¯414.86, 6.85, 319.84
413.33, 6.91, 319.04
411.86, 7.01, 318.29
425.44, 6.79, 325.52
425.09, 6.78, 325.34
424.70, 6.76, 325.14
424.26, 6.74, 324.91
423.78, 6.72, 324.66
423.34, 6.72, 324.43
422.85, 6.72, 324.18
422.32, 6.73, 323.91
421.74, 6.73, 323.61
421.20, 6.77, 323.34
420.94, 6.87, 323.23
420.14, 6.88, 322.82
419.22, 6.88, 322.36
418.16, 6.89, 321.82
417.03, 6.92, 321.24
414.73, 6.81, 320.04
413.23, 6.86, 319.28
411.79, 6.97, 318.57
410.39, 7.11, 317.88
425.44, 6.79, 325.63
425.09, 6.77, 325.45
424.69, 6.76, 325.25
424.25, 6.73, 325.03
423.78, 6.71, 324.79
423.34, 6.71, 324.57
422.86, 6.72, 324.33
422.33, 6.72, 324.07
421.75, 6.72, 323.78
421.13, 6.74, 323.48
420.95, 6.86, 323.42
420.16, 6.87, 323.02
419.25, 6.87, 322.58
418.21, 6.88, 322.06
416.99, 6.89, 321.45
414.61, 6.76, 320.25
413.13, 6.82, 319.52
411.71, 6.92, 318.83
410.37, 7.07, 318.20
425.44, 6.79, 325.74
425.08, 6.77, 325.56
424.69, 6.75, 325.37
424.25, 6.73, 325.15
423.78, 6.70, 324.92
423.34, 6.71, 324.71
422.86, 6.71, 324.48
422.33, 6.71, 324.23
421.76, 6.71, 323.95
421.10, 6.72, 323.63
¯420.97, 6.85, 323.60
420.19, 6.85, 323.22
419.29, 6.86, 322.79
418.26, 6.86, 322.30
417.02, 6.87, 321.70
414.53, 6.72, 320.47
413.02, 6.77, 319.76
411.62, 6.87, 319.10
410.32, 7.02, 318.51
425.44, 6.78, 325.84
425.08, 6.76, 325.67
424.69, 6.74, 325.48
424.25, 6.72, 325.28
423.78, 6.70, 325.05
423.35, 6.70, 324.85
422.87, 6.70, 324.63
422.35, 6.70, 324.39
421.77, 6.71, 324.12
421.10, 6.70, 323.81
420.95, 6.83, 323.76
420.18, 6.84, 323.40
419.26, 6.83, 322.97
418.20, 6.83, 322.48
416.97, 6.83, 321.90
414.46, 6.68, 320.70
412.92, 6.72, 319.99
411.54, 6.82, 319.37
410.22, 6.96, 318.79
425.43, 6.78, 325.94
425.08, 6.76, 325.78
424.69, 6.74, 325.60
424.26, 6.72, 325.40
423.79, 6.69, 325.18
423.36, 6.69, 324.99
422.88, 6.69, 324.78
422.36, 6.70, 324.54
421.78, 6.70, 324.28
421.11, 6.69, 323.98
420.89, 6.80, 323.90
420.20, 6.82, 323.59
419.28, 6.82, 323.17
418.20, 6.81, 322.69
416.94, 6.80, 322.12
414.41, 6.64, 320.94
412.82, 6.67, 320.23
411.47, 6.77, 319.64
410.13, 6.91, 319.07
425.43, 6.77, 326.05
425.08, 6.75, 325.89
424.69, 6.73, 325.71
424.26, 6.71, 325.52
¯423.79, 6.69, 325.31
423.36, 6.69, 325.13
422.90, 6.69, 324.92
422.38, 6.69, 324.70
421.79, 6.69, 324.44
421.12, 6.68, 324.15
420.83, 6.77, 324.04
420.23, 6.81, 323.79
419.31, 6.80, 323.38
418.25, 6.80, 322.92
417.01, 6.79, 322.38
414.37, 6.60, 321.19
412.77, 6.63, 320.49
411.38, 6.72, 319.90
410.07, 6.86, 319.36
425.43, 6.77, 326.15
425.08, 6.75, 325.99
424.69, 6.73, 325.83
424.27, 6.70, 325.64
423.80, 6.68, 325.44
423.37, 6.68, 325.26
422.91, 6.68, 325.07
422.39, 6.68, 324.85
421.81, 6.68, 324.60
421.14, 6.67, 324.32
420.76, 6.74, 324.17
420.26, 6.80, 323.97
419.35, 6.79, 323.59
418.30, 6.78, 323.15
416.99, 6.76, 322.59
414.33, 6.57, 321.43
412.74, 6.59, 320.76
411.29, 6.67, 320.17
410.00, 6.81, 319.65
425.57, 6.82, 326.32
425.08, 6.74, 326.10
424.69, 6.72, 325.94
424.27, 6.70, 325.76
423.81, 6.67, 325.57
423.39, 6.68, 325.40
422.92, 6.68, 325.21
422.41, 6.67, 325.00
421.83, 6.67, 324.76
421.17, 6.66, 324.49
420.68, 6.71, 324.30
420.29, 6.79, 324.16
419.39, 6.78, 323.80
418.35, 6.77, 323.37
416.95, 6.73, 322.79
414.30, 6.53, 321.67
412.70, 6.55, 321.02
¯411.23, 6.63, 320.44
409.94, 6.76, 319.94
425.75, 6.88, 326.50
425.15, 6.76, 326.24
424.70, 6.72, 326.05
424.28, 6.69, 325.88
423.82, 6.67, 325.70
423.40, 6.67, 325.53
422.94, 6.67, 325.35
422.42, 6.67, 325.15
421.85, 6.66, 324.92
421.19, 6.65, 324.66
420.60, 6.67, 324.43
420.32, 6.78, 324.35
419.44, 6.77, 324.00
418.31, 6.74, 323.55
416.99, 6.71, 323.03
414.27, 6.49, 321.91
412.65, 6.51, 321.28
411.19, 6.58, 320.72
409.89, 6.71, 320.24
425.85, 6.91, 326.64
425.36, 6.83, 326.44
424.71, 6.71, 326.17
424.29, 6.69, 326.00
423.83, 6.66, 325.82
423.41, 6.66, 325.67
422.95, 6.66, 325.49
422.44, 6.66, 325.30
421.88, 6.65, 325.08
421.22, 6.64, 324.83
420.52, 6.64, 324.56
420.36, 6.77, 324.53
419.45, 6.75, 324.19
418.35, 6.72, 323.76
417.08, 6.70, 323.28
415.36, 6.63, 322.61
412.60, 6.46, 321.53
411.16, 6.54, 321.00
409.82, 6.66, 320.52
425.93, 6.93, 326.76
425.56, 6.89, 326.62
424.93, 6.78, 326.37
424.30, 6.68, 326.12
423.84, 6.66, 325.95
423.43, 6.66, 325.80
422.97, 6.65, 325.63
422.46, 6.65, 325.44
421.90, 6.65, 325.24
421.25, 6.63, 325.00
420.53, 6.62, 324.73
¯420.37, 6.75, 324.70
419.48, 6.74, 324.38
418.42, 6.71, 323.99
417.17, 6.69, 323.53
415.44, 6.61, 322.88
412.55, 6.42, 321.79
411.12, 6.49, 321.28
409.74, 6.61, 320.80
426.00, 6.95, 326.89
425.74, 6.95, 326.79
425.15, 6.85, 326.57
424.46, 6.73, 326.30
423.86, 6.65, 326.07
423.44, 6.65, 325.93
422.98, 6.65, 325.77
422.48, 6.64, 325.59
421.93, 6.64, 325.39
421.29, 6.63, 325.17
420.57, 6.61, 324.91
420.30, 6.72, 324.84
419.54, 6.73, 324.58
418.49, 6.70, 324.21
417.21, 6.67, 323.75
415.55, 6.60, 323.16
412.50, 6.38, 322.04
410.96, 6.43, 321.51
409.65, 6.55, 321.08
426.08, 6.98, 327.01
425.84, 6.98, 326.93
425.36, 6.91, 326.75
424.71, 6.80, 326.51
423.94, 6.67, 326.22
423.45, 6.64, 326.05
423.00, 6.64, 325.90
422.50, 6.63, 325.73
421.95, 6.63, 325.55
421.32, 6.62, 325.33
420.61, 6.61, 325.09
420.22, 6.68, 324.98
419.60, 6.72, 324.77
418.57, 6.69, 324.42
417.25, 6.65, 323.97
415.66, 6.59, 323.42
412.48, 6.34, 322.30
410.79, 6.37, 321.74
409.57, 6.50, 321.36
426.15, 7.00, 327.12
425.93, 7.01, 327.05
425.56, 6.98, 326.93
424.95, 6.87, 326.71
424.23, 6.75, 326.45
¯423.49, 6.64, 326.19
423.02, 6.63, 326.04
422.53, 6.63, 325.88
421.98, 6.62, 325.70
421.36, 6.61, 325.50
420.65, 6.60, 325.26
420.13, 6.64, 325.11
419.66, 6.71, 324.97
418.65, 6.69, 324.64
417.34, 6.64, 324.20
415.76, 6.57, 323.68
412.59, 6.32, 322.61
410.63, 6.30, 321.97
409.42, 6.43, 321.61
426.23, 7.02, 327.23
426.00, 7.03, 327.17
425.75, 7.03, 327.09
425.18, 6.94, 326.89
424.51, 6.83, 326.66
423.73, 6.70, 326.40
423.04, 6.63, 326.17
422.55, 6.62, 326.02
422.01, 6.61, 325.85
421.39, 6.60, 325.66
420.69, 6.59, 325.44
420.03, 6.60, 325.23
419.72, 6.70, 325.16
418.72, 6.68, 324.85
417.45, 6.63, 324.44
415.86, 6.56, 323.94
412.70, 6.30, 322.91
410.46, 6.24, 322.21
426.30, 7.04, 327.34
426.08, 7.05, 327.28
425.85, 7.06, 327.21
425.39, 7.00, 327.07
424.76, 6.90, 326.86
424.01, 6.78, 326.61
423.31, 6.69, 326.39
422.57, 6.61, 326.16
422.04, 6.61, 326.00
421.43, 6.60, 325.82
420.74, 6.58, 325.61
419.96, 6.57, 325.38
419.79, 6.69, 325.35
418.76, 6.66, 325.04
417.56, 6.62, 324.68
415.97, 6.55, 324.20
413.93, 6.45, 323.57
410.50, 6.20, 322.51
426.37, 7.06, 327.45
¯426.16, 7.07, 327.39
425.93, 7.08, 327.33
425.59, 7.06, 327.23
425.00, 6.96, 327.04
424.31, 6.85, 326.83
423.57, 6.75, 326.60
422.85, 6.67, 326.38
422.07, 6.60, 326.15
421.47, 6.59, 325.97
420.79, 6.57, 325.78
420.02, 6.56, 325.56
419.76, 6.67, 325.51
418.84, 6.65, 325.25
417.67, 6.62, 324.91
416.11, 6.54, 324.46
414.12, 6.44, 323.88
410.60, 6.17, 322.83
426.44, 7.08, 327.55
426.23, 7.09, 327.50
426.01, 7.10, 327.44
425.78, 7.11, 327.38
425.23, 7.03, 327.22
424.58, 6.93, 327.02
423.81, 6.81, 326.79
423.14, 6.74, 326.60
422.36, 6.66, 326.37
421.51, 6.58, 326.13
420.83, 6.57, 325.95
420.08, 6.55, 325.74
419.69, 6.63, 325.65
418.94, 6.65, 325.45
417.78, 6.61, 325.13
416.26, 6.54, 324.71
414.32, 6.44, 324.17
410.69, 6.14, 323.14
426.50, 7.09, 327.65
426.30, 7.11, 327.60
426.09, 7.12, 327.55
425.87, 7.13, 327.50
425.44, 7.09, 327.38
424.84, 6.99, 327.21
424.11, 6.89, 327.00
423.41, 6.80, 326.80
422.68, 6.73, 326.60
421.65, 6.60, 326.31
420.88, 6.56, 326.11
420.13, 6.54, 325.92
419.58, 6.58, 325.78
419.03, 6.64, 325.65
417.89, 6.60, 325.36
416.40, 6.53, 324.96
¯414.52, 6.44, 324.46
410.79, 6.12, 323.45
440.35, 7.15, 327.79
440.74, 7.15, 327.75
441.17, 7.15, 327.71
441.63, 7.16, 327.66
442.13, 7.16, 327.61
442.69, 7.17, 327.56
443.30, 7.18, 327.50
443.72, 7.24, 327.47
444.15, 7.31, 327.44
444.63, 7.38, 327.40
446.79, 7.20, 327.15
440.39, 7.15, 327.69
440.79, 7.16, 327.64
441.22, 7.16, 327.59
441.69, 7.16, 327.54
442.20, 7.17, 327.49
442.76, 7.17, 327.42
443.38, 7.18, 327.35
443.78, 7.25, 327.32
444.21, 7.32, 327.28
445.01, 7.34, 327.20
446.81, 7.23, 326.97
440.43, 7.16, 327.58
440.83, 7.16, 327.53
441.27, 7.16, 327.48
441.74, 7.16, 327.42
442.26, 7.17, 327.36
442.83, 7.18, 327.28
443.42, 7.20, 327.21
443.83, 7.26, 327.17
444.26, 7.33, 327.13
446.17, 7.18, 326.86
446.83, 7.25, 326.79
440.47, 7.16, 327.48
440.88, 7.16, 327.42
441.32, 7.16, 327.36
441.80, 7.17, 327.30
442.32, 7.18, 327.22
442.90, 7.18, 327.15
443.47, 7.21, 327.07
443.88, 7.27, 327.03
444.53, 7.31, 326.94
446.19, 7.20, 326.69
446.85, 7.28, 326.62
440.51, 7.16, 327.37
440.92, 7.16, 327.31
441.37, 7.17, 327.24
441.85, 7.17, 327.17
442.38, 7.18, 327.09
¯442.97, 7.19, 327.00
443.51, 7.22, 326.93
443.93, 7.29, 326.88
444.90, 7.27, 326.73
446.20, 7.22, 326.52
446.86, 7.30, 326.44
440.55, 7.17, 327.26
440.96, 7.17, 327.20
441.42, 7.17, 327.12
441.90, 7.18, 327.04
442.44, 7.18, 326.96
443.04, 7.19, 326.86
443.56, 7.23, 326.78
444.06, 7.28, 326.71
445.28, 7.23, 326.50
446.21, 7.25, 326.35
446.88, 7.33, 326.26
440.58, 7.17, 327.15
441.00, 7.17, 327.08
441.47, 7.17, 327.00
441.96, 7.18, 326.91
442.50, 7.19, 326.82
443.10, 7.20, 326.71
443.60, 7.24, 326.63
444.40, 7.24, 326.49
445.61, 7.20, 326.27
446.22, 7.27, 326.18
446.88, 7.36, 326.08
440.62, 7.17, 327.04
441.05, 7.17, 326.96
441.51, 7.18, 326.88
442.01, 7.18, 326.78
442.56, 7.19, 326.68
443.17, 7.20, 326.57
443.65, 7.25, 326.49
444.75, 7.20, 326.27
445.61, 7.22, 326.11
446.21, 7.30, 326.01
446.86, 7.38, 325.90
440.65, 7.18, 326.93
441.08, 7.18, 326.85
441.55, 7.18, 326.75
442.06, 7.19, 326.65
442.61, 7.20, 326.54
443.23, 7.21, 326.42
443.91, 7.22, 326.28
444.96, 7.19, 326.06
445.60, 7.25, 325.95
446.20, 7.33, 325.84
447.01, 7.39, 325.69
440.69, 7.18, 326.82
¯441.12, 7.18, 326.73
441.59, 7.19, 326.63
442.10, 7.19, 326.52
442.67, 7.20, 326.40
443.30, 7.21, 326.27
444.12, 7.20, 326.09
445.05, 7.19, 325.88
445.58, 7.27, 325.78
446.18, 7.35, 325.67
440.72, 7.18, 326.71
441.16, 7.18, 326.61
441.64, 7.19, 326.50
442.15, 7.20, 326.38
442.72, 7.21, 326.26
443.36, 7.22, 326.11
444.21, 7.20, 325.92
445.03, 7.22, 325.73
445.56, 7.30, 325.62
446.16, 7.38, 325.50
440.75, 7.18, 326.59
441.19, 7.19, 326.49
441.67, 7.19, 326.37
442.20, 7.20, 326.25
442.78, 7.21, 326.11
443.44, 7.22, 325.95
444.30, 7.21, 325.74
445.02, 7.24, 325.57
445.54, 7.32, 325.46
446.14, 7.40, 325.33
440.78, 7.19, 326.48
441.23, 7.19, 326.36
441.71, 7.20, 326.24
442.24, 7.21, 326.11
442.83, 7.22, 325.96
443.52, 7.22, 325.79
444.40, 7.21, 325.56
444.99, 7.26, 325.42
445.52, 7.35, 325.30
446.11, 7.43, 325.16
440.81, 7.19, 326.36
441.26, 7.19, 326.24
441.75, 7.20, 326.11
442.28, 7.21, 325.97
442.88, 7.22, 325.81
443.60, 7.22, 325.62
444.49, 7.21, 325.38
444.97, 7.29, 325.26
445.49, 7.37, 325.14
446.10, 7.46, 324.99
440.84, 7.19, 326.24
441.30, 7.20, 326.11
¯441.79, 7.21, 325.98
442.32, 7.21, 325.83
442.93, 7.22, 325.66
443.67, 7.22, 325.45
444.48, 7.23, 325.23
444.95, 7.31, 325.11
445.47, 7.40, 324.98
446.84, 7.37, 324.59
440.86, 7.20, 326.12
441.33, 7.20, 325.99
441.82, 7.21, 325.84
442.37, 7.22, 325.69
442.99, 7.23, 325.50
443.75, 7.22, 325.28
444.45, 7.25, 325.08
444.92, 7.33, 324.95
445.44, 7.42, 324.82
440.89, 7.20, 326.00
441.35, 7.20, 325.86
441.85, 7.21, 325.71
442.40, 7.22, 325.54
443.04, 7.23, 325.35
443.82, 7.23, 325.11
444.43, 7.27, 324.93
444.90, 7.36, 324.80
445.41, 7.44, 324.66
440.92, 7.20, 325.88
441.38, 7.21, 325.73
441.88, 7.22, 325.57
442.44, 7.23, 325.40
443.09, 7.23, 325.19
443.89, 7.23, 324.93
444.40, 7.29, 324.78
444.87, 7.38, 324.64
445.38, 7.47, 324.49
440.94, 7.20, 325.76
441.41, 7.21, 325.60
441.91, 7.22, 325.44
442.48, 7.23, 325.25
443.15, 7.24, 325.03
443.93, 7.24, 324.76
444.37, 7.31, 324.63
444.84, 7.40, 324.49
445.34, 7.49, 324.33
440.97, 7.21, 325.63
441.43, 7.22, 325.47
441.94, 7.23, 325.30
442.52, 7.23, 325.10
443.20, 7.24, 324.86
443.90, 7.26, 324.62
444.34, 7.34, 324.48
¯444.81, 7.42, 324.33
446.77, 7.30, 323.63
440.98, 7.21, 325.51
441.45, 7.22, 325.34
441.97, 7.23, 325.16
442.56, 7.24, 324.94
443.25, 7.24, 324.70
443.87, 7.28, 324.47
444.31, 7.36, 324.33
444.80, 7.44, 324.17
446.84, 7.32, 323.41
441.00, 7.21, 325.38
441.47, 7.22, 325.21
441.99, 7.23, 325.01
442.60, 7.24, 324.79
443.29, 7.25, 324.53
443.84, 7.30, 324.33
444.29, 7.37, 324.17
444.84, 7.45, 323.98
446.90, 7.33, 323.18
441.01, 7.22, 325.26
441.49, 7.23, 325.08
442.02, 7.24, 324.87
442.64, 7.24, 324.63
443.34, 7.25, 324.36
443.82, 7.31, 324.18
444.33, 7.38, 323.99
444.89, 7.46, 323.79
446.96, 7.34, 322.96
441.03, 7.22, 325.13
441.51, 7.23, 324.94
442.04, 7.24, 324.73
442.67, 7.25, 324.47
443.37, 7.25, 324.19
443.85, 7.32, 324.01
444.37, 7.39, 323.81
446.19, 7.28, 323.05
447.02, 7.35, 322.73
441.04, 7.23, 325.01
441.52, 7.24, 324.81
442.07, 7.24, 324.58
442.70, 7.25, 324.31
443.40, 7.26, 324.02
443.88, 7.33, 323.83
444.40, 7.40, 323.63
446.24, 7.29, 322.84
447.08, 7.36, 322.50
441.05, 7.23, 324.88
441.53, 7.24, 324.67
442.09, 7.25, 324.43
442.74, 7.25, 324.15
¯443.42, 7.27, 323.86
443.91, 7.33, 323.66
444.44, 7.41, 323.44
446.28, 7.30, 322.62
447.14, 7.37, 322.26
441.06, 7.23, 324.75
441.55, 7.24, 324.53
442.12, 7.25, 324.28
442.77, 7.25, 323.98
443.44, 7.27, 323.69
443.94, 7.34, 323.48
444.76, 7.37, 323.11
446.33, 7.31, 322.40
447.15, 7.39, 322.05
441.06, 7.24, 324.62
438.24, 8.02, 326.05
438.24, 8.10, 326.07
438.26, 8.18, 326.07
443.47, 7.28, 323.51
443.96, 7.35, 323.30
445.59, 7.25, 322.53
446.34, 7.32, 322.19
438.10, 7.97, 326.03
438.02, 8.07, 326.08
438.01, 8.15, 326.09
438.03, 8.23, 326.10
438.05, 8.31, 326.10
438.08, 8.38, 326.10
438.12, 8.46, 326.09
438.16, 8.53, 326.08
438.21, 8.61, 326.07
437.87, 8.03, 326.06
437.86, 8.11, 326.08
437.85, 8.19, 326.09
437.87, 8.27, 326.10
437.89, 8.34, 326.10
437.91, 8.42, 326.10
437.95, 8.49, 326.10
437.98, 8.57, 326.09
438.01, 8.64, 326.09
438.05, 8.72, 326.08
438.09, 8.79, 326.07
438.13, 8.87, 326.07
438.20, 8.94, 326.04
438.30, 9.01, 326.01
437.71, 8.07, 326.06
437.71, 8.15, 326.07
437.72, 8.23, 326.08
437.74, 8.30, 326.09
437.76, 8.37, 326.09
437.78, 8.45, 326.09
¯437.81, 8.52, 326.09
437.84, 8.59, 326.08
437.87, 8.67, 326.08
437.90, 8.74, 326.07
437.93, 8.81, 326.07
437.96, 8.89, 326.06
438.00, 8.96, 326.06
438.03, 9.04, 326.06
438.07, 9.12, 326.05
438.10, 9.19, 326.05
438.17, 9.27, 326.02
438.27, 9.35, 325.98
437.58, 8.10, 326.05
437.58, 8.18, 326.07
437.59, 8.26, 326.07
437.61, 8.33, 326.08
437.63, 8.40, 326.08
437.65, 8.47, 326.08
437.68, 8.54, 326.07
437.71, 8.62, 326.07
437.73, 8.69, 326.07
437.76, 8.76, 326.06
437.79, 8.83, 326.06
437.82, 8.91, 326.06
437.85, 8.98, 326.05
437.88, 9.06, 326.05
437.91, 9.13, 326.04
437.95, 9.21, 326.04
437.98, 9.28, 326.03
438.01, 9.36, 326.03
438.05, 9.44, 326.02
438.10, 9.52, 326.01
438.23, 9.60, 325.95
437.45, 8.14, 326.05
437.45, 8.21, 326.06
437.47, 8.29, 326.06
437.48, 8.36, 326.07
437.50, 8.43, 326.07
437.53, 8.50, 326.06
437.55, 8.57, 326.06
437.58, 8.64, 326.06
437.61, 8.71, 326.05
437.63, 8.78, 326.05
437.66, 8.85, 326.05
437.69, 8.93, 326.05
437.72, 9.00, 326.04
437.74, 9.07, 326.04
437.77, 9.15, 326.04
437.80, 9.22, 326.03
437.83, 9.30, 326.03
437.86, 9.37, 326.02
±437.90, 9.45, 326.02
437.93, 9.53, 326.01
437.97, 9.61, 326.00
438.05, 9.69, 325.97
438.14, 9.77, 325.93
438.27, 9.86, 325.88
437.33, 8.17, 326.04
437.33, 8.24, 326.05
437.35, 8.31, 326.05
437.36, 8.38, 326.06
437.38, 8.45, 326.06
437.41, 8.52, 326.05
437.43, 8.59, 326.05
437.46, 8.66, 326.05
437.48, 8.73, 326.04
437.51, 8.80, 326.04
437.54, 8.87, 326.04
437.56, 8.95, 326.03
437.59, 9.02, 326.03
437.61, 9.09, 326.03
437.64, 9.16, 326.02
437.67, 9.24, 326.02
437.69, 9.31, 326.02
437.72, 9.38, 326.01
437.75, 9.46, 326.01
437.78, 9.53, 326.00
437.82, 9.61, 325.99
437.89, 9.69, 325.97
437.95, 9.77, 325.95
438.02, 9.86, 325.92
438.11, 9.94, 325.89
438.20, 10.03, 325.85
438.30, 10.13, 325.81
437.21, 8.20, 326.04
437.21, 8.27, 326.04
437.23, 8.34, 326.04
437.25, 8.41, 326.05
437.27, 8.48, 326.05
437.29, 8.55, 326.04
437.32, 8.61, 326.04
437.34, 8.68, 326.04
437.36, 8.75, 326.03
437.39, 8.82, 326.03
437.41, 8.89, 326.03
437.44, 8.96, 326.02
437.46, 9.03, 326.02
437.49, 9.10, 326.02
437.51, 9.18, 326.01
437.54, 9.25, 326.01
437.57, 9.32, 326.01
437.59, 9.39, 326.00
·437.62, 9.47, 326.00
437.64, 9.54, 326.00
437.68, 9.62, 325.99
437.74, 9.70, 325.96
437.80, 9.77, 325.94
437.87, 9.86, 325.92
437.94, 9.94, 325.89
438.00, 10.03, 325.86
438.08, 10.11, 325.84
438.17, 10.21, 325.80
438.29, 10.31, 325.75
437.09, 8.23, 326.03
437.10, 8.30, 326.03
437.12, 8.37, 326.04
437.13, 8.43, 326.04
437.16, 8.50, 326.03
437.18, 8.57, 326.03
437.20, 8.64, 326.03
437.23, 8.70, 326.02
437.25, 8.77, 326.02
437.27, 8.84, 326.02
437.30, 8.91, 326.02
437.32, 8.98, 326.01
437.34, 9.05, 326.01
437.37, 9.12, 326.01
437.39, 9.19, 326.00
437.42, 9.26, 326.00
437.44, 9.33, 325.99
437.47, 9.40, 325.99
437.49, 9.48, 325.99
437.52, 9.55, 325.98
437.55, 9.62, 325.97
437.61, 9.70, 325.95
437.67, 9.78, 325.93
437.73, 9.86, 325.91
437.79, 9.94, 325.88
437.86, 10.02, 325.86
437.92, 10.11, 325.83
437.99, 10.20, 325.81
438.06, 10.29, 325.78
436.98, 8.26, 326.02
436.99, 8.32, 326.02
437.01, 8.39, 326.03
437.03, 8.46, 326.03
437.05, 8.52, 326.02
437.07, 8.59, 326.02
437.09, 8.66, 326.02
437.11, 8.72, 326.01
437.14, 8.79, 326.01
437.16, 8.86, 326.01
437.18, 8.93, 326.00
·437.20, 8.99, 326.00
437.23, 9.06, 326.00
437.25, 9.13, 325.99
437.27, 9.20, 325.99
437.30, 9.27, 325.99
437.32, 9.34, 325.98
437.35, 9.41, 325.98
437.37, 9.48, 325.98
437.40, 9.56, 325.97
437.43, 9.63, 325.96
437.48, 9.70, 325.94
437.54, 9.78, 325.92
437.60, 9.86, 325.90
437.66, 9.94, 325.87
437.72, 10.02, 325.85
437.78, 10.11, 325.82
437.85, 10.19, 325.80
437.91, 10.28, 325.77
436.88, 8.28, 326.02
436.89, 8.35, 326.02
436.90, 8.41, 326.02
436.92, 8.48, 326.02
436.94, 8.55, 326.01
436.96, 8.61, 326.01
436.98, 8.68, 326.01
437.01, 8.74, 326.00
437.03, 8.81, 326.00
437.05, 8.88, 326.00
437.07, 8.94, 325.99
437.09, 9.01, 325.99
437.12, 9.08, 325.99
437.14, 9.14, 325.98
437.16, 9.21, 325.98
437.18, 9.28, 325.98
437.21, 9.35, 325.97
437.23, 9.42, 325.97
437.25, 9.49, 325.97
437.28, 9.56, 325.96
437.31, 9.63, 325.95
437.36, 9.71, 325.93
437.41, 9.78, 325.91
437.47, 9.86, 325.89
437.52, 9.94, 325.87
437.58, 10.02, 325.84
437.64, 10.10, 325.82
437.71, 10.19, 325.79
437.77, 10.28, 325.77
436.77, 8.31, 326.01
436.79, 8.37, 326.01
436.80, 8.44, 326.01
436.82, 8.50, 326.01
´436.84, 8.57, 326.00
436.86, 8.63, 326.00
436.88, 8.70, 326.00
436.90, 8.76, 325.99
436.92, 8.83, 325.99
436.94, 8.89, 325.99
436.96, 8.96, 325.98
436.99, 9.02, 325.98
437.01, 9.09, 325.98
437.03, 9.16, 325.97
437.05, 9.22, 325.97
437.07, 9.29, 325.97
437.09, 9.36, 325.96
437.11, 9.43, 325.96
437.14, 9.50, 325.96
437.17, 9.57, 325.95
437.20, 9.64, 325.94
437.24, 9.71, 325.92
437.29, 9.79, 325.90
437.34, 9.86, 325.88
437.40, 9.94, 325.86
437.45, 10.02, 325.83
437.51, 10.10, 325.81
437.57, 10.18, 325.79
437.63, 10.27, 325.76
437.71, 10.36, 325.72
436.68, 8.33, 326.00
436.69, 8.39, 326.00
436.70, 8.46, 326.00
436.72, 8.52, 326.00
436.74, 8.59, 326.00
436.76, 8.65, 325.99
436.78, 8.71, 325.99
436.80, 8.78, 325.99
436.82, 8.84, 325.98
436.84, 8.91, 325.98
436.86, 8.97, 325.98
436.88, 9.04, 325.97
436.90, 9.10, 325.97
436.92, 9.17, 325.97
436.94, 9.24, 325.96
436.96, 9.30, 325.96
436.98, 9.37, 325.96
437.00, 9.44, 325.95
437.03, 9.51, 325.94
437.06, 9.57, 325.94
437.08, 9.64, 325.93
437.13, 9.72, 325.91
437.18, 9.79, 325.89
437.22, 9.86, 325.87
437.27, 9.94, 325.85
¹437.33, 10.02, 325.83
437.38, 10.10, 325.80
437.44, 10.18, 325.78
437.50, 10.26, 325.75
437.56, 10.35, 325.73
436.58, 8.35, 325.99
436.59, 8.42, 325.99
436.61, 8.48, 325.99
436.63, 8.54, 325.99
436.65, 8.60, 325.99
436.66, 8.67, 325.98
436.68, 8.73, 325.98
436.70, 8.79, 325.98
436.72, 8.86, 325.97
436.74, 8.92, 325.97
436.76, 8.99, 325.97
436.78, 9.05, 325.96
436.80, 9.12, 325.96
436.82, 9.18, 325.96
436.84, 9.25, 325.95
436.86, 9.31, 325.95
436.88, 9.38, 325.95
436.90, 9.44, 325.94
436.92, 9.51, 325.93
436.95, 9.58, 325.93
436.98, 9.65, 325.92
437.02, 9.72, 325.90
437.06, 9.79, 325.88
437.11, 9.87, 325.86
437.16, 9.94, 325.84
437.21, 10.02, 325.82
437.26, 10.10, 325.80
437.31, 10.18, 325.77
437.37, 10.26, 325.75
437.43, 10.34, 325.72
436.49, 8.37, 325.98
436.50, 8.44, 325.98
436.52, 8.50, 325.98
436.53, 8.56, 325.98
436.55, 8.62, 325.98
436.57, 8.69, 325.97
436.59, 8.75, 325.97
436.61, 8.81, 325.97
436.62, 8.87, 325.96
436.64, 8.94, 325.96
436.66, 9.00, 325.96
436.68, 9.06, 325.95
436.70, 9.13, 325.95
436.72, 9.19, 325.95
436.74, 9.26, 325.94
436.75, 9.32, 325.94
¹436.77, 9.39, 325.94
436.80, 9.45, 325.93
436.82, 9.52, 325.92
436.85, 9.59, 325.92
436.87, 9.65, 325.91
436.91, 9.72, 325.89
436.96, 9.79, 325.87
437.00, 9.87, 325.85
437.04, 9.94, 325.83
437.09, 10.02, 325.81
437.14, 10.09, 325.79
437.19, 10.17, 325.77
437.24, 10.25, 325.74
437.30, 10.33, 325.72
436.40, 8.39, 325.98
436.41, 8.46, 325.98
436.43, 8.52, 325.97
436.44, 8.58, 325.97
436.46, 8.64, 325.97
436.48, 8.70, 325.97
436.50, 8.76, 325.96
436.51, 8.83, 325.96
436.53, 8.89, 325.96
436.55, 8.95, 325.95
436.57, 9.01, 325.95
436.58, 9.08, 325.95
436.60, 9.14, 325.94
436.62, 9.20, 325.94
436.64, 9.27, 325.94
436.66, 9.33, 325.93
436.68, 9.39, 325.93
436.70, 9.46, 325.92
436.72, 9.52, 325.91
436.75, 9.59, 325.91
436.77, 9.66, 325.90
436.81, 9.73, 325.88
436.85, 9.80, 325.86
436.89, 9.87, 325.84
436.93, 9.94, 325.82
436.98, 10.01, 325.80
437.02, 10.09, 325.78
437.07, 10.17, 325.76
437.12, 10.25, 325.74
437.18, 10.33, 325.71
436.32, 8.41, 325.96
436.33, 8.47, 325.96
436.34, 8.54, 325.97
436.35, 8.60, 325.96
436.37, 8.66, 325.96
436.39, 8.72, 325.96
436.40, 8.78, 325.95
·436.42, 8.84, 325.95
436.44, 8.90, 325.95
436.46, 8.96, 325.94
436.47, 9.02, 325.94
436.49, 9.09, 325.94
436.51, 9.15, 325.93
436.52, 9.21, 325.93
436.54, 9.27, 325.93
436.56, 9.34, 325.92
436.58, 9.40, 325.92
436.60, 9.47, 325.91
436.63, 9.53, 325.90
436.65, 9.60, 325.90
436.67, 9.66, 325.89
436.71, 9.73, 325.87
436.75, 9.80, 325.85
436.79, 9.87, 325.84
436.83, 9.94, 325.82
436.87, 10.01, 325.80
436.91, 10.09, 325.78
436.96, 10.16, 325.75
437.01, 10.24, 325.73
437.06, 10.32, 325.71
437.13, 10.41, 325.67
436.25, 8.43, 325.95
436.26, 8.49, 325.95
436.26, 8.55, 325.95
436.28, 8.61, 325.95
436.29, 8.67, 325.95
436.30, 8.73, 325.95
436.32, 8.79, 325.94
436.33, 8.85, 325.94
436.35, 8.91, 325.94
436.37, 8.98, 325.94
436.38, 9.04, 325.93
436.40, 9.10, 325.93
436.41, 9.16, 325.93
436.43, 9.22, 325.92
436.45, 9.28, 325.92
436.47, 9.35, 325.91
436.49, 9.41, 325.91
436.51, 9.47, 325.90
436.53, 9.54, 325.89
436.56, 9.60, 325.88
436.59, 9.67, 325.87
436.62, 9.73, 325.86
436.65, 9.80, 325.84
436.69, 9.87, 325.83
436.73, 9.94, 325.81
436.77, 10.01, 325.79
436.81, 10.09, 325.77
¹436.85, 10.16, 325.75
436.89, 10.24, 325.73
436.94, 10.32, 325.70
437.00, 10.40, 325.67
436.18, 8.44, 325.93
436.19, 8.51, 325.93
436.19, 8.57, 325.93
436.21, 8.63, 325.93
436.22, 8.69, 325.93
436.23, 8.75, 325.93
436.25, 8.81, 325.93
436.26, 8.87, 325.92
436.27, 8.93, 325.92
436.28, 8.99, 325.92
436.30, 9.05, 325.92
436.31, 9.11, 325.92
436.33, 9.17, 325.92
436.34, 9.23, 325.91
436.36, 9.29, 325.91
436.38, 9.35, 325.90
436.40, 9.42, 325.89
436.43, 9.48, 325.88
436.46, 9.54, 325.87
436.48, 9.61, 325.86
436.51, 9.67, 325.85
436.54, 9.74, 325.84
436.57, 9.80, 325.82
436.60, 9.87, 325.81
436.63, 9.94, 325.80
436.66, 10.01, 325.78
436.70, 10.08, 325.76
436.74, 10.16, 325.74
436.78, 10.23, 325.72
436.83, 10.31, 325.70
436.88, 10.39, 325.67
436.11, 8.46, 325.91
436.12, 8.52, 325.91
436.13, 8.58, 325.91
436.14, 8.64, 325.91
436.15, 8.70, 325.91
436.16, 8.76, 325.91
436.18, 8.82, 325.91
436.19, 8.88, 325.90
436.20, 8.94, 325.90
436.22, 9.00, 325.90
436.23, 9.06, 325.90
436.24, 9.12, 325.90
436.26, 9.18, 325.89
436.27, 9.24, 325.89
436.29, 9.30, 325.89
436.31, 9.36, 325.88
»436.33, 9.42, 325.87
436.36, 9.48, 325.86
436.38, 9.55, 325.85
436.41, 9.61, 325.84
436.44, 9.68, 325.83
436.46, 9.74, 325.81
436.49, 9.81, 325.80
436.52, 9.87, 325.79
436.55, 9.94, 325.78
436.57, 10.01, 325.77
436.61, 10.08, 325.75
436.64, 10.15, 325.73
436.68, 10.23, 325.71
436.72, 10.30, 325.69
436.77, 10.38, 325.67
436.06, 8.47, 325.88
436.06, 8.53, 325.88
436.08, 8.59, 325.88
436.09, 8.65, 325.88
436.10, 8.71, 325.88
436.11, 8.77, 325.88
436.12, 8.83, 325.87
436.14, 8.89, 325.87
436.15, 8.95, 325.87
436.16, 9.01, 325.87
436.18, 9.07, 325.87
436.19, 9.13, 325.86
436.20, 9.19, 325.86
436.22, 9.25, 325.86
436.23, 9.31, 325.86
436.25, 9.37, 325.85
436.26, 9.43, 325.85
436.29, 9.49, 325.84
436.31, 9.55, 325.83
436.34, 9.62, 325.82
436.36, 9.68, 325.80
436.39, 9.75, 325.79
436.41, 9.81, 325.78
436.44, 9.88, 325.77
436.47, 9.94, 325.76
436.50, 10.01, 325.74
436.52, 10.08, 325.73
436.55, 10.15, 325.72
436.58, 10.22, 325.71
436.62, 10.30, 325.69
436.66, 10.37, 325.66
436.01, 8.48, 325.84
436.02, 8.54, 325.84
436.03, 8.60, 325.84
436.04, 8.66, 325.84
436.05, 8.72, 325.84
µ436.06, 8.78, 325.84
436.08, 8.83, 325.84
436.09, 8.89, 325.84
436.10, 8.95, 325.84
436.11, 9.01, 325.84
436.12, 9.07, 325.83
436.14, 9.13, 325.83
436.15, 9.19, 325.83
436.16, 9.25, 325.83
436.18, 9.31, 325.82
436.19, 9.37, 325.82
436.21, 9.44, 325.81
436.22, 9.50, 325.81
436.24, 9.56, 325.80
436.26, 9.62, 325.80
436.29, 9.69, 325.78
436.31, 9.75, 325.77
436.34, 9.81, 325.76
436.37, 9.88, 325.75
436.39, 9.95, 325.74
436.42, 10.01, 325.72
436.45, 10.08, 325.71
436.47, 10.15, 325.70
436.50, 10.22, 325.69
436.53, 10.30, 325.67
436.56, 10.37, 325.66
435.97, 8.49, 325.80
435.98, 8.55, 325.81
435.99, 8.61, 325.81
436.00, 8.66, 325.80
436.01, 8.72, 325.80
436.02, 8.78, 325.80
436.03, 8.84, 325.80
436.04, 8.90, 325.80
436.05, 8.96, 325.80
436.06, 9.02, 325.80
436.07, 9.08, 325.80
436.09, 9.14, 325.80
436.10, 9.20, 325.80
436.11, 9.26, 325.79
436.12, 9.32, 325.79
436.14, 9.38, 325.79
436.15, 9.44, 325.78
436.17, 9.50, 325.77
436.19, 9.56, 325.77
436.21, 9.63, 325.76
436.23, 9.69, 325.75
436.25, 9.75, 325.75
436.27, 9.82, 325.74
436.29, 9.88, 325.73
436.32, 9.95, 325.72
»436.34, 10.02, 325.70
436.37, 10.08, 325.69
436.40, 10.15, 325.68
436.42, 10.22, 325.66
436.45, 10.29, 325.65
436.48, 10.37, 325.64
435.95, 8.49, 325.75
435.95, 8.55, 325.75
435.96, 8.61, 325.75
435.97, 8.67, 325.75
435.98, 8.73, 325.75
435.99, 8.79, 325.75
436.01, 8.85, 325.75
436.02, 8.91, 325.75
436.03, 8.97, 325.74
436.04, 9.03, 325.74
436.05, 9.09, 325.74
436.06, 9.15, 325.74
436.07, 9.21, 325.74
436.08, 9.27, 325.74
436.09, 9.33, 325.74
436.10, 9.39, 325.74
436.12, 9.45, 325.73
436.13, 9.51, 325.73
436.14, 9.57, 325.73
436.16, 9.63, 325.72
436.18, 9.70, 325.71
436.20, 9.76, 325.71
436.22, 9.82, 325.70
436.24, 9.89, 325.69
436.25, 9.95, 325.68
436.27, 10.02, 325.68
436.29, 10.09, 325.67
436.32, 10.15, 325.66
436.35, 10.22, 325.64
436.37, 10.29, 325.63
436.40, 10.36, 325.62
435.95, 8.48, 325.67
435.95, 8.55, 325.67
435.96, 8.61, 325.68
435.97, 8.67, 325.68
435.98, 8.73, 325.68
435.99, 8.79, 325.68
436.00, 8.85, 325.67
436.01, 8.91, 325.67
436.02, 8.97, 325.67
436.03, 9.03, 325.67
436.04, 9.09, 325.67
436.05, 9.15, 325.67
436.06, 9.21, 325.67
436.07, 9.27, 325.67
»436.08, 9.33, 325.67
436.09, 9.39, 325.67
436.10, 9.45, 325.67
436.11, 9.52, 325.67
436.12, 9.58, 325.66
436.13, 9.64, 325.66
436.15, 9.70, 325.66
436.16, 9.77, 325.66
436.17, 9.83, 325.66
436.19, 9.89, 325.65
436.21, 9.96, 325.64
436.23, 10.02, 325.64
436.24, 10.09, 325.63
436.26, 10.16, 325.62
436.28, 10.23, 325.61
436.30, 10.29, 325.60
436.32, 10.36, 325.60
435.94, 8.48, 325.59
435.95, 8.54, 325.60
435.96, 8.60, 325.60
435.97, 8.67, 325.60
435.98, 8.73, 325.60
435.99, 8.79, 325.60
436.00, 8.85, 325.60
436.01, 8.91, 325.60
436.01, 8.97, 325.60
436.02, 9.03, 325.60
436.03, 9.09, 325.60
436.04, 9.15, 325.60
436.05, 9.21, 325.60
436.06, 9.28, 325.59
436.07, 9.34, 325.59
436.08, 9.40, 325.59
436.09, 9.46, 325.59
436.10, 9.52, 325.59
436.11, 9.59, 325.59
436.12, 9.65, 325.59
436.13, 9.71, 325.59
436.14, 9.77, 325.59
436.15, 9.84, 325.59
436.16, 9.90, 325.59
436.18, 9.97, 325.59
436.19, 10.03, 325.58
436.20, 10.10, 325.58
436.22, 10.16, 325.58
436.24, 10.23, 325.57
436.26, 10.30, 325.56
436.27, 10.37, 325.55
435.94, 8.48, 325.51
435.95, 8.54, 325.52
435.96, 8.60, 325.52
µ435.97, 8.66, 325.52
435.98, 8.73, 325.52
435.99, 8.79, 325.52
436.00, 8.85, 325.52
436.01, 8.91, 325.51
436.02, 8.97, 325.51
436.03, 9.03, 325.51
436.03, 9.10, 325.51
436.04, 9.16, 325.51
436.05, 9.22, 325.51
436.06, 9.28, 325.51
436.07, 9.34, 325.51
436.08, 9.41, 325.51
436.09, 9.47, 325.51
436.10, 9.53, 325.51
436.11, 9.59, 325.51
436.12, 9.66, 325.51
436.13, 9.72, 325.51
436.14, 9.79, 325.51
436.15, 9.85, 325.51
436.16, 9.91, 325.51
436.17, 9.98, 325.51
436.18, 10.04, 325.50
436.19, 10.11, 325.50
436.20, 10.18, 325.50
436.21, 10.24, 325.50
436.22, 10.31, 325.50
436.23, 10.38, 325.50
435.94, 8.47, 325.43
435.95, 8.54, 325.43
435.96, 8.60, 325.43
435.97, 8.66, 325.43
435.98, 8.72, 325.43
435.99, 8.79, 325.43
436.00, 8.85, 325.43
436.01, 8.91, 325.43
436.02, 8.97, 325.43
436.03, 9.04, 325.43
436.04, 9.10, 325.43
436.05, 9.16, 325.43
436.06, 9.22, 325.43
436.07, 9.29, 325.43
436.08, 9.35, 325.42
436.08, 9.41, 325.42
436.09, 9.48, 325.42
436.10, 9.54, 325.42
436.11, 9.60, 325.42
436.12, 9.67, 325.42
436.13, 9.73, 325.42
436.14, 9.80, 325.42
436.15, 9.86, 325.42
¼436.16, 9.93, 325.42
436.17, 9.99, 325.42
436.19, 10.06, 325.41
436.20, 10.12, 325.41
436.21, 10.19, 325.41
436.22, 10.26, 325.41
436.23, 10.33, 325.41
436.24, 10.40, 325.41
435.95, 8.47, 325.35
435.95, 8.53, 325.35
435.96, 8.60, 325.35
435.97, 8.66, 325.35
435.98, 8.72, 325.35
435.99, 8.78, 325.35
436.00, 8.85, 325.35
436.01, 8.91, 325.34
436.02, 8.97, 325.34
436.03, 9.04, 325.34
436.04, 9.10, 325.34
436.05, 9.16, 325.34
436.06, 9.23, 325.34
436.07, 9.29, 325.34
436.08, 9.35, 325.34
436.09, 9.42, 325.33
436.10, 9.48, 325.33
436.11, 9.55, 325.33
436.12, 9.61, 325.33
436.13, 9.68, 325.33
436.14, 9.74, 325.33
436.15, 9.81, 325.33
436.16, 9.87, 325.33
436.17, 9.94, 325.32
436.18, 10.01, 325.32
436.19, 10.07, 325.32
436.20, 10.14, 325.32
436.21, 10.21, 325.32
436.22, 10.28, 325.31
436.24, 10.35, 325.31
436.25, 10.42, 325.31
435.95, 8.46, 325.26
435.95, 8.53, 325.26
435.96, 8.59, 325.26
435.97, 8.66, 325.26
435.98, 8.72, 325.26
435.99, 8.78, 325.26
436.00, 8.85, 325.26
436.01, 8.91, 325.26
436.02, 8.97, 325.25
436.03, 9.04, 325.25
436.04, 9.10, 325.25
436.05, 9.17, 325.25
½436.06, 9.23, 325.25
436.07, 9.30, 325.25
436.08, 9.36, 325.24
436.09, 9.42, 325.24
436.10, 9.49, 325.24
436.11, 9.56, 325.24
436.12, 9.62, 325.24
436.13, 9.69, 325.24
436.14, 9.75, 325.23
436.15, 9.82, 325.23
436.16, 9.89, 325.23
436.17, 9.95, 325.23
436.18, 10.02, 325.23
436.19, 10.09, 325.22
436.21, 10.16, 325.22
436.22, 10.23, 325.22
436.23, 10.30, 325.21
436.24, 10.37, 325.21
436.26, 10.44, 325.21
435.95, 8.46, 325.17
435.95, 8.52, 325.17
435.96, 8.59, 325.17
435.97, 8.65, 325.17
435.98, 8.72, 325.17
435.99, 8.78, 325.17
436.00, 8.85, 325.17
436.01, 8.91, 325.16
436.02, 8.98, 325.16
436.03, 9.04, 325.16
436.04, 9.10, 325.16
436.05, 9.17, 325.16
436.06, 9.23, 325.15
436.07, 9.30, 325.15
436.08, 9.37, 325.15
436.09, 9.43, 325.15
436.10, 9.50, 325.15
436.11, 9.56, 325.15
436.12, 9.63, 325.14
436.13, 9.70, 325.14
436.14, 9.76, 325.14
436.15, 9.83, 325.14
436.17, 9.90, 325.13
436.18, 9.97, 325.13
436.19, 10.04, 325.13
436.20, 10.10, 325.12
436.21, 10.17, 325.12
436.23, 10.24, 325.11
436.24, 10.32, 325.11
436.25, 10.39, 325.11
436.27, 10.46, 325.10
435.95, 8.45, 325.08
¶435.95, 8.52, 325.08
435.96, 8.58, 325.08
435.97, 8.65, 325.08
435.98, 8.71, 325.08
435.99, 8.78, 325.08
436.00, 8.84, 325.07
436.01, 8.91, 325.07
436.02, 8.98, 325.07
436.03, 9.04, 325.07
436.04, 9.11, 325.06
436.05, 9.17, 325.06
436.06, 9.24, 325.06
436.07, 9.30, 325.06
436.08, 9.37, 325.06
436.09, 9.44, 325.05
436.10, 9.50, 325.05
436.11, 9.57, 325.05
436.12, 9.64, 325.05
436.14, 9.71, 325.04
436.15, 9.77, 325.04
436.16, 9.84, 325.03
436.17, 9.91, 325.03
436.19, 9.98, 325.03
436.20, 10.05, 325.02
436.21, 10.12, 325.02
436.22, 10.19, 325.01
436.24, 10.26, 325.01
436.25, 10.34, 325.00
436.26, 10.41, 325.00
436.29, 10.49, 324.98
435.95, 8.44, 324.99
435.95, 8.51, 324.99
435.96, 8.58, 324.99
435.97, 8.64, 324.99
435.98, 8.71, 324.98
435.99, 8.78, 324.98
436.00, 8.84, 324.98
436.01, 8.91, 324.98
436.02, 8.98, 324.97
436.03, 9.04, 324.97
436.04, 9.11, 324.97
436.05, 9.18, 324.97
436.06, 9.24, 324.96
436.07, 9.31, 324.96
436.08, 9.38, 324.96
436.10, 9.44, 324.95
436.11, 9.51, 324.95
436.12, 9.58, 324.95
436.13, 9.65, 324.94
436.14, 9.72, 324.94
436.16, 9.79, 324.93
¿436.17, 9.86, 324.93
436.18, 9.93, 324.92
436.19, 10.00, 324.92
436.21, 10.07, 324.91
436.22, 10.14, 324.91
436.23, 10.21, 324.90
436.24, 10.28, 324.90
436.26, 10.36, 324.89
436.27, 10.43, 324.89
437.30, 10.79, 323.83
435.95, 8.44, 324.89
435.96, 8.51, 324.89
435.96, 8.57, 324.89
435.97, 8.64, 324.89
435.98, 8.71, 324.89
435.99, 8.77, 324.88
436.00, 8.84, 324.88
436.01, 8.91, 324.88
436.02, 8.98, 324.87
436.03, 9.04, 324.87
436.04, 9.11, 324.87
436.06, 9.18, 324.87
436.07, 9.25, 324.86
436.08, 9.31, 324.86
436.09, 9.38, 324.85
436.10, 9.45, 324.85
436.11, 9.52, 324.84
436.13, 9.59, 324.84
436.14, 9.66, 324.83
436.15, 9.73, 324.83
436.16, 9.80, 324.82
436.18, 9.87, 324.82
436.19, 9.94, 324.81
436.20, 10.01, 324.81
436.22, 10.08, 324.80
436.23, 10.16, 324.80
436.24, 10.23, 324.79
436.26, 10.30, 324.78
436.27, 10.38, 324.78
436.29, 10.45, 324.77
437.19, 10.79, 323.82
435.96, 8.43, 324.78
435.96, 8.50, 324.78
435.97, 8.57, 324.79
435.97, 8.64, 324.79
435.98, 8.70, 324.79
435.99, 8.77, 324.78
436.00, 8.84, 324.78
436.01, 8.91, 324.78
436.03, 8.98, 324.77
436.04, 9.04, 324.77
¾436.05, 9.11, 324.77
436.06, 9.18, 324.76
436.07, 9.25, 324.76
436.08, 9.32, 324.75
436.10, 9.39, 324.74
436.11, 9.46, 324.74
436.12, 9.53, 324.73
436.13, 9.60, 324.73
436.15, 9.67, 324.72
436.16, 9.74, 324.72
436.17, 9.81, 324.71
436.19, 9.88, 324.70
436.20, 9.95, 324.70
436.22, 10.03, 324.69
436.23, 10.10, 324.68
436.24, 10.18, 324.67
436.26, 10.25, 324.67
436.27, 10.33, 324.66
436.29, 10.40, 324.65
436.32, 10.48, 324.63
437.08, 10.78, 323.80
435.97, 8.42, 324.67
435.97, 8.49, 324.67
435.98, 8.56, 324.67
435.98, 8.63, 324.68
435.99, 8.70, 324.68
435.99, 8.77, 324.68
436.00, 8.84, 324.68
436.02, 8.91, 324.67
436.03, 8.98, 324.67
436.04, 9.04, 324.66
436.05, 9.11, 324.66
436.06, 9.18, 324.65
436.08, 9.25, 324.64
436.09, 9.32, 324.64
436.10, 9.39, 324.63
436.12, 9.46, 324.63
436.13, 9.54, 324.62
436.14, 9.61, 324.61
436.16, 9.68, 324.60
436.17, 9.75, 324.60
436.19, 9.82, 324.59
436.20, 9.90, 324.58
436.21, 9.97, 324.57
436.23, 10.05, 324.57
436.24, 10.12, 324.56
436.26, 10.20, 324.55
436.27, 10.27, 324.54
436.29, 10.35, 324.53
436.30, 10.43, 324.53
436.98, 10.69, 323.77
¸436.98, 10.78, 323.79
435.98, 8.41, 324.55
435.98, 8.48, 324.56
435.99, 8.55, 324.56
435.99, 8.62, 324.56
436.00, 8.69, 324.56
436.00, 8.76, 324.57
436.01, 8.83, 324.57
436.02, 8.90, 324.56
436.03, 8.97, 324.56
436.05, 9.04, 324.55
436.06, 9.11, 324.54
436.07, 9.19, 324.54
436.09, 9.26, 324.53
436.10, 9.33, 324.52
436.11, 9.40, 324.51
436.13, 9.47, 324.50
436.14, 9.54, 324.50
436.16, 9.62, 324.49
436.17, 9.69, 324.48
436.18, 9.76, 324.47
436.20, 9.84, 324.46
436.21, 9.91, 324.46
436.23, 9.99, 324.45
436.24, 10.06, 324.44
436.26, 10.14, 324.43
436.27, 10.22, 324.42
436.29, 10.29, 324.41
436.30, 10.37, 324.40
436.32, 10.45, 324.39
436.88, 10.69, 323.76
436.87, 10.77, 323.78
435.99, 8.39, 324.43
