žVERSION 0.7
FIELDS x y z
SIZE 8 8 8
TYPE F F F
COUNT 1 1 1
WIDTH 2271
HEIGHT 1
VIEWPOINT 365.34, 7.04, 354.46 1 384.45, 2.45, 348.22
POINTS 2271
DATA ascii
381.46, 0.58, 342.87
381.47, 0.60, 342.61
381.48, 0.61, 342.32
381.49, 0.63, 342.01
381.50, 0.66, 341.68
381.52, 0.68, 341.33
381.53, 0.71, 340.95
381.55, 0.74, 340.53
381.57, 0.77, 340.05
381.59, 0.81, 339.54
381.61, 0.85, 338.97
381.63, 0.90, 338.39
381.65, 0.96, 337.80
381.68, 1.03, 337.09
381.69, 1.15, 336.72
381.69, 1.30, 336.65
381.69, 1.45, 336.57
381.69, 1.61, 336.50
381.69, 1.76, 336.42
381.69, 1.92, 336.34
381.69, 2.08, 336.26
381.69, 2.24, 336.18
381.69, 2.40, 336.10
381.68, 2.57, 336.02
381.68, 2.73, 335.94
381.34, 0.50, 344.16
381.35, 0.51, 343.98
381.35, 0.52, 343.79
381.36, 0.54, 343.58
381.36, 0.55, 343.37
381.37, 0.57, 343.14
381.38, 0.58, 342.89
381.38, 0.60, 342.63
381.39, 0.62, 342.34
¯381.40, 0.64, 342.03
381.41, 0.66, 341.70
381.42, 0.68, 341.35
381.43, 0.71, 340.97
381.44, 0.74, 340.56
381.45, 0.77, 340.09
381.46, 0.81, 339.57
381.48, 0.85, 339.02
381.49, 0.90, 338.41
381.51, 0.96, 337.82
381.53, 1.03, 337.11
381.54, 1.13, 336.59
381.54, 1.28, 336.51
381.54, 1.44, 336.44
381.53, 1.59, 336.36
381.53, 1.75, 336.28
381.53, 1.91, 336.20
381.53, 2.07, 336.12
381.53, 2.23, 336.04
381.53, 2.40, 335.95
381.52, 2.56, 335.85
381.52, 2.73, 335.75
381.28, 0.51, 344.17
381.28, 0.52, 343.99
381.28, 0.53, 343.80
381.28, 0.54, 343.59
381.29, 0.55, 343.38
381.29, 0.57, 343.15
381.29, 0.58, 342.90
381.30, 0.60, 342.64
381.30, 0.62, 342.36
381.31, 0.64, 342.05
381.31, 0.66, 341.72
381.32, 0.69, 341.38
381.32, 0.72, 341.00
381.33, 0.75, 340.59
381.33, 0.78, 340.13
381.34, 0.81, 339.61
381.35, 0.86, 339.06
381.36, 0.90, 338.44
381.36, 0.97, 337.85
381.37, 1.03, 337.14
381.38, 1.11, 336.45
381.38, 1.27, 336.37
381.38, 1.42, 336.29
381.38, 1.58, 336.21
381.37, 1.74, 336.13
381.37, 1.90, 336.05
381.37, 2.06, 335.97
381.37, 2.23, 335.87
381.36, 2.39, 335.77
¯381.36, 2.56, 335.66
381.36, 2.73, 335.56
381.21, 0.51, 344.18
381.21, 0.52, 344.00
381.21, 0.53, 343.81
381.21, 0.54, 343.61
381.21, 0.56, 343.39
381.21, 0.57, 343.17
381.21, 0.59, 342.92
381.21, 0.60, 342.66
381.21, 0.62, 342.38
381.22, 0.64, 342.07
381.22, 0.66, 341.75
381.22, 0.69, 341.40
381.22, 0.72, 341.02
381.22, 0.75, 340.61
381.22, 0.78, 340.16
381.22, 0.82, 339.65
381.22, 0.86, 339.10
381.22, 0.91, 338.49
381.22, 0.97, 337.88
381.22, 1.03, 337.17
381.22, 1.10, 336.39
381.22, 1.25, 336.23
381.22, 1.41, 336.15
381.21, 1.57, 336.07
381.21, 1.73, 335.99
381.21, 1.89, 335.89
381.20, 2.05, 335.79
381.20, 2.22, 335.69
381.20, 2.39, 335.58
381.19, 2.56, 335.47
381.19, 2.73, 335.36
381.15, 0.51, 344.20
381.14, 0.52, 344.01
381.14, 0.53, 343.82
381.14, 0.54, 343.62
381.14, 0.56, 343.41
381.14, 0.57, 343.18
381.13, 0.59, 342.94
381.13, 0.61, 342.68
381.13, 0.63, 342.40
381.13, 0.65, 342.10
381.12, 0.67, 341.77
381.12, 0.69, 341.43
381.11, 0.72, 341.05
381.11, 0.75, 340.64
381.11, 0.79, 340.20
381.10, 0.82, 339.70
381.09, 0.86, 339.15
381.09, 0.91, 338.54
¯381.08, 0.97, 337.90
381.07, 1.03, 337.21
381.06, 1.10, 336.42
381.06, 1.24, 336.08
381.05, 1.39, 336.00
381.05, 1.55, 335.91
381.04, 1.72, 335.81
381.04, 1.88, 335.71
381.03, 2.05, 335.60
381.03, 2.21, 335.49
381.02, 2.38, 335.38
381.02, 2.56, 335.27
381.01, 2.73, 335.16
381.08, 0.51, 344.21
381.08, 0.52, 344.03
381.07, 0.53, 343.84
381.07, 0.55, 343.63
381.06, 0.56, 343.42
381.06, 0.58, 343.20
381.05, 0.59, 342.96
381.05, 0.61, 342.70
381.04, 0.63, 342.42
381.04, 0.65, 342.12
381.03, 0.67, 341.79
381.02, 0.70, 341.45
381.01, 0.72, 341.08
381.00, 0.76, 340.67
380.99, 0.79, 340.23
380.98, 0.83, 339.74
380.97, 0.87, 339.20
380.96, 0.91, 338.60
380.94, 0.96, 337.93
380.92, 1.03, 337.24
380.91, 1.10, 336.46
380.89, 1.22, 335.94
380.89, 1.38, 335.83
380.88, 1.54, 335.73
380.87, 1.70, 335.62
380.87, 1.87, 335.51
380.86, 2.04, 335.40
380.85, 2.21, 335.29
380.85, 2.38, 335.18
380.84, 2.56, 335.07
380.83, 2.73, 334.96
381.02, 0.52, 344.22
381.01, 0.53, 344.04
381.01, 0.54, 343.85
381.00, 0.55, 343.65
380.99, 0.56, 343.44
380.98, 0.58, 343.21
380.97, 0.59, 342.97
¯380.97, 0.61, 342.72
380.96, 0.63, 342.44
380.95, 0.65, 342.14
380.93, 0.67, 341.82
380.92, 0.70, 341.48
380.91, 0.73, 341.11
380.90, 0.76, 340.71
380.88, 0.79, 340.27
380.86, 0.83, 339.78
380.84, 0.87, 339.24
380.82, 0.92, 338.65
380.80, 0.97, 337.98
380.78, 1.03, 337.28
380.75, 1.10, 336.51
380.72, 1.20, 335.78
380.71, 1.36, 335.68
380.71, 1.52, 335.57
380.70, 1.69, 335.46
380.69, 1.86, 335.36
380.68, 2.03, 335.25
380.68, 2.20, 335.13
380.67, 2.38, 335.02
380.66, 2.55, 334.90
380.65, 2.73, 334.79
380.95, 0.52, 344.23
380.95, 0.53, 344.05
380.94, 0.54, 343.86
380.93, 0.55, 343.67
380.92, 0.57, 343.46
380.91, 0.58, 343.23
380.90, 0.60, 342.99
380.88, 0.61, 342.74
380.87, 0.63, 342.46
380.86, 0.65, 342.16
380.84, 0.68, 341.84
380.83, 0.70, 341.50
380.81, 0.73, 341.14
380.79, 0.76, 340.74
380.77, 0.79, 340.30
380.75, 0.83, 339.82
380.72, 0.87, 339.29
380.69, 0.92, 338.70
380.66, 0.97, 338.04
380.63, 1.03, 337.33
380.59, 1.11, 336.56
380.55, 1.19, 335.68
380.54, 1.35, 335.52
380.53, 1.51, 335.42
380.52, 1.68, 335.31
380.51, 1.85, 335.20
380.50, 2.02, 335.08
¯380.49, 2.19, 334.97
380.48, 2.37, 334.85
380.47, 2.55, 334.73
380.46, 2.73, 334.61
380.89, 0.52, 344.25
380.88, 0.53, 344.07
380.87, 0.54, 343.88
380.86, 0.55, 343.68
380.84, 0.57, 343.47
380.83, 0.58, 343.25
380.82, 0.60, 343.01
380.80, 0.62, 342.76
380.79, 0.64, 342.49
380.77, 0.66, 342.19
380.75, 0.68, 341.87
380.73, 0.70, 341.53
380.71, 0.73, 341.17
380.68, 0.76, 340.77
380.66, 0.80, 340.34
380.63, 0.83, 339.86
380.60, 0.88, 339.34
380.56, 0.92, 338.75
380.52, 0.97, 338.10
380.48, 1.03, 337.38
380.44, 1.11, 336.62
380.38, 1.19, 335.74
380.36, 1.33, 335.37
380.35, 1.49, 335.26
380.34, 1.66, 335.15
380.33, 1.84, 335.03
380.32, 2.01, 334.92
380.30, 2.19, 334.80
380.29, 2.37, 334.68
380.28, 2.55, 334.56
380.27, 2.73, 334.43
380.83, 0.52, 344.26
380.81, 0.53, 344.08
380.80, 0.54, 343.90
380.79, 0.56, 343.70
380.77, 0.57, 343.49
380.76, 0.59, 343.27
380.74, 0.60, 343.04
380.72, 0.62, 342.78
380.70, 0.64, 342.51
380.68, 0.66, 342.22
380.66, 0.68, 341.90
380.63, 0.71, 341.56
380.61, 0.73, 341.20
380.58, 0.77, 340.80
380.55, 0.80, 340.37
380.51, 0.84, 339.90
¯380.48, 0.88, 339.39
380.44, 0.93, 338.81
380.39, 0.98, 338.16
380.34, 1.03, 337.43
380.28, 1.11, 336.67
380.22, 1.19, 335.81
380.17, 1.31, 335.21
380.16, 1.48, 335.09
380.15, 1.65, 334.98
380.14, 1.82, 334.86
380.13, 2.00, 334.74
380.11, 2.18, 334.62
380.10, 2.36, 334.50
380.09, 2.55, 334.38
380.07, 2.73, 334.25
380.76, 0.52, 344.28
380.75, 0.53, 344.10
380.73, 0.55, 343.91
380.72, 0.56, 343.72
380.70, 0.57, 343.51
380.68, 0.59, 343.29
380.66, 0.61, 343.06
380.64, 0.62, 342.81
380.62, 0.64, 342.54
380.59, 0.66, 342.25
380.57, 0.69, 341.93
380.54, 0.71, 341.59
380.51, 0.74, 341.23
380.48, 0.77, 340.84
380.44, 0.80, 340.41
380.40, 0.84, 339.94
380.36, 0.88, 339.43
380.31, 0.93, 338.86
380.25, 0.98, 338.22
380.19, 1.04, 337.50
380.13, 1.11, 336.73
380.06, 1.19, 335.88
379.99, 1.29, 335.04
379.97, 1.46, 334.93
379.96, 1.64, 334.81
379.94, 1.81, 334.69
379.93, 1.99, 334.57
379.92, 2.17, 334.45
379.90, 2.36, 334.32
379.89, 2.54, 334.19
379.87, 2.73, 334.06
380.70, 0.53, 344.29
380.68, 0.54, 344.12
380.67, 0.55, 343.93
380.65, 0.56, 343.73
380.63, 0.58, 343.53
¯380.61, 0.59, 343.32
380.58, 0.61, 343.08
380.56, 0.63, 342.83
380.54, 0.65, 342.57
380.51, 0.67, 342.28
380.48, 0.69, 341.96
380.44, 0.71, 341.63
380.41, 0.74, 341.26
380.37, 0.77, 340.87
380.33, 0.80, 340.45
380.29, 0.84, 339.98
380.24, 0.88, 339.48
380.18, 0.93, 338.92
380.12, 0.98, 338.28
380.05, 1.04, 337.57
379.98, 1.11, 336.78
379.90, 1.19, 335.94
379.80, 1.28, 334.93
379.78, 1.45, 334.76
379.76, 1.62, 334.64
379.75, 1.80, 334.51
379.73, 1.98, 334.39
379.71, 2.16, 334.26
379.70, 2.35, 334.14
379.68, 2.54, 334.00
379.66, 2.73, 333.83
380.64, 0.53, 344.31
380.62, 0.54, 344.13
380.60, 0.55, 343.95
380.58, 0.56, 343.75
380.56, 0.58, 343.55
380.53, 0.59, 343.34
380.51, 0.61, 343.11
380.48, 0.63, 342.86
380.45, 0.65, 342.59
380.42, 0.67, 342.31
380.39, 0.69, 342.00
380.35, 0.72, 341.66
380.31, 0.74, 341.30
380.27, 0.77, 340.91
380.22, 0.81, 340.49
380.17, 0.84, 340.02
380.12, 0.89, 339.52
380.06, 0.93, 338.98
379.99, 0.99, 338.35
379.91, 1.04, 337.64
379.83, 1.11, 336.84
379.73, 1.19, 336.00
379.63, 1.28, 335.01
379.58, 1.43, 334.58
379.56, 1.61, 334.46
¯379.54, 1.79, 334.33
379.52, 1.97, 334.21
379.50, 2.16, 334.08
379.48, 2.34, 333.93
379.46, 2.54, 333.75
379.44, 2.73, 333.57
380.58, 0.53, 344.33
380.56, 0.54, 344.15
380.53, 0.55, 343.97
380.51, 0.56, 343.77
380.49, 0.58, 343.57
380.46, 0.60, 343.36
380.43, 0.61, 343.13
380.40, 0.63, 342.89
380.37, 0.65, 342.62
380.34, 0.67, 342.34
380.30, 0.69, 342.03
380.26, 0.72, 341.70
380.21, 0.74, 341.33
380.17, 0.77, 340.94
380.12, 0.81, 340.53
380.06, 0.84, 340.06
380.00, 0.89, 339.57
379.93, 0.94, 339.03
379.86, 0.99, 338.41
379.77, 1.05, 337.71
379.68, 1.11, 336.91
379.58, 1.19, 336.07
379.46, 1.28, 335.08
379.37, 1.41, 334.40
379.35, 1.59, 334.28
379.33, 1.77, 334.15
379.31, 1.96, 334.02
379.29, 2.15, 333.85
379.26, 2.34, 333.67
379.23, 2.53, 333.48
379.21, 2.74, 333.30
380.51, 0.53, 344.34
380.49, 0.54, 344.17
380.47, 0.55, 343.99
380.44, 0.57, 343.79
380.41, 0.58, 343.59
380.39, 0.60, 343.38
380.36, 0.62, 343.16
380.32, 0.63, 342.91
380.29, 0.65, 342.65
380.25, 0.67, 342.37
380.21, 0.70, 342.06
380.17, 0.72, 341.73
380.12, 0.75, 341.37
380.07, 0.78, 340.98
¯380.01, 0.81, 340.57
379.95, 0.85, 340.11
379.88, 0.89, 339.61
379.81, 0.94, 339.08
379.73, 0.99, 338.47
379.64, 1.05, 337.78
379.53, 1.11, 336.99
379.42, 1.19, 336.13
379.29, 1.28, 335.16
379.16, 1.39, 334.22
379.14, 1.58, 334.09
379.12, 1.76, 333.95
379.09, 1.95, 333.77
379.06, 2.14, 333.59
379.03, 2.33, 333.40
379.00, 2.53, 333.21
378.97, 2.74, 333.01
380.45, 0.53, 344.36
380.43, 0.54, 344.19
380.40, 0.56, 344.01
380.37, 0.57, 343.81
380.34, 0.58, 343.61
380.31, 0.60, 343.41
380.28, 0.62, 343.18
380.25, 0.64, 342.94
380.21, 0.66, 342.68
380.17, 0.68, 342.40
380.12, 0.70, 342.10
380.08, 0.72, 341.77
380.02, 0.75, 341.41
379.97, 0.78, 341.02
379.91, 0.81, 340.61
379.84, 0.85, 340.15
379.77, 0.89, 339.66
379.69, 0.94, 339.13
379.60, 0.99, 338.53
379.50, 1.05, 337.85
379.39, 1.11, 337.07
379.26, 1.19, 336.20
379.12, 1.28, 335.23
378.95, 1.38, 334.11
378.92, 1.56, 333.87
378.89, 1.74, 333.71
378.86, 1.93, 333.55
378.83, 2.13, 333.40
378.81, 2.33, 333.24
378.78, 2.53, 333.08
378.75, 2.73, 332.91
380.39, 0.54, 344.38
380.37, 0.55, 344.21
380.34, 0.56, 344.03
¯380.31, 0.57, 343.84
380.27, 0.59, 343.64
380.24, 0.60, 343.43
380.21, 0.62, 343.21
380.17, 0.64, 342.97
380.13, 0.66, 342.71
380.08, 0.68, 342.43
380.04, 0.70, 342.13
379.98, 0.73, 341.81
379.93, 0.75, 341.45
379.87, 0.78, 341.07
379.80, 0.81, 340.65
379.73, 0.85, 340.20
379.65, 0.89, 339.71
379.57, 0.94, 339.18
379.47, 0.99, 338.59
379.37, 1.05, 337.92
379.25, 1.12, 337.15
379.11, 1.19, 336.28
378.95, 1.28, 335.31
378.78, 1.38, 334.21
378.72, 1.55, 333.84
378.69, 1.74, 333.68
378.66, 1.93, 333.52
378.63, 2.12, 333.37
378.60, 2.32, 333.21
378.57, 2.52, 333.04
378.54, 2.73, 332.88
380.33, 0.54, 344.40
380.30, 0.55, 344.23
380.27, 0.56, 344.05
380.24, 0.57, 343.86
380.20, 0.59, 343.66
380.17, 0.60, 343.45
380.13, 0.62, 343.23
380.09, 0.64, 343.00
380.05, 0.66, 342.74
380.00, 0.68, 342.47
379.95, 0.70, 342.17
379.89, 0.73, 341.84
379.83, 0.76, 341.49
379.77, 0.78, 341.11
379.70, 0.82, 340.69
379.62, 0.85, 340.24
379.54, 0.89, 339.75
379.45, 0.94, 339.23
379.35, 1.00, 338.65
379.23, 1.05, 337.99
379.10, 1.12, 337.23
378.96, 1.19, 336.37
378.79, 1.28, 335.40
¯378.60, 1.38, 334.32
378.52, 1.54, 333.85
378.49, 1.73, 333.67
378.45, 1.92, 333.49
378.42, 2.12, 333.34
378.39, 2.32, 333.17
378.35, 2.52, 333.01
378.32, 2.73, 332.84
384.24, 0.26, 354.60
384.36, 0.26, 354.82
384.49, 0.26, 355.05
384.63, 0.25, 355.29
384.79, 0.25, 355.56
384.95, 0.25, 355.85
385.14, 0.25, 356.18
385.35, 0.24, 356.54
385.57, 0.23, 356.93
385.82, 0.23, 357.37
386.11, 0.22, 357.86
386.42, 0.21, 358.41
386.78, 0.20, 359.03
387.19, 0.19, 359.74
387.66, 0.17, 360.56
388.53, 0.05, 362.08
388.74, 0.18, 362.44
388.74, 0.36, 362.45
390.73, 0.06, 365.91
388.80, 0.72, 362.57
388.80, 0.91, 362.58
388.80, 1.10, 362.59
388.80, 1.28, 362.60
388.80, 1.47, 362.60
388.83, 1.65, 362.68
384.30, 0.26, 354.56
384.42, 0.26, 354.78
384.56, 0.26, 355.00
384.70, 0.26, 355.25
384.87, 0.25, 355.53
385.05, 0.25, 355.83
385.24, 0.24, 356.16
385.45, 0.23, 356.52
385.69, 0.22, 356.92
385.95, 0.22, 357.36
386.24, 0.21, 357.86
386.57, 0.20, 358.41
386.94, 0.18, 359.04
387.37, 0.17, 359.76
387.86, 0.16, 360.59
388.70, 0.05, 362.01
388.79, 0.21, 362.18
388.79, 0.39, 362.19
¯388.79, 0.58, 362.19
388.79, 0.76, 362.20
388.80, 0.94, 362.22
384.36, 0.27, 354.52
384.49, 0.26, 354.73
384.63, 0.26, 354.96
384.78, 0.26, 355.21
384.95, 0.25, 355.49
385.13, 0.25, 355.79
385.33, 0.24, 356.11
385.54, 0.23, 356.47
385.78, 0.22, 356.87
386.05, 0.22, 357.31
386.35, 0.21, 357.80
386.69, 0.20, 358.36
387.07, 0.18, 358.99
387.51, 0.17, 359.71
388.02, 0.15, 360.55
388.87, 0.05, 361.94
389.51, 0.05, 363.00
390.27, 0.05, 364.26
391.17, 0.06, 365.73
392.23, 0.07, 367.48
393.52, 0.09, 369.62
384.42, 0.27, 354.48
384.55, 0.27, 354.69
384.69, 0.26, 354.92
384.85, 0.26, 355.17
385.02, 0.25, 355.45
385.21, 0.25, 355.74
385.41, 0.24, 356.07
385.63, 0.23, 356.43
385.88, 0.23, 356.82
386.15, 0.22, 357.26
386.46, 0.21, 357.75
386.81, 0.20, 358.30
387.20, 0.18, 358.93
387.65, 0.17, 359.65
388.17, 0.15, 360.48
388.58, 0.19, 361.14
389.70, 0.05, 362.93
390.48, 0.05, 364.18
391.39, 0.06, 365.65
392.47, 0.07, 367.38
393.82, 0.08, 369.54
384.48, 0.27, 354.44
384.62, 0.27, 354.65
384.76, 0.27, 354.88
384.92, 0.26, 355.13
385.10, 0.25, 355.40
385.29, 0.25, 355.70
¯385.50, 0.24, 356.02
385.72, 0.23, 356.38
385.98, 0.23, 356.77
386.26, 0.22, 357.21
386.57, 0.21, 357.70
386.92, 0.20, 358.25
387.32, 0.18, 358.87
387.78, 0.17, 359.58
388.31, 0.15, 360.41
388.73, 0.19, 361.07
389.88, 0.05, 362.85
390.68, 0.05, 364.10
391.62, 0.06, 365.57
392.72, 0.07, 367.28
394.12, 0.08, 369.47
384.54, 0.27, 354.40
384.68, 0.27, 354.61
384.83, 0.27, 354.83
384.99, 0.26, 355.08
385.17, 0.25, 355.36
385.37, 0.25, 355.66
385.58, 0.24, 355.98
385.81, 0.23, 356.33
386.07, 0.23, 356.72
386.36, 0.22, 357.15
386.68, 0.21, 357.64
387.04, 0.20, 358.19
387.45, 0.18, 358.81
387.91, 0.17, 359.52
388.46, 0.15, 360.34
388.89, 0.19, 361.00
389.54, 0.19, 361.99
390.88, 0.05, 364.01
391.85, 0.06, 365.49
392.96, 0.07, 367.19
394.41, 0.08, 369.39
384.60, 0.28, 354.36
384.74, 0.27, 354.57
384.90, 0.27, 354.79
385.06, 0.26, 355.04
385.25, 0.26, 355.31
385.45, 0.25, 355.61
385.67, 0.24, 355.93
385.90, 0.23, 356.28
386.16, 0.23, 356.67
386.46, 0.22, 357.10
386.78, 0.21, 357.58
387.15, 0.20, 358.12
387.57, 0.18, 358.74
388.05, 0.17, 359.45
388.60, 0.15, 360.27
¯389.05, 0.19, 360.93
389.71, 0.19, 361.91
391.08, 0.05, 363.93
392.07, 0.06, 365.40
393.22, 0.07, 367.10
394.71, 0.08, 369.30
384.66, 0.28, 354.32
384.81, 0.27, 354.52
384.96, 0.27, 354.75
385.13, 0.26, 354.99
385.32, 0.26, 355.26
385.53, 0.25, 355.56
385.75, 0.24, 355.88
385.99, 0.23, 356.23
386.26, 0.23, 356.61
386.56, 0.22, 357.04
386.89, 0.21, 357.52
387.26, 0.20, 358.06
387.69, 0.19, 358.68
388.18, 0.17, 359.38
388.74, 0.15, 360.19
389.20, 0.19, 360.85
389.88, 0.19, 361.84
390.69, 0.19, 362.99
392.30, 0.06, 365.31
393.47, 0.07, 367.00
394.99, 0.08, 369.19
384.72, 0.28, 354.28
384.87, 0.28, 354.48
385.03, 0.27, 354.71
385.20, 0.27, 354.95
385.39, 0.26, 355.22
385.61, 0.25, 355.51
385.83, 0.24, 355.83
386.08, 0.23, 356.18
386.35, 0.23, 356.56
386.65, 0.22, 356.98
386.99, 0.21, 357.46
387.38, 0.20, 358.00
387.81, 0.19, 358.61
388.31, 0.17, 359.31
388.89, 0.16, 360.12
389.36, 0.19, 360.78
390.05, 0.19, 361.75
390.87, 0.19, 362.91
392.52, 0.05, 365.22
393.72, 0.07, 366.91
395.26, 0.08, 369.07
384.78, 0.28, 354.23
384.93, 0.28, 354.44
385.10, 0.27, 354.66
¯385.27, 0.27, 354.90
385.47, 0.26, 355.17
385.68, 0.25, 355.46
385.91, 0.24, 355.78
386.17, 0.24, 356.12
386.44, 0.23, 356.50
386.75, 0.22, 356.93
387.10, 0.21, 357.40
387.49, 0.20, 357.93
387.93, 0.19, 358.54
388.44, 0.17, 359.23
389.03, 0.16, 360.04
389.51, 0.19, 360.70
390.22, 0.19, 361.67
391.06, 0.19, 362.82
392.74, 0.06, 365.11
393.98, 0.07, 366.80
395.53, 0.08, 368.94
384.84, 0.28, 354.19
385.00, 0.28, 354.39
385.16, 0.27, 354.61
385.34, 0.27, 354.86
385.54, 0.26, 355.12
385.76, 0.25, 355.41
386.00, 0.24, 355.73
386.25, 0.24, 356.07
386.54, 0.23, 356.45
386.85, 0.22, 356.86
387.20, 0.21, 357.33
387.60, 0.20, 357.86
388.05, 0.19, 358.47
388.57, 0.17, 359.16
389.17, 0.16, 359.96
389.66, 0.19, 360.62
390.39, 0.19, 361.58
391.24, 0.19, 362.73
392.28, 0.19, 364.10
394.22, 0.07, 366.69
395.80, 0.09, 368.80
384.90, 0.28, 354.15
385.06, 0.28, 354.35
385.23, 0.27, 354.57
385.41, 0.27, 354.81
385.61, 0.26, 355.07
385.83, 0.25, 355.35
386.08, 0.24, 355.67
386.34, 0.24, 356.01
386.63, 0.23, 356.39
386.95, 0.22, 356.80
387.31, 0.21, 357.27
387.71, 0.20, 357.80
¯388.17, 0.19, 358.39
388.70, 0.17, 359.08
389.31, 0.16, 359.87
389.81, 0.19, 360.53
390.55, 0.19, 361.49
391.43, 0.19, 362.63
392.48, 0.19, 364.00
394.45, 0.07, 366.56
396.06, 0.09, 368.66
384.96, 0.28, 354.10
385.12, 0.28, 354.30
385.29, 0.28, 354.52
385.48, 0.27, 354.76
385.68, 0.26, 355.02
385.91, 0.25, 355.30
386.15, 0.25, 355.61
386.42, 0.24, 355.95
386.72, 0.23, 356.33
387.04, 0.22, 356.74
387.41, 0.21, 357.20
387.82, 0.20, 357.72
388.29, 0.19, 358.32
388.82, 0.17, 359.00
389.45, 0.16, 359.79
389.97, 0.19, 360.45
390.72, 0.19, 361.40
391.61, 0.19, 362.54
392.68, 0.19, 363.89
394.68, 0.07, 366.43
396.33, 0.09, 368.51
385.02, 0.29, 354.06
385.18, 0.28, 354.26
385.35, 0.28, 354.47
385.54, 0.27, 354.71
385.75, 0.26, 354.96
385.98, 0.26, 355.24
386.23, 0.25, 355.56
386.51, 0.24, 355.90
386.81, 0.23, 356.27
387.14, 0.22, 356.68
387.51, 0.21, 357.13
387.93, 0.20, 357.65
388.40, 0.19, 358.24
388.95, 0.17, 358.92
389.58, 0.16, 359.70
390.12, 0.19, 360.36
390.88, 0.19, 361.31
391.79, 0.19, 362.44
392.88, 0.19, 363.78
394.15, 0.21, 365.35
396.59, 0.09, 368.36
¯385.08, 0.29, 354.01
385.24, 0.28, 354.21
385.42, 0.28, 354.42
385.61, 0.27, 354.66
385.82, 0.27, 354.91
386.05, 0.26, 355.19
386.31, 0.25, 355.50
386.59, 0.24, 355.84
386.89, 0.23, 356.20
387.23, 0.22, 356.61
387.61, 0.21, 357.07
388.04, 0.20, 357.58
388.52, 0.19, 358.16
389.08, 0.18, 358.83
389.72, 0.16, 359.61
390.27, 0.19, 360.27
391.05, 0.19, 361.21
391.98, 0.19, 362.33
393.08, 0.19, 363.67
394.37, 0.21, 365.23
396.85, 0.09, 368.21
385.14, 0.29, 353.97
385.30, 0.28, 354.16
385.48, 0.28, 354.37
385.68, 0.27, 354.60
385.89, 0.27, 354.86
386.12, 0.26, 355.13
386.38, 0.25, 355.44
386.67, 0.24, 355.77
386.98, 0.23, 356.14
387.32, 0.22, 356.54
387.71, 0.21, 356.99
388.14, 0.20, 357.50
388.64, 0.19, 358.08
389.20, 0.18, 358.75
390.26, 0.05, 359.99
390.42, 0.19, 360.18
391.21, 0.19, 361.12
392.16, 0.19, 362.23
393.28, 0.20, 363.55
394.60, 0.21, 365.10
397.11, 0.10, 368.05
385.19, 0.29, 353.92
385.36, 0.29, 354.11
385.54, 0.28, 354.32
385.74, 0.27, 354.55
385.96, 0.27, 354.80
386.20, 0.26, 355.07
386.46, 0.25, 355.37
386.75, 0.24, 355.71
387.07, 0.23, 356.07
¯387.42, 0.22, 356.47
387.81, 0.21, 356.92
388.25, 0.20, 357.43
388.75, 0.19, 358.00
389.32, 0.18, 358.66
390.41, 0.05, 359.90
390.56, 0.19, 360.08
391.37, 0.19, 361.02
392.34, 0.19, 362.12
393.48, 0.20, 363.43
394.82, 0.21, 364.97
397.37, 0.10, 367.89
385.25, 0.29, 353.87
385.42, 0.29, 354.06
385.60, 0.28, 354.27
385.80, 0.28, 354.50
386.02, 0.27, 354.74
386.27, 0.26, 355.01
386.53, 0.25, 355.31
386.83, 0.24, 355.64
387.15, 0.23, 356.01
387.51, 0.22, 356.40
387.91, 0.21, 356.85
388.35, 0.20, 357.35
388.86, 0.19, 357.92
389.45, 0.18, 358.57
390.55, 0.05, 359.81
390.71, 0.19, 359.99
391.54, 0.19, 360.91
392.52, 0.19, 362.01
393.67, 0.20, 363.31
395.04, 0.21, 364.84
396.73, 0.23, 366.73
385.30, 0.29, 353.82
385.48, 0.29, 354.01
385.66, 0.28, 354.22
385.87, 0.28, 354.44
386.09, 0.27, 354.69
386.34, 0.26, 354.95
386.61, 0.26, 355.25
386.90, 0.25, 355.57
387.24, 0.23, 355.94
387.60, 0.22, 356.33
388.00, 0.22, 356.77
388.46, 0.20, 357.27
388.97, 0.19, 357.83
389.57, 0.18, 358.48
390.14, 0.19, 359.11
390.86, 0.19, 359.89
391.70, 0.19, 360.81
392.69, 0.19, 361.90
¯393.87, 0.20, 363.19
395.26, 0.21, 364.70
396.98, 0.23, 366.58
385.36, 0.29, 353.78
385.53, 0.29, 353.96
385.72, 0.28, 354.17
385.93, 0.28, 354.39
386.16, 0.27, 354.63
386.41, 0.27, 354.89
386.68, 0.26, 355.18
386.98, 0.25, 355.51
387.32, 0.24, 355.87
387.69, 0.23, 356.26
388.10, 0.22, 356.70
388.56, 0.21, 357.19
389.08, 0.19, 357.75
389.69, 0.18, 358.39
390.27, 0.19, 359.01
391.00, 0.19, 359.79
391.86, 0.19, 360.70
392.87, 0.19, 361.78
394.06, 0.20, 363.06
395.47, 0.21, 364.56
397.22, 0.23, 366.43
385.41, 0.29, 353.73
385.59, 0.29, 353.91
385.78, 0.29, 354.11
385.99, 0.28, 354.33
386.22, 0.27, 354.57
386.47, 0.27, 354.83
386.75, 0.26, 355.12
387.06, 0.25, 355.44
387.40, 0.24, 355.79
387.78, 0.23, 356.19
388.19, 0.22, 356.62
388.66, 0.21, 357.10
389.19, 0.19, 357.66
389.81, 0.18, 358.29
390.40, 0.19, 358.92
391.14, 0.19, 359.69
392.01, 0.19, 360.59
393.05, 0.19, 361.67
394.26, 0.20, 362.93
395.69, 0.21, 364.42
397.47, 0.23, 366.27
385.47, 0.30, 353.68
385.65, 0.29, 353.86
385.84, 0.29, 354.06
386.05, 0.28, 354.27
386.29, 0.28, 354.51
386.54, 0.27, 354.77
¯386.82, 0.26, 355.05
387.13, 0.25, 355.37
387.48, 0.24, 355.72
387.86, 0.23, 356.11
388.29, 0.22, 356.54
388.76, 0.21, 357.02
389.30, 0.20, 357.57
389.92, 0.18, 358.20
390.53, 0.19, 358.82
391.29, 0.19, 359.59
392.17, 0.19, 360.48
393.22, 0.19, 361.55
394.45, 0.20, 362.80
395.91, 0.21, 364.28
397.71, 0.23, 366.11
385.52, 0.30, 353.62
385.70, 0.29, 353.80
385.90, 0.29, 354.00
386.11, 0.28, 354.21
386.35, 0.28, 354.45
386.61, 0.27, 354.70
386.89, 0.26, 354.98
387.21, 0.25, 355.30
387.55, 0.24, 355.64
387.95, 0.23, 356.03
388.38, 0.22, 356.46
388.86, 0.21, 356.93
389.41, 0.20, 357.48
390.04, 0.18, 358.10
390.66, 0.19, 358.72
391.43, 0.19, 359.48
392.33, 0.19, 360.37
393.39, 0.19, 361.43
394.64, 0.20, 362.66
396.13, 0.21, 364.13
397.95, 0.23, 365.94
385.57, 0.30, 353.57
385.75, 0.29, 353.75
385.96, 0.29, 353.95
386.17, 0.28, 354.16
386.41, 0.28, 354.39
386.67, 0.27, 354.64
386.96, 0.26, 354.92
387.28, 0.25, 355.22
387.63, 0.24, 355.56
388.03, 0.23, 355.95
388.47, 0.22, 356.38
388.96, 0.21, 356.85
389.51, 0.20, 357.38
390.15, 0.18, 358.00
390.79, 0.19, 358.62
¯391.57, 0.19, 359.37
392.48, 0.19, 360.25
393.56, 0.19, 361.30
394.82, 0.20, 362.52
396.34, 0.21, 363.99
398.19, 0.24, 365.78
385.62, 0.30, 353.52
385.81, 0.30, 353.70
386.01, 0.29, 353.89
386.23, 0.29, 354.10
386.47, 0.28, 354.32
386.74, 0.27, 354.57
387.03, 0.27, 354.85
387.35, 0.26, 355.15
387.71, 0.25, 355.49
388.11, 0.23, 355.87
388.56, 0.22, 356.29
389.06, 0.21, 356.76
389.62, 0.20, 357.29
390.27, 0.19, 357.90
390.92, 0.19, 358.52
391.71, 0.19, 359.26
392.63, 0.19, 360.14
393.73, 0.19, 361.17
395.01, 0.20, 362.38
396.55, 0.21, 363.83
398.43, 0.24, 365.60
385.67, 0.30, 353.47
385.86, 0.30, 353.64
386.07, 0.29, 353.83
386.29, 0.29, 354.04
386.53, 0.28, 354.26
386.80, 0.27, 354.51
387.10, 0.27, 354.78
387.42, 0.26, 355.08
387.78, 0.25, 355.41
388.19, 0.24, 355.78
388.65, 0.22, 356.20
389.15, 0.21, 356.67
389.72, 0.20, 357.19
390.38, 0.19, 357.80
391.05, 0.19, 358.41
391.85, 0.19, 359.15
392.79, 0.19, 360.02
393.90, 0.19, 361.04
395.19, 0.20, 362.23
396.76, 0.22, 363.68
398.66, 0.24, 365.43
385.72, 0.30, 353.41
385.91, 0.30, 353.58
386.12, 0.29, 353.77
¯386.35, 0.29, 353.97
386.59, 0.28, 354.20
386.86, 0.28, 354.44
387.16, 0.27, 354.70
387.49, 0.26, 355.00
387.86, 0.25, 355.33
388.27, 0.24, 355.70
388.73, 0.23, 356.11
389.25, 0.21, 356.58
389.82, 0.20, 357.10
390.49, 0.19, 357.69
391.17, 0.19, 358.31
391.98, 0.19, 359.04
392.94, 0.19, 359.89
394.07, 0.19, 360.91
395.38, 0.20, 362.09
396.97, 0.22, 363.52
398.90, 0.24, 365.25
385.77, 0.30, 353.36
385.97, 0.30, 353.53
386.18, 0.30, 353.71
386.40, 0.29, 353.91
386.65, 0.28, 354.13
386.93, 0.28, 354.37
387.23, 0.27, 354.63
387.56, 0.26, 354.92
387.93, 0.25, 355.25
388.34, 0.24, 355.61
388.81, 0.23, 356.02
389.34, 0.21, 356.48
389.93, 0.20, 357.00
390.60, 0.19, 357.59
391.30, 0.19, 358.20
392.12, 0.19, 358.92
393.09, 0.19, 359.77
394.23, 0.19, 360.77
395.56, 0.20, 361.94
397.18, 0.22, 363.36
399.14, 0.24, 365.07
385.82, 0.30, 353.30
386.02, 0.30, 353.47
386.23, 0.30, 353.65
386.46, 0.29, 353.85
386.71, 0.29, 354.06
386.99, 0.28, 354.30
387.29, 0.27, 354.56
387.63, 0.26, 354.85
388.00, 0.25, 355.17
388.42, 0.24, 355.52
388.89, 0.23, 355.93
389.43, 0.22, 356.38
¯390.03, 0.20, 356.90
390.71, 0.19, 357.48
391.42, 0.19, 358.09
392.25, 0.19, 358.80
393.23, 0.19, 359.64
394.39, 0.19, 360.63
395.75, 0.20, 361.79
397.39, 0.22, 363.20
399.37, 0.24, 364.89
385.87, 0.31, 353.25
386.07, 0.30, 353.41
386.28, 0.30, 353.59
386.51, 0.29, 353.79
386.77, 0.29, 354.00
387.05, 0.28, 354.23
387.35, 0.27, 354.49
387.69, 0.27, 354.77
388.07, 0.26, 355.08
388.49, 0.25, 355.44
388.97, 0.23, 355.83
389.51, 0.22, 356.28
390.12, 0.20, 356.79
390.81, 0.19, 357.37
391.54, 0.19, 357.98
392.39, 0.19, 358.68
393.38, 0.19, 359.51
394.55, 0.19, 360.49
395.93, 0.20, 361.64
397.60, 0.22, 363.04
399.60, 0.24, 364.70
385.92, 0.31, 353.19
386.12, 0.30, 353.35
386.33, 0.30, 353.53
386.57, 0.29, 353.72
386.82, 0.29, 353.93
387.11, 0.28, 354.16
387.42, 0.28, 354.41
387.76, 0.27, 354.69
388.14, 0.26, 355.00
388.57, 0.25, 355.35
389.05, 0.24, 355.74
389.59, 0.22, 356.18
390.22, 0.21, 356.69
390.92, 0.19, 357.26
391.66, 0.19, 357.86
392.52, 0.19, 358.56
393.53, 0.19, 359.38
394.71, 0.19, 360.35
396.10, 0.20, 361.48
397.81, 0.22, 362.87
399.82, 0.24, 364.51
¯385.96, 0.31, 353.13
386.16, 0.31, 353.29
386.38, 0.30, 353.47
386.62, 0.30, 353.66
386.88, 0.29, 353.86
387.16, 0.29, 354.09
387.48, 0.28, 354.34
387.82, 0.27, 354.61
388.21, 0.26, 354.91
388.64, 0.25, 355.26
389.12, 0.24, 355.64
389.68, 0.23, 356.08
390.31, 0.21, 356.58
391.02, 0.19, 357.15
391.78, 0.19, 357.75
392.65, 0.19, 358.44
393.67, 0.19, 359.25
394.87, 0.19, 360.20
396.28, 0.20, 361.32
398.01, 0.22, 362.69
400.05, 0.25, 364.31
386.01, 0.31, 353.08
386.21, 0.31, 353.23
386.43, 0.30, 353.40
386.67, 0.30, 353.59
386.94, 0.29, 353.79
387.22, 0.29, 354.01
387.54, 0.28, 354.26
387.89, 0.27, 354.53
388.27, 0.26, 354.83
388.71, 0.25, 355.17
389.20, 0.24, 355.54
389.76, 0.23, 355.97
390.39, 0.21, 356.47
391.12, 0.20, 357.03
391.90, 0.19, 357.63
392.78, 0.19, 358.31
393.81, 0.19, 359.11
395.03, 0.20, 360.06
396.46, 0.20, 361.16
398.20, 0.22, 362.52
400.27, 0.25, 364.11
386.05, 0.31, 353.02
386.26, 0.31, 353.17
386.48, 0.30, 353.34
386.72, 0.30, 353.52
386.99, 0.29, 353.72
387.28, 0.29, 353.94
387.60, 0.28, 354.18
387.95, 0.27, 354.45
388.34, 0.27, 354.74
¯388.78, 0.26, 355.07
389.27, 0.24, 355.45
389.83, 0.23, 355.87
390.48, 0.22, 356.35
391.22, 0.20, 356.91
392.01, 0.19, 357.51
392.90, 0.19, 358.19
393.95, 0.19, 358.98
395.18, 0.20, 359.91
396.63, 0.20, 361.00
398.40, 0.22, 362.33
400.49, 0.25, 363.91
386.10, 0.31, 352.96
386.30, 0.31, 353.11
386.53, 0.31, 353.28
386.77, 0.30, 353.46
387.04, 0.30, 353.65
387.33, 0.29, 353.87
387.66, 0.28, 354.10
388.01, 0.28, 354.37
388.41, 0.27, 354.66
388.85, 0.26, 354.98
389.35, 0.25, 355.35
389.91, 0.23, 355.76
390.56, 0.22, 356.24
391.31, 0.20, 356.79
392.13, 0.19, 357.39
393.11, 0.18, 358.11
394.31, 0.15, 359.00
395.47, 0.17, 359.85
396.80, 0.21, 360.83
398.59, 0.22, 362.15
400.71, 0.25, 363.71
386.14, 0.31, 352.90
386.35, 0.31, 353.05
386.58, 0.31, 353.21
386.82, 0.30, 353.39
387.09, 0.30, 353.58
387.39, 0.29, 353.79
387.71, 0.29, 354.03
388.07, 0.28, 354.28
388.47, 0.27, 354.57
388.91, 0.26, 354.89
389.42, 0.25, 355.25
389.99, 0.24, 355.66
391.36, 0.05, 356.64
392.09, 0.05, 357.16
392.93, 0.05, 357.76
393.90, 0.05, 358.45
395.04, 0.05, 359.27
396.35, 0.06, 360.21
¯397.92, 0.07, 361.34
398.78, 0.22, 361.96
400.93, 0.25, 363.50
386.18, 0.32, 352.84
386.39, 0.31, 352.99
386.62, 0.31, 353.15
386.87, 0.30, 353.32
387.14, 0.30, 353.51
387.44, 0.29, 353.72
387.77, 0.29, 353.95
388.13, 0.28, 354.20
388.53, 0.27, 354.48
388.98, 0.26, 354.79
390.25, 0.05, 355.67
390.82, 0.05, 356.07
391.46, 0.05, 356.52
392.20, 0.05, 357.04
393.04, 0.05, 357.63
394.03, 0.05, 358.31
395.18, 0.05, 359.12
396.52, 0.06, 360.05
398.11, 0.07, 361.17
399.62, 0.14, 362.22
401.14, 0.25, 363.29
386.22, 0.32, 352.78
386.44, 0.31, 352.92
386.67, 0.31, 353.08
386.92, 0.31, 353.25
387.19, 0.30, 353.44
387.49, 0.30, 353.64
387.82, 0.29, 353.87
388.19, 0.28, 354.11
389.35, 0.05, 354.90
389.82, 0.05, 355.22
390.33, 0.05, 355.57
390.91, 0.05, 355.96
391.56, 0.05, 356.41
392.31, 0.05, 356.91
393.16, 0.05, 357.49
394.15, 0.05, 358.17
395.32, 0.05, 358.97
396.69, 0.06, 359.89
398.29, 0.07, 360.98
400.16, 0.10, 362.26
401.35, 0.25, 363.07
386.26, 0.32, 352.72
386.48, 0.32, 352.86
386.71, 0.31, 353.01
386.97, 0.31, 353.18
387.24, 0.30, 353.36
387.54, 0.30, 353.56
¯388.62, 0.05, 354.27
389.01, 0.05, 354.53
389.43, 0.05, 354.81
389.90, 0.05, 355.12
390.42, 0.05, 355.46
391.00, 0.05, 355.85
391.66, 0.05, 356.29
392.41, 0.05, 356.79
393.28, 0.05, 357.36
394.28, 0.05, 358.03
395.46, 0.05, 358.81
396.85, 0.06, 359.73
398.45, 0.07, 360.79
400.36, 0.10, 362.06
401.95, 0.21, 363.11
386.30, 0.32, 352.65
386.52, 0.32, 352.79
386.76, 0.31, 352.95
387.01, 0.31, 353.11
387.29, 0.30, 353.29
388.34, 0.05, 353.96
388.69, 0.05, 354.19
389.08, 0.05, 354.44
389.50, 0.05, 354.71
389.98, 0.05, 355.02
390.50, 0.05, 355.36
391.09, 0.05, 355.74
391.76, 0.05, 356.17
392.52, 0.05, 356.66
393.39, 0.05, 357.22
394.41, 0.05, 357.88
395.60, 0.05, 358.65
397.00, 0.06, 359.55
398.62, 0.07, 360.60
400.56, 0.10, 361.85
386.34, 0.32, 352.59
386.56, 0.32, 352.73
386.80, 0.32, 352.88
387.77, 0.06, 353.48
388.07, 0.05, 353.67
388.40, 0.05, 353.88
388.75, 0.05, 354.10
389.15, 0.05, 354.35
389.58, 0.05, 354.62
390.05, 0.05, 354.92
390.58, 0.05, 355.25
391.18, 0.05, 355.63
391.85, 0.05, 356.05
392.62, 0.05, 356.53
393.50, 0.05, 357.09
394.53, 0.05, 357.73
¯395.74, 0.05, 358.49
397.14, 0.06, 359.37
398.78, 0.08, 360.40
400.76, 0.10, 361.65
386.38, 0.32, 352.53
386.60, 0.32, 352.66
387.54, 0.06, 353.23
387.82, 0.06, 353.41
388.13, 0.05, 353.59
388.46, 0.05, 353.79
388.82, 0.05, 354.01
389.21, 0.05, 354.25
389.65, 0.05, 354.52
390.13, 0.05, 354.81
390.66, 0.05, 355.14
391.27, 0.05, 355.51
391.95, 0.05, 355.93
392.72, 0.05, 356.40
393.61, 0.05, 356.95
394.65, 0.05, 357.58
395.87, 0.05, 358.33
397.28, 0.06, 359.19
398.93, 0.08, 360.20
400.95, 0.10, 361.43
386.42, 0.32, 352.47
387.33, 0.06, 353.00
387.59, 0.06, 353.16
387.88, 0.06, 353.33
388.19, 0.05, 353.51
388.52, 0.05, 353.71
388.88, 0.05, 353.92
389.28, 0.05, 354.16
389.72, 0.05, 354.42
390.20, 0.05, 354.71
390.74, 0.05, 355.03
391.35, 0.05, 355.39
392.04, 0.05, 355.80
392.82, 0.05, 356.27
393.72, 0.05, 356.80
394.77, 0.05, 357.43
396.00, 0.05, 358.16
397.42, 0.06, 359.00
399.09, 0.08, 360.00
401.14, 0.10, 361.22
387.12, 0.06, 352.78
387.37, 0.06, 352.93
387.64, 0.06, 353.08
387.93, 0.06, 353.25
388.24, 0.06, 353.43
388.58, 0.05, 353.62
388.94, 0.05, 353.83
¯389.34, 0.05, 354.07
389.79, 0.05, 354.32
390.28, 0.05, 354.61
390.82, 0.05, 354.92
391.44, 0.05, 355.28
392.13, 0.05, 355.68
392.92, 0.05, 356.14
393.83, 0.05, 356.66
394.89, 0.05, 357.27
396.13, 0.05, 357.99
397.56, 0.06, 358.82
399.24, 0.08, 359.79
401.31, 0.10, 360.99
387.17, 0.06, 352.71
387.42, 0.06, 352.85
387.69, 0.06, 353.00
387.98, 0.06, 353.17
388.29, 0.06, 353.34
388.63, 0.05, 353.54
389.00, 0.05, 353.74
389.41, 0.05, 353.97
389.85, 0.05, 354.22
390.35, 0.05, 354.50
390.90, 0.05, 354.81
391.52, 0.05, 355.16
392.22, 0.05, 355.55
393.02, 0.05, 356.00
393.93, 0.05, 356.52
395.00, 0.05, 357.12
396.26, 0.05, 357.83
397.69, 0.07, 358.63
399.39, 0.08, 359.59
401.48, 0.10, 360.76
387.21, 0.06, 352.64
387.46, 0.06, 352.78
387.73, 0.06, 352.93
388.02, 0.06, 353.09
388.34, 0.06, 353.26
388.69, 0.05, 353.45
389.06, 0.05, 353.65
389.47, 0.05, 353.88
389.92, 0.05, 354.12
390.42, 0.05, 354.39
390.98, 0.05, 354.70
391.60, 0.05, 355.04
392.31, 0.05, 355.42
393.11, 0.05, 355.86
394.04, 0.05, 356.37
395.12, 0.05, 356.96
396.39, 0.05, 357.65
397.82, 0.07, 358.44
¯399.54, 0.08, 359.38
401.65, 0.10, 360.53
387.25, 0.06, 352.57
387.50, 0.06, 352.70
387.78, 0.06, 352.85
388.07, 0.06, 353.00
388.39, 0.06, 353.17
388.74, 0.05, 353.36
389.12, 0.05, 353.56
389.53, 0.05, 353.78
389.99, 0.05, 354.02
390.49, 0.05, 354.29
391.05, 0.05, 354.58
391.68, 0.05, 354.92
392.39, 0.05, 355.30
393.20, 0.05, 355.73
394.14, 0.05, 356.22
395.23, 0.05, 356.80
396.51, 0.06, 357.48
397.95, 0.07, 358.25
399.69, 0.08, 359.17
401.82, 0.10, 360.30
387.29, 0.06, 352.50
387.55, 0.06, 352.63
387.82, 0.06, 352.77
388.12, 0.06, 352.92
388.45, 0.06, 353.09
388.80, 0.05, 353.27
389.18, 0.05, 353.47
389.59, 0.05, 353.68
390.05, 0.05, 353.92
390.56, 0.05, 354.18
391.12, 0.05, 354.47
391.76, 0.05, 354.80
392.48, 0.05, 355.17
393.30, 0.05, 355.59
394.24, 0.05, 356.07
395.34, 0.05, 356.64
396.63, 0.06, 357.30
398.08, 0.07, 358.05
399.83, 0.09, 358.95
401.98, 0.11, 360.06
387.33, 0.07, 352.42
387.59, 0.06, 352.55
387.86, 0.06, 352.69
388.17, 0.06, 352.84
388.50, 0.06, 353.01
388.85, 0.05, 353.18
389.23, 0.05, 353.37
389.65, 0.05, 353.58
390.11, 0.05, 353.81
¯390.62, 0.05, 354.07
391.19, 0.05, 354.35
391.83, 0.05, 354.67
392.56, 0.05, 355.03
393.38, 0.05, 355.45
394.34, 0.05, 355.92
395.45, 0.05, 356.48
396.74, 0.06, 357.12
398.20, 0.07, 357.85
399.99, 0.09, 358.74
402.14, 0.11, 359.82
387.37, 0.07, 352.35
387.63, 0.06, 352.47
387.91, 0.06, 352.61
388.22, 0.06, 352.76
388.55, 0.06, 352.92
388.90, 0.05, 353.09
389.29, 0.05, 353.28
389.71, 0.05, 353.48
390.17, 0.05, 353.71
390.69, 0.05, 353.96
391.26, 0.05, 354.24
391.91, 0.05, 354.55
392.64, 0.05, 354.90
393.47, 0.05, 355.31
394.43, 0.05, 355.77
395.55, 0.05, 356.31
396.85, 0.06, 356.94
398.33, 0.07, 357.66
400.15, 0.08, 358.54
402.29, 0.11, 359.58
387.41, 0.07, 352.28
387.67, 0.06, 352.40
387.95, 0.06, 352.53
388.26, 0.06, 352.68
388.60, 0.06, 352.83
388.95, 0.05, 353.00
389.34, 0.05, 353.18
389.76, 0.05, 353.38
390.23, 0.05, 353.60
390.75, 0.05, 353.85
391.33, 0.05, 354.12
391.98, 0.05, 354.42
392.72, 0.05, 354.77
393.56, 0.05, 355.16
394.53, 0.05, 355.62
395.65, 0.05, 356.15
396.96, 0.06, 356.76
398.45, 0.07, 357.46
400.31, 0.08, 358.33
402.45, 0.11, 359.34
¯387.45, 0.07, 352.20
387.71, 0.06, 352.32
388.00, 0.06, 352.45
388.31, 0.06, 352.59
388.64, 0.06, 352.75
389.00, 0.05, 352.91
389.39, 0.05, 353.09
389.82, 0.05, 353.28
390.29, 0.05, 353.49
390.81, 0.05, 353.73
391.40, 0.05, 354.00
392.05, 0.05, 354.30
392.80, 0.05, 354.63
393.64, 0.05, 355.02
394.62, 0.05, 355.46
395.76, 0.05, 355.98
397.06, 0.06, 356.57
398.58, 0.07, 357.26
400.46, 0.08, 358.12
402.62, 0.11, 359.10
387.49, 0.07, 352.13
387.75, 0.06, 352.25
388.04, 0.06, 352.37
388.35, 0.06, 352.51
388.69, 0.05, 352.66
389.05, 0.05, 352.82
389.44, 0.05, 352.99
389.87, 0.05, 353.18
390.35, 0.05, 353.39
390.88, 0.05, 353.62
391.46, 0.05, 353.88
392.12, 0.05, 354.17
392.87, 0.05, 354.50
393.72, 0.05, 354.87
394.71, 0.05, 355.31
395.86, 0.05, 355.81
397.17, 0.06, 356.39
398.72, 0.07, 357.07
400.61, 0.08, 357.90
402.79, 0.11, 358.86
387.52, 0.07, 352.05
387.79, 0.06, 352.17
388.08, 0.06, 352.29
388.40, 0.06, 352.43
388.74, 0.05, 352.57
389.10, 0.05, 352.72
389.49, 0.05, 352.89
389.93, 0.05, 353.08
390.40, 0.05, 353.28
390.93, 0.05, 353.50
391.53, 0.05, 353.76
¯392.19, 0.05, 354.04
392.95, 0.05, 354.36
393.81, 0.05, 354.73
394.80, 0.05, 355.15
395.95, 0.05, 355.64
397.27, 0.06, 356.20
398.86, 0.07, 356.87
400.75, 0.08, 357.68
402.95, 0.11, 358.62
387.56, 0.07, 351.98
387.83, 0.06, 352.09
388.12, 0.06, 352.21
388.44, 0.06, 352.34
388.78, 0.05, 352.48
389.14, 0.05, 352.63
389.54, 0.05, 352.79
389.98, 0.05, 352.97
390.46, 0.05, 353.17
390.99, 0.05, 353.39
391.59, 0.05, 353.63
392.26, 0.05, 353.91
393.02, 0.05, 354.22
393.88, 0.05, 354.58
394.88, 0.05, 354.99
396.05, 0.05, 355.47
397.39, 0.06, 356.02
398.99, 0.07, 356.68
400.89, 0.08, 357.46
403.11, 0.11, 358.37
387.60, 0.07, 351.90
387.87, 0.06, 352.01
388.16, 0.06, 352.13
388.48, 0.06, 352.25
388.82, 0.05, 352.39
389.19, 0.05, 352.53
389.59, 0.05, 352.69
390.03, 0.05, 352.87
390.51, 0.05, 353.06
391.05, 0.05, 353.27
391.65, 0.05, 353.51
392.32, 0.05, 353.78
393.09, 0.05, 354.08
393.96, 0.05, 354.43
394.97, 0.05, 354.83
396.14, 0.05, 355.29
397.50, 0.06, 355.83
399.12, 0.06, 356.48
401.02, 0.08, 357.23
403.24, 0.11, 358.11
387.63, 0.06, 351.83
387.90, 0.06, 351.93
¯388.20, 0.06, 352.05
388.52, 0.06, 352.17
388.86, 0.05, 352.30
389.23, 0.05, 352.44
389.63, 0.05, 352.59
390.08, 0.05, 352.76
390.56, 0.05, 352.95
391.10, 0.05, 353.16
391.71, 0.05, 353.39
392.39, 0.05, 353.65
393.16, 0.05, 353.94
394.03, 0.05, 354.28
395.05, 0.05, 354.67
396.22, 0.06, 355.12
397.61, 0.06, 355.65
399.24, 0.06, 356.27
401.14, 0.08, 357.00
403.34, 0.12, 357.84
387.66, 0.06, 351.75
387.94, 0.06, 351.85
388.24, 0.06, 351.96
388.56, 0.06, 352.08
388.90, 0.05, 352.21
389.27, 0.05, 352.34
389.68, 0.05, 352.49
390.12, 0.05, 352.66
390.61, 0.05, 352.84
391.16, 0.05, 353.04
391.77, 0.05, 353.26
392.45, 0.05, 353.52
393.22, 0.05, 353.80
394.11, 0.05, 354.13
395.13, 0.05, 354.50
396.30, 0.06, 354.93
397.72, 0.06, 355.46
399.35, 0.06, 356.06
401.25, 0.08, 356.76
403.43, 0.12, 357.57
387.70, 0.06, 351.67
387.97, 0.06, 351.77
388.27, 0.06, 351.88
388.60, 0.06, 351.99
388.94, 0.05, 352.12
389.31, 0.05, 352.25
389.72, 0.05, 352.39
390.17, 0.05, 352.55
390.66, 0.05, 352.73
391.21, 0.05, 352.92
391.82, 0.05, 353.14
392.51, 0.05, 353.38
393.29, 0.05, 353.66
¯394.18, 0.05, 353.97
395.20, 0.05, 354.34
396.37, 0.06, 354.75
397.80, 0.06, 355.26
399.45, 0.06, 355.84
401.37, 0.08, 356.53
403.53, 0.12, 357.29
387.73, 0.06, 351.60
388.01, 0.06, 351.69
388.31, 0.06, 351.79
388.63, 0.06, 351.91
388.98, 0.05, 352.02
389.35, 0.05, 352.15
389.76, 0.05, 352.29
390.21, 0.05, 352.44
390.71, 0.05, 352.61
391.26, 0.05, 352.80
391.88, 0.05, 353.01
392.57, 0.05, 353.25
393.35, 0.05, 353.51
394.25, 0.05, 353.82
395.27, 0.06, 354.17
396.43, 0.06, 354.57
397.88, 0.06, 355.06
399.54, 0.07, 355.63
401.47, 0.08, 356.29
403.64, 0.13, 357.03
387.76, 0.06, 351.52
388.04, 0.06, 351.61
388.34, 0.06, 351.71
388.67, 0.05, 351.82
389.01, 0.05, 351.93
389.39, 0.05, 352.05
389.80, 0.05, 352.19
390.26, 0.05, 352.34
390.75, 0.05, 352.50
391.31, 0.05, 352.68
391.93, 0.05, 352.88
392.62, 0.05, 353.11
393.41, 0.05, 353.37
394.31, 0.05, 353.67
395.33, 0.06, 354.00
396.50, 0.07, 354.38
397.94, 0.06, 354.85
399.62, 0.07, 355.41
401.58, 0.08, 356.05
403.70, 0.13, 356.74
387.78, 0.07, 351.44
388.07, 0.06, 351.53
388.37, 0.06, 351.62
388.70, 0.05, 351.73
¯389.05, 0.05, 351.84
389.43, 0.05, 351.96
389.84, 0.05, 352.09
390.30, 0.05, 352.23
390.80, 0.05, 352.39
391.36, 0.05, 352.56
391.98, 0.05, 352.76
392.68, 0.05, 352.98
393.47, 0.05, 353.23
394.38, 0.05, 353.51
395.39, 0.06, 353.83
396.57, 0.07, 354.20
397.96, 0.07, 354.64
399.65, 0.08, 355.17
401.68, 0.09, 355.81
403.66, 0.15, 356.43
387.81, 0.07, 351.36
388.09, 0.06, 351.44
388.40, 0.06, 351.54
388.73, 0.05, 351.64
389.08, 0.05, 351.74
389.46, 0.05, 351.86
389.88, 0.05, 351.98
390.34, 0.05, 352.12
390.84, 0.05, 352.27
391.40, 0.05, 352.44
392.03, 0.05, 352.63
392.73, 0.05, 352.84
393.53, 0.05, 353.08
394.44, 0.05, 353.35
395.45, 0.06, 353.66
396.63, 0.07, 354.01
397.98, 0.08, 354.42
399.67, 0.09, 354.93
401.79, 0.09, 355.56
403.62, 0.17, 356.12
387.83, 0.07, 351.28
388.12, 0.06, 351.36
388.43, 0.06, 351.45
388.76, 0.06, 351.55
389.12, 0.05, 351.65
389.50, 0.05, 351.76
389.92, 0.05, 351.88
390.38, 0.05, 352.01
390.88, 0.05, 352.16
391.45, 0.05, 352.32
392.07, 0.05, 352.50
392.78, 0.05, 352.70
393.58, 0.05, 352.93
394.50, 0.05, 353.20
395.50, 0.06, 353.48
¯396.69, 0.07, 353.83
398.00, 0.09, 354.20
399.72, 0.09, 354.70
401.88, 0.09, 355.32
403.57, 0.18, 355.81
387.85, 0.07, 351.20
388.14, 0.07, 351.28
388.45, 0.06, 351.36
388.79, 0.06, 351.45
389.15, 0.06, 351.55
389.53, 0.05, 351.66
389.95, 0.05, 351.77
390.41, 0.05, 351.90
390.92, 0.05, 352.04
391.49, 0.05, 352.19
392.12, 0.05, 352.37
392.83, 0.05, 352.56
393.64, 0.05, 352.78
394.56, 0.06, 353.04
395.56, 0.06, 353.31
396.73, 0.08, 353.63
398.02, 0.10, 353.99
399.83, 0.09, 354.48
401.97, 0.09, 355.07
403.53, 0.20, 355.50
387.87, 0.07, 351.12
388.16, 0.07, 351.19
388.48, 0.06, 351.27
388.81, 0.06, 351.36
389.17, 0.06, 351.46
389.56, 0.06, 351.56
389.99, 0.05, 351.67
390.45, 0.05, 351.79
390.96, 0.05, 351.92
391.53, 0.05, 352.07
392.16, 0.05, 352.24
392.88, 0.05, 352.42
393.69, 0.05, 352.64
394.61, 0.06, 352.88
395.62, 0.07, 353.14
396.71, 0.09, 353.43
398.03, 0.11, 353.77
399.94, 0.09, 354.27
401.92, 0.10, 354.79
403.48, 0.22, 355.20
387.89, 0.07, 351.03
388.18, 0.07, 351.11
388.50, 0.06, 351.18
388.83, 0.06, 351.27
389.19, 0.06, 351.36
389.59, 0.06, 351.46
¯390.02, 0.05, 351.56
390.48, 0.05, 351.68
391.00, 0.05, 351.81
391.57, 0.05, 351.95
392.21, 0.05, 352.11
392.92, 0.05, 352.28
393.74, 0.05, 352.49
394.66, 0.06, 352.71
395.68, 0.07, 352.97
396.65, 0.11, 353.21
398.04, 0.12, 353.55
400.05, 0.08, 354.05
401.88, 0.12, 354.51
403.43, 0.23, 354.89
387.91, 0.07, 350.95
388.20, 0.07, 351.02
388.52, 0.07, 351.10
388.85, 0.06, 351.17
389.22, 0.06, 351.26
389.61, 0.06, 351.35
390.04, 0.06, 351.45
390.52, 0.05, 351.57
391.03, 0.05, 351.69
391.61, 0.05, 351.82
392.25, 0.05, 351.97
392.97, 0.05, 352.14
393.78, 0.05, 352.34
394.71, 0.06, 352.55
395.73, 0.07, 352.79
396.59, 0.12, 353.00
397.98, 0.13, 353.32
400.15, 0.08, 353.83
401.84, 0.13, 354.23
403.38, 0.25, 354.60
387.93, 0.07, 350.87
388.22, 0.07, 350.94
388.54, 0.07, 351.01
388.87, 0.06, 351.08
389.24, 0.06, 351.16
389.63, 0.06, 351.25
390.06, 0.06, 351.35
390.54, 0.06, 351.45
391.07, 0.05, 351.57
391.64, 0.05, 351.70
392.29, 0.05, 351.84
393.01, 0.05, 352.00
393.83, 0.05, 352.18
394.76, 0.06, 352.39
395.71, 0.08, 352.60
396.53, 0.14, 352.79
397.90, 0.15, 353.09
¯400.25, 0.08, 353.61
401.79, 0.15, 353.96
403.36, 0.26, 354.31
387.94, 0.08, 350.79
388.24, 0.07, 350.85
388.55, 0.07, 350.92
388.89, 0.07, 350.99
389.25, 0.06, 351.06
389.65, 0.06, 351.15
390.08, 0.06, 351.24
390.57, 0.06, 351.34
391.09, 0.06, 351.45
391.68, 0.05, 351.57
392.32, 0.05, 351.71
393.05, 0.05, 351.86
393.87, 0.05, 352.03
394.80, 0.06, 352.23
395.67, 0.09, 352.41
396.47, 0.16, 352.58
397.83, 0.17, 352.86
400.25, 0.09, 353.37
401.74, 0.16, 353.68
403.35, 0.27, 354.02
387.96, 0.08, 350.71
388.25, 0.07, 350.76
388.57, 0.07, 350.83
388.91, 0.07, 350.89
389.27, 0.07, 350.97
389.67, 0.06, 351.04
390.10, 0.06, 351.13
390.59, 0.06, 351.23
391.12, 0.06, 351.33
391.70, 0.06, 351.44
392.36, 0.05, 351.57
393.09, 0.05, 351.72
393.91, 0.05, 351.88
394.84, 0.06, 352.06
395.63, 0.11, 352.22
396.42, 0.17, 352.38
397.79, 0.18, 352.65
400.11, 0.11, 353.10
401.66, 0.18, 353.41
403.34, 0.28, 353.74
405.51, 0.37, 354.17
387.97, 0.08, 350.62
388.27, 0.08, 350.68
388.59, 0.07, 350.74
388.92, 0.07, 350.80
389.29, 0.07, 350.87
389.69, 0.07, 350.94
390.12, 0.06, 351.02
¯390.62, 0.06, 351.11
391.14, 0.06, 351.21
391.73, 0.06, 351.32
392.39, 0.06, 351.44
393.12, 0.05, 351.57
393.95, 0.05, 351.73
394.88, 0.06, 351.90
395.59, 0.12, 352.03
396.38, 0.19, 352.18
397.76, 0.20, 352.43
399.96, 0.14, 352.83
401.53, 0.20, 353.13
403.29, 0.29, 353.45
405.20, 0.41, 353.80
387.99, 0.08, 350.54
388.28, 0.08, 350.59
388.60, 0.07, 350.65
388.94, 0.07, 350.71
389.30, 0.07, 350.77
389.70, 0.07, 350.84
390.14, 0.07, 350.91
390.64, 0.06, 351.00
391.17, 0.06, 351.09
391.75, 0.06, 351.19
392.40, 0.06, 351.30
393.12, 0.06, 351.42
393.99, 0.05, 351.57
394.84, 0.07, 351.72
395.55, 0.13, 351.84
396.33, 0.20, 351.98
397.72, 0.21, 352.21
399.81, 0.16, 352.57
401.40, 0.22, 352.85
403.13, 0.31, 353.14
404.92, 0.44, 353.45
388.00, 0.08, 350.46
388.29, 0.08, 350.51
388.61, 0.07, 350.56
388.95, 0.07, 350.61
389.32, 0.07, 350.67
389.72, 0.07, 350.73
390.16, 0.07, 350.80
390.66, 0.06, 350.88
391.19, 0.06, 350.97
391.78, 0.06, 351.06
392.39, 0.07, 351.16
393.12, 0.07, 351.27
393.99, 0.06, 351.41
394.81, 0.08, 351.54
395.51, 0.15, 351.66
396.28, 0.22, 351.78
¯397.67, 0.22, 352.00
399.67, 0.19, 352.32
401.28, 0.25, 352.57
402.96, 0.34, 352.84
404.79, 0.46, 353.14
388.01, 0.08, 350.38
388.31, 0.08, 350.42
388.63, 0.08, 350.47
388.96, 0.07, 350.52
389.33, 0.07, 350.57
389.73, 0.07, 350.63
390.18, 0.07, 350.69
390.68, 0.06, 350.77
391.21, 0.06, 350.85
391.80, 0.06, 350.93
392.39, 0.07, 351.02
393.12, 0.08, 351.13
393.98, 0.07, 351.25
394.81, 0.09, 351.37
395.49, 0.16, 351.47
396.23, 0.23, 351.58
397.63, 0.23, 351.79
399.52, 0.21, 352.07
401.15, 0.27, 352.31
402.79, 0.36, 352.55
404.66, 0.47, 352.82
388.02, 0.08, 350.29
388.32, 0.08, 350.33
388.64, 0.08, 350.38
388.97, 0.08, 350.42
389.34, 0.08, 350.47
389.74, 0.07, 350.53
390.20, 0.07, 350.59
390.69, 0.06, 350.65
391.22, 0.06, 350.72
391.81, 0.06, 350.80
392.39, 0.08, 350.88
393.11, 0.08, 350.98
393.97, 0.08, 351.09
394.81, 0.10, 351.21
395.48, 0.16, 351.30
396.22, 0.24, 351.40
397.58, 0.25, 351.58
399.37, 0.24, 351.82
401.02, 0.29, 352.04
402.63, 0.38, 352.26
404.52, 0.49, 352.51
388.03, 0.09, 350.21
388.33, 0.08, 350.25
388.65, 0.08, 350.29
388.98, 0.08, 350.33
¯389.35, 0.08, 350.37
389.76, 0.07, 350.42
390.21, 0.07, 350.48
390.71, 0.06, 350.54
391.24, 0.06, 350.60
391.81, 0.07, 350.67
392.38, 0.09, 350.74
393.10, 0.09, 350.83
393.96, 0.08, 350.93
394.80, 0.10, 351.04
395.48, 0.17, 351.12
396.22, 0.24, 351.21
397.56, 0.25, 351.37
399.22, 0.26, 351.58
400.89, 0.31, 351.78
402.46, 0.40, 351.97
404.39, 0.51, 352.21
388.04, 0.09, 350.13
388.33, 0.08, 350.16
388.65, 0.08, 350.20
388.99, 0.08, 350.23
389.36, 0.08, 350.27
389.77, 0.07, 350.32
390.22, 0.07, 350.37
390.72, 0.07, 350.42
391.25, 0.07, 350.48
391.80, 0.07, 350.54
392.37, 0.09, 350.60
393.09, 0.10, 350.68
393.95, 0.09, 350.78
394.80, 0.11, 350.87
395.47, 0.17, 350.94
396.21, 0.25, 351.02
397.53, 0.26, 351.17
399.27, 0.26, 351.36
400.77, 0.32, 351.52
402.30, 0.42, 351.69
404.23, 0.53, 351.90
388.04, 0.09, 350.04
388.34, 0.09, 350.07
388.66, 0.08, 350.10
389.00, 0.08, 350.14
389.37, 0.08, 350.17
389.78, 0.08, 350.21
390.24, 0.07, 350.26
390.73, 0.07, 350.31
391.27, 0.07, 350.36
391.80, 0.08, 350.41
392.36, 0.10, 350.46
393.07, 0.10, 350.53
393.94, 0.10, 350.62
¯394.79, 0.11, 350.70
395.46, 0.18, 350.77
396.20, 0.25, 350.84
397.51, 0.27, 350.97
399.33, 0.26, 351.14
400.75, 0.33, 351.28
402.21, 0.44, 351.42
404.04, 0.55, 351.60
405.97, 0.69, 351.79
388.05, 0.09, 349.96
388.34, 0.09, 349.99
388.67, 0.08, 350.01
389.00, 0.08, 350.04
389.38, 0.08, 350.07
389.79, 0.08, 350.11
390.25, 0.07, 350.15
390.74, 0.07, 350.19
391.27, 0.07, 350.23
391.79, 0.09, 350.28
392.35, 0.10, 350.33
393.06, 0.11, 350.39
393.93, 0.10, 350.46
394.78, 0.12, 350.53
395.45, 0.19, 350.59
396.18, 0.26, 350.65
397.48, 0.28, 350.76
399.39, 0.25, 350.92
400.72, 0.34, 351.04
402.17, 0.44, 351.16
403.96, 0.56, 351.31
405.87, 0.71, 351.48
388.05, 0.09, 349.88
388.35, 0.09, 349.90
388.67, 0.09, 349.92
389.01, 0.09, 349.95
389.39, 0.08, 349.97
389.80, 0.08, 350.00
390.26, 0.07, 350.04
390.75, 0.07, 350.07
391.26, 0.07, 350.11
391.78, 0.09, 350.15
392.34, 0.11, 350.19
393.04, 0.12, 350.24
393.92, 0.11, 350.30
394.77, 0.12, 350.37
395.44, 0.19, 350.41
396.17, 0.27, 350.47
397.46, 0.28, 350.56
399.45, 0.25, 350.71
400.70, 0.34, 350.80
402.13, 0.45, 350.90
¯403.89, 0.57, 351.03
405.79, 0.72, 351.17
388.06, 0.09, 349.79
388.35, 0.09, 349.81
388.67, 0.09, 349.83
389.01, 0.09, 349.85
389.39, 0.08, 349.88
389.81, 0.08, 349.90
390.26, 0.07, 349.93
390.76, 0.07, 349.96
391.25, 0.08, 349.99
391.76, 0.10, 350.02
392.33, 0.12, 350.05
393.02, 0.12, 350.09
393.90, 0.11, 350.15
394.76, 0.13, 350.20
395.43, 0.20, 350.24
396.16, 0.27, 350.28
397.57, 0.27, 350.37
399.45, 0.25, 350.48
400.67, 0.35, 350.56
402.08, 0.46, 350.64
403.81, 0.58, 350.75
405.72, 0.72, 350.86
388.06, 0.10, 349.71
388.35, 0.09, 349.73
388.68, 0.09, 349.74
389.02, 0.09, 349.76
389.40, 0.08, 349.78
389.81, 0.08, 349.80
390.27, 0.07, 349.82
390.77, 0.07, 349.84
391.24, 0.08, 349.86
391.75, 0.10, 349.89
392.31, 0.12, 349.92
393.00, 0.13, 349.95
393.89, 0.12, 349.99
394.75, 0.13, 350.03
395.41, 0.20, 350.07
396.14, 0.28, 350.10
397.67, 0.26, 350.17
399.42, 0.26, 350.26
400.63, 0.36, 350.32
402.03, 0.47, 350.38
