žVERSION 0.7
FIELDS x y z
SIZE 8 8 8
TYPE F F F
COUNT 1 1 1
WIDTH 2271
HEIGHT 1
VIEWPOINT 331.23, 7.27, 374.43 1 348.49, 2.15, 364.37
POINTS 2271
DATA ascii
347.00, 0.14, 357.60
347.03, 0.14, 357.30
347.07, 0.14, 356.97
347.11, 0.14, 356.61
347.21, 0.00, 355.67
347.26, 0.00, 355.20
347.31, 0.00, 354.68
347.37, 0.00, 354.11
347.44, 0.00, 353.46
347.52, 0.00, 352.73
347.61, 0.00, 351.89
347.59, 0.19, 352.07
347.59, 0.35, 352.17
347.59, 0.50, 352.17
347.59, 0.65, 352.17
347.60, 0.79, 352.08
347.62, 0.93, 351.98
347.66, 1.06, 351.65
347.99, 0.98, 348.54
348.20, 1.05, 346.54
348.49, 1.14, 343.88
348.37, 1.43, 344.99
348.38, 1.66, 344.95
346.83, 0.14, 358.60
346.85, 0.14, 358.37
346.87, 0.14, 358.13
346.89, 0.14, 357.87
346.92, 0.14, 357.59
346.95, 0.14, 357.29
346.98, 0.14, 356.96
347.02, 0.14, 356.59
347.10, 0.00, 355.65
347.15, 0.00, 355.18
347.20, 0.00, 354.66
347.25, 0.00, 354.08
347.31, 0.00, 353.44
347.38, 0.00, 352.71
347.46, 0.00, 351.87
347.45, 0.18, 352.00
347.44, 0.35, 352.11
347.45, 0.50, 352.11
347.45, 0.65, 352.11
347.46, 0.79, 352.02
347.47, 0.93, 351.91
347.51, 1.05, 351.58
¯347.89, 0.91, 347.52
348.06, 1.00, 345.71
348.30, 1.11, 343.26
348.27, 1.38, 343.57
348.28, 1.63, 343.57
348.30, 1.89, 343.40
346.76, 0.14, 358.59
346.78, 0.14, 358.36
346.80, 0.14, 358.12
346.82, 0.14, 357.86
346.84, 0.14, 357.58
346.87, 0.14, 357.27
346.89, 0.14, 356.94
346.92, 0.14, 356.58
347.00, 0.00, 355.63
347.04, 0.00, 355.16
347.08, 0.00, 354.64
347.13, 0.00, 354.06
347.18, 0.00, 353.41
347.24, 0.00, 352.69
347.31, 0.00, 351.85
347.31, 0.17, 351.93
347.30, 0.34, 352.04
347.30, 0.49, 352.04
347.31, 0.65, 352.04
347.32, 0.79, 351.95
347.33, 0.93, 351.85
347.36, 1.05, 351.52
347.81, 0.80, 345.97
347.92, 0.95, 344.70
348.01, 1.13, 343.58
347.99, 1.40, 343.86
348.00, 1.65, 343.86
348.02, 1.89, 343.68
348.08, 2.15, 342.98
346.69, 0.14, 358.58
346.71, 0.14, 358.35
346.72, 0.14, 358.11
346.74, 0.14, 357.85
346.76, 0.14, 357.57
346.78, 0.14, 357.26
346.81, 0.14, 356.93
346.87, 0.00, 356.04
346.90, 0.00, 355.62
346.93, 0.00, 355.15
346.96, 0.00, 354.62
347.01, 0.00, 354.04
347.05, 0.00, 353.39
347.10, 0.01, 352.67
347.16, 0.00, 351.83
347.16, 0.16, 351.86
¯347.16, 0.34, 351.97
347.16, 0.49, 351.97
347.16, 0.64, 351.98
347.17, 0.78, 351.89
347.18, 0.93, 351.78
347.21, 1.05, 351.46
347.71, 0.67, 344.09
348.03, 0.64, 339.54
347.74, 1.15, 343.89
347.72, 1.41, 344.15
347.73, 1.66, 344.14
347.75, 1.90, 343.96
346.62, 0.14, 358.57
346.63, 0.14, 358.34
346.65, 0.14, 358.10
346.66, 0.14, 357.84
346.68, 0.14, 357.56
346.70, 0.14, 357.25
346.72, 0.14, 356.92
346.77, 0.00, 356.03
346.79, 0.00, 355.60
346.82, 0.00, 355.13
346.85, 0.00, 354.61
346.88, 0.00, 354.02
346.92, 0.00, 353.37
346.96, 0.01, 352.66
347.01, 0.01, 351.81
347.01, 0.16, 351.78
347.01, 0.33, 351.91
347.01, 0.48, 351.91
347.02, 0.64, 351.91
347.02, 0.78, 351.82
347.03, 0.92, 351.72
347.05, 1.05, 351.39
347.59, 0.51, 341.90
347.74, 0.64, 339.44
347.47, 1.17, 344.18
347.46, 1.43, 344.42
347.47, 1.67, 344.41
347.48, 1.91, 344.23
346.55, 0.14, 358.56
346.56, 0.14, 358.34
346.57, 0.14, 358.09
346.59, 0.14, 357.83
346.60, 0.14, 357.55
346.61, 0.14, 357.24
346.63, 0.14, 356.91
346.67, 0.00, 356.02
346.69, 0.00, 355.59
346.71, 0.00, 355.12
346.73, 0.00, 354.59
¯346.76, 0.00, 354.01
346.79, 0.00, 353.36
346.82, 0.01, 352.65
346.86, 0.01, 351.80
346.87, 0.15, 351.71
346.86, 0.32, 351.84
346.87, 0.48, 351.84
346.87, 0.63, 351.84
346.87, 0.78, 351.76
346.88, 0.92, 351.65
346.90, 1.05, 351.33
347.25, 0.64, 343.57
347.29, 0.85, 342.75
347.21, 1.19, 344.47
347.21, 1.44, 344.68
347.21, 1.68, 344.68
347.23, 1.92, 344.49
346.48, 0.14, 358.56
346.49, 0.14, 358.33
346.50, 0.14, 358.09
346.51, 0.14, 357.82
346.52, 0.14, 357.54
346.53, 0.14, 357.23
346.55, 0.00, 356.40
346.57, 0.00, 356.01
346.58, 0.00, 355.58
346.60, 0.00, 355.10
346.61, 0.00, 354.58
346.63, 0.00, 353.99
346.66, 0.00, 353.34
346.68, 0.01, 352.63
346.71, 0.01, 351.78
346.72, 0.14, 351.63
346.71, 0.32, 351.77
346.72, 0.47, 351.77
346.72, 0.63, 351.77
346.72, 0.77, 351.69
346.73, 0.92, 351.58
346.74, 1.05, 351.27
346.96, 0.73, 344.75
346.99, 0.92, 343.92
346.96, 1.21, 344.75
346.96, 1.45, 344.94
346.97, 1.69, 344.94
346.98, 1.92, 344.74
346.42, 0.14, 358.55
346.42, 0.14, 358.32
346.43, 0.14, 358.08
346.43, 0.14, 357.82
346.44, 0.14, 357.53
346.44, 0.14, 357.23
¯346.46, 0.00, 356.39
346.47, 0.00, 356.00
346.48, 0.00, 355.57
346.49, 0.00, 355.09
346.50, 0.00, 354.57
346.51, 0.00, 353.98
346.52, 0.00, 353.33
346.54, 0.01, 352.61
346.56, 0.01, 351.77
346.56, 0.13, 351.56
346.56, 0.31, 351.70
346.57, 0.47, 351.70
346.57, 0.62, 351.70
346.57, 0.77, 351.63
346.58, 0.91, 351.52
346.59, 1.04, 351.20
346.70, 0.81, 345.72
346.72, 0.98, 344.79
346.72, 1.23, 345.03
346.72, 1.47, 345.19
346.72, 1.70, 345.19
346.73, 1.93, 344.99
346.35, 0.14, 358.55
346.35, 0.14, 358.32
346.35, 0.14, 358.08
346.35, 0.14, 357.81
346.36, 0.14, 357.53
346.36, 0.14, 357.22
346.36, 0.00, 356.38
346.37, 0.00, 355.99
346.37, 0.00, 355.56
346.38, 0.00, 355.08
346.38, 0.00, 354.55
346.39, 0.00, 353.97
346.39, 0.00, 353.31
346.40, 0.01, 352.60
346.41, 0.01, 351.76
346.41, 0.12, 351.48
346.41, 0.30, 351.63
346.41, 0.46, 351.63
346.42, 0.62, 351.64
346.42, 0.76, 351.56
346.42, 0.91, 351.45
346.43, 1.04, 351.14
346.47, 0.87, 346.60
346.48, 1.02, 345.37
346.48, 1.24, 345.29
346.49, 1.48, 345.44
346.49, 1.71, 345.43
346.50, 1.94, 345.23
346.28, 0.14, 358.54
¯346.28, 0.14, 358.32
346.28, 0.14, 358.07
346.28, 0.14, 357.81
346.27, 0.14, 357.52
346.27, 0.14, 357.21
346.27, 0.00, 356.38
346.27, 0.00, 355.98
346.27, 0.00, 355.55
346.26, 0.00, 355.07
346.26, 0.00, 354.55
346.26, 0.00, 353.95
346.26, 0.00, 353.30
346.26, 0.01, 352.59
346.25, 0.01, 351.76
346.25, 0.11, 351.40
346.26, 0.29, 351.55
346.26, 0.45, 351.56
346.26, 0.61, 351.56
346.27, 0.76, 351.49
346.27, 0.91, 351.38
346.27, 1.04, 351.07
346.25, 0.94, 347.40
346.25, 1.05, 345.92
346.25, 1.26, 345.55
346.26, 1.49, 345.68
346.26, 1.72, 345.67
346.27, 1.94, 345.46
346.21, 0.14, 358.54
346.21, 0.14, 358.31
346.20, 0.14, 358.07
346.20, 0.14, 357.80
346.19, 0.14, 357.52
346.18, 0.00, 356.73
346.17, 0.00, 356.37
346.17, 0.00, 355.98
346.16, 0.00, 355.54
346.15, 0.00, 355.07
346.14, 0.00, 354.54
346.14, 0.00, 353.95
346.13, 0.00, 353.29
346.11, 0.01, 352.57
346.10, 0.01, 351.75
346.10, 0.10, 351.32
346.10, 0.29, 351.47
346.10, 0.45, 351.49
346.11, 0.60, 351.49
346.11, 0.76, 351.43
346.11, 0.90, 351.31
346.11, 1.04, 351.01
346.06, 0.98, 347.97
346.02, 1.02, 345.28
¯346.03, 1.28, 345.80
346.04, 1.50, 345.91
346.04, 1.73, 345.91
346.04, 1.95, 345.69
346.14, 0.14, 358.54
346.13, 0.14, 358.31
346.13, 0.14, 358.07
346.12, 0.14, 357.80
346.11, 0.14, 357.52
346.09, 0.00, 356.73
346.08, 0.00, 356.37
346.07, 0.00, 355.97
346.05, 0.00, 355.54
346.04, 0.00, 355.06
346.03, 0.00, 354.53
346.01, 0.00, 353.94
345.99, 0.00, 353.28
345.97, 0.01, 352.57
345.95, 0.02, 351.75
345.94, 0.09, 351.24
345.94, 0.28, 351.39
345.95, 0.44, 351.42
345.95, 0.60, 351.42
345.95, 0.75, 351.36
345.95, 0.90, 351.24
345.94, 1.03, 350.94
345.87, 0.99, 348.11
345.80, 1.04, 345.61
345.81, 1.29, 346.04
345.82, 1.52, 346.14
345.82, 1.74, 346.13
345.82, 1.96, 345.91
346.07, 0.14, 358.54
346.06, 0.14, 358.31
346.05, 0.14, 358.06
346.04, 0.14, 357.80
346.03, 0.14, 357.52
346.00, 0.00, 356.72
345.98, 0.00, 356.36
345.97, 0.00, 355.97
345.95, 0.00, 355.54
345.93, 0.00, 355.06
345.91, 0.00, 354.53
345.88, 0.00, 353.93
345.86, 0.00, 353.28
345.83, 0.01, 352.56
345.80, 0.02, 351.74
345.78, 0.09, 351.18
345.78, 0.27, 351.31
345.79, 0.43, 351.35
345.79, 0.59, 351.35
¯345.79, 0.74, 351.29
345.79, 0.89, 351.17
345.78, 1.03, 350.88
345.67, 0.99, 348.07
345.58, 1.07, 345.94
345.60, 1.31, 346.28
345.61, 1.53, 346.36
345.61, 1.75, 346.35
345.61, 1.96, 346.13
346.00, 0.14, 358.54
345.99, 0.14, 358.31
345.98, 0.14, 358.06
345.96, 0.14, 357.80
345.95, 0.14, 357.51
345.91, 0.00, 356.72
345.89, 0.00, 356.36
345.87, 0.00, 355.97
345.84, 0.00, 355.53
345.82, 0.00, 355.05
345.79, 0.00, 354.52
345.76, 0.00, 353.93
345.72, 0.00, 353.27
345.69, 0.01, 352.56
345.65, 0.02, 351.78
345.62, 0.09, 351.18
345.62, 0.26, 351.23
345.63, 0.42, 351.27
345.63, 0.58, 351.27
345.63, 0.74, 351.22
345.63, 0.89, 351.10
345.61, 1.03, 350.82
345.23, 0.68, 343.56
345.38, 1.09, 346.25
345.39, 1.32, 346.51
345.40, 1.54, 346.57
345.40, 1.75, 346.56
345.40, 1.97, 346.35
345.93, 0.14, 358.54
345.92, 0.14, 358.31
345.90, 0.14, 358.06
345.89, 0.14, 357.80
345.84, 0.00, 357.06
345.81, 0.00, 356.72
345.79, 0.00, 356.36
345.76, 0.00, 355.97
345.74, 0.00, 355.53
345.71, 0.00, 355.05
345.67, 0.00, 354.54
345.64, 0.01, 353.98
345.60, 0.02, 353.35
345.55, 0.03, 352.66
¯345.50, 0.05, 351.90
345.46, 0.08, 351.16
345.46, 0.24, 351.14
345.46, 0.42, 351.20
345.47, 0.58, 351.20
345.47, 0.73, 351.15
345.46, 0.88, 351.03
345.45, 1.02, 350.75
345.01, 0.71, 344.05
345.17, 1.11, 346.52
345.19, 1.33, 346.74
345.20, 1.55, 346.79
345.20, 1.76, 346.77
345.19, 1.97, 346.56
345.86, 0.14, 358.54
345.85, 0.14, 358.31
345.83, 0.14, 358.07
345.81, 0.14, 357.80
345.75, 0.00, 357.06
345.72, 0.00, 356.73
345.69, 0.00, 356.36
345.66, 0.00, 355.97
345.63, 0.00, 355.53
345.60, 0.02, 355.12
345.56, 0.02, 354.62
345.52, 0.03, 354.07
345.47, 0.04, 353.44
345.42, 0.05, 352.77
345.36, 0.07, 352.01
345.30, 0.08, 351.15
345.29, 0.23, 351.06
345.30, 0.41, 351.12
345.30, 0.57, 351.12
345.30, 0.73, 351.08
345.29, 0.88, 350.96
345.28, 1.02, 350.68
344.80, 0.75, 344.52
344.97, 1.12, 346.74
344.99, 1.35, 346.96
345.00, 1.56, 346.99
345.00, 1.77, 346.97
344.99, 1.98, 346.76
345.79, 0.14, 358.54
345.77, 0.14, 358.31
345.75, 0.14, 358.07
345.73, 0.14, 357.80
345.66, 0.00, 357.06
345.63, 0.00, 356.73
345.60, 0.00, 356.37
345.56, 0.00, 355.97
345.52, 0.00, 355.53
¯345.49, 0.03, 355.20
345.45, 0.04, 354.70
345.40, 0.05, 354.16
345.35, 0.06, 353.54
345.29, 0.07, 352.87
345.22, 0.09, 352.12
345.15, 0.10, 351.28
345.12, 0.22, 350.97
345.13, 0.40, 351.05
345.13, 0.56, 351.05
345.13, 0.72, 351.01
345.12, 0.87, 350.88
345.10, 1.01, 350.62
344.60, 0.78, 344.97
344.78, 1.14, 346.96
344.80, 1.36, 347.17
344.81, 1.57, 347.19
344.81, 1.78, 347.16
344.79, 1.98, 346.96
345.73, 0.14, 358.55
345.70, 0.14, 358.32
345.68, 0.14, 358.07
345.65, 0.14, 357.81
345.57, 0.00, 357.06
345.54, 0.00, 356.73
345.50, 0.00, 356.37
345.46, 0.00, 355.97
345.42, 0.00, 355.54
345.39, 0.04, 355.22
345.34, 0.06, 354.78
345.29, 0.07, 354.24
345.23, 0.08, 353.64
345.16, 0.09, 352.97
345.09, 0.10, 352.24
345.00, 0.13, 351.41
344.95, 0.21, 350.88
344.96, 0.39, 350.97
344.96, 0.55, 350.97
344.96, 0.71, 350.94
344.95, 0.87, 350.81
344.93, 1.01, 350.55
344.40, 0.82, 345.40
344.59, 1.15, 347.17
344.61, 1.37, 347.38
344.62, 1.58, 347.39
344.62, 1.78, 347.35
344.60, 1.99, 347.16
345.66, 0.14, 358.55
345.63, 0.14, 358.32
345.60, 0.14, 358.08
345.52, 0.00, 357.37
¯345.49, 0.00, 357.07
345.45, 0.00, 356.74
345.41, 0.00, 356.37
345.36, 0.00, 355.98
345.31, 0.00, 355.54
345.28, 0.04, 355.23
345.24, 0.07, 354.86
345.29, 0.29, 355.34
345.27, 0.37, 355.13
345.27, 0.48, 355.15
345.28, 0.60, 355.17
345.30, 0.74, 355.34
344.77, 0.20, 350.79
344.79, 0.38, 350.89
344.79, 0.54, 350.89
344.79, 0.71, 350.86
344.78, 0.86, 350.73
344.25, 0.64, 346.09
344.22, 0.85, 345.81
344.40, 1.17, 347.38
344.43, 1.38, 347.58
344.43, 1.59, 347.59
344.43, 1.79, 347.54
344.41, 1.99, 347.35
345.59, 0.14, 358.56
345.56, 0.14, 358.33
345.53, 0.14, 358.08
345.44, 0.00, 357.38
345.40, 0.00, 357.07
345.36, 0.00, 356.74
345.31, 0.00, 356.38
345.26, 0.00, 355.98
345.21, 0.00, 355.55
345.18, 0.07, 355.36
345.17, 0.16, 355.27
345.13, 0.20, 354.92
345.08, 0.25, 354.54
345.03, 0.30, 354.13
344.99, 0.37, 353.83
345.00, 0.51, 353.85
345.20, 0.86, 355.36
344.92, 0.68, 353.20
344.41, 0.34, 349.21
344.18, 0.33, 347.35
344.07, 0.46, 346.53
344.08, 0.68, 346.51
344.04, 0.88, 346.21
344.22, 1.18, 347.59
344.25, 1.39, 347.78
344.25, 1.60, 347.78
344.25, 1.80, 347.73
¯344.23, 2.00, 347.54
345.52, 0.14, 358.56
345.49, 0.14, 358.33
345.45, 0.14, 358.09
345.35, 0.00, 357.39
345.31, 0.00, 357.08
345.26, 0.00, 356.75
345.21, 0.00, 356.39
345.16, 0.00, 355.99
345.10, 0.00, 355.56
345.07, 0.06, 355.34
345.01, 0.09, 354.93
344.96, 0.12, 354.51
344.88, 0.14, 353.99
344.82, 0.19, 353.53
344.75, 0.24, 353.03
344.68, 0.29, 352.48
344.62, 0.38, 352.08
345.09, 0.97, 355.38
344.95, 0.97, 354.40
343.97, 0.33, 347.35
343.91, 0.50, 346.94
343.91, 0.71, 346.88
343.87, 0.90, 346.59
344.04, 1.19, 347.79
344.07, 1.40, 347.97
344.07, 1.60, 347.96
344.07, 1.80, 347.91
344.05, 2.00, 347.72
345.45, 0.14, 358.57
345.41, 0.14, 358.34
345.38, 0.14, 358.10
345.27, 0.00, 357.39
345.22, 0.00, 357.09
345.17, 0.00, 356.76
345.12, 0.00, 356.39
345.06, 0.00, 356.00
344.99, 0.00, 355.56
344.94, 0.04, 355.24
344.90, 0.09, 354.93
344.85, 0.14, 354.60
344.77, 0.15, 354.04
344.67, 0.16, 353.41
344.56, 0.18, 352.71
344.45, 0.20, 351.92
344.31, 0.23, 351.05
344.98, 0.97, 355.41
344.89, 1.01, 354.79
344.69, 0.99, 353.45
344.11, 0.76, 349.63
343.75, 0.74, 347.23
¯343.71, 0.93, 346.95
343.73, 1.15, 347.09
343.71, 1.36, 346.90
343.70, 1.57, 346.85
343.71, 1.78, 346.90
343.86, 2.01, 347.84
345.38, 0.14, 358.58
345.34, 0.14, 358.35
345.23, 0.00, 357.69
345.19, 0.00, 357.40
345.14, 0.00, 357.10
345.08, 0.00, 356.77
345.02, 0.00, 356.40
344.96, 0.00, 356.01
344.89, 0.00, 355.57
344.83, 0.04, 355.25
344.78, 0.08, 354.94
344.73, 0.14, 354.61
344.65, 0.17, 354.14
344.55, 0.18, 353.53
344.44, 0.20, 352.83
344.31, 0.22, 352.05
344.17, 0.25, 351.19
344.01, 0.28, 350.20
344.83, 1.05, 355.15
344.63, 1.03, 353.91
344.37, 1.01, 352.30
344.00, 0.98, 350.09
343.55, 0.96, 347.31
343.55, 1.17, 347.27
343.52, 1.37, 347.09
343.52, 1.58, 347.05
343.53, 1.79, 347.10
343.58, 2.01, 347.37
345.31, 0.14, 358.58
345.27, 0.14, 358.36
345.15, 0.00, 357.69
345.10, 0.00, 357.41
345.05, 0.00, 357.11
344.99, 0.00, 356.78
344.93, 0.00, 356.42
344.86, 0.00, 356.02
344.78, 0.00, 355.59
344.72, 0.03, 355.25
344.67, 0.08, 354.95
344.61, 0.14, 354.62
344.55, 0.18, 354.24
344.44, 0.20, 353.64
344.32, 0.22, 352.96
344.19, 0.24, 352.19
344.04, 0.27, 351.33
¯344.77, 0.98, 355.45
344.72, 1.05, 355.14
344.55, 1.06, 354.18
344.32, 1.06, 352.87
343.97, 1.04, 350.87
343.38, 0.98, 347.58
343.35, 1.17, 347.36
343.34, 1.38, 347.27
343.33, 1.59, 347.24
343.35, 1.80, 347.30
345.24, 0.14, 358.59
345.20, 0.14, 358.37
345.07, 0.00, 357.71
345.02, 0.00, 357.42
344.96, 0.00, 357.12
344.90, 0.00, 356.79
344.83, 0.00, 356.43
344.76, 0.00, 356.03
344.67, 0.00, 355.60
344.62, 0.04, 355.30
344.55, 0.08, 354.95
344.49, 0.13, 354.63
344.43, 0.19, 354.28
344.33, 0.22, 353.75
344.20, 0.24, 353.08
344.06, 0.26, 352.32
343.90, 0.29, 351.48
344.67, 0.98, 355.47
344.55, 1.02, 354.86
344.36, 1.03, 353.83
344.12, 1.04, 352.56
343.81, 1.05, 350.94
343.22, 1.00, 347.83
342.52, 0.99, 344.11
345.17, 0.14, 358.60
345.13, 0.14, 358.38
344.99, 0.00, 357.72
344.94, 0.00, 357.44
344.87, 0.00, 357.13
344.81, 0.00, 356.80
344.74, 0.00, 356.44
344.66, 0.00, 356.05
344.57, 0.00, 355.61
344.54, 0.08, 355.47
344.44, 0.08, 354.96
344.37, 0.13, 354.64
344.30, 0.19, 354.29
344.22, 0.24, 353.85
344.09, 0.26, 353.20
343.94, 0.28, 352.46
343.77, 0.31, 351.62
¯344.55, 0.98, 355.45
344.37, 0.98, 354.56
344.15, 0.98, 353.46
343.87, 0.99, 352.09
343.52, 1.00, 350.32
343.05, 1.01, 347.98
342.36, 1.01, 344.56
345.10, 0.14, 358.62
345.06, 0.14, 358.39
344.91, 0.00, 357.73
344.85, 0.00, 357.45
344.79, 0.00, 357.14
344.72, 0.00, 356.81
344.64, 0.00, 356.45
344.56, 0.00, 356.06
344.46, 0.00, 355.63
344.39, 0.03, 355.28
344.44, 0.20, 355.52
344.35, 0.23, 355.10
344.23, 0.23, 354.51
344.10, 0.25, 353.92
343.97, 0.28, 353.32
343.82, 0.30, 352.60
344.45, 0.87, 355.52
344.28, 0.88, 354.74
344.07, 0.88, 353.71
343.79, 0.87, 352.45
343.45, 0.87, 350.84
342.71, 0.75, 347.39
342.82, 1.00, 347.89
342.20, 1.04, 344.99
345.04, 0.14, 358.63
344.89, 0.00, 358.00
344.83, 0.00, 357.74
344.77, 0.00, 357.46
344.70, 0.00, 357.16
344.63, 0.00, 356.83
344.54, 0.00, 356.47
344.45, 0.00, 356.08
344.36, 0.00, 355.64
344.28, 0.03, 355.29
344.21, 0.08, 354.98
344.34, 0.32, 355.54
344.34, 0.43, 355.54
344.34, 0.54, 355.54
344.34, 0.65, 355.54
344.29, 0.73, 355.29
344.08, 0.71, 354.39
343.83, 0.68, 353.27
342.89, 0.33, 349.17
342.54, 0.35, 347.62
¯342.54, 0.56, 347.61
342.58, 0.79, 347.78
342.25, 0.89, 346.31
342.05, 1.06, 345.40
344.97, 0.14, 358.64
344.82, 0.00, 358.02
344.75, 0.00, 357.76
344.69, 0.00, 357.48
344.61, 0.00, 357.18
344.53, 0.00, 356.85
344.45, 0.00, 356.49
344.35, 0.00, 356.09
344.25, 0.00, 355.66
344.16, 0.03, 355.30
344.09, 0.08, 354.99
344.01, 0.13, 354.66
343.93, 0.18, 354.32
343.84, 0.24, 353.94
343.75, 0.31, 353.54
343.55, 0.31, 352.70
343.30, 0.31, 351.69
343.03, 0.32, 350.56
342.70, 0.33, 349.19
342.28, 0.33, 347.42
342.24, 0.53, 347.25
342.22, 0.73, 347.14
342.14, 0.92, 346.80
344.90, 0.14, 358.65
344.74, 0.00, 358.03
344.67, 0.00, 357.77
344.60, 0.00, 357.49
344.53, 0.00, 357.19
344.44, 0.00, 356.86
344.35, 0.00, 356.51
344.25, 0.00, 356.11
344.15, 0.00, 355.68
344.05, 0.03, 355.31
343.98, 0.07, 355.00
343.89, 0.13, 354.68
343.81, 0.18, 354.33
343.71, 0.24, 353.95
343.61, 0.31, 353.55
343.40, 0.31, 352.72
343.15, 0.31, 351.71
342.86, 0.32, 350.58
342.52, 0.33, 349.22
342.15, 0.36, 347.76
342.15, 0.57, 347.75
342.11, 0.77, 347.58
342.03, 0.95, 347.26
344.83, 0.14, 358.67
¯344.66, 0.00, 358.05
344.60, 0.00, 357.79
344.52, 0.00, 357.51
344.44, 0.00, 357.21
344.35, 0.00, 356.88
344.26, 0.00, 356.52
344.15, 0.00, 356.13
344.04, 0.00, 355.70
343.94, 0.02, 355.32
343.86, 0.07, 355.02
343.77, 0.12, 354.69
343.68, 0.18, 354.34
343.58, 0.24, 353.97
343.48, 0.30, 353.56
343.26, 0.31, 352.75
342.99, 0.31, 351.74
342.69, 0.32, 350.61
342.63, 0.46, 350.36
342.05, 0.41, 348.20
342.05, 0.61, 348.20
342.01, 0.80, 348.01
341.90, 0.98, 347.61
344.76, 0.14, 358.69
344.59, 0.00, 358.07
344.52, 0.00, 357.81
344.44, 0.00, 357.53
344.35, 0.00, 357.23
344.26, 0.00, 356.90
344.16, 0.00, 356.54
344.05, 0.00, 356.15
343.93, 0.00, 355.72
343.83, 0.02, 355.34
343.74, 0.07, 355.03
343.65, 0.12, 354.70
343.55, 0.18, 354.35
343.45, 0.24, 353.98
343.34, 0.30, 353.58
343.12, 0.31, 352.77
342.83, 0.31, 351.76
342.59, 0.36, 350.89
342.59, 0.52, 350.87
342.58, 0.69, 350.85
341.34, 0.44, 346.41
341.35, 0.67, 346.43
341.78, 1.00, 347.93
344.58, 0.00, 358.32
344.51, 0.00, 358.09
344.44, 0.00, 357.83
344.36, 0.00, 357.55
344.27, 0.00, 357.25
344.17, 0.00, 356.92
¯344.07, 0.00, 356.57
343.96, 0.00, 356.18
343.83, 0.00, 355.75
343.71, 0.02, 355.35
343.63, 0.07, 355.04
343.53, 0.12, 354.72
343.43, 0.18, 354.37
343.32, 0.24, 353.99
343.20, 0.30, 353.59
342.97, 0.31, 352.80
342.68, 0.31, 351.79
342.50, 0.39, 351.19
342.55, 0.58, 351.35
342.55, 0.74, 351.33
342.54, 0.91, 351.30
341.28, 0.71, 347.00
341.62, 1.01, 348.12
344.51, 0.00, 358.34
344.44, 0.00, 358.10
344.36, 0.00, 357.85
344.27, 0.00, 357.57
344.18, 0.00, 357.27
344.08, 0.00, 356.94
343.98, 0.00, 356.59
343.86, 0.00, 356.20
343.73, 0.00, 355.79
343.61, 0.02, 355.39
343.51, 0.07, 355.06
343.41, 0.12, 354.73
343.30, 0.17, 354.38
343.19, 0.23, 354.01
343.07, 0.30, 353.60
342.83, 0.31, 352.83
342.52, 0.31, 351.82
342.42, 0.42, 351.47
342.47, 0.61, 351.63
342.52, 0.79, 351.78
342.51, 0.95, 351.76
342.51, 1.11, 351.73
341.39, 1.01, 348.08
344.44, 0.00, 358.36
344.36, 0.00, 358.12
344.28, 0.00, 357.87
344.19, 0.00, 357.59
344.10, 0.00, 357.29
343.99, 0.00, 356.97
343.88, 0.00, 356.61
343.76, 0.00, 356.23
343.64, 0.02, 355.87
343.52, 0.04, 355.48
343.39, 0.06, 355.08
¯343.29, 0.11, 354.75
343.18, 0.17, 354.40
343.06, 0.23, 354.02
342.93, 0.29, 353.62
342.69, 0.31, 352.86
342.37, 0.31, 351.86
342.33, 0.46, 351.74
342.38, 0.64, 351.89
342.43, 0.81, 352.04
342.48, 0.98, 352.18
342.48, 1.14, 352.16
342.47, 1.29, 352.14
344.37, 0.00, 358.38
344.29, 0.00, 358.15
344.20, 0.00, 357.89
344.11, 0.00, 357.61
344.01, 0.00, 357.32
343.90, 0.00, 356.99
343.79, 0.00, 356.64
343.67, 0.01, 356.30
343.56, 0.03, 355.95
343.43, 0.05, 355.57
343.29, 0.07, 355.15
343.17, 0.11, 354.77
343.05, 0.17, 354.42
342.93, 0.23, 354.04
342.79, 0.29, 353.64
342.55, 0.31, 352.89
342.21, 0.31, 351.89
342.21, 0.47, 351.88
342.30, 0.67, 352.15
342.35, 0.84, 352.29
342.40, 1.01, 352.43
342.45, 1.17, 352.56
342.44, 1.32, 352.54
342.44, 1.47, 352.52
342.27, 1.60, 352.00
344.30, 0.00, 358.40
344.21, 0.00, 358.17
344.13, 0.00, 357.91
344.03, 0.00, 357.64
343.93, 0.00, 357.34
343.82, 0.00, 357.02
343.70, 0.01, 356.69
343.59, 0.03, 356.37
343.47, 0.04, 356.03
343.34, 0.06, 355.65
343.20, 0.09, 355.24
343.05, 0.11, 354.80
342.92, 0.17, 354.43
342.79, 0.22, 354.06
¯342.66, 0.29, 353.65
342.40, 0.31, 352.93
342.06, 0.31, 351.93
342.08, 0.48, 351.99
342.19, 0.68, 352.30
342.27, 0.86, 352.53
342.32, 1.03, 352.67
342.37, 1.19, 352.80
342.42, 1.34, 352.92
342.41, 1.49, 352.90
342.41, 1.64, 352.89
342.26, 1.77, 352.46
344.22, 0.00, 358.43
344.14, 0.00, 358.19
344.05, 0.00, 357.94
343.95, 0.00, 357.66
343.84, 0.00, 357.37
343.73, 0.00, 357.06
343.63, 0.02, 356.76
343.51, 0.04, 356.45
343.39, 0.06, 356.11
343.26, 0.08, 355.74
343.11, 0.10, 355.34
342.96, 0.13, 354.90
342.80, 0.16, 354.45
342.66, 0.22, 354.08
342.52, 0.29, 353.67
342.26, 0.31, 352.96
341.90, 0.31, 351.97
341.95, 0.49, 352.10
342.07, 0.69, 352.40
342.17, 0.87, 352.69
342.25, 1.05, 352.89
342.30, 1.20, 353.02
342.34, 1.36, 353.15
342.39, 1.51, 353.26
342.38, 1.65, 353.25
342.38, 1.79, 353.23
342.26, 1.93, 352.90
344.15, 0.00, 358.45
344.06, 0.00, 358.21
343.97, 0.00, 357.96
343.87, 0.00, 357.69
343.76, 0.00, 357.39
343.66, 0.01, 357.12
343.55, 0.03, 356.83
343.43, 0.05, 356.52
343.31, 0.07, 356.19
343.17, 0.09, 355.83
343.03, 0.12, 355.43
342.86, 0.14, 355.00
¯342.69, 0.17, 354.52
342.53, 0.22, 354.10
342.38, 0.28, 353.69
342.12, 0.31, 353.00
341.75, 0.31, 352.01
341.66, 0.44, 351.77
341.94, 0.70, 352.51
342.05, 0.88, 352.79
342.15, 1.06, 353.05
342.22, 1.22, 353.24
342.27, 1.37, 353.36
342.32, 1.52, 353.48
342.36, 1.67, 353.59
342.35, 1.80, 353.57
342.35, 1.94, 353.56
342.26, 2.08, 353.30
344.08, 0.00, 358.47
343.99, 0.00, 358.24
343.89, 0.00, 357.99
343.79, 0.00, 357.72
343.69, 0.01, 357.45
343.58, 0.03, 357.19
343.47, 0.04, 356.91
343.36, 0.06, 356.60
343.23, 0.08, 356.27
343.09, 0.11, 355.91
342.94, 0.13, 355.52
342.78, 0.16, 355.10
342.60, 0.18, 354.63
342.40, 0.22, 354.12
342.24, 0.28, 353.71
341.98, 0.31, 353.04
341.60, 0.31, 352.05
341.15, 0.32, 350.91
341.69, 0.66, 352.28
341.93, 0.89, 352.89
342.03, 1.06, 353.15
342.13, 1.23, 353.40
342.20, 1.39, 353.56
342.24, 1.53, 353.68
342.29, 1.68, 353.79
342.63, 1.84, 354.67
342.63, 1.96, 354.67
342.63, 2.09, 354.67
342.63, 2.21, 354.66
342.63, 2.34, 354.66
342.63, 2.46, 354.65
344.01, 0.00, 358.50
343.92, 0.00, 358.27
343.82, 0.00, 358.01
343.71, 0.01, 357.76
¯343.62, 0.02, 357.51
343.51, 0.04, 357.25
343.40, 0.06, 356.98
343.28, 0.07, 356.68
343.15, 0.10, 356.35
343.01, 0.12, 356.00
342.86, 0.14, 355.62
342.69, 0.17, 355.20
342.50, 0.20, 354.74
342.30, 0.23, 354.24
342.10, 0.28, 353.73
341.84, 0.31, 353.08
341.44, 0.31, 352.09
340.98, 0.32, 350.96
340.45, 0.33, 349.63
341.71, 0.87, 352.75
341.91, 1.07, 353.24
342.02, 1.24, 353.49
342.61, 1.48, 354.97
342.61, 1.61, 354.97
342.61, 1.73, 354.96
342.61, 1.85, 354.96
342.62, 1.97, 354.96
342.62, 2.09, 354.95
342.62, 2.21, 354.95
342.62, 2.34, 354.95
342.62, 2.46, 354.94
343.94, 0.00, 358.52
343.84, 0.00, 358.29
343.74, 0.00, 358.05
343.65, 0.02, 357.82
343.55, 0.03, 357.58
343.44, 0.05, 357.32
343.33, 0.07, 357.05
343.21, 0.09, 356.75
343.07, 0.11, 356.43
342.93, 0.13, 356.09
342.77, 0.16, 355.71
342.60, 0.18, 355.30
342.41, 0.21, 354.85
342.21, 0.25, 354.35
341.98, 0.28, 353.81
341.70, 0.31, 353.13
341.29, 0.31, 352.14
340.82, 0.32, 351.00
340.42, 0.37, 350.04
340.67, 0.63, 350.64
341.73, 1.06, 353.18
341.90, 1.24, 353.58
342.49, 1.48, 354.98
342.60, 1.62, 355.24
¯342.60, 1.74, 355.24
342.60, 1.86, 355.23
342.60, 1.98, 355.23
342.60, 2.10, 355.23
342.60, 2.21, 355.22
342.60, 2.33, 355.22
342.60, 2.45, 355.22
343.87, 0.00, 358.55
343.77, 0.00, 358.32
343.68, 0.01, 358.10
343.58, 0.03, 357.88
343.48, 0.04, 357.64
343.37, 0.06, 357.38
343.25, 0.08, 357.12
343.13, 0.10, 356.83
343.00, 0.12, 356.51
342.85, 0.14, 356.17
342.69, 0.17, 355.80
342.52, 0.20, 355.40
342.33, 0.23, 354.96
342.12, 0.26, 354.47
341.89, 0.30, 353.93
341.56, 0.31, 353.17
341.14, 0.31, 352.19
342.37, 0.87, 355.04
340.58, 0.47, 350.90
340.74, 0.69, 351.25
340.74, 0.87, 351.24
341.75, 1.24, 353.59
342.35, 1.48, 354.96
342.50, 1.62, 355.33
342.58, 1.75, 355.50
342.58, 1.87, 355.49
342.58, 1.98, 355.49
342.58, 2.10, 355.49
342.58, 2.21, 355.48
342.58, 2.33, 355.48
342.58, 2.45, 355.48
343.80, 0.00, 358.58
343.71, 0.01, 358.37
343.61, 0.02, 358.16
343.52, 0.04, 357.94
343.41, 0.05, 357.70
343.30, 0.07, 357.45
343.18, 0.09, 357.18
343.06, 0.11, 356.90
342.92, 0.13, 356.60
342.77, 0.16, 356.26
342.61, 0.18, 355.90
342.43, 0.21, 355.50
342.24, 0.24, 355.07
¯342.03, 0.27, 354.59
341.79, 0.31, 354.06
341.42, 0.31, 353.22
340.99, 0.31, 352.24
342.24, 0.86, 355.04
340.73, 0.56, 351.67
342.29, 1.13, 355.15
342.29, 1.25, 355.15
340.72, 1.07, 351.62
342.20, 1.48, 354.95
342.37, 1.62, 355.31
342.52, 1.76, 355.65
342.56, 1.87, 355.74
342.56, 1.99, 355.74
342.56, 2.10, 355.73
342.56, 2.21, 355.73
342.56, 2.33, 355.73
342.56, 2.44, 355.73
343.73, 0.00, 358.61
343.65, 0.02, 358.42
343.55, 0.03, 358.22
343.45, 0.04, 358.00
343.35, 0.06, 357.76
343.23, 0.08, 357.52
343.11, 0.10, 357.25
342.98, 0.12, 356.97
342.84, 0.14, 356.67
342.70, 0.17, 356.35
342.53, 0.19, 355.99
342.35, 0.22, 355.60
342.16, 0.25, 355.17
341.94, 0.29, 354.70
341.67, 0.31, 354.11
341.28, 0.31, 353.27
340.83, 0.31, 352.29
342.10, 0.86, 355.04
340.85, 0.64, 352.33
342.44, 1.19, 355.77
342.44, 1.31, 355.77
342.44, 1.42, 355.77
342.44, 1.53, 355.76
342.23, 1.62, 355.30
342.39, 1.75, 355.64
342.54, 1.88, 355.95
342.55, 1.99, 355.97
342.55, 2.10, 355.97
342.55, 2.21, 355.97
342.55, 2.32, 355.97
342.55, 2.43, 355.96
343.68, 0.01, 358.66
343.59, 0.02, 358.47
¯343.49, 0.04, 358.27
343.39, 0.05, 358.06
343.28, 0.07, 357.83
343.16, 0.09, 357.58
343.04, 0.11, 357.32
342.91, 0.13, 357.05
342.77, 0.15, 356.75
342.62, 0.18, 356.43
342.45, 0.21, 356.08
342.27, 0.24, 355.70
342.07, 0.27, 355.28
341.86, 0.30, 354.82
342.34, 0.62, 355.83
342.34, 0.73, 355.84
342.34, 0.85, 355.83
342.34, 0.96, 355.83
342.43, 1.10, 356.01
342.43, 1.21, 356.00
342.43, 1.32, 356.00
342.43, 1.44, 356.00
342.39, 1.54, 355.91
342.09, 1.62, 355.28
342.26, 1.75, 355.63
342.41, 1.88, 355.94
342.53, 2.00, 356.20
342.53, 2.10, 356.20
342.53, 2.21, 356.20
342.53, 2.32, 356.19
342.53, 2.43, 356.19
343.62, 0.02, 358.72
343.53, 0.03, 358.53
343.43, 0.05, 358.33
343.33, 0.06, 358.12
343.22, 0.08, 357.89
343.10, 0.10, 357.65
342.97, 0.12, 357.39
342.84, 0.14, 357.12
342.70, 0.16, 356.83
342.54, 0.19, 356.51
342.38, 0.22, 356.17
342.19, 0.25, 355.80
342.33, 0.42, 356.07
342.34, 0.54, 356.09
342.35, 0.66, 356.10
342.35, 0.77, 356.11
342.35, 0.88, 356.10
342.35, 0.99, 356.09
342.41, 1.12, 356.23
342.41, 1.23, 356.22
342.41, 1.34, 356.22
342.41, 1.45, 356.22
¯342.27, 1.54, 355.92
341.95, 1.61, 355.27
342.12, 1.75, 355.61
342.28, 1.88, 355.93
342.43, 2.00, 356.23
342.52, 2.11, 356.41
342.52, 2.21, 356.41
342.52, 2.32, 356.41
342.52, 2.42, 356.41
343.56, 0.03, 358.77
343.47, 0.04, 358.58
343.37, 0.06, 358.39
343.27, 0.07, 358.18
343.15, 0.09, 357.96
343.03, 0.11, 357.72
342.90, 0.13, 357.46
342.77, 0.15, 357.19
342.62, 0.17, 356.91
342.47, 0.20, 356.60
342.30, 0.23, 356.26
342.31, 0.35, 356.29
342.32, 0.46, 356.30
342.33, 0.58, 356.32
342.34, 0.69, 356.33
342.34, 0.80, 356.33
342.34, 0.91, 356.32
342.33, 1.02, 356.31
342.40, 1.15, 356.44
342.40, 1.25, 356.44
342.40, 1.36, 356.43
342.40, 1.47, 356.43
342.15, 1.54, 355.94
341.81, 1.61, 355.25
341.98, 1.75, 355.60
342.15, 1.88, 355.92
342.30, 2.00, 356.22
342.44, 2.11, 356.50
342.51, 2.21, 356.62
342.51, 2.32, 356.62
342.51, 2.42, 356.62
343.51, 0.04, 358.82
343.41, 0.05, 358.64
343.31, 0.07, 358.45
343.20, 0.08, 358.24
343.09, 0.10, 358.02
342.97, 0.12, 357.79
342.84, 0.14, 357.53
342.70, 0.16, 357.27
342.55, 0.18, 356.98
342.39, 0.21, 356.68
342.22, 0.24, 356.35
¯342.30, 0.38, 356.49
342.31, 0.50, 356.50
342.31, 0.61, 356.51
342.32, 0.72, 356.52
342.32, 0.83, 356.52
342.32, 0.94, 356.51
342.39, 1.06, 356.64
342.39, 1.17, 356.64
342.39, 1.27, 356.64
342.39, 1.38, 356.64
342.39, 1.48, 356.64
342.04, 1.54, 355.96
341.66, 1.61, 355.23
341.84, 1.75, 355.59
342.02, 1.88, 355.91
342.17, 2.00, 356.21
342.32, 2.11, 356.49
342.46, 2.21, 356.76
342.49, 2.31, 356.82
342.49, 2.42, 356.82
343.45, 0.04, 358.88
343.36, 0.06, 358.70
343.25, 0.07, 358.50
343.14, 0.09, 358.30
343.03, 0.11, 358.08
342.90, 0.13, 357.85
342.77, 0.15, 357.61
342.63, 0.17, 357.34
342.48, 0.19, 357.06
342.32, 0.22, 356.76
342.15, 0.25, 356.44
342.26, 0.41, 356.64
342.28, 0.53, 356.68
342.29, 0.64, 356.69
342.29, 0.74, 356.69
342.29, 0.85, 356.69
342.29, 0.96, 356.68
342.37, 1.08, 356.84
342.37, 1.19, 356.84
342.37, 1.29, 356.84
342.37, 1.39, 356.83
342.37, 1.50, 356.83
341.92, 1.54, 355.98
341.58, 1.61, 355.34
341.70, 1.75, 355.57
341.88, 1.88, 355.90
342.05, 2.00, 356.21
342.20, 2.11, 356.49
342.34, 2.21, 356.75
342.47, 2.31, 357.00
342.48, 2.41, 357.01
¯343.40, 0.05, 358.93
343.30, 0.07, 358.75
343.20, 0.08, 358.56
343.09, 0.10, 358.36
342.97, 0.12, 358.15
342.84, 0.14, 357.92
342.71, 0.16, 357.68
342.56, 0.18, 357.42
342.41, 0.20, 357.14
342.25, 0.23, 356.85
342.07, 0.26, 356.52
342.13, 0.39, 356.62
342.19, 0.53, 356.73
342.23, 0.65, 356.80
342.23, 0.76, 356.81
342.24, 0.86, 356.81
342.24, 0.97, 356.81
342.36, 1.11, 357.03
342.36, 1.21, 357.03
342.36, 1.31, 357.02
342.36, 1.41, 357.02
342.31, 1.50, 356.92
341.80, 1.54, 356.00
341.56, 1.62, 355.57
341.56, 1.74, 355.56
341.74, 1.88, 355.89
341.91, 2.00, 356.20
342.07, 2.11, 356.48
342.22, 2.22, 356.75
342.36, 2.31, 357.00
342.47, 2.41, 357.19
343.34, 0.06, 358.98
343.24, 0.08, 358.81
343.14, 0.09, 358.62
343.03, 0.11, 358.43
342.91, 0.13, 358.21
342.78, 0.15, 357.99
342.64, 0.17, 357.75
342.50, 0.19, 357.49
342.34, 0.21, 357.22
342.18, 0.24, 356.93
342.00, 0.27, 356.61
341.99, 0.38, 356.60
342.15, 0.55, 356.88
342.16, 0.66, 356.88
342.16, 0.76, 356.87
342.16, 0.87, 356.87
342.35, 1.03, 357.21
342.35, 1.13, 357.21
342.35, 1.23, 357.21
342.35, 1.32, 357.20
¯342.35, 1.42, 357.20
342.20, 1.50, 356.95
341.68, 1.53, 356.03
341.52, 1.63, 355.74
341.41, 1.74, 355.54
341.60, 1.88, 355.88
341.78, 2.00, 356.19
341.95, 2.11, 356.48
342.10, 2.22, 356.74
342.24, 2.32, 356.99
342.38, 2.41, 357.23
343.27, 0.06, 359.01
343.18, 0.08, 358.85
343.08, 0.10, 358.68
342.97, 0.12, 358.49
342.85, 0.14, 358.28
342.72, 0.15, 358.06
342.58, 0.18, 357.82
342.43, 0.20, 357.57
342.28, 0.22, 357.30
342.11, 0.25, 357.01
341.93, 0.28, 356.70
342.24, 0.51, 357.23
342.25, 0.62, 357.24
342.25, 0.72, 357.24
342.25, 0.82, 357.23
342.25, 0.92, 357.23
342.34, 1.05, 357.38
342.34, 1.15, 357.38
342.34, 1.24, 357.38
342.34, 1.34, 357.38
342.34, 1.44, 357.38
342.10, 1.50, 356.97
341.56, 1.53, 356.05
341.39, 1.63, 355.76
341.26, 1.74, 355.53
341.46, 1.87, 355.87
341.65, 2.00, 356.18
341.82, 2.11, 356.47
341.98, 2.22, 356.74
342.12, 2.32, 356.99
342.26, 2.41, 357.23
351.27, 0.00, 367.07
351.46, 0.00, 367.22
351.67, 0.00, 367.37
351.89, 0.00, 367.53
351.57, 0.21, 367.30
351.53, 0.31, 367.27
351.52, 0.40, 367.26
351.52, 0.48, 367.26
351.52, 0.57, 367.26
¯351.52, 0.65, 367.26
351.52, 0.73, 367.26
351.52, 0.81, 367.26
351.52, 0.89, 367.26
351.52, 0.97, 367.26
351.52, 1.05, 367.26
351.52, 1.13, 367.26
351.52, 1.21, 367.26
351.52, 1.29, 367.26
351.52, 1.37, 367.26
351.52, 1.45, 367.26
351.52, 1.52, 367.26
351.52, 1.60, 367.26
351.52, 1.68, 367.26
351.52, 1.76, 367.26
351.53, 1.83, 367.27
351.55, 1.91, 367.28
351.60, 1.99, 367.32
351.71, 2.06, 367.40
351.32, 0.00, 367.02
351.51, 0.00, 367.16
351.71, 0.00, 367.31
351.94, 0.00, 367.47
352.17, 0.00, 367.64
351.66, 0.28, 367.27
351.63, 0.38, 367.25
351.63, 0.46, 367.25
351.63, 0.54, 367.25
351.63, 0.63, 367.25
351.63, 0.71, 367.25
351.63, 0.79, 367.25
351.63, 0.87, 367.25
351.63, 0.96, 367.25
351.63, 1.04, 367.25
351.63, 1.12, 367.25
351.63, 1.20, 367.25
351.63, 1.28, 367.25
351.63, 1.36, 367.25
351.63, 1.44, 367.25
351.63, 1.51, 367.25
351.63, 1.59, 367.25
351.63, 1.67, 367.25
351.63, 1.75, 367.25
351.64, 1.83, 367.25
351.68, 1.91, 367.28
351.78, 1.98, 367.35
351.36, 0.00, 366.96
351.55, 0.00, 367.09
351.76, 0.00, 367.24
351.98, 0.00, 367.40
352.22, 0.00, 367.57
¯352.48, 0.00, 367.76
352.77, 0.00, 367.96
353.07, 0.00, 368.18
353.41, 0.00, 368.42
353.69, 0.03, 368.62
353.96, 0.07, 368.81
354.24, 0.11, 369.01
354.57, 0.15, 369.24
354.96, 0.18, 369.52
355.38, 0.22, 369.82
356.90, 0.05, 370.91
358.01, 0.00, 371.70
359.04, 0.00, 372.43
360.25, 0.00, 373.29
361.72, 0.00, 374.34
363.53, 0.00, 375.63
365.55, 0.03, 377.07
365.56, 0.32, 377.08
365.59, 0.60, 377.10
365.64, 0.89, 377.14
365.64, 1.18, 377.14
365.64, 1.46, 377.14
365.64, 1.75, 377.14
365.64, 2.04, 377.14
365.64, 2.33, 377.14
365.64, 2.62, 377.14
351.40, 0.00, 366.90
351.60, 0.00, 367.03
351.81, 0.00, 367.18
352.03, 0.00, 367.33
352.27, 0.00, 367.50
352.54, 0.00, 367.68
352.82, 0.00, 367.88
353.13, 0.00, 368.10
353.47, 0.00, 368.33
353.73, 0.03, 368.52
354.00, 0.07, 368.70
354.28, 0.12, 368.90
354.59, 0.16, 369.11
354.97, 0.20, 369.37
355.39, 0.24, 369.67
356.93, 0.06, 370.73
358.11, 0.00, 371.56
359.14, 0.00, 372.27
360.37, 0.00, 373.12
361.85, 0.00, 374.15
363.67, 0.00, 375.42
365.86, 0.01, 376.94
365.89, 0.30, 376.96
365.99, 0.88, 377.03
365.99, 1.17, 377.03
¯365.99, 1.46, 377.03
365.99, 1.75, 377.03
365.99, 2.04, 377.03
365.99, 2.33, 377.03
365.99, 2.62, 377.03
351.44, 0.00, 366.84
351.64, 0.00, 366.97
351.85, 0.00, 367.11
352.08, 0.00, 367.26
352.32, 0.00, 367.43
352.59, 0.00, 367.61
352.87, 0.00, 367.80
353.19, 0.00, 368.02
353.53, 0.00, 368.24
353.78, 0.04, 368.41
354.04, 0.08, 368.59
354.33, 0.12, 368.79
354.63, 0.17, 368.99
354.98, 0.21, 369.23
355.40, 0.25, 369.51
356.96, 0.07, 370.57
358.21, 0.00, 371.42
359.25, 0.00, 372.12
360.48, 0.00, 372.95
361.97, 0.00, 373.96
363.82, 0.00, 375.21
366.15, 0.00, 376.79
366.80, 0.23, 377.23
366.82, 0.53, 377.24
366.51, 0.85, 377.03
366.51, 1.15, 377.03
366.51, 1.44, 377.03
366.51, 1.74, 377.03
366.51, 2.04, 377.03
366.51, 2.33, 377.03
366.51, 2.63, 377.03
351.48, 0.00, 366.77
351.68, 0.00, 366.90
351.90, 0.00, 367.04
352.12, 0.00, 367.20
352.37, 0.00, 367.36
352.64, 0.00, 367.53
352.93, 0.00, 367.72
353.24, 0.00, 367.93
353.56, 0.01, 368.15
353.81, 0.04, 368.31
354.08, 0.08, 368.49
354.37, 0.13, 368.67
354.67, 0.17, 368.88
355.00, 0.22, 369.09
355.41, 0.27, 369.36
¯357.03, 0.08, 370.43
358.31, 0.00, 371.27
359.35, 0.00, 371.96
360.60, 0.00, 372.78
362.10, 0.00, 373.77
363.96, 0.00, 375.00
366.31, 0.00, 376.55
366.93, 0.23, 376.95
366.95, 0.53, 376.97
367.04, 0.83, 377.03
367.04, 1.13, 377.03
367.04, 1.43, 377.03
367.04, 1.73, 377.03
367.04, 2.03, 377.03
367.04, 2.33, 377.03
367.04, 2.64, 377.03
351.52, 0.00, 366.71
351.72, 0.00, 366.84
351.94, 0.00, 366.98
352.17, 0.00, 367.13
352.42, 0.00, 367.29
352.69, 0.00, 367.46
352.98, 0.00, 367.65
353.30, 0.00, 367.85
353.60, 0.01, 368.05
353.85, 0.05, 368.21
354.12, 0.09, 368.38
354.41, 0.13, 368.56
354.71, 0.18, 368.76
355.04, 0.23, 368.97
355.41, 0.28, 369.21
357.09, 0.08, 370.29
358.40, 0.00, 371.13
359.45, 0.00, 371.80
360.71, 0.00, 372.61
362.22, 0.00, 373.58
364.10, 0.00, 374.78
366.46, 0.00, 376.30
351.56, 0.00, 366.65
351.76, 0.00, 366.78
351.98, 0.00, 366.91
352.21, 0.00, 367.06
352.46, 0.00, 367.21
352.73, 0.00, 367.38
353.03, 0.00, 367.57
353.35, 0.00, 367.77
353.64, 0.02, 367.95
353.89, 0.06, 368.10
354.16, 0.10, 368.27
354.45, 0.14, 368.45
354.75, 0.19, 368.64
¯355.08, 0.24, 368.85
355.46, 0.28, 369.08
357.15, 0.09, 370.14
358.44, 0.01, 370.95
359.55, 0.00, 371.64
360.82, 0.00, 372.43
362.35, 0.00, 373.39
364.23, 0.00, 374.56
366.62, 0.00, 376.06
351.60, 0.00, 366.59
351.80, 0.00, 366.71
352.02, 0.00, 366.84
352.26, 0.00, 366.99
352.51, 0.00, 367.14
352.78, 0.00, 367.30
353.08, 0.00, 367.48
353.40, 0.00, 367.68
353.67, 0.02, 367.85
353.93, 0.06, 368.00
354.20, 0.10, 368.16
354.48, 0.15, 368.34
354.79, 0.19, 368.53
355.15, 0.23, 368.75
355.62, 0.26, 369.03
357.21, 0.09, 369.99
358.46, 0.02, 370.76
359.65, 0.00, 371.48
360.93, 0.00, 372.26
362.46, 0.00, 373.19
364.36, 0.00, 374.35
366.77, 0.00, 375.81
351.64, 0.00, 366.52
351.84, 0.00, 366.65
352.06, 0.00, 366.77
352.30, 0.00, 366.91
352.55, 0.00, 367.06
352.83, 0.00, 367.23
353.13, 0.00, 367.40
353.45, 0.00, 367.60
353.71, 0.03, 367.75
353.96, 0.07, 367.90
354.23, 0.11, 368.06
354.52, 0.15, 368.23
354.87, 0.19, 368.43
355.27, 0.22, 368.67
355.80, 0.24, 368.98
357.25, 0.10, 369.84
358.48, 0.03, 370.57
359.75, 0.00, 371.32
361.03, 0.00, 372.08
362.58, 0.00, 372.99
¯364.49, 0.00, 374.12
366.92, 0.00, 375.56
351.68, 0.00, 366.46
351.88, 0.00, 366.58
352.10, 0.00, 366.71
352.34, 0.00, 366.84
352.60, 0.00, 366.99
352.87, 0.00, 367.15
353.17, 0.00, 367.32
353.50, 0.00, 367.51
353.74, 0.03, 367.65
354.00, 0.07, 367.80
354.27, 0.11, 367.95
354.61, 0.14, 368.14
354.98, 0.18, 368.36
355.38, 0.21, 368.59
355.97, 0.22, 368.93
357.30, 0.10, 369.69
358.49, 0.05, 370.38
359.84, 0.00, 371.16
361.13, 0.00, 371.90
362.69, 0.00, 372.80
364.62, 0.00, 373.90
367.06, 0.00, 375.30
351.71, 0.00, 366.40
351.92, 0.00, 366.51
352.14, 0.00, 366.64
352.38, 0.00, 366.77
352.64, 0.00, 366.91
352.92, 0.00, 367.07
353.22, 0.00, 367.24
353.54, 0.00, 367.42
353.78, 0.04, 367.55
354.04, 0.08, 367.70
354.36, 0.10, 367.88
354.71, 0.13, 368.07
355.09, 0.16, 368.28
355.51, 0.20, 368.52
356.15, 0.20, 368.88
357.34, 0.11, 369.54
358.53, 0.06, 370.20
359.93, 0.00, 370.99
361.23, 0.00, 371.72
362.81, 0.00, 372.60
364.75, 0.00, 373.68
367.20, 0.00, 375.05
351.75, 0.00, 366.33
351.96, 0.00, 366.45
352.18, 0.00, 366.57
352.42, 0.00, 366.70
352.68, 0.00, 366.84
¯352.96, 0.00, 366.99
353.26, 0.00, 367.16
353.57, 0.01, 367.32
353.82, 0.04, 367.46
354.13, 0.07, 367.62
354.45, 0.09, 367.80
354.81, 0.12, 367.99
355.19, 0.15, 368.20
355.67, 0.17, 368.46
356.33, 0.17, 368.82
357.37, 0.12, 369.39
358.66, 0.05, 370.08
360.02, 0.00, 370.83
361.33, 0.00, 371.54
362.91, 0.00, 372.39
364.87, 0.00, 373.45
367.34, 0.00, 374.80
351.78, 0.00, 366.27
351.99, 0.00, 366.38
352.22, 0.00, 366.50
352.46, 0.00, 366.62
352.72, 0.00, 366.76
353.00, 0.00, 366.91
353.31, 0.00, 367.07
353.62, 0.01, 367.24
353.91, 0.03, 367.39
354.21, 0.05, 367.55
354.55, 0.08, 367.73
354.91, 0.11, 367.92
355.30, 0.14, 368.12
355.84, 0.15, 368.40
356.52, 0.15, 368.76
357.40, 0.12, 369.23
358.78, 0.04, 369.96
360.11, 0.00, 370.66
361.43, 0.00, 371.35
363.02, 0.00, 372.19
364.99, 0.00, 373.23
367.47, 0.00, 374.54
351.82, 0.00, 366.20
352.03, 0.00, 366.31
352.25, 0.00, 366.43
352.50, 0.00, 366.55
352.76, 0.00, 366.69
353.04, 0.00, 366.83
353.35, 0.00, 366.99
353.69, 0.00, 367.16
353.99, 0.02, 367.32
354.30, 0.04, 367.48
354.64, 0.07, 367.65
355.01, 0.10, 367.84
¯355.41, 0.13, 368.04
356.00, 0.13, 368.34
356.70, 0.12, 368.70
357.47, 0.12, 369.10
358.91, 0.03, 369.83
360.20, 0.00, 370.49
361.52, 0.00, 371.17
363.13, 0.00, 371.99
365.10, 0.00, 373.00
367.60, 0.00, 374.28
351.85, 0.00, 366.14
352.06, 0.00, 366.24
352.29, 0.00, 366.36
352.53, 0.00, 366.48
352.80, 0.00, 366.61
353.08, 0.00, 366.75
353.39, 0.00, 366.90
353.73, 0.00, 367.07
354.08, 0.01, 367.24
354.39, 0.03, 367.40
354.74, 0.06, 367.57
355.11, 0.09, 367.76
355.54, 0.11, 367.97
356.17, 0.10, 368.28
356.89, 0.10, 368.64
357.60, 0.11, 368.99
359.03, 0.02, 369.70
360.28, 0.00, 370.32
361.62, 0.00, 370.98
363.23, 0.00, 371.78
365.22, 0.00, 372.77
367.73, 0.00, 374.02
351.88, 0.00, 366.07
352.09, 0.00, 366.17
352.32, 0.00, 366.28
352.57, 0.00, 366.40
352.84, 0.00, 366.53
353.12, 0.00, 366.67
353.44, 0.00, 366.82
353.78, 0.00, 366.98
354.15, 0.00, 367.16
354.48, 0.02, 367.32
354.84, 0.05, 367.49
355.22, 0.07, 367.68
355.69, 0.09, 367.91
356.34, 0.08, 368.22
356.97, 0.09, 368.52
357.73, 0.10, 368.89
359.15, 0.01, 369.57
360.36, 0.00, 370.15
361.70, 0.00, 370.80
¯363.33, 0.00, 371.58
365.33, 0.00, 372.54
367.86, 0.00, 373.76
351.91, 0.00, 366.01
352.13, 0.00, 366.11
352.36, 0.00, 366.21
352.61, 0.00, 366.33
352.87, 0.00, 366.45
353.16, 0.00, 366.59
353.48, 0.00, 366.73
353.82, 0.00, 366.89
354.19, 0.00, 367.07
354.57, 0.01, 367.25
354.93, 0.03, 367.41
355.32, 0.06, 367.59
355.85, 0.07, 367.84
356.48, 0.06, 368.13
357.04, 0.09, 368.39
357.86, 0.09, 368.78
359.27, 0.01, 369.43
360.44, 0.00, 369.98
361.61, 0.03, 370.53
361.61, 0.23, 370.52
361.61, 0.44, 370.52
361.61, 0.65, 370.52
361.61, 0.85, 370.52
361.61, 1.06, 370.52
361.61, 1.26, 370.52
361.61, 1.47, 370.52
361.61, 1.67, 370.52
361.61, 1.88, 370.52
361.61, 2.08, 370.52
361.61, 2.28, 370.52
361.61, 2.49, 370.52
351.94, 0.00, 365.94
352.16, 0.00, 366.04
352.39, 0.00, 366.14
352.64, 0.00, 366.25
352.91, 0.00, 366.37
353.20, 0.00, 366.51
353.52, 0.00, 366.65
353.86, 0.00, 366.80
354.24, 0.00, 366.97
354.65, 0.00, 367.16
355.03, 0.02, 367.33
355.42, 0.05, 367.51
356.00, 0.04, 367.77
356.54, 0.06, 368.01
357.10, 0.09, 368.27
357.98, 0.08, 368.66
359.38, 0.00, 369.30
¯360.52, 0.00, 369.81
361.88, 0.00, 370.42
363.52, 0.00, 371.16
365.54, 0.00, 372.07
368.10, 0.00, 373.23
351.97, 0.00, 365.87
352.19, 0.00, 365.97
352.42, 0.00, 366.07
352.67, 0.00, 366.18
352.94, 0.00, 366.29
353.24, 0.00, 366.42
353.55, 0.00, 366.56
353.90, 0.00, 366.71
354.28, 0.00, 366.88
354.70, 0.00, 367.06
355.12, 0.01, 367.25
355.54, 0.03, 367.43
356.08, 0.04, 367.67
356.60, 0.06, 367.89
357.17, 0.09, 368.14
358.11, 0.07, 368.55
359.45, 0.00, 369.14
360.60, 0.00, 369.64
361.96, 0.00, 370.23
363.61, 0.00, 370.95
365.53, 0.01, 371.79
365.55, 0.27, 371.80
365.56, 0.52, 371.81
365.59, 0.78, 371.82
365.59, 1.03, 371.82
365.59, 1.29, 371.82
365.59, 1.54, 371.82
365.59, 1.80, 371.82
365.59, 2.05, 371.82
365.59, 2.31, 371.82
365.59, 2.56, 371.82
352.00, 0.00, 365.80
352.22, 0.00, 365.90
352.45, 0.00, 365.99
352.71, 0.00, 366.10
352.98, 0.00, 366.22
353.27, 0.00, 366.34
353.59, 0.00, 366.47
353.94, 0.00, 366.62
354.32, 0.00, 366.78
354.74, 0.00, 366.96
355.20, 0.00, 367.16
355.67, 0.01, 367.35
356.14, 0.04, 367.55
356.66, 0.06, 367.77
357.23, 0.09, 368.01
¯358.23, 0.06, 368.43
359.41, 0.02, 368.93
360.67, 0.00, 369.46
362.04, 0.00, 370.04
363.70, 0.00, 370.74
365.74, 0.00, 371.60
365.87, 0.24, 371.66
366.01, 0.49, 371.72
366.01, 0.75, 371.72
366.01, 1.01, 371.72
366.01, 1.27, 371.72
366.01, 1.53, 371.72
366.02, 1.79, 371.72
366.02, 2.05, 371.72
366.02, 2.31, 371.72
366.02, 2.57, 371.72
352.03, 0.00, 365.74
352.25, 0.00, 365.83
352.48, 0.00, 365.92
352.74, 0.00, 366.02
353.01, 0.00, 366.14
353.31, 0.00, 366.26
353.63, 0.00, 366.39
353.98, 0.00, 366.53
354.36, 0.00, 366.69
354.78, 0.00, 366.86
355.25, 0.00, 367.05
355.72, 0.01, 367.24
356.19, 0.03, 367.43
356.71, 0.06, 367.65
357.29, 0.09, 367.88
358.35, 0.04, 368.32
359.38, 0.03, 368.73
360.74, 0.00, 369.29
362.12, 0.00, 369.85
363.78, 0.00, 370.53
365.83, 0.00, 371.37
366.69, 0.17, 371.72
366.69, 0.44, 371.72
366.69, 0.71, 371.72
366.70, 0.98, 371.72
366.70, 1.25, 371.72
366.70, 1.51, 371.72
366.70, 1.78, 371.72
366.70, 2.05, 371.72
366.70, 2.31, 371.72
366.70, 2.58, 371.72
352.06, 0.00, 365.67
352.28, 0.00, 365.75
352.51, 0.00, 365.85
352.77, 0.00, 365.95
¯353.04, 0.00, 366.06
353.34, 0.00, 366.17
353.66, 0.00, 366.30
354.01, 0.00, 366.44
354.40, 0.00, 366.59
354.82, 0.00, 366.76
355.29, 0.00, 366.94
355.76, 0.01, 367.13
356.25, 0.03, 367.32
356.77, 0.06, 367.52
357.35, 0.09, 367.75
358.45, 0.04, 368.18
359.35, 0.05, 368.54
360.79, 0.00, 369.11
362.19, 0.00, 369.66
363.86, 0.00, 370.32
365.93, 0.00, 371.13
368.54, 0.00, 372.16
352.08, 0.00, 365.60
352.30, 0.00, 365.68
352.54, 0.00, 365.77
352.80, 0.00, 365.87
353.07, 0.00, 365.97
353.37, 0.00, 366.09
353.69, 0.00, 366.21
354.05, 0.00, 366.35
354.43, 0.00, 366.49
354.86, 0.00, 366.65
355.32, 0.00, 366.83
355.80, 0.01, 367.01
356.30, 0.03, 367.20
356.82, 0.06, 367.40
357.41, 0.08, 367.62
358.43, 0.05, 368.01
359.32, 0.06, 368.35
360.73, 0.02, 368.88
362.27, 0.00, 369.47
363.95, 0.00, 370.10
366.02, 0.00, 370.89
368.64, 0.00, 371.89
352.11, 0.00, 365.53
352.33, 0.00, 365.61
352.57, 0.00, 365.70
352.83, 0.00, 365.79
353.10, 0.00, 365.89
353.40, 0.00, 366.00
353.73, 0.00, 366.12
354.08, 0.00, 366.25
354.47, 0.00, 366.39
354.90, 0.00, 366.55
355.36, 0.00, 366.72
¯355.83, 0.02, 366.89
356.33, 0.03, 367.08
356.88, 0.06, 367.28
357.50, 0.08, 367.50
358.40, 0.06, 367.83
359.29, 0.08, 368.16
360.67, 0.04, 368.66
362.34, 0.00, 369.27
364.02, 0.00, 369.89
366.11, 0.00, 370.65
368.74, 0.00, 371.61
352.13, 0.00, 365.46
352.36, 0.00, 365.54
352.60, 0.00, 365.62
352.85, 0.00, 365.71
353.13, 0.00, 365.81
353.43, 0.00, 365.92
353.76, 0.00, 366.03
354.12, 0.00, 366.16
354.51, 0.00, 366.30
354.93, 0.00, 366.44
355.39, 0.00, 366.61
355.86, 0.02, 366.77
356.36, 0.04, 366.95
356.93, 0.05, 367.15
357.60, 0.07, 367.39
358.38, 0.08, 367.66
359.25, 0.09, 367.97
360.61, 0.06, 368.45
362.40, 0.00, 369.08
364.10, 0.00, 369.67
366.19, 0.00, 370.41
368.83, 0.00, 371.34
352.16, 0.00, 365.39
352.38, 0.00, 365.47
352.62, 0.00, 365.55
352.88, 0.00, 365.64
353.16, 0.00, 365.73
353.46, 0.00, 365.83
353.79, 0.00, 365.94
354.15, 0.00, 366.07
354.54, 0.00, 366.20
354.96, 0.00, 366.34
355.42, 0.01, 366.50
355.89, 0.02, 366.65
356.39, 0.04, 366.83
356.96, 0.06, 367.02
357.59, 0.08, 367.23
358.35, 0.09, 367.49
359.22, 0.11, 367.78
360.69, 0.06, 368.28
¯362.45, 0.00, 368.88
364.17, 0.00, 369.46
366.27, 0.00, 370.17
368.93, 0.00, 371.07
352.18, 0.00, 365.32
352.40, 0.00, 365.40
352.65, 0.00, 365.47
352.91, 0.00, 365.56
353.19, 0.00, 365.65
353.49, 0.00, 365.75
353.82, 0.00, 365.85
354.18, 0.00, 365.97
354.57, 0.00, 366.10
354.99, 0.00, 366.23
355.45, 0.01, 366.39
355.92, 0.02, 366.54
356.42, 0.04, 366.70
356.99, 0.06, 366.88
357.58, 0.09, 367.08
358.32, 0.10, 367.32
359.19, 0.12, 367.60
360.78, 0.05, 368.12
362.50, 0.00, 368.67
364.24, 0.00, 369.24
366.35, 0.00, 369.92
368.65, 0.04, 370.67
368.65, 0.32, 370.67
368.65, 0.61, 370.67
368.65, 0.89, 370.67
368.65, 1.18, 370.67
368.65, 1.47, 370.67
368.65, 1.75, 370.67
368.65, 2.04, 370.67
368.65, 2.32, 370.67
368.65, 2.61, 370.67
352.20, 0.00, 365.25
352.43, 0.00, 365.32
352.67, 0.00, 365.40
352.93, 0.00, 365.48
353.21, 0.00, 365.57
353.52, 0.00, 365.66
353.85, 0.00, 365.76
354.21, 0.00, 365.88
354.59, 0.00, 366.00
355.02, 0.01, 366.13
355.48, 0.01, 366.27
355.94, 0.03, 366.42
356.45, 0.04, 366.58
357.01, 0.06, 366.75
357.58, 0.10, 366.93
358.30, 0.12, 367.15
¯359.15, 0.14, 367.41
360.87, 0.05, 367.95
362.55, 0.01, 368.47
364.31, 0.00, 369.02
366.42, 0.00, 369.68
368.84, 0.03, 370.43
368.84, 0.31, 370.43
368.84, 0.60, 370.43
368.84, 0.89, 370.43
368.84, 1.18, 370.43
368.84, 1.46, 370.43
368.84, 1.75, 370.43
368.84, 2.04, 370.43
368.84, 2.32, 370.43
368.85, 2.61, 370.43
352.22, 0.00, 365.18
352.45, 0.00, 365.25
352.69, 0.00, 365.32
352.95, 0.00, 365.40
353.24, 0.00, 365.48
353.54, 0.00, 365.57
353.87, 0.00, 365.67
354.23, 0.00, 365.78
354.62, 0.00, 365.90
355.04, 0.01, 366.02
355.51, 0.01, 366.16
355.97, 0.03, 366.30
356.48, 0.04, 366.45
357.01, 0.07, 366.61
357.58, 0.10, 366.78
358.29, 0.13, 366.99
359.11, 0.15, 367.23
360.96, 0.04, 367.78
362.61, 0.01, 368.28
364.37, 0.00, 368.80
366.50, 0.00, 369.43
369.18, 0.00, 370.23
352.24, 0.00, 365.11
352.47, 0.00, 365.18
352.71, 0.00, 365.25
352.98, 0.00, 365.32
353.26, 0.00, 365.40
353.57, 0.00, 365.49
353.90, 0.00, 365.58
354.25, 0.00, 365.68
354.64, 0.01, 365.79
355.07, 0.01, 365.92
355.53, 0.01, 366.05
355.99, 0.03, 366.18
356.50, 0.05, 366.32
357.01, 0.08, 366.47
¯357.57, 0.11, 366.63
358.29, 0.13, 366.83
359.09, 0.16, 367.06
361.04, 0.04, 367.62
362.67, 0.01, 368.08
364.44, 0.00, 368.58
366.57, 0.00, 369.19
369.26, 0.00, 369.96
367.27, 0.46, 369.39
352.26, 0.00, 365.04
352.49, 0.00, 365.10
352.74, 0.00, 365.17
353.00, 0.00, 365.24
353.28, 0.00, 365.32
353.59, 0.00, 365.40
353.92, 0.00, 365.49
354.28, 0.00, 365.59
354.66, 0.01, 365.69
355.09, 0.01, 365.81
355.55, 0.01, 365.93
356.02, 0.03, 366.06
356.51, 0.05, 366.19
357.01, 0.09, 366.33
357.57, 0.12, 366.48
358.28, 0.14, 366.67
359.08, 0.17, 366.89
361.12, 0.03, 367.44
362.73, 0.01, 367.88
364.50, 0.00, 368.36
366.63, 0.00, 368.94
367.43, 0.18, 369.16
367.27, 0.46, 369.11
367.58, 0.71, 369.20
