ŸVERSION 0.7
FIELDS x y z
SIZE 8 8 8
TYPE F F F
COUNT 1 1 1
WIDTH 2271
HEIGHT 1
VIEWPOINT 384.85, 13.91, 255.28 1 402.48, 9.14, 245.71
POINTS 2271
DATA ascii
406.58, 7.11, 248.59
406.83, 7.12, 248.63
407.09, 7.13, 248.68
407.38, 7.14, 248.74
407.69, 7.15, 248.80
408.03, 7.16, 248.86
408.39, 7.18, 248.93
408.77, 7.20, 249.00
409.19, 7.21, 249.08
409.67, 7.23, 249.17
410.20, 7.25, 249.27
410.78, 7.27, 249.39
411.44, 7.30, 249.51
412.19, 7.33, 249.65
413.03, 7.36, 249.81
414.01, 7.40, 250.00
415.19, 7.43, 250.22
416.63, 7.47, 250.50
418.35, 7.52, 250.83
420.60, 7.57, 251.25
423.52, 7.63, 251.81
406.14, 7.10, 248.43
406.36, 7.11, 248.47
406.59, 7.11, 248.51
406.84, 7.12, 248.55
407.11, 7.13, 248.60
407.40, 7.14, 248.65
407.71, 7.15, 248.71
408.04, 7.17, 248.77
408.40, 7.18, 248.83
408.79, 7.20, 248.90
409.21, 7.22, 248.98
409.69, 7.23, 249.06
410.22, 7.25, 249.15
410.81, 7.28, 249.26
411.47, 7.30, 249.38
412.22, 7.33, 249.51
413.07, 7.36, 249.66
414.04, 7.40, 249.83
415.24, 7.43, 250.05
416.68, 7.47, 250.30
418.41, 7.52, 250.61
420.70, 7.57, 251.01
423.61, 7.63, 251.53
¯406.15, 7.10, 248.36
406.37, 7.11, 248.39
406.61, 7.11, 248.43
406.86, 7.12, 248.47
407.12, 7.13, 248.52
407.41, 7.14, 248.57
407.72, 7.15, 248.62
408.06, 7.17, 248.67
408.42, 7.18, 248.73
408.81, 7.20, 248.80
409.24, 7.22, 248.87
409.72, 7.23, 248.95
410.25, 7.25, 249.03
410.84, 7.28, 249.13
411.50, 7.30, 249.24
412.25, 7.33, 249.36
413.10, 7.36, 249.50
414.08, 7.40, 249.67
415.29, 7.43, 249.87
416.73, 7.47, 250.10
418.47, 7.52, 250.39
420.78, 7.57, 250.77
423.69, 7.63, 251.25
405.82, 7.22, 248.24
406.38, 7.11, 248.32
406.62, 7.12, 248.36
406.87, 7.12, 248.39
407.14, 7.13, 248.43
407.42, 7.14, 248.48
407.74, 7.16, 248.53
408.07, 7.17, 248.58
408.43, 7.18, 248.63
408.82, 7.20, 248.69
409.26, 7.22, 248.76
409.74, 7.24, 248.83
410.27, 7.26, 248.91
410.86, 7.28, 249.00
411.53, 7.30, 249.10
412.28, 7.33, 249.22
413.13, 7.36, 249.35
414.12, 7.40, 249.50
415.33, 7.43, 249.68
416.77, 7.47, 249.90
418.55, 7.52, 250.17
420.84, 7.57, 250.52
423.77, 7.63, 250.97
405.82, 7.22, 248.17
406.02, 7.23, 248.20
406.63, 7.12, 248.28
406.88, 7.13, 248.31
407.15, 7.14, 248.35
¯407.44, 7.15, 248.39
407.75, 7.16, 248.43
408.09, 7.17, 248.48
408.45, 7.19, 248.53
408.84, 7.20, 248.59
409.28, 7.22, 248.65
409.76, 7.24, 248.72
410.29, 7.26, 248.79
410.89, 7.28, 248.87
411.55, 7.30, 248.97
412.31, 7.33, 249.07
413.16, 7.36, 249.19
414.15, 7.40, 249.33
415.37, 7.43, 249.50
416.82, 7.48, 249.70
418.62, 7.52, 249.96
420.90, 7.57, 250.27
423.85, 7.64, 250.69
405.83, 7.23, 248.10
406.03, 7.23, 248.13
406.25, 7.24, 248.15
406.89, 7.13, 248.23
407.16, 7.14, 248.27
407.45, 7.15, 248.30
407.76, 7.16, 248.34
408.10, 7.17, 248.39
408.46, 7.19, 248.43
408.86, 7.20, 248.48
409.29, 7.22, 248.54
409.78, 7.24, 248.60
410.31, 7.26, 248.67
410.91, 7.28, 248.75
411.58, 7.30, 248.83
412.33, 7.33, 248.93
413.19, 7.37, 249.04
414.18, 7.40, 249.16
415.40, 7.44, 249.32
416.86, 7.48, 249.50
418.67, 7.52, 249.73
420.95, 7.57, 250.03
423.92, 7.64, 250.40
405.84, 7.23, 248.03
406.04, 7.23, 248.06
406.26, 7.24, 248.08
406.50, 7.25, 248.11
406.79, 7.25, 248.14
407.46, 7.15, 248.22
407.77, 7.16, 248.25
408.11, 7.17, 248.29
408.47, 7.19, 248.33
408.87, 7.20, 248.38
¯409.31, 7.22, 248.43
409.80, 7.24, 248.49
410.33, 7.26, 248.55
410.93, 7.28, 248.62
411.60, 7.31, 248.69
412.35, 7.33, 248.78
413.22, 7.37, 248.88
414.21, 7.40, 248.99
415.44, 7.44, 249.14
416.90, 7.48, 249.30
418.72, 7.52, 249.51
421.01, 7.57, 249.78
423.99, 7.64, 250.12
405.85, 7.23, 247.96
406.05, 7.23, 247.98
406.27, 7.24, 248.01
406.51, 7.25, 248.03
406.76, 7.26, 248.06
407.03, 7.27, 248.09
407.49, 7.24, 248.13
408.12, 7.17, 248.20
408.48, 7.19, 248.23
408.89, 7.20, 248.27
409.33, 7.22, 248.32
409.81, 7.24, 248.37
410.35, 7.26, 248.42
410.95, 7.28, 248.49
411.62, 7.31, 248.56
412.38, 7.33, 248.63
413.24, 7.37, 248.72
414.24, 7.40, 248.83
415.47, 7.44, 248.95
416.93, 7.48, 249.10
418.76, 7.52, 249.29
421.06, 7.58, 249.52
424.06, 7.64, 249.83
405.85, 7.23, 247.90
406.06, 7.24, 247.91
406.28, 7.24, 247.93
406.52, 7.25, 247.96
406.77, 7.26, 247.98
407.04, 7.27, 248.00
407.34, 7.28, 248.03
407.66, 7.29, 248.06
408.15, 7.27, 248.10
408.90, 7.20, 248.17
409.34, 7.22, 248.21
409.83, 7.24, 248.25
410.37, 7.26, 248.30
410.97, 7.28, 248.36
411.64, 7.31, 248.42
¯412.40, 7.34, 248.49
413.26, 7.37, 248.56
414.27, 7.40, 248.66
415.50, 7.44, 248.77
416.24, 7.55, 248.83
417.56, 7.63, 248.95
419.77, 7.68, 249.15
422.51, 7.74, 249.40
405.86, 7.23, 247.83
406.06, 7.24, 247.84
406.29, 7.24, 247.86
406.52, 7.25, 247.88
406.78, 7.26, 247.90
407.05, 7.27, 247.92
407.35, 7.28, 247.94
407.67, 7.30, 247.97
408.01, 7.31, 248.00
408.39, 7.32, 248.03
408.81, 7.34, 248.06
409.40, 7.33, 248.10
410.01, 7.33, 248.15
410.98, 7.28, 248.23
411.65, 7.31, 248.28
411.95, 7.41, 248.30
412.67, 7.45, 248.36
413.44, 7.51, 248.42
414.56, 7.55, 248.51
415.94, 7.59, 248.62
417.60, 7.63, 248.75
419.81, 7.68, 248.92
422.58, 7.75, 249.13
405.86, 7.23, 247.76
406.07, 7.24, 247.77
406.29, 7.24, 247.79
406.53, 7.25, 247.80
406.78, 7.26, 247.82
407.06, 7.27, 247.84
407.35, 7.28, 247.86
407.67, 7.30, 247.88
408.02, 7.31, 247.90
408.40, 7.32, 247.93
408.82, 7.34, 247.95
409.28, 7.36, 247.98
409.78, 7.37, 248.02
410.35, 7.40, 248.06
410.99, 7.42, 248.10
411.70, 7.45, 248.14
412.52, 7.48, 248.20
413.46, 7.51, 248.26
414.59, 7.55, 248.33
415.97, 7.59, 248.43
¯417.64, 7.63, 248.54
419.86, 7.68, 248.68
422.64, 7.75, 248.86
405.87, 7.23, 247.69
406.08, 7.24, 247.70
406.30, 7.24, 247.71
406.54, 7.25, 247.73
406.79, 7.26, 247.74
407.07, 7.27, 247.76
407.36, 7.28, 247.77
407.68, 7.30, 247.79
408.03, 7.31, 247.81
408.41, 7.32, 247.83
408.83, 7.34, 247.85
409.29, 7.36, 247.88
409.80, 7.38, 247.90
410.36, 7.40, 247.93
411.00, 7.42, 247.97
411.72, 7.45, 248.01
412.54, 7.48, 248.05
413.48, 7.51, 248.10
414.62, 7.55, 248.16
416.00, 7.59, 248.23
417.68, 7.63, 248.32
419.90, 7.68, 248.44
422.70, 7.75, 248.59
405.87, 7.23, 247.62
406.08, 7.24, 247.63
406.30, 7.25, 247.64
406.54, 7.25, 247.65
406.79, 7.26, 247.66
407.07, 7.27, 247.67
407.37, 7.28, 247.69
407.69, 7.30, 247.70
408.04, 7.31, 247.71
408.42, 7.32, 247.73
408.84, 7.34, 247.75
409.30, 7.36, 247.77
409.81, 7.38, 247.79
410.37, 7.40, 247.81
411.01, 7.42, 247.84
411.74, 7.45, 247.87
412.56, 7.48, 247.90
413.51, 7.51, 247.94
414.64, 7.55, 247.99
416.03, 7.59, 248.04
417.71, 7.63, 248.11
419.94, 7.68, 248.20
422.75, 7.75, 248.32
405.87, 7.23, 247.56
406.08, 7.24, 247.56
¯406.31, 7.25, 247.57
406.54, 7.25, 247.58
406.80, 7.26, 247.58
407.08, 7.27, 247.59
407.37, 7.29, 247.60
407.69, 7.30, 247.61
408.04, 7.31, 247.62
408.43, 7.32, 247.63
408.84, 7.34, 247.64
409.31, 7.36, 247.66
409.82, 7.38, 247.67
410.38, 7.40, 247.69
411.03, 7.42, 247.71
411.75, 7.45, 247.73
412.58, 7.48, 247.75
413.53, 7.51, 247.78
414.67, 7.55, 247.81
416.06, 7.59, 247.85
417.75, 7.64, 247.90
419.97, 7.68, 247.96
422.81, 7.75, 248.05
405.88, 7.23, 247.49
406.08, 7.24, 247.49
406.31, 7.25, 247.49
406.55, 7.26, 247.50
406.80, 7.26, 247.50
407.08, 7.27, 247.51
407.38, 7.29, 247.51
407.70, 7.30, 247.52
408.05, 7.31, 247.52
408.43, 7.32, 247.53
408.85, 7.34, 247.54
409.31, 7.36, 247.55
409.82, 7.38, 247.55
410.39, 7.40, 247.56
411.04, 7.42, 247.57
411.76, 7.45, 247.59
412.59, 7.48, 247.60
413.55, 7.51, 247.62
414.69, 7.55, 247.64
416.08, 7.59, 247.66
417.78, 7.64, 247.69
420.01, 7.68, 247.72
422.86, 7.75, 247.77
405.88, 7.23, 247.42
406.09, 7.24, 247.42
406.31, 7.25, 247.42
406.55, 7.26, 247.42
406.80, 7.27, 247.42
407.08, 7.27, 247.42
407.38, 7.29, 247.43
¯407.70, 7.30, 247.43
408.05, 7.31, 247.43
408.44, 7.32, 247.43
408.86, 7.34, 247.43
409.32, 7.36, 247.44
409.83, 7.38, 247.44
410.40, 7.40, 247.44
411.04, 7.42, 247.44
411.77, 7.45, 247.45
412.60, 7.48, 247.45
413.56, 7.51, 247.45
414.71, 7.55, 247.46
416.10, 7.59, 247.47
417.80, 7.64, 247.47
420.04, 7.68, 247.48
422.90, 7.75, 247.50
405.88, 7.23, 247.35
406.09, 7.24, 247.35
406.31, 7.25, 247.35
406.55, 7.26, 247.35
406.81, 7.27, 247.34
407.08, 7.28, 247.34
407.38, 7.29, 247.34
407.71, 7.30, 247.34
408.05, 7.31, 247.33
408.44, 7.32, 247.33
408.86, 7.34, 247.33
409.32, 7.36, 247.32
409.84, 7.38, 247.32
410.41, 7.40, 247.32
411.05, 7.42, 247.31
411.78, 7.45, 247.31
412.62, 7.48, 247.30
413.58, 7.51, 247.29
414.73, 7.55, 247.28
416.12, 7.59, 247.27
417.83, 7.64, 247.26
420.06, 7.68, 247.24
422.95, 7.75, 247.22
405.88, 7.23, 247.28
406.09, 7.24, 247.28
406.31, 7.25, 247.27
406.55, 7.26, 247.27
406.81, 7.27, 247.26
407.08, 7.28, 247.26
407.38, 7.29, 247.25
407.71, 7.30, 247.25
408.06, 7.31, 247.24
408.44, 7.32, 247.23
408.86, 7.34, 247.22
409.33, 7.36, 247.21
¯409.84, 7.38, 247.20
410.41, 7.40, 247.19
411.06, 7.42, 247.18
411.79, 7.45, 247.17
412.63, 7.48, 247.15
413.59, 7.51, 247.13
414.75, 7.55, 247.11
416.14, 7.59, 247.08
417.85, 7.64, 247.04
420.09, 7.68, 247.00
422.99, 7.75, 246.94
405.88, 7.23, 247.21
406.09, 7.24, 247.21
406.31, 7.25, 247.20
406.55, 7.26, 247.19
406.81, 7.27, 247.18
407.08, 7.28, 247.18
407.38, 7.29, 247.17
407.71, 7.30, 247.16
408.06, 7.31, 247.14
408.44, 7.32, 247.13
408.86, 7.34, 247.12
409.33, 7.36, 247.10
409.84, 7.38, 247.09
410.42, 7.40, 247.07
411.06, 7.42, 247.05
411.80, 7.45, 247.02
412.63, 7.48, 247.00
413.60, 7.51, 246.97
414.76, 7.55, 246.93
416.16, 7.59, 246.88
417.87, 7.63, 246.83
420.11, 7.68, 246.76
423.02, 7.75, 246.66
405.88, 7.23, 247.15
406.08, 7.24, 247.14
406.31, 7.25, 247.13
406.55, 7.26, 247.12
406.80, 7.27, 247.11
407.08, 7.28, 247.09
407.38, 7.29, 247.08
407.71, 7.30, 247.07
408.06, 7.31, 247.05
408.44, 7.32, 247.03
408.87, 7.34, 247.01
409.33, 7.36, 246.99
409.84, 7.38, 246.97
410.42, 7.40, 246.94
411.07, 7.42, 246.92
411.80, 7.45, 246.88
412.64, 7.48, 246.85
¯413.61, 7.51, 246.80
414.78, 7.55, 246.75
416.17, 7.59, 246.69
417.89, 7.63, 246.61
420.13, 7.68, 246.51
423.06, 7.75, 246.38
405.87, 7.23, 247.08
406.08, 7.24, 247.07
406.31, 7.25, 247.05
406.55, 7.26, 247.04
406.80, 7.27, 247.03
407.08, 7.28, 247.01
407.38, 7.29, 246.99
407.71, 7.30, 246.97
408.06, 7.31, 246.95
408.44, 7.32, 246.93
408.86, 7.34, 246.91
409.33, 7.36, 246.88
409.84, 7.38, 246.85
410.42, 7.40, 246.82
411.07, 7.42, 246.78
411.81, 7.45, 246.74
412.65, 7.48, 246.69
413.62, 7.51, 246.64
414.79, 7.55, 246.57
416.19, 7.59, 246.49
417.91, 7.63, 246.40
420.15, 7.69, 246.27
423.09, 7.75, 246.10
405.87, 7.23, 247.01
406.08, 7.24, 247.00
406.31, 7.25, 246.98
406.54, 7.26, 246.96
406.80, 7.27, 246.95
407.08, 7.28, 246.93
407.38, 7.29, 246.91
407.70, 7.30, 246.88
408.05, 7.31, 246.86
408.44, 7.32, 246.83
408.86, 7.34, 246.80
409.33, 7.36, 246.77
409.84, 7.38, 246.74
410.42, 7.40, 246.70
411.07, 7.42, 246.65
411.81, 7.45, 246.60
412.65, 7.48, 246.54
413.63, 7.51, 246.48
414.80, 7.54, 246.39
416.19, 7.59, 246.30
417.92, 7.63, 246.18
420.16, 7.69, 246.03
¯423.12, 7.75, 245.82
405.87, 7.23, 246.94
406.08, 7.24, 246.92
406.30, 7.25, 246.91
406.54, 7.26, 246.89
406.80, 7.27, 246.87
407.07, 7.28, 246.84
407.37, 7.29, 246.82
407.70, 7.30, 246.79
408.05, 7.31, 246.76
408.44, 7.32, 246.73
408.86, 7.34, 246.70
409.32, 7.36, 246.66
409.84, 7.38, 246.62
410.42, 7.40, 246.57
411.07, 7.42, 246.52
411.81, 7.45, 246.46
412.65, 7.48, 246.39
413.63, 7.51, 246.31
414.81, 7.54, 246.22
416.20, 7.59, 246.10
417.93, 7.63, 245.96
420.17, 7.69, 245.78
423.14, 7.75, 245.54
405.86, 7.23, 246.87
406.07, 7.24, 246.85
406.30, 7.25, 246.83
406.53, 7.26, 246.81
406.79, 7.27, 246.79
407.07, 7.28, 246.76
407.37, 7.29, 246.73
407.70, 7.30, 246.70
408.05, 7.31, 246.67
408.44, 7.32, 246.63
408.86, 7.34, 246.59
409.32, 7.36, 246.55
409.83, 7.38, 246.50
410.41, 7.40, 246.45
411.06, 7.42, 246.39
411.81, 7.45, 246.32
412.65, 7.48, 246.24
413.64, 7.51, 246.15
414.81, 7.54, 246.04
416.21, 7.59, 245.91
417.94, 7.63, 245.74
420.18, 7.69, 245.53
423.16, 7.75, 245.26
405.86, 7.23, 246.81
406.07, 7.24, 246.78
406.29, 7.25, 246.76
406.53, 7.26, 246.73
¯406.79, 7.27, 246.71
407.06, 7.28, 246.68
407.36, 7.29, 246.65
407.69, 7.30, 246.61
408.04, 7.31, 246.57
408.43, 7.32, 246.53
408.85, 7.34, 246.49
409.32, 7.36, 246.44
409.83, 7.38, 246.38
410.41, 7.40, 246.32
411.06, 7.42, 246.25
411.80, 7.45, 246.18
412.65, 7.47, 246.09
413.64, 7.51, 245.98
414.81, 7.54, 245.86
416.21, 7.59, 245.71
417.94, 7.63, 245.53
420.18, 7.69, 245.29
423.18, 7.75, 244.97
405.85, 7.23, 246.74
406.06, 7.24, 246.71
406.28, 7.25, 246.69
406.52, 7.26, 246.66
406.78, 7.27, 246.63
407.06, 7.28, 246.59
407.35, 7.29, 246.56
407.68, 7.30, 246.52
408.03, 7.31, 246.48
408.42, 7.32, 246.43
408.84, 7.34, 246.38
409.31, 7.36, 246.33
409.82, 7.38, 246.27
410.40, 7.40, 246.20
411.05, 7.42, 246.12
411.80, 7.44, 246.03
412.65, 7.47, 245.93
413.63, 7.51, 245.82
414.81, 7.54, 245.68
416.21, 7.58, 245.51
417.95, 7.63, 245.31
420.18, 7.69, 245.04
423.19, 7.74, 244.69
405.84, 7.23, 246.67
406.05, 7.24, 246.64
406.28, 7.25, 246.61
406.51, 7.26, 246.58
406.77, 7.27, 246.55
407.05, 7.28, 246.51
407.35, 7.29, 246.47
407.68, 7.30, 246.43
408.02, 7.31, 246.38
¯408.42, 7.32, 246.33
408.84, 7.34, 246.28
409.30, 7.36, 246.22
409.82, 7.38, 246.15
410.39, 7.40, 246.07
411.05, 7.42, 245.99
411.79, 7.44, 245.89
412.64, 7.47, 245.78
413.63, 7.51, 245.65
414.81, 7.54, 245.50
416.21, 7.58, 245.31
417.95, 7.63, 245.09
420.18, 7.68, 244.80
423.21, 7.74, 244.40
405.83, 7.24, 246.60
406.04, 7.24, 246.57
406.27, 7.25, 246.54
406.50, 7.26, 246.51
406.76, 7.27, 246.47
407.04, 7.28, 246.43
407.34, 7.29, 246.39
407.67, 7.30, 246.34
408.02, 7.31, 246.29
408.41, 7.32, 246.23
408.83, 7.34, 246.17
409.29, 7.36, 246.11
409.81, 7.38, 246.03
410.38, 7.40, 245.95
411.04, 7.42, 245.86
411.79, 7.44, 245.75
412.64, 7.47, 245.63
413.63, 7.50, 245.49
414.81, 7.54, 245.32
416.21, 7.58, 245.12
417.95, 7.63, 244.87
420.18, 7.68, 244.55
424.92, 7.64, 243.87
405.82, 7.24, 246.53
406.04, 7.24, 246.50
406.26, 7.25, 246.47
406.50, 7.26, 246.43
406.75, 7.27, 246.39
407.03, 7.28, 246.35
407.33, 7.29, 246.30
407.66, 7.30, 246.25
408.01, 7.31, 246.19
408.40, 7.32, 246.13
408.82, 7.34, 246.07
409.28, 7.36, 246.00
409.80, 7.38, 245.92
410.37, 7.40, 245.83
¯411.03, 7.42, 245.72
411.78, 7.44, 245.61
412.63, 7.47, 245.48
413.62, 7.50, 245.32
414.81, 7.54, 245.14
416.20, 7.58, 244.92
417.94, 7.63, 244.65
420.17, 7.68, 244.30
405.81, 7.24, 246.47
406.03, 7.24, 246.43
406.25, 7.25, 246.39
406.49, 7.26, 246.35
406.74, 7.27, 246.31
407.02, 7.28, 246.26
407.32, 7.29, 246.21
407.65, 7.30, 246.16
407.99, 7.31, 246.10
408.39, 7.32, 246.03
408.81, 7.34, 245.96
409.27, 7.36, 245.88
409.78, 7.37, 245.80
410.36, 7.40, 245.70
411.02, 7.42, 245.59
411.77, 7.44, 245.47
412.62, 7.47, 245.32
413.61, 7.50, 245.16
414.80, 7.54, 244.96
416.20, 7.58, 244.72
417.94, 7.63, 244.43
420.16, 7.68, 244.05
405.80, 7.24, 246.40
406.01, 7.24, 246.36
406.24, 7.25, 246.32
406.47, 7.26, 246.28
406.73, 7.27, 246.23
407.01, 7.28, 246.18
407.30, 7.29, 246.13
407.63, 7.30, 246.07
407.98, 7.31, 246.00
408.37, 7.32, 245.93
408.79, 7.34, 245.86
409.26, 7.36, 245.77
409.77, 7.37, 245.68
410.35, 7.40, 245.58
411.00, 7.42, 245.46
411.75, 7.44, 245.32
412.61, 7.47, 245.17
413.60, 7.50, 244.99
414.79, 7.54, 244.77
416.19, 7.58, 244.52
417.93, 7.63, 244.21
¯421.62, 7.57, 243.54
405.79, 7.24, 246.33
406.00, 7.24, 246.29
406.23, 7.25, 246.25
406.46, 7.26, 246.20
406.72, 7.27, 246.15
407.00, 7.28, 246.10
407.29, 7.29, 246.04
407.62, 7.30, 245.98
407.97, 7.31, 245.91
408.36, 7.32, 245.83
408.78, 7.34, 245.75
409.24, 7.35, 245.66
409.76, 7.37, 245.56
410.33, 7.39, 245.45
410.99, 7.42, 245.33
411.74, 7.44, 245.18
412.59, 7.47, 245.02
413.59, 7.50, 244.82
414.78, 7.54, 244.59
416.17, 7.58, 244.32
417.92, 7.63, 243.99
421.60, 7.57, 243.27
405.78, 7.24, 246.26
405.99, 7.24, 246.22
406.21, 7.25, 246.17
406.45, 7.26, 246.13
406.71, 7.27, 246.07
406.98, 7.28, 246.02
407.28, 7.29, 245.95
407.61, 7.30, 245.89
407.95, 7.31, 245.82
408.35, 7.32, 245.73
408.77, 7.34, 245.65
409.23, 7.35, 245.55
409.74, 7.37, 245.45
410.32, 7.39, 245.33
410.97, 7.42, 245.19
411.72, 7.44, 245.04
412.58, 7.47, 244.86
413.57, 7.50, 244.66
414.77, 7.53, 244.41
416.16, 7.58, 244.12
417.90, 7.63, 243.76
421.58, 7.57, 243.01
405.77, 7.24, 246.20
405.98, 7.24, 246.15
406.20, 7.25, 246.10
406.44, 7.26, 246.05
406.69, 7.27, 245.99
406.97, 7.27, 245.93
¯407.26, 7.29, 245.87
407.59, 7.30, 245.80
407.94, 7.31, 245.72
408.33, 7.32, 245.64
408.75, 7.34, 245.54
409.21, 7.35, 245.44
409.72, 7.37, 245.33
410.30, 7.39, 245.20
410.95, 7.42, 245.06
411.71, 7.44, 244.90
412.56, 7.47, 244.71
413.56, 7.50, 244.49
414.75, 7.53, 244.23
416.14, 7.58, 243.93
419.08, 7.52, 243.28
421.56, 7.57, 242.74
405.75, 7.23, 246.13
405.96, 7.24, 246.08
406.19, 7.25, 246.03
406.42, 7.26, 245.97
406.68, 7.27, 245.92
406.95, 7.27, 245.85
407.25, 7.29, 245.78
407.58, 7.29, 245.71
407.92, 7.31, 245.63
408.31, 7.32, 245.54
408.73, 7.34, 245.44
409.19, 7.35, 245.33
409.70, 7.37, 245.21
410.28, 7.39, 245.08
410.93, 7.41, 244.93
411.69, 7.44, 244.75
412.54, 7.47, 244.56
413.54, 7.50, 244.33
414.73, 7.53, 244.05
416.12, 7.58, 243.73
419.07, 7.52, 243.04
421.53, 7.57, 242.47
405.74, 7.23, 246.06
405.95, 7.24, 246.01
406.17, 7.25, 245.96
406.40, 7.26, 245.90
406.66, 7.27, 245.84
406.94, 7.27, 245.77
407.23, 7.29, 245.70
407.56, 7.29, 245.62
407.91, 7.31, 245.53
408.30, 7.32, 245.44
408.71, 7.33, 245.33
409.17, 7.35, 245.22
409.68, 7.37, 245.10
¯410.26, 7.39, 244.96
410.91, 7.41, 244.80
411.67, 7.44, 244.61
412.52, 7.46, 244.40
413.52, 7.50, 244.16
414.71, 7.53, 243.87
416.10, 7.57, 243.53
419.06, 7.52, 242.80
421.50, 7.57, 242.21
405.73, 7.23, 245.99
405.93, 7.24, 245.94
406.16, 7.25, 245.88
406.39, 7.26, 245.82
406.64, 7.26, 245.76
406.92, 7.27, 245.69
407.21, 7.28, 245.61
407.54, 7.29, 245.53
407.89, 7.31, 245.44
408.28, 7.32, 245.34
408.69, 7.33, 245.23
409.15, 7.35, 245.11
409.66, 7.37, 244.98
410.24, 7.39, 244.83
410.89, 7.41, 244.66
411.65, 7.44, 244.47
412.50, 7.46, 244.25
413.49, 7.49, 243.99
414.69, 7.53, 243.69
417.14, 7.47, 243.05
419.05, 7.51, 242.56
421.47, 7.57, 241.94
405.71, 7.23, 245.93
405.92, 7.24, 245.87
406.14, 7.25, 245.81
406.37, 7.26, 245.75
406.63, 7.26, 245.68
406.90, 7.27, 245.61
407.19, 7.28, 245.53
407.52, 7.29, 245.44
407.87, 7.31, 245.34
408.26, 7.32, 245.24
408.67, 7.33, 245.13
409.13, 7.35, 245.00
409.64, 7.37, 244.86
410.21, 7.39, 244.71
410.87, 7.41, 244.53
411.62, 7.43, 244.33
412.48, 7.46, 244.10
413.47, 7.49, 243.83
414.67, 7.53, 243.50
417.11, 7.47, 242.84
¯419.03, 7.51, 242.32
421.44, 7.57, 241.67
405.69, 7.23, 245.86
405.90, 7.24, 245.80
406.12, 7.25, 245.74
406.35, 7.26, 245.67
406.61, 7.26, 245.60
406.88, 7.27, 245.52
407.17, 7.28, 245.44
407.50, 7.29, 245.35
407.85, 7.31, 245.25
408.23, 7.32, 245.14
408.65, 7.33, 245.02
409.11, 7.35, 244.89
409.62, 7.37, 244.75
410.19, 7.39, 244.59
410.84, 7.41, 244.40
411.60, 7.43, 244.19
412.45, 7.46, 243.94
413.44, 7.49, 243.66
414.64, 7.52, 243.32
417.07, 7.46, 242.63
419.01, 7.51, 242.08
421.43, 7.57, 241.39
405.68, 7.23, 245.80
405.88, 7.24, 245.73
406.10, 7.25, 245.67
406.33, 7.26, 245.60
406.59, 7.26, 245.52
406.86, 7.27, 245.44
407.15, 7.28, 245.36
407.48, 7.29, 245.26
407.82, 7.31, 245.16
408.21, 7.32, 245.04
408.63, 7.33, 244.92
409.09, 7.35, 244.78
409.59, 7.37, 244.63
410.16, 7.39, 244.46
410.82, 7.41, 244.27
411.57, 7.43, 244.04
412.43, 7.46, 243.79
413.42, 7.49, 243.50
414.62, 7.52, 243.14
417.03, 7.46, 242.42
418.99, 7.51, 241.84
421.41, 7.56, 241.12
405.66, 7.23, 245.73
405.86, 7.24, 245.67
406.08, 7.25, 245.60
406.31, 7.26, 245.53
406.57, 7.26, 245.45
¯406.84, 7.27, 245.36
407.13, 7.28, 245.27
407.46, 7.29, 245.17
407.80, 7.30, 245.06
408.19, 7.32, 244.94
408.60, 7.33, 244.81
409.06, 7.35, 244.67
409.57, 7.37, 244.52
410.13, 7.39, 244.34
410.79, 7.41, 244.14
411.54, 7.43, 243.90
412.40, 7.46, 243.64
413.39, 7.49, 243.33
415.51, 7.42, 242.67
416.99, 7.46, 242.21
418.96, 7.50, 241.60
421.39, 7.56, 240.85
405.64, 7.23, 245.66
405.84, 7.24, 245.60
406.06, 7.25, 245.53
406.29, 7.26, 245.45
406.55, 7.26, 245.37
406.82, 7.27, 245.28
407.11, 7.28, 245.19
407.43, 7.29, 245.08
407.78, 7.30, 244.97
408.16, 7.32, 244.85
408.58, 7.33, 244.71
409.03, 7.35, 244.56
409.54, 7.37, 244.40
410.10, 7.39, 244.22
410.76, 7.41, 244.00
411.51, 7.43, 243.76
412.37, 7.46, 243.48
413.35, 7.49, 243.16
415.47, 7.41, 242.48
416.96, 7.46, 241.99
418.93, 7.50, 241.36
421.36, 7.56, 240.57
423.74, 7.68, 239.80
405.62, 7.23, 245.60
405.82, 7.24, 245.53
406.04, 7.25, 245.45
406.27, 7.25, 245.38
406.52, 7.26, 245.29
406.80, 7.27, 245.20
407.08, 7.28, 245.10
407.41, 7.29, 244.99
407.75, 7.30, 244.88
408.13, 7.31, 244.75
408.55, 7.33, 244.61
¯409.01, 7.35, 244.45
409.51, 7.36, 244.28
410.07, 7.39, 244.09
410.73, 7.41, 243.87
411.48, 7.43, 243.62
412.33, 7.45, 243.33
413.32, 7.49, 243.00
415.43, 7.41, 242.29
416.93, 7.46, 241.78
418.90, 7.50, 241.12
421.33, 7.55, 240.29
423.47, 7.69, 239.57
405.60, 7.23, 245.53
405.80, 7.24, 245.46
406.02, 7.25, 245.38
406.25, 7.25, 245.30
406.50, 7.26, 245.22
406.77, 7.27, 245.12
407.06, 7.28, 245.02
407.38, 7.29, 244.91
407.73, 7.30, 244.78
408.11, 7.31, 244.65
408.52, 7.33, 244.50
408.98, 7.34, 244.35
409.48, 7.36, 244.17
410.04, 7.38, 243.97
410.69, 7.40, 243.74
411.44, 7.43, 243.48
412.30, 7.45, 243.18
414.18, 7.37, 242.52
415.39, 7.41, 242.09
416.90, 7.45, 241.56
418.85, 7.50, 240.88
421.28, 7.55, 240.03
423.21, 7.70, 239.35
405.58, 7.23, 245.47
405.78, 7.24, 245.39
406.00, 7.24, 245.31
406.23, 7.25, 245.23
406.47, 7.26, 245.14
406.75, 7.27, 245.04
407.03, 7.28, 244.93
407.35, 7.29, 244.82
407.70, 7.30, 244.69
408.08, 7.31, 244.55
408.49, 7.33, 244.40
408.95, 7.34, 244.24
409.45, 7.36, 244.05
410.01, 7.38, 243.85
410.66, 7.40, 243.61
411.41, 7.43, 243.34
¯412.26, 7.45, 243.03
414.15, 7.37, 242.34
415.34, 7.41, 241.90
416.86, 7.45, 241.35
418.79, 7.49, 240.64
421.21, 7.55, 239.76
422.96, 7.71, 239.12
405.55, 7.23, 245.40
405.76, 7.24, 245.32
405.97, 7.24, 245.24
406.20, 7.25, 245.16
406.45, 7.26, 245.06
406.72, 7.27, 244.96
407.01, 7.28, 244.85
407.33, 7.29, 244.73
407.67, 7.30, 244.60
408.05, 7.31, 244.46
408.46, 7.33, 244.30
408.91, 7.34, 244.13
409.41, 7.36, 243.94
409.97, 7.38, 243.73
410.62, 7.40, 243.48
411.37, 7.42, 243.20
412.22, 7.45, 242.88
414.11, 7.36, 242.16
415.29, 7.41, 241.71
416.82, 7.45, 241.13
418.74, 7.49, 240.41
421.14, 7.55, 239.50
422.70, 7.72, 238.91
405.53, 7.23, 245.34
405.73, 7.24, 245.26
405.95, 7.24, 245.17
406.18, 7.25, 245.08
406.42, 7.26, 244.99
406.69, 7.27, 244.88
406.98, 7.28, 244.77
407.30, 7.29, 244.64
407.64, 7.30, 244.51
408.02, 7.31, 244.36
408.43, 7.32, 244.20
408.88, 7.34, 244.02
409.38, 7.36, 243.82
409.94, 7.38, 243.61
410.58, 7.40, 243.35
411.33, 7.42, 243.06
412.98, 7.33, 242.41
414.06, 7.36, 241.99
415.24, 7.41, 241.52
416.78, 7.44, 240.92
418.67, 7.49, 240.17
¯420.99, 7.55, 239.26
422.45, 7.73, 238.69
405.51, 7.23, 245.27
405.71, 7.24, 245.19
405.92, 7.24, 245.10
406.15, 7.25, 245.01
406.40, 7.26, 244.91
406.66, 7.27, 244.80
406.95, 7.28, 244.68
407.27, 7.29, 244.56
407.61, 7.30, 244.42
407.98, 7.31, 244.26
408.40, 7.32, 244.10
408.85, 7.34, 243.91
409.34, 7.36, 243.71
409.90, 7.38, 243.48
410.54, 7.40, 243.22
411.28, 7.42, 242.92
412.94, 7.33, 242.25
414.01, 7.36, 241.81
415.20, 7.40, 241.33
416.74, 7.44, 240.70
418.59, 7.49, 239.95
420.84, 7.56, 239.03
422.19, 7.74, 238.48
423.19, 7.98, 238.07
405.48, 7.23, 245.21
405.68, 7.24, 245.12
405.90, 7.24, 245.03
406.12, 7.25, 244.94
406.37, 7.26, 244.83
406.64, 7.27, 244.72
406.92, 7.28, 244.60
407.23, 7.29, 244.47
407.58, 7.30, 244.32
407.95, 7.31, 244.17
408.36, 7.32, 243.99
408.81, 7.34, 243.81
409.31, 7.36, 243.60
409.86, 7.38, 243.36
410.50, 7.40, 243.09
411.24, 7.42, 242.78
412.89, 7.33, 242.09
413.95, 7.36, 241.64
415.15, 7.40, 241.13
416.69, 7.44, 240.48
418.51, 7.49, 239.72
420.69, 7.56, 238.80
421.93, 7.75, 238.28
422.71, 8.00, 237.95
405.46, 7.23, 245.14
¯405.66, 7.24, 245.06
405.87, 7.24, 244.96
406.10, 7.25, 244.87
406.34, 7.26, 244.76
406.61, 7.27, 244.64
406.89, 7.28, 244.52
407.20, 7.29, 244.38
407.55, 7.30, 244.23
407.92, 7.31, 244.07
408.33, 7.32, 243.89
408.77, 7.34, 243.70
409.27, 7.36, 243.48
409.82, 7.38, 243.24
410.46, 7.40, 242.96
411.93, 7.30, 242.32
412.84, 7.33, 241.93
413.90, 7.36, 241.47
415.10, 7.40, 240.94
416.65, 7.43, 240.27
418.42, 7.49, 239.49
420.54, 7.57, 238.57
421.72, 7.76, 238.06
422.23, 8.02, 237.83
423.03, 8.29, 237.49
405.43, 7.23, 245.08
405.63, 7.24, 244.99
405.84, 7.24, 244.90
406.07, 7.25, 244.79
406.31, 7.26, 244.68
406.57, 7.27, 244.57
406.86, 7.28, 244.44
407.17, 7.28, 244.30
407.51, 7.29, 244.14
407.88, 7.31, 243.98
408.29, 7.32, 243.79
408.74, 7.34, 243.59
409.23, 7.35, 243.37
409.78, 7.37, 243.12
410.41, 7.40, 242.84
411.88, 7.30, 242.18
412.78, 7.33, 241.77
413.84, 7.35, 241.29
415.05, 7.39, 240.74
416.58, 7.43, 240.06
418.33, 7.49, 239.27
420.38, 7.57, 238.34
421.54, 7.77, 237.83
421.83, 8.04, 237.69
422.54, 8.30, 237.38
405.41, 7.23, 245.02
405.60, 7.24, 244.93
¯405.81, 7.24, 244.83
406.04, 7.25, 244.72
406.28, 7.26, 244.61
406.54, 7.27, 244.49
406.83, 7.27, 244.36
407.13, 7.28, 244.21
407.47, 7.29, 244.05
407.84, 7.31, 243.88
408.25, 7.32, 243.69
408.70, 7.33, 243.48
409.19, 7.35, 243.26
409.74, 7.37, 243.00
411.04, 7.28, 242.40
411.83, 7.30, 242.03
412.73, 7.32, 241.61
413.78, 7.35, 241.12
415.00, 7.39, 240.55
416.51, 7.43, 239.85
418.24, 7.49, 239.04
420.32, 7.57, 238.08
421.35, 7.77, 237.60
421.65, 8.04, 237.46
422.06, 8.31, 237.27
422.74, 8.59, 236.95
405.38, 7.23, 244.95
405.57, 7.23, 244.86
405.78, 7.24, 244.76
406.01, 7.25, 244.65
406.25, 7.26, 244.54
406.51, 7.26, 244.41
406.79, 7.27, 244.27
407.10, 7.28, 244.13
407.44, 7.29, 243.96
407.80, 7.30, 243.79
408.21, 7.32, 243.59
408.66, 7.33, 243.38
409.14, 7.35, 243.14
409.69, 7.37, 242.88
410.98, 7.27, 242.26
411.78, 7.29, 241.88
412.67, 7.32, 241.45
413.72, 7.35, 240.95
414.95, 7.39, 240.36
416.44, 7.43, 239.64
418.15, 7.49, 238.82
420.29, 7.56, 237.79
421.17, 7.78, 237.37
421.46, 8.05, 237.23
421.76, 8.32, 237.09
422.36, 8.60, 236.80
405.35, 7.23, 244.89
¯405.54, 7.23, 244.79
405.75, 7.24, 244.69
405.98, 7.25, 244.58
406.21, 7.26, 244.46
406.47, 7.26, 244.33
406.76, 7.27, 244.19
407.06, 7.28, 244.04
407.40, 7.29, 243.87
407.77, 7.30, 243.69
408.17, 7.32, 243.49
408.61, 7.33, 243.27
409.10, 7.35, 243.03
409.64, 7.37, 242.76
410.93, 7.27, 242.12
411.73, 7.29, 241.73
412.61, 7.32, 241.30
413.65, 7.35, 240.78
414.89, 7.38, 240.17
416.37, 7.43, 239.43
418.05, 7.49, 238.60
420.25, 7.56, 237.51
421.00, 7.78, 237.14
421.28, 8.05, 237.00
421.58, 8.32, 236.85
421.89, 8.61, 236.70
422.45, 8.90, 236.42
405.32, 7.23, 244.83
405.51, 7.23, 244.73
405.72, 7.24, 244.62
405.94, 7.25, 244.51
406.18, 7.26, 244.39
406.44, 7.26, 244.26
406.72, 7.27, 244.11
407.02, 7.28, 243.96
407.36, 7.29, 243.79
407.72, 7.30, 243.60
408.13, 7.31, 243.39
408.57, 7.33, 243.17
409.06, 7.35, 242.92
410.20, 7.25, 242.34
410.88, 7.27, 241.99
411.67, 7.29, 241.58
412.54, 7.32, 241.14
413.59, 7.35, 240.61
414.82, 7.38, 239.98
416.29, 7.42, 239.22
417.96, 7.49, 238.37
420.22, 7.55, 237.22
420.82, 7.78, 236.91
421.10, 8.05, 236.77
421.39, 8.33, 236.62
¯421.69, 8.61, 236.47
422.10, 8.90, 236.26
405.29, 7.23, 244.76
405.48, 7.23, 244.66
405.69, 7.24, 244.56
405.91, 7.25, 244.44
406.15, 7.25, 244.32
406.40, 7.26, 244.18
406.68, 7.27, 244.03
406.99, 7.28, 243.87
407.32, 7.29, 243.70
407.68, 7.30, 243.51
408.09, 7.31, 243.29
408.53, 7.33, 243.06
409.01, 7.35, 242.81
410.14, 7.25, 242.21
410.83, 7.27, 241.85
411.61, 7.29, 241.44
412.48, 7.32, 240.98
413.52, 7.35, 240.44
414.74, 7.38, 239.79
416.21, 7.42, 239.02
417.83, 7.49, 238.17
420.18, 7.54, 236.93
420.64, 7.79, 236.69
420.92, 8.05, 236.54
421.21, 8.33, 236.39
421.55, 8.61, 236.21
421.84, 8.90, 236.06
422.37, 9.20, 235.78
405.26, 7.23, 244.70
405.45, 7.23, 244.60
405.66, 7.24, 244.49
405.88, 7.24, 244.37
406.11, 7.25, 244.24
406.37, 7.26, 244.10
406.65, 7.27, 243.95
406.95, 7.28, 243.79
407.28, 7.29, 243.61
407.64, 7.30, 243.41
408.04, 7.31, 243.20
408.48, 7.33, 242.96
408.96, 7.34, 242.70
410.09, 7.25, 242.09
410.78, 7.26, 241.71
411.55, 7.29, 241.29
412.41, 7.31, 240.83
413.45, 7.34, 240.27
414.67, 7.38, 239.61
416.13, 7.42, 238.81
417.70, 7.49, 237.96
¯420.14, 7.54, 236.64
420.46, 7.79, 236.47
420.74, 8.06, 236.31
421.10, 8.33, 236.12
421.47, 8.61, 235.92
421.71, 8.90, 235.79
422.06, 9.20, 235.60
405.23, 7.22, 244.64
405.42, 7.23, 244.54
405.62, 7.24, 244.42
405.84, 7.24, 244.30
406.07, 7.25, 244.17
406.33, 7.26, 244.03
406.61, 7.27, 243.87
406.91, 7.28, 243.71
407.24, 7.29, 243.52
407.60, 7.30, 243.32
408.00, 7.31, 243.10
408.43, 7.32, 242.85
409.47, 7.23, 242.28
410.04, 7.25, 241.96
410.73, 7.26, 241.57
411.49, 7.28, 241.15
412.35, 7.31, 240.67
413.37, 7.34, 240.10
414.59, 7.38, 239.42
416.05, 7.42, 238.61
417.58, 7.49, 237.75
418.13, 7.69, 237.45
418.13, 7.94, 237.45
418.13, 8.19, 237.45
421.02, 8.33, 235.83
421.34, 8.61, 235.65
421.58, 8.90, 235.52
421.82, 9.20, 235.39
405.20, 7.22, 244.58
405.38, 7.23, 244.47
405.59, 7.24, 244.36
405.81, 7.24, 244.23
406.04, 7.25, 244.10
406.29, 7.26, 243.95
406.57, 7.27, 243.79
406.86, 7.28, 243.62
407.19, 7.29, 243.44
407.55, 7.30, 243.23
407.95, 7.31, 243.00
408.39, 7.32, 242.75
409.41, 7.22, 242.16
409.99, 7.24, 241.83
410.67, 7.26, 241.44
411.43, 7.28, 241.00
¯412.28, 7.31, 240.52
413.30, 7.34, 239.93
414.51, 7.37, 239.24
415.96, 7.41, 238.40
417.46, 7.49, 237.54
418.10, 7.68, 237.17
418.06, 7.94, 237.20
418.02, 8.19, 237.22
420.95, 8.32, 235.54
421.21, 8.61, 235.39
421.45, 8.90, 235.25
421.69, 9.20, 235.11
405.17, 7.22, 244.52
405.35, 7.23, 244.41
405.55, 7.24, 244.29
405.77, 7.24, 244.16
406.00, 7.25, 244.03
406.25, 7.26, 243.88
406.53, 7.27, 243.72
406.82, 7.28, 243.54
407.15, 7.29, 243.35
407.51, 7.30, 243.14
407.90, 7.31, 242.90
408.85, 7.20, 242.34
409.36, 7.22, 242.04
409.93, 7.24, 241.71
410.61, 7.26, 241.30
411.37, 7.28, 240.86
412.20, 7.31, 240.36
413.22, 7.34, 239.76
414.43, 7.37, 239.05
415.82, 7.42, 238.23
417.33, 7.49, 237.34
418.30, 7.66, 236.76
418.26, 7.92, 236.79
418.22, 8.17, 236.82
420.85, 8.32, 235.26
421.08, 8.61, 235.12
421.32, 8.90, 234.98
421.56, 9.20, 234.84
405.13, 7.22, 244.46
405.31, 7.23, 244.35
405.52, 7.24, 244.23
405.73, 7.24, 244.09
405.96, 7.25, 243.95
406.21, 7.26, 243.80
406.48, 7.27, 243.64
406.78, 7.27, 243.46
407.10, 7.28, 243.26
407.46, 7.29, 243.05
407.85, 7.31, 242.81
¯408.80, 7.20, 242.23
409.30, 7.22, 241.93
409.88, 7.24, 241.58
410.55, 7.25, 241.17
411.30, 7.28, 240.72
412.13, 7.31, 240.21
413.14, 7.34, 239.60
414.34, 7.37, 238.87
415.61, 7.43, 238.10
417.20, 7.49, 237.13
419.34, 7.56, 235.84
418.47, 7.89, 236.37
418.42, 8.16, 236.39
420.72, 8.32, 235.00
420.95, 8.61, 234.86
421.19, 8.90, 234.71
421.43, 9.20, 234.57
405.10, 7.22, 244.40
405.28, 7.23, 244.28
405.48, 7.23, 244.16
405.69, 7.24, 244.03
405.92, 7.25, 243.88
406.17, 7.26, 243.73
406.44, 7.26, 243.56
406.73, 7.27, 243.38
407.06, 7.28, 243.18
407.41, 7.29, 242.96
407.80, 7.30, 242.71
408.75, 7.20, 242.12
409.24, 7.22, 241.81
409.82, 7.24, 241.45
410.49, 7.25, 241.03
411.23, 7.27, 240.57
412.06, 7.30, 240.06
413.06, 7.33, 239.43
414.25, 7.37, 238.69
415.40, 7.44, 237.97
417.07, 7.49, 236.93
419.05, 7.57, 235.69
420.01, 7.77, 235.10
420.35, 8.04, 234.88
420.59, 8.32, 234.73
420.82, 8.61, 234.59
421.05, 8.90, 234.44
421.36, 9.20, 234.25
405.06, 7.22, 244.34
405.24, 7.23, 244.22
405.44, 7.23, 244.10
405.65, 7.24, 243.96
405.88, 7.25, 243.81
406.13, 7.26, 243.66
¯406.40, 7.26, 243.48
406.69, 7.27, 243.30
407.01, 7.28, 243.09
407.36, 7.29, 242.87
408.24, 7.18, 242.30
408.69, 7.20, 242.01
409.19, 7.21, 241.70
409.76, 7.23, 241.33
410.43, 7.25, 240.90
411.16, 7.27, 240.43
411.98, 7.30, 239.90
412.98, 7.33, 239.27
414.17, 7.36, 238.51
415.19, 7.45, 237.85
416.81, 7.51, 236.81
416.81, 7.75, 236.81
416.81, 7.99, 236.81
416.81, 8.23, 236.81
420.46, 8.32, 234.47
420.74, 8.60, 234.29
421.10, 8.90, 234.06
405.03, 7.22, 244.28
405.21, 7.23, 244.16
405.40, 7.23, 244.03
405.61, 7.24, 243.89
405.84, 7.25, 243.74
406.08, 7.25, 243.58
406.35, 7.26, 243.41
406.64, 7.27, 243.22
406.96, 7.28, 243.01
407.31, 7.29, 242.78
408.19, 7.18, 242.20
408.63, 7.19, 241.91
409.12, 7.21, 241.58
409.70, 7.23, 241.21
410.36, 7.24, 240.77
411.09, 7.27, 240.29
411.91, 7.30, 239.75
412.89, 7.33, 239.10
414.07, 7.36, 238.32
414.99, 7.46, 237.72
416.02, 7.57, 237.04
416.02, 7.80, 237.04
416.02, 8.04, 237.04
416.74, 8.23, 236.57
420.48, 8.31, 234.11
420.84, 8.60, 233.87
404.99, 7.22, 244.22
405.17, 7.23, 244.10
405.36, 7.23, 243.97
405.57, 7.24, 243.83
¯405.80, 7.24, 243.67
406.04, 7.25, 243.51
406.31, 7.26, 243.33
406.59, 7.27, 243.14
406.91, 7.28, 242.92
407.72, 7.16, 242.38
408.13, 7.18, 242.10
408.57, 7.19, 241.80
409.06, 7.21, 241.47
409.63, 7.23, 241.08
410.30, 7.24, 240.63
411.02, 7.27, 240.15
411.83, 7.30, 239.60
412.81, 7.33, 238.94
413.91, 7.37, 238.19
414.78, 7.47, 237.60
416.06, 7.56, 236.74
416.06, 7.79, 236.74
416.06, 8.02, 236.74
416.94, 8.21, 236.14
420.58, 8.30, 233.68
404.95, 7.22, 244.16
405.13, 7.22, 244.04
405.32, 7.23, 243.91
405.53, 7.24, 243.76
405.75, 7.24, 243.61
405.99, 7.25, 243.44
406.26, 7.26, 243.26
406.55, 7.27, 243.06
406.86, 7.28, 242.84
407.66, 7.16, 242.28
408.07, 7.17, 242.00
408.51, 7.19, 241.69
409.00, 7.21, 241.35
409.57, 7.22, 240.96
410.23, 7.24, 240.50
410.94, 7.26, 240.01
411.75, 7.29, 239.45
412.72, 7.32, 238.77
413.73, 7.38, 238.07
414.57, 7.48, 237.49
416.10, 7.54, 236.43
416.10, 7.77, 236.43
416.10, 8.01, 236.43
418.77, 8.09, 234.57
420.68, 8.29, 233.25
404.91, 7.22, 244.11
405.09, 7.22, 243.98
405.28, 7.23, 243.84
405.49, 7.24, 243.70
405.71, 7.24, 243.54
¯405.95, 7.25, 243.37
406.21, 7.26, 243.18
406.49, 7.27, 242.98
406.81, 7.28, 242.76
407.61, 7.16, 242.19
408.01, 7.17, 241.90
408.45, 7.19, 241.59
408.93, 7.21, 241.24
409.50, 7.22, 240.84
410.16, 7.23, 240.37
410.87, 7.26, 239.87
411.67, 7.29, 239.29
412.63, 7.32, 238.61
413.54, 7.39, 237.96
414.37, 7.49, 237.37
416.11, 7.52, 236.13
416.14, 7.76, 236.11
416.14, 8.00, 236.11
418.67, 8.09, 234.31
404.87, 7.22, 244.05
405.05, 7.22, 243.92
405.24, 7.23, 243.78
405.44, 7.24, 243.63
405.67, 7.24, 243.47
405.90, 7.25, 243.30
406.16, 7.26, 243.11
406.44, 7.27, 242.90
407.18, 7.15, 242.36
407.55, 7.16, 242.09
407.95, 7.17, 241.80
408.39, 7.19, 241.48
408.87, 7.20, 241.13
409.43, 7.22, 240.72
410.09, 7.23, 240.24
410.79, 7.26, 239.73
411.59, 7.29, 239.14
412.53, 7.32, 238.45
413.36, 7.39, 237.85
414.17, 7.50, 237.26
415.91, 7.53, 235.99
416.14, 7.75, 235.82
416.14, 7.99, 235.82
417.50, 8.15, 234.82
404.83, 7.22, 243.99
405.01, 7.22, 243.86
405.20, 7.23, 243.72
405.40, 7.23, 243.57
405.62, 7.24, 243.40
405.85, 7.25, 243.23
406.11, 7.26, 243.03
406.39, 7.26, 242.82
¯407.13, 7.15, 242.27
407.49, 7.16, 242.00
407.89, 7.17, 241.70
408.32, 7.18, 241.38
408.80, 7.20, 241.02
409.37, 7.21, 240.60
410.01, 7.23, 240.11
410.71, 7.25, 239.59
411.50, 7.28, 238.99
412.44, 7.32, 238.29
413.18, 7.40, 237.74
413.97, 7.51, 237.15
414.51, 7.66, 236.74
414.51, 7.88, 236.74
414.51, 8.10, 236.74
417.34, 8.15, 234.62
418.69, 8.35, 233.60
418.58, 8.63, 233.68
418.61, 8.91, 233.66
418.64, 9.19, 233.64
418.67, 9.47, 233.62
418.69, 9.76, 233.60
404.79, 7.22, 243.94
404.97, 7.22, 243.80
405.15, 7.23, 243.66
405.36, 7.23, 243.50
405.57, 7.24, 243.34
405.81, 7.25, 243.16
406.06, 7.26, 242.96
406.74, 7.14, 242.44
407.07, 7.15, 242.19
407.43, 7.16, 241.91
407.82, 7.17, 241.61
408.26, 7.18, 241.27
408.73, 7.20, 240.91
409.29, 7.21, 240.48
409.93, 7.23, 239.99
410.63, 7.25, 239.45
411.41, 7.28, 238.85
412.27, 7.32, 238.18
413.00, 7.41, 237.63
413.77, 7.51, 237.03
414.56, 7.64, 236.42
414.56, 7.86, 236.42
414.56, 8.08, 236.42
417.17, 8.15, 234.42
418.65, 8.34, 233.28
418.54, 8.63, 233.36
418.57, 8.91, 233.34
418.59, 9.19, 233.32
418.62, 9.48, 233.30
¯418.65, 9.76, 233.27
404.75, 7.21, 243.88
404.93, 7.22, 243.74
405.11, 7.23, 243.60
405.31, 7.23, 243.44
405.53, 7.24, 243.27
405.76, 7.25, 243.09
406.01, 7.25, 242.89
406.69, 7.14, 242.36
407.01, 7.14, 242.10
407.36, 7.15, 241.82
407.76, 7.17, 241.51
408.19, 7.18, 241.17
408.66, 7.20, 240.80
409.22, 7.21, 240.36
409.85, 7.22, 239.86
410.54, 7.25, 239.31
411.33, 7.28, 238.70
412.11, 7.33, 238.08
412.82, 7.42, 237.52
413.58, 7.52, 236.92
414.64, 7.62, 236.08
414.65, 7.84, 236.08
414.65, 8.07, 236.08
418.57, 8.05, 232.98
418.60, 8.34, 232.96
418.49, 8.62, 233.04
418.52, 8.91, 233.02
418.55, 9.19, 232.99
418.58, 9.48, 232.97
418.61, 9.76, 232.95
404.71, 7.21, 243.82
404.88, 7.22, 243.68
405.07, 7.23, 243.54
405.26, 7.23, 243.38
405.48, 7.24, 243.20
405.71, 7.24, 243.02
405.96, 7.25, 242.82
406.63, 7.13, 242.27
406.95, 7.14, 242.02
407.30, 7.15, 241.73
407.69, 7.16, 241.42
408.12, 7.18, 241.07
408.59, 7.19, 240.69
409.15, 7.20, 240.24
409.76, 7.22, 239.74
410.46, 7.24, 239.18
411.24, 7.27, 238.55
411.98, 7.33, 237.95
412.64, 7.43, 237.42
413.39, 7.53, 236.81
¯414.73, 7.59, 235.72
414.73, 7.82, 235.72
414.73, 8.05, 235.72
416.90, 8.14, 233.96
416.93, 8.40, 233.94
416.82, 8.67, 234.03
416.84, 8.93, 234.01
416.87, 9.19, 233.99
416.89, 9.45, 233.97
416.92, 9.71, 233.94
404.67, 7.21, 243.77
404.84, 7.22, 243.63
405.02, 7.22, 243.48
405.22, 7.23, 243.31
405.43, 7.24, 243.14
405.66, 7.24, 242.95
406.28, 7.12, 242.43
406.57, 7.13, 242.19
406.89, 7.14, 241.93
407.24, 7.15, 241.64
407.62, 7.16, 241.32
408.05, 7.17, 240.97
408.52, 7.19, 240.58
409.07, 7.20, 240.12
409.68, 7.22, 239.62
410.37, 7.24, 239.04
411.14, 7.27, 238.40
411.86, 7.33, 237.81
412.46, 7.43, 237.31
413.20, 7.54, 236.70
415.07, 7.54, 235.14
416.80, 7.61, 233.72
416.82, 7.87, 233.69
416.85, 8.14, 233.67
416.29, 8.42, 234.13
416.76, 8.66, 233.74
416.79, 8.93, 233.72
416.81, 9.19, 233.69
416.84, 9.45, 233.67
416.86, 9.72, 233.65
404.62, 7.21, 243.72
404.79, 7.22, 243.57
404.97, 7.22, 243.42
405.17, 7.23, 243.25
405.38, 7.24, 243.08
405.60, 7.24, 242.88
406.22, 7.12, 242.36
406.51, 7.13, 242.11
406.82, 7.14, 241.85
407.17, 7.15, 241.55
407.55, 7.16, 241.23
¯407.98, 7.17, 240.87
408.44, 7.19, 240.47
408.99, 7.20, 240.01
409.59, 7.22, 239.49
410.28, 7.24, 238.91
411.05, 7.27, 238.26
411.73, 7.33, 237.68
412.28, 7.44, 237.21
413.01, 7.54, 236.59
414.90, 7.54, 234.98
416.74, 7.60, 233.42
416.76, 7.86, 233.40
416.79, 8.13, 233.38
415.78, 8.44, 234.23
416.71, 8.66, 233.44
416.73, 8.92, 233.42
416.76, 9.19, 233.40
416.78, 9.45, 233.38
416.81, 9.72, 233.35
404.58, 7.21, 243.66
404.75, 7.22, 243.52
404.93, 7.22, 243.36
405.12, 7.23, 243.19
405.33, 7.23, 243.01
405.90, 7.11, 242.51
406.16, 7.12, 242.28
406.45, 7.13, 242.03
406.76, 7.14, 241.76
407.10, 7.15, 241.46
407.48, 7.16, 241.13
407.90, 7.17, 240.77
408.37, 7.18, 240.36
408.90, 7.20, 239.90
409.50, 7.21, 239.37
410.19, 7.23, 238.77
410.93, 7.27, 238.13
411.60, 7.33, 237.55
412.10, 7.45, 237.11
412.82, 7.55, 236.49
414.73, 7.54, 234.82
415.39, 7.71, 234.24
415.39, 7.96, 234.24
415.39, 8.20, 234.24
415.39, 8.45, 234.24
415.39, 8.69, 234.24
415.39, 8.94, 234.24
415.39, 9.19, 234.24
415.39, 9.43, 234.24
415.39, 9.68, 234.23
404.53, 7.21, 243.61
404.70, 7.22, 243.46
¯404.88, 7.22, 243.30
405.07, 7.23, 243.13
405.27, 7.23, 242.95
405.85, 7.11, 242.44
406.10, 7.12, 242.21
406.39, 7.13, 241.96
406.70, 7.14, 241.68
407.03, 7.15, 241.38
407.41, 7.16, 241.04
407.83, 7.17, 240.67
408.29, 7.18, 240.25
408.82, 7.20, 239.79
409.42, 7.21, 239.25
410.10, 7.23, 238.64
410.81, 7.27, 238.01
411.47, 7.33, 237.41
411.97, 7.45, 236.97
412.63, 7.56, 236.39
413.43, 7.67, 235.66
413.45, 7.88, 235.65
413.47, 8.10, 235.63
413.49, 8.31, 235.61
414.83, 8.47, 234.42
414.98, 8.70, 234.28
415.00, 8.94, 234.26
415.02, 9.18, 234.24
415.05, 9.43, 234.22
415.07, 9.67, 234.19
404.49, 7.21, 243.56
404.65, 7.21, 243.41
404.83, 7.22, 243.24
405.02, 7.23, 243.07
405.22, 7.23, 242.89
405.79, 7.11, 242.37
406.04, 7.12, 242.14
406.32, 7.13, 241.88
406.63, 7.13, 241.60
406.97, 7.14, 241.29
407.34, 7.15, 240.95
407.75, 7.17, 240.57
408.21, 7.18, 240.15
408.73, 7.19, 239.67
409.32, 7.21, 239.13
410.00, 7.23, 238.52
410.69, 7.27, 237.89
411.35, 7.33, 237.28
411.83, 7.45, 236.84
412.47, 7.56, 236.25
413.38, 7.66, 235.42
413.40, 7.87, 235.40
413.42, 8.09, 235.38
¯413.44, 8.31, 235.36
414.38, 8.48, 234.50
414.92, 8.70, 234.00
414.95, 8.94, 233.98
414.97, 9.18, 233.96
414.99, 9.43, 233.94
415.01, 9.67, 233.91
404.44, 7.21, 243.50
404.61, 7.21, 243.35
404.78, 7.22, 243.19
404.97, 7.22, 243.01
405.50, 7.10, 242.52
405.73, 7.11, 242.30
405.98, 7.12, 242.06
406.26, 7.12, 241.80
406.56, 7.13, 241.52
406.90, 7.14, 241.21
407.26, 7.15, 240.86
407.67, 7.16, 240.48
408.13, 7.18, 240.05
408.65, 7.19, 239.56
409.23, 7.21, 239.02
409.90, 7.23, 238.39
410.57, 7.27, 237.76
411.22, 7.33, 237.15
411.70, 7.45, 236.70
412.37, 7.55, 236.07
413.33, 7.64, 235.17
413.35, 7.86, 235.15
413.37, 8.08, 235.13
413.39, 8.30, 235.11
413.95, 8.49, 234.59
414.87, 8.69, 233.72
414.89, 8.94, 233.70
414.91, 9.18, 233.68
414.94, 9.43, 233.65
414.96, 9.67, 233.63
404.40, 7.21, 243.45
404.56, 7.21, 243.30
404.73, 7.22, 243.13
404.92, 7.22, 242.95
405.44, 7.10, 242.45
405.67, 7.11, 242.23
405.92, 7.12, 241.99
406.19, 7.12, 241.73
406.49, 7.13, 241.44
406.82, 7.14, 241.12
407.19, 7.15, 240.77
407.59, 7.16, 240.38
408.04, 7.18, 239.95
408.56, 7.19, 239.46
¯409.14, 7.20, 238.90
409.80, 7.22, 238.26
410.44, 7.27, 237.64
411.09, 7.33, 237.03
411.56, 7.45, 236.57
411.70, 7.62, 236.43
411.70, 7.82, 236.43
411.72, 8.01, 236.41
411.74, 8.20, 236.39
411.76, 8.40, 236.37
413.57, 8.50, 234.63
413.57, 8.73, 234.63
413.57, 8.95, 234.63
413.57, 9.18, 234.63
413.57, 9.41, 234.62
413.57, 9.63, 234.62
404.35, 7.21, 243.40
404.51, 7.21, 243.24
404.68, 7.22, 243.08
405.17, 7.09, 242.60
405.38, 7.10, 242.39
405.61, 7.11, 242.16
405.85, 7.11, 241.92
406.13, 7.12, 241.65
406.43, 7.13, 241.36
406.75, 7.14, 241.04
407.11, 7.15, 240.68
407.51, 7.16, 240.29
407.95, 7.17, 239.85
408.47, 7.19, 239.35
409.04, 7.20, 238.78
409.71, 7.22, 238.12
410.32, 7.27, 237.52
410.96, 7.33, 236.90
411.42, 7.45, 236.44
411.64, 7.61, 236.22
411.66, 7.81, 236.20
411.68, 8.00, 236.18
411.69, 8.20, 236.16
411.71, 8.39, 236.15
413.52, 8.50, 234.36
413.52, 8.72, 234.36
413.52, 8.95, 234.36
413.52, 9.18, 234.36
413.52, 9.41, 234.36
413.52, 9.63, 234.36
404.30, 7.21, 243.35
404.46, 7.21, 243.19
404.63, 7.22, 243.02
405.11, 7.09, 242.53
405.32, 7.10, 242.32
¯405.55, 7.10, 242.10
405.79, 7.11, 241.85
406.06, 7.12, 241.58
406.36, 7.13, 241.28
406.68, 7.14, 240.95
407.04, 7.15, 240.59
407.43, 7.16, 240.19
407.87, 7.17, 239.76
408.38, 7.18, 239.24
408.94, 7.20, 238.67
409.62, 7.21, 237.99
410.20, 7.27, 237.40
410.82, 7.33, 236.77
411.30, 7.45, 236.29
411.59, 7.60, 235.99
411.61, 7.79, 235.97
411.63, 7.99, 235.95
411.65, 8.19, 235.93
411.67, 8.38, 235.91
413.05, 8.51, 234.52
413.15, 8.73, 234.41
413.17, 8.95, 234.39
413.19, 9.18, 234.37
413.21, 9.40, 234.34
413.23, 9.63, 234.32
404.25, 7.21, 243.30
404.41, 7.21, 243.14
404.58, 7.21, 242.97
405.06, 7.09, 242.47
405.26, 7.10, 242.26
405.48, 7.10, 242.03
405.72, 7.11, 241.79
405.99, 7.12, 241.51
406.28, 7.12, 241.20
406.60, 7.13, 240.87
406.96, 7.14, 240.51
407.35, 7.16, 240.10
407.77, 7.17, 239.66
408.28, 7.18, 239.14
408.85, 7.20, 238.55
409.52, 7.21, 237.85
410.08, 7.26, 237.27
410.69, 7.33, 236.64
411.20, 7.44, 236.12
411.55, 7.58, 235.76
411.56, 7.78, 235.74
411.58, 7.98, 235.72
411.60, 8.18, 235.70
411.62, 8.38, 235.68
412.67, 8.52, 234.59
413.10, 8.72, 234.14
¯413.12, 8.95, 234.12
413.14, 9.18, 234.10
413.16, 9.40, 234.07
413.18, 9.63, 234.05
404.20, 7.20, 243.25
404.36, 7.21, 243.09
404.81, 7.08, 242.61
405.00, 7.09, 242.41
405.20, 7.09, 242.19
405.42, 7.10, 241.97
405.65, 7.11, 241.72
405.92, 7.12, 241.44
406.21, 7.12, 241.13
406.53, 7.13, 240.79
406.88, 7.14, 240.42
407.26, 7.15, 240.02
407.68, 7.17, 239.57
408.19, 7.18, 239.03
408.75, 7.19, 238.44
409.43, 7.20, 237.72
409.97, 7.26, 237.14
410.40, 7.36, 236.68
410.40, 7.54, 236.68
410.40, 7.73, 236.68
410.40, 7.91, 236.68
411.54, 7.97, 235.48
411.55, 8.17, 235.46
411.57, 8.37, 235.44
412.30, 8.53, 234.66
413.05, 8.72, 233.87
413.07, 8.95, 233.85
413.09, 9.18, 233.82
413.11, 9.40, 233.80
413.13, 9.63, 233.78
404.15, 7.20, 243.20
404.31, 7.21, 243.04
404.75, 7.08, 242.55
404.94, 7.09, 242.35
405.14, 7.09, 242.13
405.35, 7.10, 241.90
405.59, 7.11, 241.65
405.85, 7.12, 241.37
406.14, 7.12, 241.05
406.45, 7.13, 240.71
406.80, 7.14, 240.33
407.17, 7.15, 239.93
407.59, 7.17, 239.47
408.09, 7.18, 238.93
408.64, 7.19, 238.33
409.33, 7.20, 237.59
409.86, 7.26, 237.00
¯410.21, 7.37, 236.63
410.21, 7.55, 236.62
410.21, 7.73, 236.62
410.21, 7.91, 236.62
410.21, 8.09, 236.62
410.21, 8.27, 236.62
411.58, 8.36, 235.13
411.95, 8.54, 234.73
411.94, 8.75, 234.73
411.94, 8.96, 234.73
411.94, 9.17, 234.73
413.05, 9.40, 233.52
413.08, 9.64, 233.50
404.10, 7.20, 243.15
404.52, 7.07, 242.69
404.70, 7.08, 242.50
404.88, 7.08, 242.29
405.08, 7.09, 242.07
405.29, 7.10, 241.84
405.52, 7.11, 241.58
405.77, 7.11, 241.30
406.06, 7.12, 240.98
406.37, 7.13, 240.63
406.72, 7.14, 240.25
407.08, 7.15, 239.84
407.50, 7.16, 239.38
407.99, 7.17, 238.83
408.54, 7.19, 238.21
409.23, 7.19, 237.46
409.75, 7.25, 236.87
410.17, 7.35, 236.41
410.17, 7.54, 236.40
410.17, 7.72, 236.40
410.17, 7.90, 236.40
410.17, 8.08, 236.40
410.17, 8.26, 236.40
411.47, 8.35, 234.94
411.72, 8.54, 234.66
411.72, 8.75, 234.66
411.72, 8.96, 234.66
411.72, 9.17, 234.66
411.72, 9.38, 234.66
411.72, 9.59, 234.66
411.72, 9.80, 234.65
404.05, 7.20, 243.11
404.47, 7.07, 242.64
404.64, 7.08, 242.44
404.82, 7.08, 242.23
405.01, 7.09, 242.01
405.22, 7.10, 241.78
405.45, 7.11, 241.52
¯405.70, 7.11, 241.23
405.98, 7.12, 240.91
406.30, 7.12, 240.55
406.63, 7.13, 240.17
406.99, 7.15, 239.76
407.40, 7.16, 239.29
407.89, 7.17, 238.73
408.45, 7.18, 238.10
409.12, 7.19, 237.33
409.64, 7.25, 236.74
410.13, 7.33, 236.18
410.13, 7.52, 236.18
410.12, 7.70, 236.18
410.12, 7.89, 236.18
410.12, 8.07, 236.18
410.12, 8.25, 236.17
410.17, 8.43, 236.11
411.67, 8.54, 234.40
411.67, 8.75, 234.40
411.67, 8.96, 234.40
411.67, 9.17, 234.40
411.67, 9.38, 234.40
411.67, 9.59, 234.40
411.67, 9.81, 234.39
404.00, 7.20, 243.06
404.41, 7.07, 242.58
404.58, 7.08, 242.39
404.76, 7.08, 242.18
404.95, 7.09, 241.95
405.15, 7.10, 241.71
405.38, 7.11, 241.45
405.63, 7.11, 241.16
405.91, 7.12, 240.83
406.22, 7.12, 240.47
406.54, 7.13, 240.09
406.90, 7.15, 239.67
407.31, 7.16, 239.20
407.79, 7.17, 238.64
408.35, 7.18, 237.98
409.02, 7.18, 237.20
409.53, 7.24, 236.60
410.08, 7.32, 235.95
410.08, 7.50, 235.95
410.08, 7.69, 235.95
410.08, 7.87, 235.95
410.08, 8.06, 235.95
410.08, 8.24, 235.95
410.08, 8.43, 235.94
411.62, 8.53, 234.14
411.62, 8.74, 234.14
411.62, 8.96, 234.14
¯411.62, 9.17, 234.13
411.62, 9.38, 234.13
411.62, 9.60, 234.13
411.62, 9.81, 234.13
404.20, 7.07, 242.72
404.35, 7.07, 242.53
404.52, 7.07, 242.33
404.70, 7.08, 242.12
404.88, 7.09, 241.90
405.09, 7.10, 241.65
405.31, 7.10, 241.39
405.55, 7.11, 241.09
405.83, 7.12, 240.76
406.13, 7.12, 240.40
406.46, 7.13, 240.01
406.81, 7.15, 239.59
407.21, 7.16, 239.11
407.68, 7.17, 238.54
408.25, 7.17, 237.86
408.91, 7.18, 237.07
409.41, 7.24, 236.47
409.96, 7.31, 235.81
410.04, 7.48, 235.72
410.04, 7.67, 235.72
410.03, 7.86, 235.72
410.03, 8.05, 235.71
410.03, 8.23, 235.71
410.03, 8.42, 235.71
411.57, 8.52, 233.87
411.57, 8.74, 233.87
411.57, 8.95, 233.87
411.57, 9.17, 233.86
411.57, 9.38, 233.86
411.57, 9.60, 233.86
411.57, 9.81, 233.86
404.14, 7.07, 242.67
404.30, 7.07, 242.48
404.46, 7.07, 242.28
404.63, 7.08, 242.07
404.82, 7.09, 241.84
405.02, 7.09, 241.59
405.23, 7.10, 241.33
405.48, 7.11, 241.03
405.75, 7.11, 240.69
406.05, 7.12, 240.33
406.37, 7.13, 239.93
406.72, 7.14, 239.50
407.11, 7.16, 239.02
407.58, 7.17, 238.45
408.15, 7.17, 237.75
408.80, 7.17, 236.94
¯409.29, 7.23, 236.34
409.82, 7.31, 235.69
410.03, 7.46, 235.43
410.03, 7.65, 235.43
410.03, 7.84, 235.43
410.03, 8.03, 235.43
410.02, 8.22, 235.43
410.02, 8.41, 235.43
411.35, 8.52, 233.80
411.35, 8.74, 233.80
411.35, 8.95, 233.80
411.34, 9.17, 233.80
411.34, 9.38, 233.80
411.34, 9.60, 233.80
411.34, 9.81, 233.80
404.09, 7.06, 242.62
404.24, 7.07, 242.43
404.40, 7.07, 242.22
404.57, 7.08, 242.01
404.75, 7.08, 241.78
404.95, 7.09, 241.53
405.16, 7.10, 241.27
405.40, 7.11, 240.96
405.67, 7.11, 240.63
405.96, 7.12, 240.25
406.28, 7.13, 239.85
406.62, 7.14, 239.42
407.01, 7.16, 238.94
407.47, 7.16, 238.36
408.04, 7.16, 237.64
408.69, 7.16, 236.82
409.16, 7.23, 236.22
409.68, 7.31, 235.58
409.94, 7.45, 235.24
