žVERSION 0.7
FIELDS x y z
SIZE 8 8 8
TYPE F F F
COUNT 1 1 1
WIDTH 2271
HEIGHT 1
VIEWPOINT 334.35, 7.53, 359.98 1 329.29, 2.24, 379.25
POINTS 2271
DATA ascii
323.38, 0.47, 384.64
323.26, 0.56, 384.76
323.07, 0.64, 384.97
322.87, 0.73, 385.18
322.71, 0.83, 385.35
322.59, 0.94, 385.47
¯322.47, 1.05, 385.60
322.34, 1.17, 385.74
322.20, 1.29, 385.90
322.02, 1.42, 386.08
321.84, 1.55, 386.28
321.72, 1.69, 386.40
321.60, 1.83, 386.53
321.48, 1.98, 386.66
321.28, 2.13, 386.88
321.01, 2.28, 387.16
320.74, 2.45, 387.45
326.16, 0.12, 381.82
326.00, 0.12, 382.00
325.83, 0.11, 382.18
325.64, 0.11, 382.38
325.44, 0.11, 382.60
325.22, 0.10, 382.83
324.98, 0.10, 383.08
324.73, 0.09, 383.36
324.49, 0.11, 383.61
324.24, 0.12, 383.88
324.01, 0.16, 384.12
323.79, 0.20, 384.36
323.68, 0.28, 384.48
323.57, 0.37, 384.60
323.46, 0.46, 384.73
323.29, 0.54, 384.91
323.10, 0.62, 385.11
322.90, 0.71, 385.33
322.77, 0.82, 385.47
322.65, 0.93, 385.60
322.53, 1.05, 385.74
322.40, 1.17, 385.88
322.27, 1.29, 386.02
322.10, 1.41, 386.21
321.93, 1.54, 386.40
321.81, 1.68, 386.53
321.69, 1.82, 386.65
321.51, 1.97, 386.86
321.25, 2.12, 387.14
320.98, 2.28, 387.43
320.71, 2.45, 387.72
326.47, 0.26, 381.59
326.06, 0.12, 382.04
325.89, 0.11, 382.23
325.71, 0.11, 382.43
325.51, 0.11, 382.65
325.29, 0.10, 382.88
325.06, 0.10, 383.14
324.80, 0.09, 383.42
324.57, 0.11, 383.67
¯324.32, 0.12, 383.95
324.08, 0.15, 384.21
323.87, 0.19, 384.45
323.76, 0.28, 384.57
323.65, 0.37, 384.69
323.51, 0.45, 384.85
323.33, 0.53, 385.05
323.14, 0.61, 385.26
322.95, 0.70, 385.48
322.83, 0.81, 385.60
322.71, 0.92, 385.74
322.59, 1.04, 385.87
322.47, 1.16, 386.02
322.34, 1.28, 386.16
322.18, 1.41, 386.33
322.02, 1.54, 386.52
321.90, 1.68, 386.65
321.73, 1.82, 386.84
321.49, 1.96, 387.11
321.22, 2.11, 387.41
320.96, 2.28, 387.70
320.69, 2.45, 388.00
326.52, 0.26, 381.64
326.12, 0.12, 382.09
325.95, 0.11, 382.28
325.77, 0.11, 382.48
325.57, 0.11, 382.70
325.36, 0.10, 382.94
325.13, 0.10, 383.20
324.88, 0.09, 383.48
324.65, 0.11, 383.74
324.40, 0.12, 384.02
324.15, 0.14, 384.30
323.95, 0.19, 384.53
323.84, 0.27, 384.65
323.72, 0.36, 384.79
323.55, 0.43, 384.99
323.37, 0.51, 385.19
323.17, 0.59, 385.41
323.01, 0.69, 385.60
322.89, 0.80, 385.74
322.77, 0.91, 385.87
322.65, 1.03, 386.01
322.53, 1.15, 386.15
322.40, 1.27, 386.30
322.27, 1.40, 386.46
322.11, 1.53, 386.64
321.95, 1.67, 386.82
321.71, 1.81, 387.09
321.46, 1.95, 387.38
321.20, 2.11, 387.68
¯320.94, 2.27, 387.98
320.66, 2.45, 388.29
326.58, 0.26, 381.68
326.43, 0.26, 381.84
326.01, 0.11, 382.33
325.83, 0.11, 382.53
325.64, 0.11, 382.75
325.43, 0.10, 382.99
325.20, 0.10, 383.25
324.96, 0.09, 383.54
324.73, 0.10, 383.80
324.49, 0.12, 384.08
324.22, 0.14, 384.39
324.02, 0.18, 384.62
323.92, 0.27, 384.74
323.76, 0.34, 384.92
323.59, 0.42, 385.13
323.40, 0.49, 385.34
323.21, 0.57, 385.57
323.07, 0.68, 385.73
322.95, 0.79, 385.87
322.84, 0.90, 386.01
322.72, 1.02, 386.15
322.59, 1.14, 386.30
322.46, 1.26, 386.45
322.33, 1.39, 386.60
322.17, 1.52, 386.80
321.94, 1.66, 387.06
321.70, 1.80, 387.35
321.44, 1.94, 387.65
321.18, 2.10, 387.95
320.92, 2.27, 388.26
320.64, 2.45, 388.59
326.63, 0.26, 381.72
326.49, 0.26, 381.88
326.34, 0.25, 382.06
325.90, 0.11, 382.58
325.71, 0.11, 382.80
325.50, 0.10, 383.04
325.28, 0.10, 383.31
325.03, 0.09, 383.60
324.81, 0.10, 383.86
324.57, 0.12, 384.15
324.31, 0.14, 384.45
324.10, 0.18, 384.70
323.97, 0.25, 384.86
323.80, 0.32, 385.06
323.63, 0.40, 385.27
323.44, 0.48, 385.49
323.25, 0.56, 385.72
323.13, 0.66, 385.86
¯323.02, 0.78, 386.00
322.90, 0.89, 386.14
322.78, 1.01, 386.29
322.66, 1.13, 386.44
322.53, 1.26, 386.59
322.38, 1.38, 386.77
322.16, 1.51, 387.04
321.92, 1.64, 387.32
321.67, 1.79, 387.62
321.42, 1.94, 387.93
321.16, 2.10, 388.23
320.89, 2.27, 388.55
320.40, 2.45, 389.14
326.68, 0.26, 381.76
326.54, 0.26, 381.93
326.40, 0.25, 382.10
325.96, 0.11, 382.63
325.78, 0.11, 382.85
325.57, 0.10, 383.10
325.35, 0.10, 383.36
325.11, 0.09, 383.65
324.89, 0.10, 383.92
324.66, 0.12, 384.21
324.40, 0.13, 384.52
324.17, 0.17, 384.80
324.01, 0.24, 385.00
323.84, 0.31, 385.20
323.66, 0.38, 385.42
323.48, 0.46, 385.64
323.30, 0.54, 385.86
323.19, 0.65, 385.99
323.08, 0.76, 386.13
322.97, 0.88, 386.28
322.84, 1.00, 386.43
322.72, 1.12, 386.58
322.58, 1.25, 386.75
322.38, 1.37, 387.00
322.14, 1.49, 387.29
321.91, 1.63, 387.58
321.65, 1.77, 387.89
321.40, 1.93, 388.20
321.15, 2.09, 388.52
320.65, 2.26, 389.12
314.61, 2.55, 396.44
326.73, 0.26, 381.80
326.60, 0.26, 381.97
326.45, 0.25, 382.15
326.30, 0.25, 382.34
325.84, 0.11, 382.90
325.65, 0.10, 383.15
325.43, 0.10, 383.42
¯325.19, 0.09, 383.71
324.97, 0.10, 383.98
324.74, 0.12, 384.27
324.49, 0.13, 384.58
324.21, 0.15, 384.93
324.05, 0.22, 385.13
323.88, 0.29, 385.34
323.71, 0.36, 385.56
323.52, 0.44, 385.80
323.37, 0.53, 385.99
323.26, 0.64, 386.13
323.15, 0.75, 386.27
323.03, 0.87, 386.42
322.91, 0.99, 386.57
322.78, 1.11, 386.73
322.60, 1.23, 386.97
322.37, 1.35, 387.25
322.13, 1.48, 387.55
321.89, 1.62, 387.86
321.64, 1.76, 388.17
321.39, 1.92, 388.49
320.93, 2.08, 389.06
320.40, 2.26, 389.72
314.70, 2.55, 396.81
326.79, 0.26, 381.84
326.66, 0.25, 382.01
326.51, 0.25, 382.19
326.36, 0.25, 382.39
326.19, 0.25, 382.60
325.72, 0.10, 383.20
325.51, 0.10, 383.47
325.27, 0.09, 383.76
325.06, 0.10, 384.04
324.83, 0.12, 384.33
324.58, 0.13, 384.65
324.29, 0.14, 385.02
324.09, 0.20, 385.27
323.92, 0.27, 385.49
323.75, 0.34, 385.71
323.56, 0.42, 385.95
323.43, 0.52, 386.12
323.32, 0.63, 386.26
323.21, 0.74, 386.41
323.10, 0.86, 386.56
322.98, 0.98, 386.71
322.80, 1.09, 386.94
322.60, 1.21, 387.20
322.36, 1.33, 387.51
322.12, 1.46, 387.82
321.87, 1.60, 388.14
321.63, 1.75, 388.46
¯321.23, 1.90, 388.96
320.66, 2.07, 389.70
326.84, 0.26, 381.88
326.71, 0.25, 382.05
326.57, 0.25, 382.24
326.42, 0.25, 382.43
326.26, 0.25, 382.64
325.79, 0.10, 383.25
325.58, 0.10, 383.52
325.35, 0.09, 383.82
325.14, 0.10, 384.10
324.91, 0.12, 384.39
324.67, 0.13, 384.71
324.37, 0.14, 385.10
324.14, 0.18, 385.41
323.97, 0.25, 385.63
323.79, 0.32, 385.87
323.61, 0.40, 386.11
323.50, 0.51, 386.25
323.39, 0.62, 386.40
323.28, 0.73, 386.55
323.16, 0.85, 386.70
323.00, 0.96, 386.92
322.81, 1.07, 387.16
322.59, 1.19, 387.45
322.35, 1.31, 387.78
322.11, 1.44, 388.10
321.86, 1.59, 388.42
321.53, 1.73, 388.87
320.91, 1.88, 389.67
320.41, 2.05, 390.34
315.02, 2.23, 397.38
315.03, 2.54, 397.38
326.90, 0.26, 381.92
326.77, 0.25, 382.09
326.63, 0.25, 382.28
326.48, 0.25, 382.48
326.32, 0.25, 382.69
326.15, 0.24, 382.92
325.66, 0.10, 383.57
325.44, 0.09, 383.87
325.22, 0.10, 384.16
325.00, 0.12, 384.45
324.76, 0.13, 384.78
324.46, 0.14, 385.17
324.18, 0.16, 385.55
324.01, 0.23, 385.78
323.83, 0.30, 386.02
323.67, 0.39, 386.24
323.57, 0.49, 386.38
323.46, 0.60, 386.53
¯323.35, 0.72, 386.69
323.19, 0.83, 386.90
323.02, 0.94, 387.14
322.82, 1.05, 387.40
322.59, 1.17, 387.71
322.34, 1.29, 388.05
322.09, 1.43, 388.39
321.81, 1.57, 388.77
321.16, 1.70, 389.65
320.67, 1.86, 390.31
315.39, 1.93, 397.38
315.40, 2.23, 397.38
315.41, 2.53, 397.38
326.95, 0.26, 381.95
326.82, 0.25, 382.13
326.69, 0.25, 382.32
326.54, 0.25, 382.52
326.38, 0.25, 382.73
326.21, 0.24, 382.97
326.03, 0.24, 383.22
325.52, 0.09, 383.92
325.30, 0.10, 384.21
325.09, 0.11, 384.51
324.85, 0.13, 384.84
324.56, 0.13, 385.24
324.23, 0.14, 385.69
324.06, 0.21, 385.93
323.88, 0.28, 386.18
323.74, 0.37, 386.37
323.63, 0.48, 386.52
323.53, 0.59, 386.67
323.38, 0.70, 386.88
323.21, 0.80, 387.11
323.03, 0.91, 387.36
322.82, 1.03, 387.65
322.58, 1.15, 387.98
322.33, 1.27, 388.33
322.08, 1.41, 388.68
321.43, 1.52, 389.58
320.93, 1.67, 390.28
315.76, 1.63, 397.38
315.77, 1.93, 397.38
315.77, 2.22, 397.38
315.78, 2.52, 397.38
327.01, 0.25, 381.99
326.88, 0.25, 382.17
326.75, 0.25, 382.36
326.60, 0.25, 382.56
326.45, 0.24, 382.78
326.28, 0.24, 383.01
326.10, 0.24, 383.27
¯325.60, 0.09, 383.97
325.39, 0.10, 384.27
325.18, 0.11, 384.57
324.93, 0.13, 384.91
324.65, 0.13, 385.32
324.33, 0.13, 385.76
324.10, 0.18, 386.08
323.93, 0.26, 386.34
323.81, 0.36, 386.51
323.70, 0.47, 386.66
323.57, 0.57, 386.85
323.40, 0.67, 387.09
323.23, 0.78, 387.33
323.05, 0.89, 387.59
322.82, 1.00, 387.92
322.58, 1.12, 388.26
322.32, 1.25, 388.63
321.73, 1.35, 389.47
321.18, 1.48, 390.24
320.77, 1.64, 390.82
316.13, 1.63, 397.38
316.13, 1.92, 397.38
316.14, 2.22, 397.38
316.15, 2.52, 397.38
327.06, 0.25, 382.03
326.94, 0.25, 382.21
326.81, 0.25, 382.40
326.67, 0.25, 382.60
326.51, 0.24, 382.82
326.35, 0.24, 383.06
326.17, 0.24, 383.32
325.98, 0.24, 383.60
325.47, 0.10, 384.32
325.26, 0.11, 384.63
325.02, 0.12, 384.98
324.74, 0.13, 385.39
324.43, 0.13, 385.84
324.15, 0.16, 386.24
323.98, 0.24, 386.49
323.88, 0.34, 386.64
323.75, 0.44, 386.83
323.59, 0.54, 387.06
323.43, 0.65, 387.30
323.26, 0.76, 387.55
323.05, 0.86, 387.85
322.82, 0.98, 388.19
322.58, 1.10, 388.55
322.02, 1.19, 389.36
321.43, 1.30, 390.21
321.03, 1.45, 390.80
316.48, 1.33, 397.38
¯316.49, 1.63, 397.38
316.49, 1.92, 397.38
316.50, 2.21, 397.38
316.51, 2.51, 397.38
327.12, 0.25, 382.06
326.99, 0.25, 382.25
326.87, 0.25, 382.44
326.73, 0.25, 382.64
326.58, 0.24, 382.87
326.42, 0.24, 383.10
326.24, 0.24, 383.36
326.05, 0.24, 383.65
325.86, 0.24, 383.94
325.35, 0.11, 384.68
325.11, 0.12, 385.04
324.83, 0.12, 385.46
324.53, 0.13, 385.91
324.20, 0.14, 386.39
324.05, 0.22, 386.62
323.93, 0.32, 386.80
323.78, 0.42, 387.03
323.62, 0.52, 387.27
323.45, 0.62, 387.52
323.28, 0.73, 387.79
323.06, 0.84, 388.12
322.82, 0.95, 388.47
322.59, 1.08, 388.82
321.68, 1.12, 390.18
321.28, 1.26, 390.77
320.98, 1.43, 391.23
316.83, 1.33, 397.38
316.84, 1.63, 397.38
316.85, 1.92, 397.38
316.85, 2.21, 397.38
316.86, 2.50, 397.38
327.18, 0.25, 382.10
327.05, 0.25, 382.29
326.93, 0.25, 382.48
326.79, 0.24, 382.68
326.65, 0.24, 382.91
326.49, 0.24, 383.15
326.32, 0.24, 383.41
326.13, 0.24, 383.69
325.94, 0.24, 383.99
325.73, 0.24, 384.31
325.20, 0.12, 385.11
324.93, 0.12, 385.52
324.63, 0.12, 385.99
324.29, 0.13, 386.50
324.11, 0.20, 386.78
323.96, 0.29, 387.00
¯323.81, 0.39, 387.24
323.65, 0.49, 387.49
323.48, 0.59, 387.75
323.28, 0.70, 388.05
323.06, 0.81, 388.40
322.83, 0.93, 388.75
321.95, 0.95, 390.10
321.52, 1.07, 390.75
321.23, 1.23, 391.20
317.18, 1.05, 397.38
317.18, 1.34, 397.38
317.19, 1.63, 397.38
317.20, 1.92, 397.38
317.20, 2.20, 397.38
317.21, 2.49, 397.38
327.23, 0.25, 382.14
327.11, 0.25, 382.32
326.99, 0.25, 382.52
326.86, 0.24, 382.72
326.71, 0.24, 382.95
326.56, 0.24, 383.19
326.39, 0.24, 383.45
326.21, 0.23, 383.74
326.02, 0.24, 384.04
325.81, 0.24, 384.36
325.29, 0.11, 385.17
325.02, 0.12, 385.59
324.73, 0.12, 386.06
324.39, 0.12, 386.58
324.14, 0.17, 386.97
323.99, 0.26, 387.21
323.84, 0.36, 387.45
323.68, 0.46, 387.71
323.51, 0.57, 387.98
323.29, 0.67, 388.32
323.07, 0.78, 388.68
322.86, 0.90, 389.00
321.76, 0.89, 390.72
321.48, 1.04, 391.17
317.51, 0.76, 397.38
317.52, 1.05, 397.38
317.53, 1.34, 397.38
317.53, 1.63, 397.38
317.54, 1.91, 397.38
317.55, 2.20, 397.38
317.55, 2.49, 397.38
327.29, 0.25, 382.17
327.17, 0.25, 382.36
327.05, 0.24, 382.55
326.92, 0.24, 382.76
326.78, 0.24, 382.99
¯326.63, 0.24, 383.23
326.46, 0.24, 383.50
326.28, 0.23, 383.78
326.10, 0.24, 384.08
325.90, 0.24, 384.41
325.67, 0.24, 384.77
325.12, 0.11, 385.66
324.83, 0.12, 386.13
324.50, 0.12, 386.65
324.18, 0.14, 387.18
324.03, 0.23, 387.42
323.87, 0.33, 387.67
323.71, 0.43, 387.94
323.52, 0.53, 388.25
323.30, 0.64, 388.60
323.10, 0.75, 388.93
322.90, 0.88, 389.26
321.73, 0.85, 391.14
321.44, 1.01, 391.61
317.85, 0.77, 397.38
317.86, 1.06, 397.38
317.87, 1.34, 397.38
317.87, 1.63, 397.38
317.88, 1.91, 397.38
317.88, 2.20, 397.38
317.89, 2.48, 397.38
327.34, 0.25, 382.21
327.23, 0.25, 382.39
327.11, 0.24, 382.59
326.98, 0.24, 382.80
326.85, 0.24, 383.03
326.70, 0.24, 383.27
326.54, 0.24, 383.54
326.36, 0.23, 383.83
326.18, 0.24, 384.13
325.98, 0.24, 384.46
325.77, 0.24, 384.82
325.52, 0.24, 385.22
324.93, 0.11, 386.20
324.61, 0.12, 386.73
324.21, 0.11, 387.38
324.06, 0.20, 387.63
323.91, 0.30, 387.90
323.74, 0.40, 388.17
323.53, 0.50, 388.52
323.33, 0.61, 388.85
323.14, 0.73, 389.18
321.97, 0.67, 391.11
321.70, 0.81, 391.57
319.91, 0.75, 394.52
318.19, 0.78, 397.38
¯318.19, 1.06, 397.38
318.20, 1.34, 397.38
318.20, 1.63, 397.38
318.21, 1.91, 397.38
318.22, 2.19, 397.38
318.22, 2.47, 397.38
327.40, 0.25, 382.24
327.29, 0.24, 382.43
327.17, 0.24, 382.63
327.05, 0.24, 382.84
326.92, 0.24, 383.07
326.77, 0.24, 383.31
326.61, 0.23, 383.58
326.44, 0.23, 383.87
326.26, 0.23, 384.18
326.07, 0.24, 384.51
325.86, 0.24, 384.87
325.62, 0.24, 385.27
325.35, 0.24, 385.73
324.72, 0.11, 386.80
324.32, 0.10, 387.48
324.10, 0.17, 387.86
323.94, 0.27, 388.13
323.76, 0.36, 388.44
323.56, 0.47, 388.78
323.37, 0.58, 389.10
323.18, 0.70, 389.44
321.95, 0.63, 391.53
320.85, 0.63, 393.40
318.51, 0.50, 397.38
318.51, 0.78, 397.38
318.52, 1.06, 397.38
318.53, 1.34, 397.38
318.53, 1.63, 397.38
318.54, 1.91, 397.38
318.54, 2.19, 397.38
318.55, 2.47, 397.38
327.46, 0.25, 382.27
327.35, 0.24, 382.46
327.24, 0.24, 382.66
327.12, 0.24, 382.87
326.98, 0.24, 383.10
326.84, 0.24, 383.35
326.69, 0.23, 383.63
326.52, 0.23, 383.92
326.35, 0.23, 384.22
326.16, 0.24, 384.55
325.95, 0.24, 384.92
325.71, 0.24, 385.33
325.45, 0.24, 385.78
324.83, 0.11, 386.87
¯324.44, 0.10, 387.55
324.14, 0.13, 388.08
323.98, 0.23, 388.37
323.78, 0.33, 388.71
323.60, 0.44, 389.03
323.42, 0.55, 389.36
322.19, 0.44, 391.50
321.92, 0.58, 391.98
320.75, 0.57, 394.02
318.83, 0.51, 397.38
318.84, 0.79, 397.38
318.84, 1.07, 397.38
318.85, 1.35, 397.38
318.86, 1.63, 397.38
318.86, 1.90, 397.38
318.87, 2.18, 397.38
318.87, 2.46, 397.38
327.52, 0.25, 382.30
327.41, 0.24, 382.49
327.30, 0.24, 382.69
327.18, 0.24, 382.91
327.05, 0.24, 383.14
326.91, 0.23, 383.39
326.76, 0.23, 383.67
326.60, 0.23, 383.96
326.43, 0.23, 384.26
326.24, 0.24, 384.60
326.04, 0.24, 384.97
325.81, 0.24, 385.38
325.55, 0.24, 385.84
325.27, 0.24, 386.36
324.56, 0.09, 387.62
324.17, 0.10, 388.32
324.00, 0.19, 388.63
323.83, 0.30, 388.95
323.65, 0.41, 389.28
323.46, 0.52, 389.62
322.17, 0.39, 391.94
321.49, 0.45, 393.17
320.69, 0.52, 394.62
319.15, 0.51, 397.38
319.16, 0.79, 397.38
319.16, 1.07, 397.38
319.17, 1.35, 397.38
319.17, 1.62, 397.38
319.18, 1.90, 397.38
319.19, 2.18, 397.38
319.19, 2.45, 397.38
327.58, 0.25, 382.34
327.47, 0.24, 382.53
327.36, 0.24, 382.73
¯327.25, 0.24, 382.94
327.12, 0.24, 383.18
326.99, 0.23, 383.43
326.84, 0.23, 383.71
326.68, 0.23, 384.00
326.51, 0.23, 384.31
326.33, 0.23, 384.64
326.13, 0.24, 385.01
325.91, 0.24, 385.43
325.66, 0.24, 385.89
325.38, 0.24, 386.41
325.04, 0.23, 387.03
324.22, 0.06, 388.56
324.05, 0.16, 388.87
323.88, 0.27, 389.19
323.69, 0.38, 389.53
323.50, 0.49, 389.89
322.15, 0.34, 392.40
321.53, 0.41, 393.55
318.61, 0.08, 398.96
319.47, 0.52, 397.38
319.47, 0.80, 397.38
319.48, 1.07, 397.38
319.48, 1.35, 397.38
319.49, 1.62, 397.38
319.49, 1.90, 397.38
319.50, 2.17, 397.38
319.50, 2.45, 397.38
327.63, 0.24, 382.37
327.53, 0.24, 382.56
327.43, 0.24, 382.76
327.31, 0.24, 382.98
327.19, 0.24, 383.21
327.06, 0.23, 383.47
326.91, 0.23, 383.75
326.76, 0.23, 384.04
326.60, 0.23, 384.35
326.42, 0.23, 384.69
326.22, 0.24, 385.06
326.01, 0.24, 385.47
325.76, 0.24, 385.94
325.49, 0.24, 386.47
325.16, 0.23, 387.09
324.78, 0.22, 387.82
324.10, 0.13, 389.11
323.93, 0.23, 389.45
323.74, 0.34, 389.80
323.03, 0.32, 391.15
322.05, 0.27, 393.02
321.54, 0.37, 394.00
318.85, 0.07, 399.13
¯319.78, 0.53, 397.38
319.78, 0.80, 397.38
319.79, 1.08, 397.38
319.79, 1.35, 397.38
319.80, 1.62, 397.38
319.80, 1.90, 397.38
319.81, 2.17, 397.38
319.81, 2.44, 397.38
327.69, 0.24, 382.40
327.60, 0.24, 382.59
327.49, 0.24, 382.79
327.38, 0.24, 383.01
327.26, 0.23, 383.25
327.13, 0.23, 383.50
326.99, 0.23, 383.79
326.84, 0.23, 384.08
326.68, 0.23, 384.39
326.51, 0.23, 384.73
326.32, 0.24, 385.10
326.11, 0.24, 385.52
325.87, 0.24, 385.99
325.60, 0.24, 386.52
325.28, 0.23, 387.15
324.91, 0.22, 387.88
324.15, 0.09, 389.36
323.98, 0.20, 389.71
323.79, 0.31, 390.07
323.13, 0.30, 391.38
322.11, 0.23, 393.39
321.50, 0.31, 394.59
319.10, 0.06, 399.29
320.08, 0.53, 397.38
320.09, 0.81, 397.38
320.09, 1.08, 397.38
320.10, 1.35, 397.38
320.11, 1.62, 397.38
320.11, 1.89, 397.38
320.12, 2.17, 397.38
320.12, 2.44, 397.38
327.75, 0.24, 382.43
327.66, 0.24, 382.62
327.56, 0.24, 382.82
327.45, 0.24, 383.04
327.33, 0.23, 383.28
327.21, 0.23, 383.54
327.06, 0.23, 383.82
326.92, 0.23, 384.12
326.77, 0.23, 384.43
326.60, 0.23, 384.77
326.41, 0.23, 385.15
326.20, 0.24, 385.57
¯325.97, 0.24, 386.04
325.71, 0.24, 386.57
325.40, 0.23, 387.20
325.04, 0.22, 387.93
324.59, 0.20, 388.84
324.03, 0.16, 389.98
323.58, 0.19, 390.89
323.15, 0.25, 391.76
322.16, 0.19, 393.77
321.56, 0.27, 395.00
319.35, 0.06, 399.46
320.39, 0.54, 397.38
320.39, 0.81, 397.38
320.40, 1.08, 397.38
320.40, 1.35, 397.38
320.41, 1.62, 397.38
320.41, 1.89, 397.38
320.42, 2.16, 397.38
320.42, 2.43, 397.38
327.81, 0.24, 382.45
327.72, 0.24, 382.65
327.62, 0.24, 382.85
327.52, 0.24, 383.07
327.40, 0.23, 383.31
327.28, 0.23, 383.57
327.14, 0.22, 383.86
327.00, 0.23, 384.15
326.85, 0.23, 384.47
326.69, 0.23, 384.81
326.51, 0.23, 385.19
326.30, 0.23, 385.61
326.08, 0.23, 386.09
325.82, 0.24, 386.62
325.52, 0.23, 387.26
325.17, 0.22, 387.99
324.73, 0.20, 388.90
324.31, 0.20, 389.79
323.67, 0.17, 391.11
323.01, 0.15, 392.50
322.22, 0.15, 394.16
321.62, 0.23, 395.41
319.61, 0.05, 399.61
320.69, 0.55, 397.38
320.69, 0.82, 397.38
320.70, 1.08, 397.38
320.70, 1.35, 397.38
320.71, 1.62, 397.38
320.71, 1.89, 397.38
320.72, 2.16, 397.38
320.72, 2.43, 397.38
327.87, 0.24, 382.48
¯327.78, 0.24, 382.67
327.69, 0.24, 382.88
327.59, 0.23, 383.10
327.48, 0.23, 383.34
327.35, 0.23, 383.60
327.22, 0.22, 383.90
327.08, 0.22, 384.19
326.94, 0.23, 384.51
326.78, 0.23, 384.85
326.60, 0.23, 385.23
326.40, 0.23, 385.66
326.18, 0.23, 386.13
325.94, 0.23, 386.67
325.64, 0.23, 387.31
325.30, 0.22, 388.04
324.87, 0.19, 388.96
324.47, 0.20, 389.84
324.06, 0.24, 390.72
323.12, 0.13, 392.74
322.30, 0.11, 394.52
321.69, 0.19, 395.84
320.98, 0.28, 397.38
320.98, 0.55, 397.38
320.99, 0.82, 397.38
320.99, 1.09, 397.38
321.00, 1.35, 397.38
321.00, 1.62, 397.38
321.01, 1.89, 397.38
321.01, 2.15, 397.38
321.02, 2.42, 397.38
327.94, 0.24, 382.51
327.85, 0.24, 382.70
327.75, 0.24, 382.91
327.65, 0.23, 383.13
327.55, 0.23, 383.37
327.43, 0.23, 383.64
327.30, 0.22, 383.93
327.17, 0.22, 384.22
327.02, 0.23, 384.54
326.87, 0.23, 384.89
326.70, 0.23, 385.27
326.50, 0.23, 385.70
326.29, 0.23, 386.18
326.05, 0.23, 386.71
325.76, 0.22, 387.36
325.43, 0.22, 388.09
325.02, 0.19, 389.02
324.62, 0.20, 389.89
324.23, 0.23, 390.78
323.83, 0.29, 391.67
322.48, 0.10, 394.67
¯321.41, 0.06, 397.07
321.27, 0.29, 397.38
321.28, 0.56, 397.38
321.28, 0.82, 397.38
321.28, 1.09, 397.38
321.29, 1.35, 397.38
321.29, 1.62, 397.38
321.30, 1.89, 397.38
321.30, 2.15, 397.38
321.31, 2.42, 397.38
328.00, 0.24, 382.53
327.91, 0.24, 382.73
327.82, 0.24, 382.94
327.72, 0.23, 383.16
327.62, 0.23, 383.40
327.50, 0.23, 383.67
327.38, 0.22, 383.96
327.25, 0.22, 384.26
327.11, 0.23, 384.58
326.96, 0.23, 384.93
326.79, 0.23, 385.31
326.61, 0.23, 385.74
326.40, 0.23, 386.22
326.16, 0.23, 386.76
325.88, 0.22, 387.41
325.56, 0.22, 388.14
325.16, 0.19, 389.07
324.78, 0.20, 389.94
324.39, 0.23, 390.84
324.01, 0.29, 391.73
322.67, 0.09, 394.82
321.61, 0.04, 397.25
321.56, 0.30, 397.38
321.56, 0.56, 397.38
321.57, 0.83, 397.38
321.57, 1.09, 397.38
321.58, 1.36, 397.38
321.58, 1.62, 397.38
321.59, 1.88, 397.38
321.59, 2.15, 397.38
321.60, 2.41, 397.38
328.06, 0.24, 382.56
327.98, 0.24, 382.75
327.89, 0.24, 382.96
327.79, 0.23, 383.19
327.69, 0.23, 383.43
327.58, 0.23, 383.70
327.45, 0.22, 384.00
327.33, 0.22, 384.29
327.20, 0.22, 384.61
327.05, 0.23, 384.96
¯326.89, 0.23, 385.35
326.71, 0.23, 385.78
326.50, 0.23, 386.27
326.28, 0.23, 386.80
326.00, 0.22, 387.46
325.69, 0.21, 388.19
325.30, 0.19, 389.13
324.94, 0.20, 389.99
324.56, 0.23, 390.90
324.19, 0.29, 391.80
322.86, 0.08, 394.96
321.82, 0.03, 397.44
321.85, 0.30, 397.38
321.85, 0.57, 397.38
321.86, 0.83, 397.38
321.86, 1.09, 397.38
321.86, 1.36, 397.38
321.87, 1.62, 397.38
321.87, 1.88, 397.38
321.88, 2.14, 397.38
321.88, 2.41, 397.38
328.12, 0.24, 382.58
328.04, 0.24, 382.78
327.95, 0.23, 382.99
327.86, 0.23, 383.22
327.76, 0.23, 383.46
327.65, 0.22, 383.73
327.53, 0.22, 384.03
327.41, 0.22, 384.32
327.28, 0.22, 384.65
327.14, 0.23, 385.00
326.99, 0.23, 385.38
326.81, 0.23, 385.82
326.61, 0.23, 386.31
326.39, 0.23, 386.85
326.13, 0.22, 387.50
325.83, 0.21, 388.24
325.45, 0.19, 389.18
325.10, 0.20, 390.04
324.73, 0.23, 390.96
324.36, 0.28, 391.86
323.05, 0.07, 395.10
322.03, 0.02, 397.62
322.13, 0.31, 397.38
322.13, 0.57, 397.38
322.14, 0.83, 397.38
322.14, 1.09, 397.38
322.15, 1.36, 397.38
322.15, 1.62, 397.38
322.16, 1.88, 397.38
322.16, 2.14, 397.38
¯322.17, 2.40, 397.38
328.18, 0.24, 382.61
328.10, 0.24, 382.80
328.02, 0.23, 383.02
327.93, 0.23, 383.24
327.84, 0.23, 383.49
327.73, 0.22, 383.76
327.61, 0.22, 384.06
327.50, 0.22, 384.36
327.37, 0.22, 384.68
327.23, 0.22, 385.03
327.08, 0.23, 385.42
326.91, 0.23, 385.86
326.72, 0.23, 386.35
326.51, 0.23, 386.89
326.25, 0.22, 387.55
325.96, 0.21, 388.29
325.59, 0.19, 389.23
325.26, 0.20, 390.09
324.90, 0.23, 391.01
324.54, 0.28, 391.92
323.24, 0.06, 395.24
322.24, 0.00, 397.80
322.41, 0.31, 397.38
322.41, 0.57, 397.38
322.42, 0.84, 397.38
322.42, 1.10, 397.38
322.43, 1.36, 397.38
322.43, 1.62, 397.38
322.44, 1.88, 397.38
322.44, 2.14, 397.38
322.45, 2.40, 397.38
328.24, 0.24, 382.63
328.17, 0.24, 382.83
328.09, 0.23, 383.04
328.00, 0.23, 383.27
327.91, 0.23, 383.51
327.81, 0.22, 383.79
327.69, 0.22, 384.09
327.58, 0.22, 384.39
327.46, 0.22, 384.71
327.33, 0.22, 385.07
327.18, 0.23, 385.45
327.01, 0.23, 385.90
326.83, 0.23, 386.39
326.62, 0.23, 386.93
326.37, 0.22, 387.59
326.09, 0.21, 388.33
325.74, 0.19, 389.28
325.42, 0.20, 390.13
325.06, 0.23, 391.07
¯324.72, 0.28, 391.98
323.43, 0.04, 395.39
322.49, 0.00, 397.88
322.69, 0.32, 397.38
322.69, 0.58, 397.38
322.70, 0.84, 397.38
322.70, 1.10, 397.38
322.71, 1.36, 397.38
322.71, 1.62, 397.38
322.71, 1.87, 397.38
322.72, 2.13, 397.38
322.72, 2.39, 397.38
328.31, 0.24, 382.65
328.23, 0.23, 382.85
328.16, 0.23, 383.06
328.07, 0.23, 383.29
327.98, 0.23, 383.54
327.88, 0.22, 383.82
327.78, 0.22, 384.11
327.67, 0.22, 384.41
327.55, 0.22, 384.74
327.42, 0.22, 385.10
327.28, 0.23, 385.49
327.12, 0.23, 385.93
326.94, 0.22, 386.42
326.74, 0.23, 386.97
326.50, 0.22, 387.63
326.23, 0.21, 388.38
325.89, 0.19, 389.32
325.57, 0.20, 390.18
325.23, 0.23, 391.12
324.89, 0.27, 392.07
323.63, 0.03, 395.53
322.76, 0.00, 397.93
322.96, 0.32, 397.38
322.97, 0.58, 397.38
322.97, 0.84, 397.38
322.98, 1.10, 397.38
322.98, 1.36, 397.38
322.99, 1.61, 397.38
322.99, 1.87, 397.38
322.99, 2.13, 397.38
323.00, 2.39, 397.38
328.37, 0.24, 382.67
328.30, 0.23, 382.87
328.22, 0.23, 383.09
328.14, 0.23, 383.32
328.06, 0.23, 383.57
327.96, 0.22, 383.84
327.86, 0.22, 384.14
327.75, 0.22, 384.44
¯327.64, 0.22, 384.77
327.51, 0.22, 385.13
327.37, 0.22, 385.52
327.22, 0.22, 385.96
327.05, 0.22, 386.46
326.86, 0.22, 387.01
326.62, 0.21, 387.68
326.36, 0.21, 388.42
326.03, 0.19, 389.36
325.73, 0.20, 390.22
325.40, 0.22, 391.18
325.06, 0.27, 392.15
323.83, 0.02, 395.66
323.02, 0.00, 397.98
323.24, 0.33, 397.38
323.24, 0.58, 397.38
323.25, 0.84, 397.38
323.25, 1.10, 397.38
323.25, 1.36, 397.38
323.26, 1.61, 397.38
323.26, 1.87, 397.38
323.27, 2.13, 397.38
323.27, 2.38, 397.38
328.43, 0.24, 382.69
328.37, 0.23, 382.89
328.29, 0.23, 383.11
328.22, 0.23, 383.34
328.13, 0.23, 383.59
328.04, 0.22, 383.87
327.94, 0.21, 384.17
327.84, 0.22, 384.47
327.73, 0.22, 384.80
327.60, 0.22, 385.16
327.47, 0.22, 385.55
327.32, 0.22, 386.00
327.16, 0.22, 386.49
326.97, 0.22, 387.04
326.75, 0.21, 387.71
326.50, 0.21, 388.46
326.18, 0.19, 389.40
325.89, 0.20, 390.26
325.57, 0.22, 391.23
325.23, 0.26, 392.23
324.03, 0.01, 395.80
323.28, 0.00, 398.03
323.51, 0.33, 397.38
323.51, 0.59, 397.38
323.52, 0.84, 397.38
323.52, 1.10, 397.38
323.52, 1.36, 397.38
323.53, 1.61, 397.38
¯323.53, 1.87, 397.38
323.54, 2.12, 397.38
323.54, 2.38, 397.38
328.50, 0.24, 382.71
328.43, 0.23, 382.91
328.36, 0.23, 383.13
328.29, 0.23, 383.36
328.21, 0.22, 383.61
328.12, 0.22, 383.89
328.02, 0.21, 384.19
327.92, 0.22, 384.50
327.81, 0.22, 384.83
327.70, 0.22, 385.19
327.57, 0.22, 385.58
327.43, 0.22, 386.03
327.27, 0.22, 386.53
327.09, 0.22, 387.08
326.87, 0.21, 387.75
326.63, 0.21, 388.49
326.33, 0.19, 389.43
326.05, 0.20, 390.30
325.74, 0.22, 391.28
325.41, 0.26, 392.31
324.24, 0.00, 395.93
323.55, 0.00, 398.08
323.78, 0.33, 397.38
323.78, 0.59, 397.38
323.78, 0.85, 397.38
323.79, 1.10, 397.38
323.79, 1.36, 397.38
323.80, 1.61, 397.38
323.80, 1.87, 397.38
323.80, 2.12, 397.38
323.81, 2.37, 397.38
328.56, 0.23, 382.73
328.50, 0.23, 382.93
328.43, 0.23, 383.15
328.36, 0.23, 383.38
328.28, 0.22, 383.64
328.19, 0.22, 383.92
328.10, 0.21, 384.22
328.01, 0.21, 384.52
327.90, 0.22, 384.85
327.79, 0.22, 385.22
327.67, 0.22, 385.61
327.53, 0.22, 386.06
327.38, 0.22, 386.56
327.21, 0.22, 387.11
327.00, 0.21, 387.79
326.77, 0.21, 388.53
326.48, 0.19, 389.47
¯326.21, 0.20, 390.34
325.91, 0.22, 391.32
325.58, 0.25, 392.39
324.47, 0.00, 395.97
323.81, 0.00, 398.12
324.04, 0.34, 397.38
324.05, 0.59, 397.38
324.05, 0.85, 397.38
324.05, 1.10, 397.38
324.06, 1.36, 397.38
324.06, 1.61, 397.38
324.07, 1.86, 397.38
324.07, 2.12, 397.38
324.07, 2.37, 397.38
328.62, 0.23, 382.75
328.56, 0.23, 382.95
328.50, 0.23, 383.17
328.43, 0.23, 383.40
328.35, 0.22, 383.66
328.27, 0.22, 383.94
328.18, 0.21, 384.24
328.09, 0.21, 384.55
327.99, 0.21, 384.88
327.89, 0.22, 385.24
327.77, 0.22, 385.64
327.64, 0.22, 386.09
327.49, 0.22, 386.59
327.33, 0.22, 387.14
327.13, 0.21, 387.82
326.91, 0.21, 388.56
326.63, 0.18, 389.50
326.37, 0.20, 390.37
326.08, 0.22, 391.37
325.76, 0.25, 392.46
324.70, 0.00, 396.01
324.07, 0.00, 398.16
324.31, 0.34, 397.38
324.31, 0.60, 397.38
324.31, 0.85, 397.38
324.32, 1.10, 397.38
324.32, 1.36, 397.38
324.33, 1.61, 397.38
324.33, 1.86, 397.38
324.33, 2.11, 397.38
324.34, 2.36, 397.38
328.69, 0.23, 382.77
328.63, 0.23, 382.97
328.57, 0.23, 383.19
328.50, 0.23, 383.42
328.43, 0.22, 383.68
328.35, 0.22, 383.96
¯328.26, 0.21, 384.26
328.18, 0.21, 384.57
328.08, 0.21, 384.90
327.98, 0.22, 385.27
327.87, 0.22, 385.67
327.74, 0.22, 386.12
327.60, 0.22, 386.62
327.44, 0.22, 387.18
327.25, 0.21, 387.85
327.04, 0.20, 388.59
326.78, 0.18, 389.53
326.53, 0.20, 390.41
326.25, 0.21, 391.42
325.93, 0.24, 392.54
324.94, 0.00, 396.05
324.33, 0.00, 398.20
324.57, 0.34, 397.38
324.57, 0.60, 397.38
324.58, 0.85, 397.38
324.58, 1.10, 397.38
324.58, 1.36, 397.38
324.59, 1.61, 397.38
324.59, 1.86, 397.38
324.60, 2.11, 397.38
324.60, 2.36, 397.38
328.75, 0.23, 382.78
328.70, 0.23, 382.99
328.64, 0.23, 383.20
328.57, 0.23, 383.44
328.50, 0.22, 383.70
328.43, 0.21, 383.98
328.35, 0.21, 384.29
328.26, 0.21, 384.59
328.17, 0.21, 384.93
328.08, 0.21, 385.29
327.97, 0.22, 385.69
327.85, 0.22, 386.15
327.71, 0.22, 386.65
327.56, 0.22, 387.20
327.38, 0.21, 387.88
327.18, 0.20, 388.62
326.93, 0.18, 389.56
326.69, 0.20, 390.44
326.42, 0.21, 391.46
326.11, 0.23, 392.61
325.17, 0.00, 396.08
324.59, 0.00, 398.23
324.83, 0.35, 397.38
324.83, 0.60, 397.38
324.84, 0.85, 397.38
324.84, 1.10, 397.38
¯324.85, 1.35, 397.38
324.85, 1.61, 397.38
324.85, 1.86, 397.38
324.86, 2.11, 397.38
324.86, 2.36, 397.38
328.82, 0.23, 382.80
328.76, 0.23, 383.00
328.71, 0.23, 383.22
328.65, 0.23, 383.46
328.58, 0.22, 383.72
328.51, 0.21, 384.00
328.43, 0.21, 384.31
328.35, 0.21, 384.62
328.26, 0.21, 384.95
328.17, 0.21, 385.32
328.07, 0.22, 385.72
327.95, 0.22, 386.17
327.82, 0.22, 386.67
327.68, 0.22, 387.23
327.51, 0.21, 387.91
327.32, 0.20, 388.65
327.08, 0.18, 389.59
326.85, 0.20, 390.47
326.59, 0.21, 391.50
326.29, 0.23, 392.68
325.41, 0.00, 396.11
324.86, 0.00, 398.26
325.09, 0.35, 397.38
325.09, 0.60, 397.38
325.10, 0.85, 397.38
325.10, 1.10, 397.38
325.10, 1.35, 397.38
325.11, 1.60, 397.38
325.11, 1.85, 397.38
325.12, 2.10, 397.38
325.12, 2.35, 397.38
328.88, 0.23, 382.81
328.83, 0.23, 383.02
328.78, 0.23, 383.24
328.72, 0.22, 383.47
328.66, 0.22, 383.74
328.59, 0.21, 384.02
328.51, 0.21, 384.33
328.44, 0.21, 384.64
328.36, 0.21, 384.97
328.27, 0.21, 385.34
328.17, 0.22, 385.74
328.06, 0.21, 386.20
327.94, 0.21, 386.70
327.80, 0.22, 387.26
327.64, 0.21, 387.94
¯327.46, 0.20, 388.68
327.23, 0.18, 389.61
327.01, 0.20, 390.50
326.76, 0.21, 391.54
326.47, 0.22, 392.75
325.64, 0.00, 396.14
325.12, 0.00, 398.29
325.35, 0.35, 397.38
325.35, 0.60, 397.38
325.35, 0.85, 397.38
325.36, 1.10, 397.38
325.36, 1.35, 397.38
325.36, 1.60, 397.38
325.37, 1.85, 397.38
325.37, 2.10, 397.38
325.38, 2.35, 397.38
328.94, 0.23, 382.83
328.90, 0.23, 383.03
328.85, 0.23, 383.25
328.79, 0.22, 383.49
328.73, 0.22, 383.75
328.67, 0.21, 384.04
328.60, 0.21, 384.35
328.52, 0.21, 384.66
328.45, 0.21, 384.99
328.36, 0.21, 385.36
328.27, 0.21, 385.76
328.16, 0.21, 386.22
328.05, 0.21, 386.72
327.92, 0.21, 387.28
327.76, 0.20, 387.96
327.59, 0.20, 388.70
327.38, 0.18, 389.64
327.17, 0.19, 390.53
326.93, 0.20, 391.58
326.65, 0.22, 392.82
325.87, 0.00, 396.17
325.38, 0.00, 398.32
325.60, 0.35, 397.38
325.61, 0.60, 397.38
325.61, 0.85, 397.38
325.61, 1.10, 397.38
325.62, 1.35, 397.38
325.62, 1.60, 397.38
325.62, 1.85, 397.38
325.63, 2.10, 397.38
325.63, 2.35, 397.38
329.01, 0.23, 382.84
328.96, 0.23, 383.05
328.92, 0.23, 383.27
328.87, 0.22, 383.50
¯328.81, 0.22, 383.77
328.75, 0.21, 384.05
328.68, 0.21, 384.36
328.61, 0.21, 384.67
328.54, 0.21, 385.01
328.46, 0.21, 385.38
328.37, 0.21, 385.78
328.27, 0.21, 386.24
328.16, 0.21, 386.75
328.04, 0.21, 387.31
327.89, 0.20, 387.99
327.73, 0.20, 388.73
327.53, 0.18, 389.66
327.33, 0.19, 390.56
327.10, 0.20, 391.62
326.83, 0.21, 392.89
326.11, 0.00, 396.19
325.64, 0.00, 398.34
325.86, 0.36, 397.38
325.86, 0.61, 397.38
325.86, 0.85, 397.38
325.87, 1.10, 397.38
325.87, 1.35, 397.38
325.87, 1.60, 397.38
325.88, 1.85, 397.38
325.88, 2.09, 397.38
325.88, 2.34, 397.38
329.07, 0.23, 382.85
329.03, 0.23, 383.06
328.99, 0.23, 383.28
328.94, 0.22, 383.52
328.88, 0.22, 383.78
328.83, 0.21, 384.07
328.76, 0.20, 384.38
328.70, 0.21, 384.69
328.63, 0.21, 385.03
328.55, 0.21, 385.40
328.47, 0.21, 385.80
328.38, 0.21, 386.26
328.27, 0.21, 386.77
328.16, 0.21, 387.33
328.02, 0.20, 388.01
327.87, 0.20, 388.75
327.68, 0.18, 389.68
327.49, 0.19, 390.58
327.28, 0.20, 391.66
327.01, 0.20, 392.95
326.34, 0.00, 396.22
325.90, 0.00, 398.36
326.11, 0.36, 397.38
326.11, 0.61, 397.38
¯326.12, 0.85, 397.38
326.12, 1.10, 397.38
326.12, 1.35, 397.38
326.13, 1.60, 397.38
326.13, 1.84, 397.38
326.13, 2.09, 397.38
326.14, 2.34, 397.38
329.14, 0.23, 382.86
329.10, 0.23, 383.07
329.06, 0.22, 383.29
329.01, 0.22, 383.53
328.96, 0.22, 383.80
328.91, 0.21, 384.09
328.85, 0.20, 384.40
328.79, 0.21, 384.71
328.72, 0.21, 385.05
328.65, 0.21, 385.42
328.57, 0.21, 385.82
328.48, 0.21, 386.28
328.39, 0.21, 386.79
328.28, 0.21, 387.35
328.15, 0.20, 388.03
328.01, 0.20, 388.77
327.83, 0.18, 389.70
327.66, 0.19, 390.61
327.45, 0.20, 391.70
327.20, 0.20, 393.01
326.58, 0.00, 396.23
326.16, 0.00, 398.38
326.36, 0.36, 397.38
326.36, 0.61, 397.38
326.37, 0.85, 397.38
326.37, 1.10, 397.38
326.37, 1.35, 397.38
326.38, 1.60, 397.38
326.38, 1.84, 397.38
326.39, 2.09, 397.38
326.39, 2.33, 397.38
329.20, 0.23, 382.88
329.17, 0.23, 383.08
329.13, 0.22, 383.31
329.09, 0.22, 383.54
329.04, 0.22, 383.81
328.99, 0.21, 384.10
328.93, 0.20, 384.41
328.87, 0.20, 384.72
328.81, 0.21, 385.06
328.75, 0.21, 385.43
328.67, 0.21, 385.84
328.59, 0.21, 386.30
328.50, 0.21, 386.81
¯328.40, 0.21, 387.37
328.28, 0.20, 388.05
328.15, 0.20, 388.79
327.98, 0.18, 389.71
327.82, 0.19, 390.63
327.62, 0.19, 391.73
327.38, 0.19, 393.07
326.81, 0.00, 396.25
326.42, 0.00, 398.40
326.61, 0.36, 397.38
326.61, 0.61, 397.38
326.62, 0.85, 397.38
326.62, 1.10, 397.38
326.63, 1.35, 397.38
326.63, 1.59, 397.38
326.63, 1.84, 397.38
326.64, 2.09, 397.38
326.64, 2.33, 397.38
329.27, 0.23, 382.89
329.24, 0.23, 383.09
329.20, 0.22, 383.32
329.16, 0.22, 383.56
329.11, 0.21, 383.82
329.07, 0.21, 384.11
329.01, 0.20, 384.42
328.96, 0.20, 384.74
328.90, 0.20, 385.08
328.84, 0.21, 385.45
328.78, 0.21, 385.86
328.70, 0.21, 386.32
328.61, 0.21, 386.82
328.52, 0.21, 387.39
328.41, 0.20, 388.07
328.28, 0.20, 388.81
328.13, 0.18, 389.73
327.98, 0.19, 390.65
327.79, 0.19, 391.76
327.57, 0.19, 393.13
327.04, 0.00, 396.26
326.68, 0.00, 398.41
326.86, 0.36, 397.38
326.86, 0.61, 397.38
326.87, 0.85, 397.38
326.87, 1.10, 397.38
326.87, 1.35, 397.38
326.88, 1.59, 397.38
326.88, 1.84, 397.38
326.88, 2.08, 397.38
326.89, 2.33, 397.38
329.34, 0.23, 382.90
329.30, 0.23, 383.10
¯329.27, 0.22, 383.33
329.23, 0.22, 383.57
329.19, 0.21, 383.83
329.15, 0.21, 384.12
329.10, 0.20, 384.44
329.05, 0.20, 384.75
329.00, 0.20, 385.09
328.94, 0.21, 385.46
328.88, 0.21, 385.87
328.81, 0.21, 386.33
328.73, 0.21, 386.84
328.64, 0.21, 387.40
328.54, 0.20, 388.08
328.42, 0.20, 388.83
328.28, 0.18, 389.74
328.14, 0.19, 390.67
327.97, 0.19, 391.79
327.75, 0.18, 393.18
327.27, 0.00, 396.28
326.94, 0.00, 398.42
327.11, 0.36, 397.38
327.11, 0.61, 397.38
327.12, 0.85, 397.38
327.12, 1.10, 397.38
327.12, 1.35, 397.38
327.13, 1.59, 397.38
327.13, 1.84, 397.38
327.13, 2.08, 397.38
327.14, 2.32, 397.38
329.40, 0.23, 382.90
329.37, 0.23, 383.11
329.34, 0.22, 383.34
329.31, 0.22, 383.58
329.27, 0.21, 383.84
329.23, 0.21, 384.13
329.18, 0.20, 384.45
329.14, 0.20, 384.76
329.09, 0.20, 385.11
329.04, 0.20, 385.48
328.98, 0.21, 385.89
328.91, 0.21, 386.35
328.84, 0.21, 386.86
328.76, 0.21, 387.42
328.67, 0.20, 388.10
328.56, 0.20, 388.84
328.43, 0.18, 389.75
328.30, 0.19, 390.69
328.14, 0.19, 391.82
327.94, 0.18, 393.23
327.51, 0.00, 396.29
327.20, 0.00, 398.42
¯327.36, 0.36, 397.38
327.36, 0.61, 397.38
327.36, 0.85, 397.38
327.37, 1.10, 397.38
327.37, 1.34, 397.38
327.37, 1.59, 397.38
327.38, 1.83, 397.38
327.38, 2.08, 397.38
327.38, 2.32, 397.38
329.47, 0.23, 382.91
329.44, 0.23, 383.12
329.41, 0.22, 383.34
329.38, 0.22, 383.59
329.35, 0.21, 383.85
329.31, 0.21, 384.14
329.27, 0.20, 384.46
329.23, 0.20, 384.78
329.18, 0.20, 385.12
329.13, 0.20, 385.49
329.08, 0.20, 385.90
329.02, 0.20, 386.36
328.96, 0.20, 386.87
328.88, 0.21, 387.44
328.80, 0.20, 388.11
328.70, 0.20, 388.85
328.58, 0.18, 389.76
328.46, 0.19, 390.71
328.31, 0.18, 391.85
328.13, 0.17, 393.28
327.74, 0.00, 396.29
327.46, 0.00, 398.43
327.60, 0.36, 397.38
327.61, 0.61, 397.38
327.61, 0.85, 397.38
327.61, 1.10, 397.38
327.62, 1.34, 397.38
327.62, 1.59, 397.38
327.62, 1.83, 397.38
327.63, 2.07, 397.38
327.63, 2.32, 397.38
329.53, 0.23, 382.92
329.51, 0.22, 383.13
329.48, 0.22, 383.35
329.45, 0.22, 383.59
329.42, 0.21, 383.86
329.39, 0.21, 384.15
329.35, 0.20, 384.47
329.31, 0.20, 384.79
329.27, 0.20, 385.13
329.23, 0.20, 385.50
329.18, 0.20, 385.91
¯329.13, 0.20, 386.37
329.07, 0.20, 386.88
329.00, 0.20, 387.45
328.93, 0.20, 388.12
328.84, 0.19, 388.87
328.73, 0.18, 389.77
328.62, 0.18, 390.73
328.49, 0.18, 391.88
328.32, 0.17, 393.32
327.97, 0.00, 396.30
327.72, 0.00, 398.43
327.85, 0.36, 397.38
327.85, 0.61, 397.38
327.86, 0.85, 397.38
327.86, 1.10, 397.38
327.86, 1.34, 397.38
327.86, 1.58, 397.38
327.87, 1.83, 397.38
327.87, 2.07, 397.38
327.87, 2.31, 397.38
329.60, 0.23, 382.92
329.58, 0.22, 383.13
329.55, 0.22, 383.36
329.53, 0.22, 383.60
329.50, 0.21, 383.87
329.47, 0.21, 384.16
329.44, 0.20, 384.48
329.40, 0.20, 384.80
329.37, 0.20, 385.14
329.33, 0.20, 385.51
329.29, 0.20, 385.92
329.24, 0.20, 386.38
329.18, 0.20, 386.89
329.13, 0.20, 387.46
329.06, 0.20, 388.13
328.98, 0.19, 388.88
328.88, 0.18, 389.77
328.78, 0.18, 390.74
328.66, 0.18, 391.90
328.51, 0.16, 393.36
328.20, 0.00, 396.30
327.98, 0.00, 398.43
328.09, 0.36, 397.38
328.10, 0.61, 397.38
328.10, 0.85, 397.38
328.10, 1.09, 397.38
328.11, 1.34, 397.38
328.11, 1.58, 397.38
328.11, 1.83, 397.38
328.12, 2.07, 397.38
328.12, 2.31, 397.38
¯329.66, 0.23, 382.93
329.64, 0.22, 383.14
329.62, 0.22, 383.36
329.60, 0.22, 383.61
329.58, 0.21, 383.88
329.55, 0.20, 384.17
329.52, 0.20, 384.48
329.49, 0.20, 384.80
329.46, 0.20, 385.15
329.43, 0.20, 385.52
329.39, 0.20, 385.93
329.35, 0.20, 386.39
329.30, 0.20, 386.90
329.25, 0.20, 387.47
329.19, 0.20, 388.14
329.12, 0.19, 388.88
329.03, 0.18, 389.78
328.94, 0.18, 390.76
328.84, 0.18, 391.92
328.70, 0.16, 393.39
328.43, 0.00, 396.30
328.24, 0.00, 398.43
328.34, 0.36, 397.38
328.34, 0.60, 397.38
328.35, 0.85, 397.38
328.35, 1.09, 397.38
328.35, 1.34, 397.38
328.35, 1.58, 397.38
328.36, 1.82, 397.38
328.36, 2.07, 397.38
328.36, 2.31, 397.38
329.73, 0.23, 382.93
329.71, 0.22, 383.14
329.70, 0.22, 383.37
329.68, 0.22, 383.61
329.65, 0.21, 383.88
329.63, 0.20, 384.17
329.61, 0.20, 384.49
329.58, 0.20, 384.81
329.55, 0.20, 385.16
329.52, 0.20, 385.53
329.49, 0.20, 385.94
329.45, 0.20, 386.40
329.41, 0.20, 386.91
329.37, 0.20, 387.48
329.32, 0.20, 388.15
329.26, 0.19, 388.89
329.19, 0.18, 389.78
329.11, 0.18, 390.77
329.01, 0.17, 391.93
328.88, 0.13, 393.58
¯328.66, 0.00, 396.29
328.50, 0.00, 398.42
328.58, 0.36, 397.38
328.59, 0.60, 397.38
328.59, 0.85, 397.38
328.59, 1.09, 397.38
328.59, 1.33, 397.38
328.60, 1.58, 397.38
328.60, 1.82, 397.38
328.60, 2.06, 397.38
328.61, 2.31, 397.38
329.80, 0.23, 382.94
329.78, 0.22, 383.15
329.77, 0.22, 383.37
329.75, 0.22, 383.62
329.73, 0.21, 383.89
329.71, 0.20, 384.18
329.69, 0.20, 384.49
329.67, 0.19, 384.82
329.65, 0.20, 385.16
329.62, 0.20, 385.54
329.59, 0.20, 385.95
329.56, 0.20, 386.41
329.53, 0.20, 386.92
329.49, 0.20, 387.49
329.44, 0.19, 388.15
329.39, 0.19, 388.90
329.34, 0.18, 389.78
329.27, 0.18, 390.78
329.19, 0.17, 391.94
329.09, 0.16, 393.40
328.90, 0.00, 396.29
328.75, 0.00, 398.41
328.83, 0.36, 397.38
328.83, 0.60, 397.38
328.83, 0.85, 397.38
328.84, 1.09, 397.38
328.84, 1.33, 397.38
328.84, 1.58, 397.38
328.84, 1.82, 397.38
328.85, 2.06, 397.38
328.85, 2.30, 397.38
329.86, 0.23, 382.94
329.85, 0.22, 383.15
329.84, 0.22, 383.38
329.82, 0.22, 383.62
329.81, 0.21, 383.89
329.79, 0.20, 384.18
329.78, 0.20, 384.50
329.76, 0.19, 384.82
329.74, 0.19, 385.17
¯329.72, 0.20, 385.54
329.70, 0.20, 385.95
329.67, 0.20, 386.42
329.64, 0.20, 386.93
329.61, 0.20, 387.49
329.57, 0.19, 388.16
329.53, 0.19, 388.90
329.49, 0.18, 389.78
329.43, 0.18, 390.79
329.37, 0.17, 391.93
329.29, 0.16, 393.39
329.13, 0.00, 396.28
329.01, 0.00, 398.40
329.07, 0.36, 397.38
329.07, 0.60, 397.38
329.08, 0.84, 397.38
329.08, 1.09, 397.38
329.08, 1.33, 397.38
329.08, 1.57, 397.38
329.09, 1.82, 397.38
329.09, 2.06, 397.38
329.09, 2.30, 397.38
329.93, 0.23, 382.94
329.92, 0.22, 383.15
329.91, 0.22, 383.38
329.90, 0.22, 383.62
329.89, 0.21, 383.89
329.87, 0.20, 384.18
329.86, 0.20, 384.50
329.85, 0.19, 384.83
329.83, 0.19, 385.17
329.82, 0.19, 385.55
329.80, 0.20, 385.96
329.78, 0.20, 386.42
329.76, 0.20, 386.93
329.73, 0.20, 387.50
329.70, 0.19, 388.16
329.67, 0.19, 388.90
329.64, 0.18, 389.78
329.58, 0.14, 391.00
329.54, 0.17, 391.93
329.48, 0.16, 393.39
329.36, 0.00, 396.27
329.27, 0.00, 398.38
329.31, 0.35, 397.38
329.32, 0.60, 397.38
329.32, 0.84, 397.38
329.32, 1.09, 397.38
329.32, 1.33, 397.38
329.33, 1.57, 397.38
329.33, 1.81, 397.38
¯329.33, 2.06, 397.38
329.33, 2.30, 397.38
329.99, 0.23, 382.94
329.99, 0.22, 383.15
329.98, 0.22, 383.38
329.97, 0.21, 383.62
329.96, 0.21, 383.89
329.96, 0.20, 384.18
329.95, 0.19, 384.50
329.94, 0.19, 384.83
329.93, 0.19, 385.18
329.91, 0.19, 385.55
329.90, 0.20, 385.96
329.89, 0.20, 386.42
329.87, 0.20, 386.93
329.85, 0.20, 387.50
329.83, 0.19, 388.16
329.81, 0.19, 388.90
329.78, 0.18, 389.77
329.75, 0.17, 390.78
329.72, 0.17, 391.93
329.67, 0.15, 393.38
329.59, 0.00, 396.26
329.52, 0.00, 398.37
329.56, 0.35, 397.38
329.56, 0.60, 397.38
329.56, 0.84, 397.38
329.56, 1.08, 397.38
329.57, 1.33, 397.38
329.57, 1.57, 397.38
329.57, 1.81, 397.38
329.57, 2.05, 397.38
329.58, 2.29, 397.38
330.06, 0.23, 382.94
330.06, 0.22, 383.16
330.05, 0.22, 383.38
330.05, 0.21, 383.62
330.04, 0.21, 383.89
330.04, 0.20, 384.19
330.03, 0.19, 384.50
330.02, 0.19, 384.83
330.02, 0.19, 385.18
330.01, 0.19, 385.56
330.00, 0.19, 385.97
330.00, 0.19, 386.43
329.99, 0.19, 386.94
329.98, 0.19, 387.50
329.96, 0.19, 388.16
329.95, 0.19, 388.90
329.93, 0.18, 389.80
329.92, 0.17, 390.78
¯329.89, 0.17, 391.92
329.87, 0.15, 393.37
329.81, 0.00, 396.24
329.78, 0.00, 398.35
329.80, 0.35, 397.38
329.80, 0.59, 397.38
329.80, 0.84, 397.38
329.81, 1.08, 397.38
329.81, 1.32, 397.38
329.81, 1.57, 397.38
329.81, 1.81, 397.38
329.82, 2.05, 397.38
329.82, 2.29, 397.38
330.13, 0.23, 382.94
330.12, 0.22, 383.15
330.12, 0.22, 383.38
330.12, 0.21, 383.62
330.12, 0.21, 383.89
330.12, 0.20, 384.18
330.12, 0.19, 384.50
330.11, 0.19, 384.84
330.11, 0.19, 385.18
330.11, 0.19, 385.56
330.11, 0.19, 385.97
330.10, 0.19, 386.43
330.10, 0.19, 386.94
330.10, 0.19, 387.51
330.09, 0.19, 388.16
330.09, 0.15, 389.11
330.08, 0.18, 389.76
330.08, 0.17, 390.78
330.07, 0.17, 391.92
330.06, 0.15, 393.36
330.04, 0.00, 396.21
330.03, 0.00, 398.33
330.04, 0.35, 397.38
330.04, 0.59, 397.38
330.04, 0.84, 397.38
330.05, 1.08, 397.38
330.05, 1.32, 397.38
330.05, 1.56, 397.38
330.06, 1.81, 397.38
330.06, 2.05, 397.38
330.06, 2.29, 397.38
330.19, 0.23, 382.94
330.19, 0.22, 383.15
330.19, 0.22, 383.38
330.20, 0.21, 383.62
330.20, 0.21, 383.89
330.20, 0.20, 384.18
330.20, 0.19, 384.50
¯330.20, 0.19, 384.84
330.20, 0.19, 385.18
330.21, 0.19, 385.56
330.21, 0.19, 385.97
330.21, 0.19, 386.43
330.22, 0.19, 386.94
330.22, 0.19, 387.51
330.22, 0.19, 388.15
330.23, 0.19, 388.88
330.23, 0.18, 389.76
330.24, 0.17, 390.77
330.25, 0.17, 391.92
330.25, 0.15, 393.35
330.27, 0.14, 395.06
330.28, 0.00, 398.30
330.28, 0.35, 397.38
330.28, 0.59, 397.38
330.29, 0.83, 397.38
330.29, 1.08, 397.38
330.29, 1.32, 397.38
330.29, 1.56, 397.38
330.30, 1.80, 397.38
330.30, 2.04, 397.38
330.30, 2.29, 397.38
330.26, 0.23, 382.93
330.26, 0.22, 383.15
330.27, 0.22, 383.38
330.27, 0.21, 383.62
330.27, 0.21, 383.89
330.28, 0.20, 384.18
330.29, 0.19, 384.50
330.29, 0.19, 384.84
330.30, 0.19, 385.18
330.30, 0.19, 385.56
330.31, 0.19, 385.97
330.32, 0.19, 386.42
330.33, 0.19, 386.93
330.34, 0.19, 387.50
330.35, 0.18, 388.22
330.37, 0.19, 388.88
330.38, 0.18, 389.75
330.40, 0.17, 390.77
330.42, 0.17, 391.91
330.45, 0.15, 393.33
330.48, 0.14, 395.04
330.54, 0.00, 398.27
330.52, 0.34, 397.38
330.53, 0.59, 397.38
330.53, 0.83, 397.38
330.53, 1.07, 397.38
330.53, 1.32, 397.38
¯330.54, 1.56, 397.38
330.54, 1.80, 397.38
330.54, 2.04, 397.38
330.54, 2.28, 397.38
330.32, 0.23, 382.93
330.33, 0.22, 383.15
330.34, 0.22, 383.37
330.34, 0.21, 383.62
330.35, 0.21, 383.89
330.36, 0.20, 384.18
330.37, 0.19, 384.49
330.38, 0.19, 384.83
330.39, 0.19, 385.18
330.40, 0.19, 385.55
330.42, 0.19, 385.97
330.43, 0.19, 386.42
330.44, 0.19, 386.93
330.47, 0.15, 387.70
330.48, 0.19, 388.14
330.50, 0.19, 388.88
330.53, 0.18, 389.75
330.56, 0.17, 390.76
330.60, 0.17, 391.90
330.64, 0.15, 393.31
330.69, 0.14, 395.02
330.79, 0.00, 398.24
330.77, 0.34, 397.38
330.77, 0.58, 397.38
330.77, 0.83, 397.38
330.77, 1.07, 397.38
330.78, 1.31, 397.38
330.78, 1.56, 397.38
330.78, 1.80, 397.38
330.78, 2.04, 397.38
330.79, 2.28, 397.38
330.39, 0.23, 382.93
330.40, 0.22, 383.14
330.41, 0.22, 383.37
330.42, 0.21, 383.61
330.43, 0.21, 383.88
330.44, 0.20, 384.17
330.46, 0.19, 384.49
330.47, 0.19, 384.83
330.48, 0.19, 385.18
330.50, 0.19, 385.55
330.52, 0.19, 385.96
330.54, 0.19, 386.42
330.56, 0.19, 386.93
330.58, 0.19, 387.48
330.61, 0.19, 388.13
330.64, 0.19, 388.87
¯330.68, 0.18, 389.74
330.72, 0.17, 390.75
330.77, 0.16, 391.89
330.83, 0.15, 393.29
330.90, 0.14, 394.99
331.04, 0.00, 398.21
331.01, 0.34, 397.38
331.01, 0.58, 397.38
331.01, 0.82, 397.38
331.02, 1.07, 397.38
331.02, 1.31, 397.38
331.02, 1.55, 397.38
331.02, 1.80, 397.38
331.03, 2.04, 397.38
331.03, 2.28, 397.38
330.45, 0.23, 382.92
330.47, 0.22, 383.14
330.48, 0.22, 383.37
330.49, 0.21, 383.61
330.51, 0.21, 383.88
330.52, 0.20, 384.17
330.54, 0.19, 384.48
330.56, 0.18, 384.83
330.58, 0.18, 385.17
330.60, 0.19, 385.55
330.62, 0.19, 385.96
330.65, 0.19, 386.41
330.68, 0.17, 387.01
330.70, 0.19, 387.48
330.74, 0.19, 388.13
330.78, 0.18, 388.86
330.83, 0.18, 389.73
330.88, 0.17, 390.73
330.95, 0.16, 391.88
331.02, 0.15, 393.27
331.12, 0.14, 394.97
331.29, 0.00, 398.18
331.25, 0.33, 397.38
331.25, 0.58, 397.38
331.26, 0.82, 397.38
331.26, 1.06, 397.38
331.26, 1.31, 397.38
331.26, 1.55, 397.38
331.27, 1.79, 397.38
331.27, 2.03, 397.38
331.27, 2.28, 397.38
330.52, 0.23, 382.91
330.53, 0.22, 383.13
330.55, 0.22, 383.36
330.57, 0.21, 383.60
330.58, 0.21, 383.87
¯330.60, 0.20, 384.16
330.62, 0.19, 384.48
330.65, 0.18, 384.82
330.67, 0.18, 385.17
330.70, 0.18, 385.54
330.72, 0.19, 385.95
330.77, 0.14, 386.60
330.79, 0.19, 386.91
330.83, 0.19, 387.47
330.87, 0.19, 388.12
330.92, 0.18, 388.85
330.98, 0.18, 389.72
331.04, 0.17, 390.72
331.12, 0.16, 391.86
331.21, 0.15, 393.25
331.33, 0.14, 394.93
331.54, 0.00, 398.14
331.49, 0.33, 397.38
331.50, 0.57, 397.38
331.50, 0.82, 397.38
331.50, 1.06, 397.38
331.50, 1.30, 397.38
331.51, 1.55, 397.38
331.51, 1.79, 397.38
331.51, 2.03, 397.38
331.51, 2.27, 397.38
330.58, 0.23, 382.91
330.60, 0.22, 383.13
330.62, 0.22, 383.35
330.64, 0.21, 383.60
330.66, 0.21, 383.86
330.68, 0.20, 384.15
330.71, 0.19, 384.47
330.74, 0.18, 384.81
330.76, 0.18, 385.16
330.79, 0.18, 385.54
330.83, 0.18, 385.95
330.86, 0.18, 386.42
330.90, 0.19, 386.90
330.95, 0.19, 387.46
331.00, 0.18, 388.11
331.06, 0.18, 388.84
331.13, 0.17, 389.71
331.21, 0.17, 390.71
331.30, 0.16, 391.85
331.41, 0.15, 393.22
331.54, 0.14, 394.89
331.79, 0.00, 398.10
331.74, 0.33, 397.38
331.74, 0.57, 397.38
331.74, 0.81, 397.38
¯331.74, 1.06, 397.38
331.75, 1.30, 397.38
331.75, 1.54, 397.38
331.75, 1.79, 397.38
331.75, 2.03, 397.38
331.76, 2.27, 397.38
330.65, 0.23, 382.90
330.67, 0.22, 383.12
330.69, 0.22, 383.35
330.71, 0.21, 383.59
330.74, 0.21, 383.86
330.76, 0.20, 384.14
330.79, 0.19, 384.46
330.82, 0.18, 384.80
330.86, 0.18, 385.15
330.89, 0.18, 385.53
330.94, 0.15, 386.05
330.97, 0.19, 386.39
331.02, 0.19, 386.89
331.07, 0.19, 387.45
331.13, 0.18, 388.10
331.19, 0.18, 388.83
331.27, 0.17, 389.69
331.37, 0.16, 390.69
331.47, 0.16, 391.83
331.60, 0.15, 393.19
331.75, 0.14, 394.86
332.04, 0.00, 398.06
331.98, 0.32, 397.38
331.98, 0.57, 397.38
331.99, 0.81, 397.38
331.99, 1.05, 397.38
331.99, 1.30, 397.38
331.99, 1.54, 397.38
332.00, 1.78, 397.38
332.00, 2.03, 397.38
332.00, 2.27, 397.38
330.72, 0.23, 382.89
330.74, 0.22, 383.11
330.76, 0.22, 383.34
330.79, 0.21, 383.58
330.81, 0.21, 383.85
330.84, 0.20, 384.14
330.88, 0.19, 384.45
330.91, 0.18, 384.79
330.95, 0.18, 385.15
331.01, 0.13, 385.72
331.03, 0.18, 385.92
331.08, 0.18, 386.38
331.13, 0.18, 386.88
331.19, 0.19, 387.44
¯331.26, 0.18, 388.08
331.33, 0.18, 388.82
331.42, 0.17, 389.67
331.53, 0.16, 390.67
331.64, 0.16, 391.81
331.79, 0.15, 393.17
331.96, 0.14, 394.82
332.29, 0.00, 398.01
332.23, 0.32, 397.38
332.23, 0.56, 397.38
332.23, 0.81, 397.38
332.23, 1.05, 397.38
332.24, 1.29, 397.38
332.24, 1.54, 397.38
332.24, 1.78, 397.38
332.24, 2.02, 397.38
332.24, 2.27, 397.38
330.78, 0.23, 382.88
330.81, 0.22, 383.10
330.83, 0.22, 383.33
330.86, 0.21, 383.57
330.89, 0.20, 383.84
330.92, 0.20, 384.12
330.96, 0.19, 384.44
331.00, 0.18, 384.78
331.04, 0.18, 385.14
331.09, 0.17, 385.56
331.13, 0.18, 385.91
331.19, 0.18, 386.36
331.24, 0.18, 386.87
331.31, 0.18, 387.42
331.38, 0.18, 388.07
331.47, 0.18, 388.80
331.57, 0.17, 389.65
331.69, 0.16, 390.65
331.82, 0.16, 391.78
331.98, 0.15, 393.14
332.17, 0.14, 394.78
332.54, 0.00, 397.97
332.47, 0.31, 397.38
332.47, 0.56, 397.38
332.48, 0.80, 397.38
332.48, 1.05, 397.38
332.48, 1.29, 397.38
332.48, 1.53, 397.38
332.48, 1.78, 397.38
332.49, 2.02, 397.38
332.49, 2.27, 397.38
330.84, 0.23, 382.87
330.87, 0.22, 383.09
330.90, 0.21, 383.32
¯330.93, 0.21, 383.56
330.97, 0.20, 383.83
331.00, 0.20, 384.11
331.05, 0.19, 384.43
331.09, 0.18, 384.77
331.15, 0.14, 385.27
331.18, 0.18, 385.49
331.23, 0.18, 385.90
331.29, 0.18, 386.35
331.36, 0.18, 386.85
331.43, 0.18, 387.41
331.51, 0.18, 388.06
331.61, 0.18, 388.79
331.72, 0.17, 389.63
331.85, 0.16, 390.63
331.99, 0.16, 391.76
332.17, 0.15, 393.11
332.38, 0.14, 394.74
332.78, 0.00, 397.92
332.72, 0.31, 397.38
332.72, 0.55, 397.38
