ŸVERSION 0.7
FIELDS x y z
SIZE 8 8 8
TYPE F F F
COUNT 1 1 1
WIDTH 2271
HEIGHT 1
VIEWPOINT 393.68, 14.37, 309.61 1 375.32, 9.56, 301.57
POINTS 2271
DATA ascii
375.21, 9.04, 304.19
375.21, 9.09, 304.19
375.21, 9.14, 304.19
375.21, 9.19, 304.19
375.21, 9.24, 304.19
375.21, 9.29, 304.19
375.21, 9.34, 304.19
375.21, 9.39, 304.19
375.21, 9.44, 304.19
375.21, 9.49, 304.19
375.21, 9.54, 304.19
¯375.20, 9.58, 304.19
375.20, 9.63, 304.19
375.20, 9.68, 304.19
375.38, 8.22, 304.11
375.38, 8.28, 304.11
375.38, 8.33, 304.10
375.31, 8.35, 304.17
375.18, 8.35, 304.31
375.03, 8.35, 304.47
374.89, 8.36, 304.61
374.89, 8.42, 304.61
374.88, 8.48, 304.61
374.88, 8.54, 304.61
374.88, 8.60, 304.60
374.88, 8.65, 304.60
374.88, 8.71, 304.60
375.08, 8.81, 304.40
375.25, 8.89, 304.22
375.25, 8.94, 304.22
375.25, 8.99, 304.22
375.25, 9.04, 304.22
375.25, 9.09, 304.22
375.25, 9.14, 304.22
375.25, 9.19, 304.22
375.25, 9.24, 304.22
375.25, 9.29, 304.22
375.25, 9.34, 304.22
375.25, 9.39, 304.22
375.25, 9.44, 304.22
375.25, 9.49, 304.22
375.25, 9.54, 304.22
375.24, 9.59, 304.22
375.24, 9.63, 304.22
375.24, 9.68, 304.22
375.37, 8.20, 304.19
375.38, 8.26, 304.17
375.40, 8.32, 304.15
375.34, 8.35, 304.21
375.20, 8.35, 304.35
375.06, 8.35, 304.51
374.93, 8.37, 304.64
374.93, 8.42, 304.64
374.93, 8.48, 304.64
374.93, 8.54, 304.64
374.93, 8.60, 304.64
374.93, 8.66, 304.64
374.93, 8.71, 304.64
374.70, 8.72, 304.88
374.86, 8.81, 304.70
375.29, 8.95, 304.25
375.29, 8.99, 304.25
¯375.29, 9.04, 304.25
375.29, 9.09, 304.25
375.29, 9.14, 304.25
375.29, 9.19, 304.25
375.29, 9.24, 304.25
375.29, 9.29, 304.25
375.29, 9.34, 304.25
375.29, 9.39, 304.25
375.29, 9.44, 304.25
375.29, 9.49, 304.25
375.29, 9.54, 304.25
375.28, 9.59, 304.25
375.28, 9.63, 304.25
375.28, 9.68, 304.25
375.46, 8.23, 304.16
375.46, 8.28, 304.16
375.46, 8.33, 304.16
375.34, 8.34, 304.28
375.16, 8.32, 304.47
375.09, 8.35, 304.55
374.98, 8.37, 304.67
374.97, 8.43, 304.67
374.97, 8.48, 304.67
374.97, 8.54, 304.67
374.97, 8.60, 304.67
374.97, 8.66, 304.67
374.97, 8.71, 304.67
374.73, 8.72, 304.93
374.42, 8.72, 305.26
374.60, 8.82, 305.07
375.21, 8.98, 304.41
375.33, 9.05, 304.28
375.33, 9.09, 304.28
375.33, 9.14, 304.28
375.33, 9.19, 304.28
375.33, 9.24, 304.28
375.33, 9.29, 304.28
375.33, 9.34, 304.28
375.33, 9.39, 304.28
375.33, 9.44, 304.28
375.33, 9.49, 304.28
375.33, 9.54, 304.28
375.32, 9.59, 304.28
375.32, 9.64, 304.28
375.32, 9.68, 304.28
375.50, 8.23, 304.18
375.50, 8.28, 304.18
375.49, 8.33, 304.18
375.37, 8.34, 304.32
375.24, 8.34, 304.47
375.09, 8.34, 304.63
¯375.02, 8.37, 304.71
375.02, 8.43, 304.70
375.02, 8.49, 304.70
375.02, 8.54, 304.70
375.02, 8.60, 304.70
375.02, 8.66, 304.70
375.01, 8.72, 304.70
374.76, 8.72, 304.99
374.45, 8.72, 305.33
374.27, 8.82, 305.52
375.00, 8.99, 304.72
375.37, 9.10, 304.31
375.37, 9.15, 304.31
375.37, 9.19, 304.31
375.37, 9.24, 304.31
375.37, 9.29, 304.31
375.37, 9.34, 304.31
375.37, 9.39, 304.31
375.37, 9.44, 304.31
375.37, 9.49, 304.31
375.36, 9.54, 304.31
375.36, 9.59, 304.31
375.36, 9.64, 304.31
375.36, 9.68, 304.30
375.07, 8.02, 304.74
375.07, 8.08, 304.74
375.25, 8.22, 304.53
375.28, 8.28, 304.50
375.27, 8.33, 304.51
375.12, 8.33, 304.67
375.06, 8.37, 304.74
375.06, 8.43, 304.74
375.06, 8.49, 304.74
375.06, 8.55, 304.74
375.06, 8.60, 304.74
375.06, 8.66, 304.74
375.04, 8.71, 304.75
374.79, 8.71, 305.04
374.74, 9.02, 305.09
375.31, 9.14, 304.44
375.41, 9.20, 304.34
375.41, 9.24, 304.34
375.41, 9.29, 304.34
375.41, 9.34, 304.34
375.41, 9.39, 304.34
375.41, 9.44, 304.34
375.41, 9.49, 304.34
375.40, 9.54, 304.33
375.40, 9.59, 304.33
375.40, 9.64, 304.33
375.40, 9.68, 304.33
¯375.11, 8.02, 304.77
375.11, 8.08, 304.77
375.11, 8.14, 304.77
375.11, 8.20, 304.77
375.11, 8.26, 304.77
375.11, 8.32, 304.77
375.11, 8.37, 304.77
375.11, 8.43, 304.77
375.11, 8.49, 304.77
375.11, 8.55, 304.77
375.11, 8.60, 304.77
375.11, 8.66, 304.77
375.07, 8.71, 304.80
374.82, 8.71, 305.10
374.42, 9.04, 305.55
375.11, 9.17, 304.76
375.45, 9.24, 304.37
375.45, 9.29, 304.37
375.45, 9.34, 304.37
375.45, 9.39, 304.36
375.44, 9.44, 304.36
375.44, 9.49, 304.36
375.44, 9.54, 304.36
375.44, 9.59, 304.36
375.44, 9.64, 304.36
375.44, 9.69, 304.36
375.16, 8.02, 304.80
375.16, 8.08, 304.80
375.18, 8.15, 304.77
374.61, 7.97, 305.45
374.61, 8.04, 305.45
374.61, 8.11, 305.45
374.61, 8.18, 305.44
374.61, 8.25, 305.44
374.67, 8.34, 305.38
374.72, 8.42, 305.31
374.78, 8.50, 305.24
374.83, 8.58, 305.18
374.88, 8.65, 305.12
374.85, 8.71, 305.15
374.85, 9.20, 305.14
375.40, 9.29, 304.49
375.49, 9.34, 304.39
375.48, 9.39, 304.39
375.48, 9.44, 304.39
375.48, 9.49, 304.39
375.48, 9.54, 304.39
375.48, 9.59, 304.39
375.48, 9.64, 304.39
375.48, 9.69, 304.39
375.08, 7.96, 304.98
¯374.92, 7.95, 305.18
374.74, 7.94, 305.40
374.67, 7.97, 305.48
374.67, 8.04, 305.48
374.66, 8.11, 305.48
374.64, 8.17, 305.52
372.31, 7.44, 308.35
372.02, 7.46, 308.70
371.68, 7.48, 309.11
371.48, 7.55, 309.36
371.28, 7.63, 309.60
371.05, 7.71, 309.87
370.60, 7.74, 310.43
375.15, 9.22, 304.87
375.15, 9.28, 304.87
375.20, 9.33, 304.82
375.52, 9.39, 304.42
375.52, 9.44, 304.42
375.52, 9.49, 304.42
375.52, 9.54, 304.42
375.52, 9.59, 304.42
375.52, 9.64, 304.42
375.52, 9.69, 304.42
379.23, 8.11, 297.27
379.27, 8.12, 297.17
379.31, 8.13, 297.08
379.36, 8.14, 296.98
379.40, 8.15, 296.87
379.45, 8.16, 296.76
379.51, 8.17, 296.62
379.57, 8.18, 296.49
379.63, 8.19, 296.36
379.70, 8.21, 296.21
379.77, 8.22, 296.05
379.85, 8.23, 295.87
379.93, 8.25, 295.68
380.02, 8.26, 295.49
380.11, 8.28, 295.27
380.22, 8.30, 295.04
380.33, 8.32, 294.78
380.45, 8.34, 294.50
380.59, 8.37, 294.20
380.78, 8.37, 293.76
381.17, 8.32, 292.87
381.41, 8.34, 292.33
381.69, 8.37, 291.70
382.01, 8.40, 290.98
382.43, 8.42, 290.03
382.99, 8.44, 288.75
383.85, 8.44, 286.80
385.51, 8.36, 283.03
¯379.19, 8.11, 297.25
379.23, 8.12, 297.16
379.27, 8.13, 297.06
379.31, 8.14, 296.96
379.36, 8.15, 296.85
379.41, 8.17, 296.74
379.46, 8.17, 296.60
379.52, 8.18, 296.47
379.58, 8.20, 296.34
379.64, 8.21, 296.19
379.71, 8.22, 296.03
379.79, 8.23, 295.84
379.87, 8.25, 295.65
379.96, 8.26, 295.45
380.05, 8.28, 295.24
380.15, 8.30, 295.01
380.26, 8.32, 294.75
380.38, 8.34, 294.47
380.52, 8.37, 294.15
380.66, 8.39, 293.81
380.83, 8.42, 293.43
381.03, 8.45, 292.96
381.59, 8.37, 291.64
381.90, 8.40, 290.90
382.31, 8.43, 289.95
382.87, 8.44, 288.64
383.72, 8.44, 286.64
385.44, 8.35, 282.59
379.15, 8.11, 297.24
379.18, 8.12, 297.15
379.22, 8.14, 297.05
379.27, 8.15, 296.95
379.31, 8.16, 296.84
379.36, 8.17, 296.73
379.42, 8.17, 296.59
379.47, 8.19, 296.45
379.53, 8.20, 296.32
379.59, 8.21, 296.17
379.66, 8.23, 296.01
379.74, 8.23, 295.81
379.82, 8.25, 295.62
379.90, 8.27, 295.42
379.99, 8.28, 295.21
380.09, 8.30, 294.97
380.19, 8.32, 294.71
380.31, 8.34, 294.43
380.44, 8.37, 294.11
380.58, 8.39, 293.77
380.74, 8.42, 293.38
380.94, 8.45, 292.91
381.17, 8.48, 292.36
¯381.44, 8.50, 291.69
382.19, 8.43, 289.87
382.74, 8.44, 288.53
383.59, 8.44, 286.48
385.37, 8.33, 282.13
379.10, 8.12, 297.23
379.14, 8.13, 297.13
379.18, 8.14, 297.04
379.22, 8.15, 296.93
379.26, 8.16, 296.83
379.31, 8.17, 296.71
379.37, 8.18, 296.57
379.42, 8.19, 296.44
379.48, 8.20, 296.30
379.54, 8.21, 296.15
379.60, 8.23, 295.99
379.68, 8.23, 295.78
379.76, 8.25, 295.59
379.84, 8.27, 295.39
379.92, 8.28, 295.17
380.02, 8.30, 294.94
380.12, 8.32, 294.67
380.24, 8.34, 294.39
380.37, 8.37, 294.07
380.51, 8.39, 293.72
380.66, 8.42, 293.33
380.85, 8.45, 292.85
381.07, 8.48, 292.30
381.34, 8.51, 291.62
381.67, 8.54, 290.81
382.62, 8.44, 288.41
383.45, 8.43, 286.32
385.30, 8.31, 281.66
379.06, 8.12, 297.21
379.10, 8.13, 297.12
379.14, 8.14, 297.02
379.18, 8.15, 296.92
379.22, 8.16, 296.81
379.26, 8.18, 296.70
379.32, 8.18, 296.55
379.37, 8.19, 296.42
379.42, 8.20, 296.28
379.48, 8.22, 296.13
379.54, 8.23, 295.97
379.63, 8.23, 295.75
379.70, 8.25, 295.56
379.78, 8.27, 295.36
379.86, 8.28, 295.14
379.95, 8.30, 294.90
380.06, 8.32, 294.64
380.17, 8.35, 294.35
¯380.29, 8.37, 294.03
380.43, 8.40, 293.68
380.58, 8.42, 293.28
380.77, 8.45, 292.80
380.98, 8.48, 292.24
381.24, 8.51, 291.56
381.56, 8.54, 290.73
381.98, 8.57, 289.66
383.31, 8.43, 286.16
385.28, 8.28, 281.02
379.02, 8.12, 297.20
379.05, 8.13, 297.11
379.09, 8.14, 297.01
379.13, 8.16, 296.91
379.17, 8.17, 296.80
379.21, 8.18, 296.69
379.27, 8.18, 296.53
379.32, 8.19, 296.40
379.37, 8.21, 296.26
379.43, 8.22, 296.11
379.49, 8.23, 295.95
379.57, 8.23, 295.73
379.64, 8.25, 295.54
379.72, 8.27, 295.33
379.80, 8.29, 295.11
379.89, 8.30, 294.87
379.99, 8.32, 294.60
380.09, 8.35, 294.31
380.21, 8.37, 293.99
380.35, 8.40, 293.64
380.50, 8.42, 293.24
380.68, 8.45, 292.75
380.89, 8.48, 292.18
381.14, 8.51, 291.49
381.45, 8.54, 290.66
381.86, 8.57, 289.57
383.17, 8.43, 285.99
385.48, 8.21, 279.73
378.98, 8.13, 297.19
379.01, 8.14, 297.09
379.05, 8.15, 297.00
379.08, 8.16, 296.89
379.12, 8.17, 296.79
379.16, 8.18, 296.67
379.22, 8.18, 296.52
379.27, 8.20, 296.38
379.32, 8.21, 296.24
379.37, 8.22, 296.09
379.43, 8.24, 295.93
379.51, 8.24, 295.70
379.58, 8.25, 295.51
¯379.65, 8.27, 295.30
379.73, 8.29, 295.08
379.82, 8.31, 294.84
379.92, 8.33, 294.57
380.02, 8.35, 294.28
380.14, 8.37, 293.95
380.27, 8.40, 293.59
380.41, 8.43, 293.19
380.59, 8.45, 292.69
380.79, 8.48, 292.13
381.04, 8.51, 291.43
381.34, 8.54, 290.59
381.74, 8.57, 289.48
382.35, 8.58, 287.75
378.94, 8.13, 297.18
378.97, 8.14, 297.08
379.00, 8.15, 296.99
379.04, 8.16, 296.88
379.08, 8.17, 296.77
379.12, 8.19, 296.66
379.17, 8.18, 296.50
379.22, 8.20, 296.37
379.27, 8.21, 296.22
379.32, 8.22, 296.07
379.37, 8.24, 295.91
379.45, 8.24, 295.67
379.52, 8.25, 295.48
379.59, 8.27, 295.27
379.67, 8.29, 295.05
379.75, 8.31, 294.80
379.85, 8.33, 294.53
379.95, 8.35, 294.24
380.06, 8.37, 293.91
380.19, 8.40, 293.55
380.33, 8.43, 293.14
380.50, 8.45, 292.64
380.70, 8.48, 292.07
380.94, 8.51, 291.37
381.23, 8.54, 290.52
381.61, 8.57, 289.40
382.22, 8.58, 287.62
378.89, 8.13, 297.17
378.93, 8.14, 297.07
378.96, 8.15, 296.97
378.99, 8.16, 296.87
379.03, 8.18, 296.76
379.07, 8.19, 296.65
379.12, 8.19, 296.48
379.16, 8.20, 296.35
379.21, 8.21, 296.21
379.26, 8.23, 296.05
¯379.32, 8.24, 295.89
379.40, 8.24, 295.65
379.46, 8.25, 295.45
379.53, 8.27, 295.24
379.61, 8.29, 295.02
379.69, 8.31, 294.77
379.78, 8.33, 294.50
379.88, 8.35, 294.20
379.98, 8.37, 293.87
380.11, 8.40, 293.51
380.24, 8.43, 293.09
380.41, 8.45, 292.59
380.60, 8.48, 292.01
380.83, 8.51, 291.30
381.12, 8.54, 290.45
381.49, 8.57, 289.31
382.09, 8.58, 287.49
378.85, 8.13, 297.16
378.88, 8.14, 297.06
378.91, 8.16, 296.96
378.95, 8.17, 296.86
378.98, 8.18, 296.75
379.02, 8.19, 296.63
379.07, 8.19, 296.47
379.11, 8.20, 296.33
379.16, 8.21, 296.19
379.21, 8.23, 296.04
379.26, 8.24, 295.88
379.34, 8.24, 295.62
379.40, 8.25, 295.42
379.47, 8.27, 295.21
379.54, 8.29, 294.99
379.62, 8.31, 294.74
379.71, 8.33, 294.47
379.80, 8.35, 294.17
379.91, 8.37, 293.83
380.02, 8.40, 293.47
380.16, 8.43, 293.05
380.32, 8.45, 292.54
380.50, 8.48, 291.95
380.73, 8.51, 291.24
381.00, 8.54, 290.37
381.37, 8.57, 289.22
381.95, 8.58, 287.37
378.81, 8.14, 297.14
378.84, 8.15, 297.05
378.87, 8.16, 296.95
378.90, 8.17, 296.85
378.93, 8.18, 296.74
378.97, 8.19, 296.62
379.02, 8.19, 296.45
¯379.06, 8.20, 296.32
379.11, 8.22, 296.17
379.15, 8.23, 296.02
379.20, 8.25, 295.86
379.28, 8.24, 295.59
379.34, 8.25, 295.40
379.41, 8.27, 295.19
379.47, 8.29, 294.96
379.55, 8.31, 294.71
379.64, 8.33, 294.43
379.73, 8.35, 294.13
379.83, 8.37, 293.80
379.94, 8.40, 293.43
380.07, 8.43, 293.00
380.23, 8.45, 292.49
380.41, 8.48, 291.90
380.62, 8.51, 291.19
380.89, 8.55, 290.30
381.24, 8.57, 289.14
381.81, 8.58, 287.24
378.77, 8.14, 297.13
378.80, 8.15, 297.04
378.82, 8.16, 296.94
378.85, 8.17, 296.84
378.89, 8.18, 296.73
378.92, 8.19, 296.61
378.97, 8.19, 296.44
379.01, 8.21, 296.30
379.05, 8.22, 296.16
379.10, 8.23, 296.00
379.15, 8.25, 295.83
379.22, 8.24, 295.57
379.28, 8.25, 295.37
379.34, 8.27, 295.16
379.41, 8.29, 294.93
379.48, 8.31, 294.68
379.56, 8.33, 294.40
379.65, 8.35, 294.10
379.75, 8.37, 293.76
379.86, 8.40, 293.38
379.98, 8.43, 292.95
380.13, 8.45, 292.44
380.31, 8.48, 291.84
380.51, 8.52, 291.13
380.77, 8.55, 290.23
381.11, 8.58, 289.05
381.68, 8.58, 287.11
378.73, 8.14, 297.13
378.75, 8.15, 297.03
378.78, 8.16, 296.93
378.81, 8.17, 296.83
¯378.84, 8.19, 296.72
378.87, 8.20, 296.59
378.92, 8.19, 296.42
378.96, 8.21, 296.29
379.00, 8.22, 296.14
379.04, 8.23, 295.99
379.09, 8.24, 295.80
379.16, 8.24, 295.54
379.22, 8.25, 295.35
379.28, 8.27, 295.13
379.34, 8.29, 294.90
379.41, 8.31, 294.65
379.49, 8.33, 294.37
379.58, 8.35, 294.06
379.67, 8.38, 293.72
379.78, 8.40, 293.34
379.90, 8.43, 292.91
380.04, 8.46, 292.39
380.21, 8.48, 291.78
380.41, 8.52, 291.07
380.66, 8.55, 290.17
380.99, 8.58, 288.96
381.53, 8.58, 286.98
378.68, 8.14, 297.12
378.71, 8.15, 297.02
378.74, 8.17, 296.92
378.76, 8.18, 296.82
378.79, 8.19, 296.71
378.83, 8.20, 296.58
378.87, 8.20, 296.41
378.91, 8.21, 296.27
378.95, 8.22, 296.13
378.99, 8.24, 295.97
379.04, 8.24, 295.78
379.11, 8.24, 295.52
379.16, 8.25, 295.32
379.22, 8.27, 295.11
379.28, 8.29, 294.87
379.34, 8.31, 294.62
379.42, 8.33, 294.34
379.50, 8.35, 294.03
379.59, 8.38, 293.68
379.69, 8.40, 293.30
379.81, 8.43, 292.86
379.95, 8.46, 292.34
380.11, 8.49, 291.73
380.30, 8.52, 291.00
380.54, 8.55, 290.10
380.86, 8.58, 288.86
381.39, 8.58, 286.85
378.64, 8.15, 297.11
¯378.67, 8.16, 297.01
378.69, 8.17, 296.91
378.72, 8.18, 296.81
378.74, 8.19, 296.70
378.78, 8.20, 296.57
378.82, 8.20, 296.40
378.85, 8.21, 296.26
378.89, 8.22, 296.11
378.93, 8.24, 295.96
378.98, 8.24, 295.75
379.05, 8.24, 295.50
379.10, 8.25, 295.30
379.15, 8.27, 295.08
379.21, 8.29, 294.85
379.27, 8.31, 294.59
379.35, 8.33, 294.30
379.43, 8.35, 293.99
379.51, 8.38, 293.65
379.61, 8.40, 293.26
379.72, 8.43, 292.82
379.85, 8.46, 292.29
380.01, 8.49, 291.67
380.19, 8.52, 290.94
380.42, 8.55, 290.04
380.74, 8.58, 288.76
381.25, 8.58, 286.71
378.60, 8.15, 297.10
378.62, 8.16, 297.00
378.65, 8.17, 296.90
378.67, 8.18, 296.80
378.70, 8.19, 296.69
378.73, 8.20, 296.55
378.77, 8.20, 296.38
378.80, 8.21, 296.25
378.84, 8.23, 296.10
378.88, 8.24, 295.94
378.93, 8.24, 295.72
378.99, 8.24, 295.47
379.03, 8.25, 295.27
379.09, 8.27, 295.05
379.14, 8.29, 294.82
379.20, 8.31, 294.56
379.27, 8.33, 294.27
379.35, 8.35, 293.96
379.43, 8.38, 293.61
379.52, 8.40, 293.23
379.63, 8.43, 292.77
379.76, 8.46, 292.24
379.91, 8.49, 291.62
380.08, 8.52, 290.88
380.30, 8.55, 289.97
¯380.61, 8.58, 288.66
381.11, 8.58, 286.55
378.56, 8.15, 297.09
378.58, 8.16, 296.99
378.60, 8.17, 296.89
378.62, 8.18, 296.79
378.65, 8.20, 296.68
378.68, 8.20, 296.54
378.72, 8.20, 296.37
378.75, 8.21, 296.23
378.78, 8.23, 296.09
378.82, 8.24, 295.93
378.87, 8.24, 295.70
378.93, 8.24, 295.45
378.97, 8.25, 295.25
379.02, 8.27, 295.03
379.08, 8.29, 294.79
379.13, 8.31, 294.53
379.20, 8.33, 294.24
379.27, 8.35, 293.92
379.35, 8.38, 293.57
379.44, 8.40, 293.19
379.54, 8.43, 292.73
379.66, 8.46, 292.19
379.80, 8.49, 291.56
379.97, 8.52, 290.82
380.18, 8.55, 289.90
380.48, 8.58, 288.57
380.96, 8.57, 286.40
378.51, 8.15, 297.08
378.53, 8.16, 296.99
378.56, 8.18, 296.89
378.58, 8.19, 296.78
378.60, 8.20, 296.67
378.63, 8.21, 296.53
378.67, 8.20, 296.36
378.70, 8.22, 296.22
378.73, 8.23, 296.07
378.76, 8.24, 295.92
378.81, 8.24, 295.67
378.87, 8.24, 295.43
378.91, 8.25, 295.22
378.96, 8.27, 295.00
379.01, 8.29, 294.77
379.06, 8.31, 294.50
379.13, 8.33, 294.21
379.19, 8.35, 293.89
379.27, 8.38, 293.54
379.35, 8.40, 293.15
379.45, 8.43, 292.68
379.57, 8.46, 292.14
¯379.70, 8.49, 291.51
379.86, 8.52, 290.76
380.06, 8.56, 289.83
380.34, 8.58, 288.47
380.81, 8.57, 286.25
378.47, 8.15, 297.08
378.49, 8.17, 296.98
378.51, 8.18, 296.88
378.53, 8.19, 296.77
378.55, 8.20, 296.66
378.58, 8.21, 296.52
378.62, 8.20, 296.35
378.65, 8.22, 296.21
378.68, 8.23, 296.06
378.71, 8.25, 295.90
378.76, 8.24, 295.65
378.80, 8.24, 295.41
378.85, 8.25, 295.20
378.89, 8.27, 294.98
378.94, 8.29, 294.74
378.99, 8.31, 294.47
379.05, 8.33, 294.18
379.12, 8.35, 293.86
379.19, 8.38, 293.50
379.27, 8.41, 293.11
379.36, 8.43, 292.64
379.47, 8.46, 292.10
379.60, 8.49, 291.45
379.75, 8.52, 290.70
379.93, 8.56, 289.76
380.21, 8.58, 288.37
380.66, 8.57, 286.09
378.43, 8.16, 297.07
378.45, 8.17, 296.97
378.47, 8.18, 296.87
378.49, 8.19, 296.77
378.51, 8.20, 296.66
378.53, 8.21, 296.51
378.57, 8.21, 296.34
378.59, 8.22, 296.20
378.62, 8.23, 296.05
378.65, 8.25, 295.89
378.70, 8.24, 295.63
378.74, 8.24, 295.38
378.78, 8.25, 295.18
378.83, 8.27, 294.95
378.87, 8.29, 294.71
378.92, 8.31, 294.45
378.98, 8.33, 294.15
379.04, 8.35, 293.83
379.10, 8.38, 293.47
¯379.18, 8.41, 293.07
379.27, 8.43, 292.60
379.37, 8.46, 292.05
379.49, 8.49, 291.40
379.63, 8.52, 290.64
379.81, 8.56, 289.69
380.07, 8.58, 288.27
380.51, 8.57, 285.93
378.39, 8.16, 297.06
378.40, 8.17, 296.97
378.42, 8.18, 296.86
378.44, 8.19, 296.76
378.46, 8.21, 296.65
378.48, 8.21, 296.50
378.52, 8.21, 296.32
378.54, 8.22, 296.18
378.57, 8.23, 296.04
378.59, 8.25, 295.88
378.64, 8.24, 295.61
378.68, 8.24, 295.36
378.72, 8.25, 295.15
378.76, 8.27, 294.93
378.80, 8.29, 294.69
378.85, 8.31, 294.42
378.90, 8.33, 294.12
378.96, 8.35, 293.80
379.02, 8.38, 293.43
379.09, 8.41, 293.03
379.17, 8.43, 292.55
379.27, 8.46, 292.00
379.39, 8.49, 291.35
379.52, 8.52, 290.58
379.69, 8.56, 289.62
379.94, 8.58, 288.17
380.35, 8.57, 285.78
378.34, 8.16, 297.06
378.36, 8.17, 296.96
378.38, 8.18, 296.86
378.39, 8.20, 296.75
378.41, 8.21, 296.64
378.44, 8.21, 296.49
378.46, 8.21, 296.31
378.49, 8.22, 296.17
378.51, 8.24, 296.02
378.54, 8.25, 295.87
378.58, 8.24, 295.59
378.62, 8.24, 295.34
378.66, 8.25, 295.13
378.69, 8.27, 294.91
378.73, 8.29, 294.66
378.78, 8.31, 294.39
¯378.82, 8.33, 294.10
378.88, 8.35, 293.76
378.94, 8.38, 293.40
379.00, 8.41, 292.99
379.08, 8.43, 292.51
379.17, 8.46, 291.96
379.28, 8.49, 291.29
379.40, 8.52, 290.52
379.56, 8.56, 289.55
379.80, 8.58, 288.08
380.19, 8.57, 285.62
378.30, 8.16, 297.05
378.32, 8.17, 296.95
378.33, 8.19, 296.85
378.35, 8.20, 296.75
378.36, 8.21, 296.63
378.39, 8.21, 296.49
378.41, 8.21, 296.30
378.43, 8.22, 296.16
378.46, 8.24, 296.01
378.48, 8.25, 295.85
378.52, 8.24, 295.57
378.56, 8.24, 295.32
378.59, 8.25, 295.11
378.62, 8.27, 294.88
378.66, 8.29, 294.64
378.70, 8.31, 294.37
378.75, 8.33, 294.07
378.80, 8.35, 293.73
378.85, 8.38, 293.37
378.91, 8.41, 292.96
378.99, 8.43, 292.47
379.07, 8.46, 291.91
379.17, 8.49, 291.24
379.29, 8.53, 290.46
379.43, 8.56, 289.48
379.65, 8.58, 288.00
380.03, 8.56, 285.42
378.26, 8.17, 297.04
378.27, 8.18, 296.95
378.29, 8.19, 296.85
378.30, 8.20, 296.74
378.32, 8.21, 296.63
378.34, 8.22, 296.48
378.36, 8.21, 296.29
378.38, 8.22, 296.15
378.40, 8.24, 296.00
378.42, 8.25, 295.84
378.46, 8.24, 295.55
378.50, 8.24, 295.30
378.53, 8.25, 295.09
¯378.56, 8.27, 294.86
378.59, 8.29, 294.62
378.63, 8.31, 294.34
378.67, 8.33, 294.04
378.72, 8.35, 293.70
378.77, 8.38, 293.33
378.83, 8.41, 292.92
378.89, 8.43, 292.43
378.97, 8.46, 291.87
379.06, 8.49, 291.19
379.17, 8.53, 290.40
379.31, 8.56, 289.41
379.51, 8.58, 287.92
379.87, 8.56, 285.22
378.22, 8.17, 297.04
378.23, 8.18, 296.94
378.24, 8.19, 296.84
378.25, 8.20, 296.73
378.27, 8.22, 296.62
378.29, 8.22, 296.47
378.31, 8.21, 296.28
378.33, 8.23, 296.14
378.35, 8.24, 295.99
378.37, 8.26, 295.83
378.40, 8.24, 295.53
378.43, 8.24, 295.28
378.46, 8.25, 295.07
378.49, 8.27, 294.84
378.52, 8.29, 294.59
378.56, 8.31, 294.32
378.59, 8.33, 294.01
378.64, 8.35, 293.67
378.68, 8.38, 293.30
378.73, 8.41, 292.88
378.80, 8.43, 292.39
378.87, 8.46, 291.82
378.95, 8.49, 291.14
379.05, 8.53, 290.34
379.18, 8.56, 289.34
379.36, 8.58, 287.83
379.71, 8.56, 285.01
378.17, 8.17, 297.03
378.18, 8.18, 296.94
378.20, 8.19, 296.84
378.21, 8.20, 296.73
378.22, 8.22, 296.62
378.24, 8.22, 296.47
378.26, 8.21, 296.28
378.27, 8.23, 296.13
378.29, 8.24, 295.98
378.31, 8.26, 295.82
¯378.34, 8.24, 295.52
378.37, 8.24, 295.26
378.40, 8.25, 295.05
378.42, 8.27, 294.82
378.45, 8.29, 294.57
378.48, 8.31, 294.29
378.52, 8.33, 293.99
378.55, 8.35, 293.64
378.60, 8.38, 293.27
378.64, 8.41, 292.85
378.70, 8.43, 292.35
378.76, 8.46, 291.78
378.84, 8.49, 291.09
378.93, 8.53, 290.28
379.05, 8.56, 289.27
379.21, 8.59, 287.75
379.54, 8.55, 284.76
378.13, 8.17, 297.03
378.14, 8.18, 296.93
378.15, 8.19, 296.83
378.16, 8.21, 296.72
378.17, 8.22, 296.61
378.19, 8.22, 296.46
378.21, 8.22, 296.27
378.22, 8.23, 296.13
378.24, 8.24, 295.97
378.25, 8.26, 295.81
378.28, 8.24, 295.50
378.31, 8.24, 295.25
378.33, 8.25, 295.03
378.35, 8.27, 294.80
378.38, 8.29, 294.55
378.41, 8.31, 294.27
378.44, 8.33, 293.96
378.47, 8.35, 293.61
378.51, 8.38, 293.24
378.55, 8.41, 292.81
378.60, 8.43, 292.31
378.66, 8.46, 291.74
378.73, 8.49, 291.04
378.81, 8.53, 290.23
378.91, 8.56, 289.20
379.06, 8.59, 287.67
379.37, 8.54, 284.49
378.09, 8.17, 297.03
378.10, 8.18, 296.93
378.11, 8.20, 296.83
378.11, 8.21, 296.72
378.12, 8.22, 296.61
378.14, 8.23, 296.46
378.15, 8.22, 296.26
¯378.17, 8.23, 296.12
378.18, 8.24, 295.97
378.20, 8.26, 295.80
378.22, 8.24, 295.49
378.24, 8.24, 295.23
378.26, 8.25, 295.01
378.28, 8.27, 294.78
378.31, 8.29, 294.52
378.33, 8.31, 294.24
378.36, 8.33, 293.93
378.39, 8.35, 293.59
378.42, 8.38, 293.21
378.46, 8.41, 292.78
378.51, 8.43, 292.27
378.56, 8.46, 291.69
378.62, 8.49, 290.99
378.69, 8.53, 290.17
378.78, 8.57, 289.13
378.91, 8.59, 287.59
379.20, 8.53, 284.22
378.04, 8.17, 297.02
378.05, 8.19, 296.92
378.06, 8.20, 296.82
378.07, 8.21, 296.72
378.08, 8.22, 296.60
378.09, 8.23, 296.45
378.10, 8.22, 296.26
378.11, 8.23, 296.11
378.13, 8.25, 295.96
378.14, 8.26, 295.80
378.16, 8.24, 295.48
378.18, 8.24, 295.21
378.20, 8.25, 294.99
378.21, 8.27, 294.76
378.23, 8.29, 294.50
378.26, 8.31, 294.22
378.28, 8.33, 293.91
378.31, 8.35, 293.56
378.33, 8.38, 293.17
378.37, 8.41, 292.74
378.41, 8.43, 292.23
378.45, 8.46, 291.65
378.50, 8.49, 290.94
378.57, 8.53, 290.11
378.64, 8.57, 289.06
378.76, 8.59, 287.49
379.02, 8.53, 283.94
378.00, 8.18, 297.02
378.01, 8.19, 296.92
378.01, 8.20, 296.82
378.02, 8.21, 296.71
¯378.03, 8.23, 296.60
378.04, 8.23, 296.45
378.05, 8.22, 296.26
378.06, 8.23, 296.10
378.07, 8.25, 295.95
378.08, 8.26, 295.79
378.10, 8.24, 295.47
378.12, 8.24, 295.19
378.13, 8.25, 294.97
378.14, 8.27, 294.74
378.16, 8.29, 294.48
378.18, 8.31, 294.20
378.20, 8.33, 293.88
378.22, 8.35, 293.53
378.25, 8.38, 293.14
378.27, 8.41, 292.71
378.31, 8.43, 292.19
378.34, 8.46, 291.61
378.39, 8.50, 290.89
378.44, 8.53, 290.05
378.51, 8.57, 288.99
378.61, 8.59, 287.39
378.83, 8.52, 283.60
377.96, 8.18, 297.02
377.96, 8.19, 296.92
377.97, 8.20, 296.82
377.97, 8.21, 296.71
377.98, 8.23, 296.60
377.99, 8.23, 296.45
378.00, 8.22, 296.25
378.01, 8.23, 296.09
378.01, 8.25, 295.94
378.02, 8.26, 295.78
378.04, 8.24, 295.46
378.05, 8.24, 295.18
378.06, 8.25, 294.95
378.07, 8.27, 294.72
378.09, 8.29, 294.46
378.10, 8.31, 294.17
378.12, 8.33, 293.86
378.14, 8.35, 293.50
378.16, 8.38, 293.11
378.18, 8.41, 292.67
378.21, 8.43, 292.15
378.24, 8.46, 291.56
378.27, 8.50, 290.85
378.32, 8.53, 290.00
378.37, 8.57, 288.92
378.45, 8.59, 287.29
378.64, 8.50, 283.24
377.92, 8.18, 297.01
¯377.92, 8.19, 296.92
377.92, 8.20, 296.81
377.93, 8.22, 296.71
377.93, 8.23, 296.59
377.94, 8.23, 296.44
377.95, 8.23, 296.25
377.95, 8.23, 296.09
377.96, 8.25, 295.93
377.96, 8.26, 295.77
377.97, 8.24, 295.45
377.99, 8.24, 295.16
377.99, 8.25, 294.94
378.00, 8.27, 294.70
378.01, 8.29, 294.44
378.03, 8.31, 294.15
378.04, 8.33, 293.83
378.05, 8.35, 293.48
378.07, 8.38, 293.08
378.08, 8.41, 292.64
378.10, 8.43, 292.11
378.13, 8.46, 291.52
378.16, 8.50, 290.80
378.19, 8.53, 289.95
378.23, 8.57, 288.85
378.29, 8.59, 287.19
378.44, 8.49, 282.88
377.87, 8.18, 297.01
377.88, 8.19, 296.91
377.88, 8.21, 296.81
377.88, 8.22, 296.70
377.88, 8.23, 296.59
377.89, 8.24, 296.44
377.89, 8.23, 296.25
377.90, 8.24, 296.08
377.90, 8.25, 295.93
377.91, 8.27, 295.76
377.91, 8.24, 295.45
377.92, 8.24, 295.14
377.93, 8.25, 294.92
377.93, 8.27, 294.68
377.94, 8.29, 294.42
377.95, 8.31, 294.13
377.96, 8.33, 293.81
377.97, 8.35, 293.45
377.98, 8.38, 293.06
377.99, 8.41, 292.60
378.00, 8.43, 292.07
378.02, 8.47, 291.48
378.04, 8.50, 290.75
378.06, 8.53, 289.90
378.09, 8.57, 288.78
¯378.13, 8.59, 287.07
378.24, 8.46, 282.17
377.83, 8.18, 297.01
377.83, 8.19, 296.91
377.83, 8.21, 296.81
377.83, 8.22, 296.70
377.84, 8.23, 296.59
377.84, 8.24, 296.44
377.84, 8.23, 296.25
377.84, 8.24, 296.08
377.85, 8.25, 295.92
377.85, 8.27, 295.76
377.85, 8.25, 295.44
377.85, 8.23, 295.13
377.86, 8.25, 294.90
377.86, 8.27, 294.66
377.87, 8.29, 294.40
377.87, 8.31, 294.11
377.87, 8.33, 293.79
377.88, 8.35, 293.42
377.89, 8.38, 293.03
377.89, 8.41, 292.57
377.90, 8.43, 292.03
377.91, 8.47, 291.44
377.92, 8.50, 290.71
377.93, 8.53, 289.84
377.95, 8.57, 288.71
377.97, 8.59, 286.95
378.03, 8.40, 281.03
377.79, 8.18, 297.01
377.79, 8.20, 296.91
377.79, 8.21, 296.81
377.79, 8.22, 296.70
377.79, 8.23, 296.59
377.79, 8.24, 296.44
377.79, 8.23, 296.25
377.79, 8.24, 296.07
377.79, 8.25, 295.92
377.79, 8.27, 295.75
377.79, 8.25, 295.44
377.79, 8.23, 295.11
377.79, 8.25, 294.89
377.79, 8.27, 294.64
377.79, 8.29, 294.38
377.79, 8.31, 294.09
377.79, 8.33, 293.76
377.79, 8.35, 293.40
377.79, 8.38, 293.00
377.79, 8.41, 292.54
377.80, 8.43, 292.00
377.80, 8.47, 291.40
¯377.80, 8.50, 290.66
377.80, 8.54, 289.79
377.80, 8.57, 288.64
377.80, 8.59, 286.82
377.74, 8.18, 297.00
377.74, 8.20, 296.91
377.74, 8.21, 296.81
377.74, 8.22, 296.70
377.74, 8.24, 296.59
377.74, 8.24, 296.44
377.74, 8.24, 296.25
377.73, 8.24, 296.07
377.73, 8.25, 295.91
377.73, 8.27, 295.75
377.73, 8.25, 295.44
377.72, 8.23, 295.10
377.72, 8.25, 294.87
377.72, 8.27, 294.63
377.71, 8.29, 294.36
377.71, 8.31, 294.07
377.71, 8.33, 293.74
377.71, 8.35, 293.37
377.70, 8.38, 292.97
377.70, 8.41, 292.51
377.69, 8.43, 291.96
377.68, 8.47, 291.36
377.68, 8.50, 290.62
377.67, 8.54, 289.74
377.65, 8.57, 288.58
377.63, 8.59, 286.70
377.70, 8.19, 297.00
377.70, 8.20, 296.91
377.70, 8.21, 296.81
377.69, 8.22, 296.70
377.69, 8.24, 296.59
377.69, 8.24, 296.44
377.68, 8.24, 296.25
377.68, 8.24, 296.06
377.68, 8.25, 295.91
377.67, 8.27, 295.74
377.66, 8.25, 295.44
377.65, 8.23, 295.09
377.65, 8.25, 294.86
377.64, 8.27, 294.61
377.64, 8.29, 294.34
377.63, 8.31, 294.05
377.62, 8.33, 293.72
377.62, 8.35, 293.35
377.61, 8.38, 292.94
377.60, 8.40, 292.47
377.59, 8.43, 291.92
¯377.57, 8.47, 291.32
377.55, 8.50, 290.57
377.53, 8.54, 289.69
377.51, 8.57, 288.51
377.46, 8.58, 286.57
377.66, 8.19, 297.00
377.65, 8.20, 296.91
377.65, 8.21, 296.81
377.65, 8.23, 296.70
377.64, 8.24, 296.58
377.64, 8.25, 296.44
377.63, 8.24, 296.25
377.62, 8.24, 296.06
377.62, 8.26, 295.90
377.61, 8.27, 295.74
377.60, 8.26, 295.44
377.59, 8.23, 295.07
377.58, 8.25, 294.84
377.57, 8.27, 294.59
377.56, 8.29, 294.33
377.55, 8.31, 294.03
377.54, 8.33, 293.70
377.53, 8.35, 293.32
377.51, 8.38, 292.92
377.50, 8.40, 292.44
377.48, 8.43, 291.89
377.46, 8.47, 291.27
377.43, 8.50, 290.53
377.40, 8.54, 289.64
377.36, 8.57, 288.44
377.28, 8.58, 286.44
377.61, 8.19, 297.00
377.61, 8.20, 296.91
377.60, 8.21, 296.81
377.60, 8.23, 296.70
377.60, 8.24, 296.58
377.59, 8.25, 296.45
377.58, 8.24, 296.25
377.57, 8.24, 296.05
377.56, 8.26, 295.90
377.55, 8.27, 295.73
377.54, 8.26, 295.44
377.52, 8.23, 295.06
377.51, 8.25, 294.83
377.50, 8.27, 294.58
377.49, 8.29, 294.31
377.47, 8.31, 294.01
377.46, 8.33, 293.68
377.44, 8.35, 293.30
377.42, 8.38, 292.89
377.40, 8.40, 292.41
¯377.37, 8.43, 291.85
377.34, 8.47, 291.24
377.31, 8.50, 290.48
377.26, 8.54, 289.59
377.21, 8.57, 288.37
377.10, 8.58, 286.31
377.57, 8.19, 297.00
377.56, 8.20, 296.91
377.56, 8.22, 296.81
377.55, 8.23, 296.70
377.55, 8.24, 296.59
377.54, 8.25, 296.45
377.53, 8.25, 296.26
377.51, 8.24, 296.05
377.50, 8.26, 295.90
377.50, 8.27, 295.73
377.48, 8.26, 295.44
377.45, 8.23, 295.05
377.44, 8.25, 294.81
377.42, 8.27, 294.56
377.41, 8.29, 294.29
377.39, 8.31, 293.99
377.37, 8.33, 293.66
377.35, 8.35, 293.28
377.32, 8.38, 292.86
377.30, 8.40, 292.38
377.26, 8.43, 291.82
377.23, 8.47, 291.20
377.18, 8.50, 290.44
377.13, 8.54, 289.54
377.05, 8.58, 288.31
376.71, 8.35, 282.85
377.53, 8.19, 297.00
377.52, 8.20, 296.91
377.51, 8.22, 296.81
377.51, 8.23, 296.70
377.50, 8.24, 296.59
377.49, 8.25, 296.45
377.47, 8.25, 296.26
377.46, 8.24, 296.05
377.45, 8.26, 295.89
377.44, 8.27, 295.73
377.41, 8.26, 295.44
377.38, 8.23, 295.03
377.37, 8.25, 294.80
377.35, 8.26, 294.55
377.33, 8.28, 294.28
377.31, 8.31, 293.97
377.28, 8.33, 293.64
377.26, 8.35, 293.26
377.23, 8.38, 292.84
¯377.19, 8.40, 292.35
377.15, 8.43, 291.79
377.11, 8.47, 291.16
377.05, 8.50, 290.39
376.99, 8.54, 289.49
376.90, 8.58, 288.24
376.45, 8.32, 282.31
377.48, 8.19, 297.00
377.48, 8.21, 296.91
377.47, 8.22, 296.81
377.46, 8.23, 296.70
377.45, 8.25, 296.59
377.44, 8.26, 296.46
377.42, 8.25, 296.26
377.40, 8.25, 296.05
377.39, 8.26, 295.89
377.38, 8.27, 295.72
377.35, 8.27, 295.45
377.31, 8.23, 295.02
377.29, 8.25, 294.79
377.27, 8.26, 294.53
377.25, 8.28, 294.26
377.23, 8.30, 293.96
377.20, 8.33, 293.62
377.17, 8.35, 293.23
377.13, 8.38, 292.81
377.09, 8.40, 292.32
377.04, 8.43, 291.75
376.99, 8.47, 291.12
376.92, 8.50, 290.35
376.85, 8.54, 289.44
376.60, 8.45, 286.59
376.17, 8.29, 281.74
377.44, 8.19, 297.00
377.43, 8.21, 296.91
377.42, 8.22, 296.81
377.41, 8.23, 296.70
377.40, 8.25, 296.59
377.39, 8.26, 296.46
377.37, 8.25, 296.27
377.35, 8.25, 296.06
377.33, 8.26, 295.89
377.32, 8.28, 295.72
377.29, 8.27, 295.46
377.25, 8.23, 295.01
377.22, 8.24, 294.78
377.20, 8.26, 294.52
377.17, 8.28, 294.25
377.14, 8.30, 293.94
377.11, 8.33, 293.60
377.07, 8.35, 293.21
¯377.03, 8.38, 292.79
376.99, 8.40, 292.29
376.93, 8.43, 291.72
376.87, 8.46, 291.08
376.80, 8.50, 290.31
376.71, 8.54, 289.39
376.42, 8.45, 286.47
375.87, 8.25, 281.03
377.40, 8.19, 297.00
377.39, 8.21, 296.91
377.38, 8.22, 296.81
377.36, 8.23, 296.70
377.35, 8.25, 296.59
377.34, 8.26, 296.47
377.32, 8.26, 296.27
377.29, 8.25, 296.06
377.28, 8.26, 295.89
377.26, 8.28, 295.72
377.23, 8.27, 295.46
377.18, 8.23, 295.00
377.15, 8.24, 294.76
377.12, 8.26, 294.51
377.09, 8.28, 294.23
377.06, 8.30, 293.92
377.02, 8.32, 293.58
376.98, 8.35, 293.19
376.93, 8.37, 292.76
376.88, 8.40, 292.26
376.82, 8.43, 291.69
376.75, 8.46, 291.04
376.66, 8.50, 290.27
376.56, 8.54, 289.34
376.23, 8.45, 286.36
375.47, 8.17, 279.64
377.35, 8.19, 297.01
377.34, 8.21, 296.91
377.33, 8.22, 296.81
377.32, 8.24, 296.71
377.30, 8.25, 296.59
377.29, 8.26, 296.47
377.27, 8.26, 296.28
377.24, 8.25, 296.07
377.22, 8.26, 295.89
377.20, 8.28, 295.72
377.17, 8.28, 295.47
377.11, 8.23, 294.99
377.08, 8.24, 294.75
377.05, 8.26, 294.50
377.01, 8.28, 294.22
376.98, 8.30, 293.91
376.93, 8.32, 293.56
¯376.89, 8.35, 293.17
376.84, 8.37, 292.74
376.77, 8.40, 292.24
376.70, 8.43, 291.66
376.63, 8.46, 291.00
376.53, 8.50, 290.22
376.27, 8.44, 288.15
376.04, 8.44, 286.25
377.31, 8.19, 297.01
377.30, 8.21, 296.92
377.28, 8.22, 296.82
377.27, 8.24, 296.71
377.26, 8.25, 296.60
377.24, 8.27, 296.48
377.21, 8.26, 296.29
377.19, 8.26, 296.08
377.16, 8.26, 295.89
377.14, 8.28, 295.72
377.11, 8.28, 295.48
377.04, 8.22, 294.98
377.00, 8.24, 294.74
376.97, 8.26, 294.48
376.93, 8.28, 294.20
376.89, 8.30, 293.89
376.84, 8.32, 293.54
376.79, 8.35, 293.15
376.74, 8.37, 292.72
376.67, 8.40, 292.21
376.59, 8.43, 291.62
376.50, 8.46, 290.97
376.40, 8.50, 290.18
376.11, 8.44, 288.10
375.85, 8.44, 286.13
377.26, 8.19, 297.01
377.25, 8.21, 296.92
377.24, 8.22, 296.82
377.22, 8.24, 296.71
377.21, 8.25, 296.60
377.19, 8.27, 296.48
377.16, 8.26, 296.29
377.13, 8.26, 296.08
377.10, 8.26, 295.89
377.08, 8.28, 295.72
377.04, 8.28, 295.50
376.96, 8.22, 294.97
376.93, 8.24, 294.73
376.89, 8.26, 294.47
376.85, 8.28, 294.19
376.81, 8.30, 293.88
376.76, 8.32, 293.53
376.70, 8.35, 293.13
¯376.63, 8.37, 292.69
376.56, 8.40, 292.18
376.47, 8.43, 291.59
376.38, 8.46, 290.93
376.12, 8.41, 289.22
375.95, 8.44, 288.05
375.65, 8.44, 286.02
377.22, 8.20, 297.01
377.21, 8.21, 296.92
377.19, 8.22, 296.82
377.18, 8.24, 296.72
377.16, 8.25, 296.60
377.14, 8.27, 296.48
377.11, 8.27, 296.30
377.08, 8.26, 296.09
377.04, 8.26, 295.89
377.02, 8.28, 295.72
376.98, 8.29, 295.51
376.90, 8.23, 294.98
376.86, 8.24, 294.72
376.81, 8.26, 294.46
376.77, 8.28, 294.18
376.72, 8.30, 293.87
376.66, 8.32, 293.51
376.60, 8.34, 293.11
376.53, 8.37, 292.67
376.45, 8.40, 292.16
376.36, 8.43, 291.56
376.25, 8.46, 290.89
375.97, 8.41, 289.18
375.78, 8.44, 287.99
375.45, 8.44, 285.91
377.18, 8.20, 297.02
377.16, 8.21, 296.92
377.15, 8.23, 296.83
377.13, 8.24, 296.72
377.11, 8.25, 296.61
377.09, 8.27, 296.49
377.06, 8.27, 296.31
377.02, 8.26, 296.10
376.99, 8.26, 295.89
376.96, 8.28, 295.72
376.92, 8.29, 295.52
376.83, 8.23, 295.00
376.78, 8.24, 294.71
376.74, 8.26, 294.45
376.69, 8.28, 294.17
376.63, 8.30, 293.85
376.57, 8.32, 293.50
376.51, 8.34, 293.09
376.43, 8.37, 292.65
¯376.34, 8.40, 292.13
376.24, 8.43, 291.53
376.12, 8.46, 290.86
375.82, 8.41, 289.14
375.62, 8.44, 287.93
375.25, 8.44, 285.79
377.13, 8.20, 297.02
377.12, 8.21, 296.93
377.10, 8.23, 296.83
377.08, 8.24, 296.72
377.06, 8.25, 296.61
377.04, 8.27, 296.49
377.01, 8.27, 296.32
376.97, 8.27, 296.11
376.93, 8.26, 295.89
376.90, 8.28, 295.72
376.86, 8.30, 295.54
376.76, 8.24, 295.02
376.71, 8.24, 294.71
376.66, 8.25, 294.44
376.60, 8.28, 294.15
376.55, 8.30, 293.84
376.48, 8.32, 293.48
376.41, 8.34, 293.08
376.33, 8.37, 292.63
376.23, 8.40, 292.10
376.12, 8.43, 291.50
375.84, 8.37, 290.00
375.67, 8.41, 289.10
375.45, 8.44, 287.87
375.04, 8.43, 285.68
377.09, 8.20, 297.02
377.07, 8.21, 296.93
377.05, 8.23, 296.83
377.03, 8.24, 296.73
377.01, 8.26, 296.61
376.99, 8.27, 296.50
376.96, 8.27, 296.33
376.91, 8.27, 296.12
376.87, 8.26, 295.89
376.84, 8.28, 295.72
376.80, 8.30, 295.54
376.70, 8.24, 295.04
376.63, 8.23, 294.70
376.58, 8.25, 294.43
376.52, 8.27, 294.14
376.46, 8.30, 293.83
376.39, 8.32, 293.47
376.31, 8.34, 293.06
376.22, 8.37, 292.61
376.12, 8.40, 292.08
¯376.00, 8.43, 291.48
375.70, 8.37, 289.96
375.52, 8.41, 289.06
375.27, 8.44, 287.81
374.83, 8.43, 285.56
377.05, 8.20, 297.03
377.03, 8.21, 296.93
377.01, 8.23, 296.84
376.99, 8.24, 296.73
376.96, 8.26, 296.62
376.94, 8.27, 296.50
376.90, 8.28, 296.34
376.86, 8.27, 296.13
376.81, 8.27, 295.91
376.77, 8.28, 295.72
376.74, 8.30, 295.54
376.63, 8.25, 295.06
376.55, 8.23, 294.69
376.50, 8.25, 294.42
376.44, 8.27, 294.13
376.37, 8.29, 293.81
376.30, 8.32, 293.45
376.21, 8.34, 293.04
376.12, 8.37, 292.59
376.01, 8.39, 292.05
375.88, 8.42, 291.45
375.55, 8.37, 289.92
375.36, 8.41, 289.02
375.10, 8.44, 287.75
374.61, 8.43, 285.45
377.00, 8.20, 297.03
376.98, 8.21, 296.94
376.96, 8.23, 296.84
376.94, 8.24, 296.74
376.91, 8.26, 296.63
376.89, 8.27, 296.51
376.85, 8.28, 296.35
376.81, 8.28, 296.15
376.76, 8.27, 295.92
376.71, 8.28, 295.73
376.67, 8.30, 295.54
376.57, 8.25, 295.08
376.48, 8.23, 294.68
376.42, 8.25, 294.41
376.35, 8.27, 294.12
376.28, 8.29, 293.80
376.20, 8.32, 293.44
376.11, 8.34, 293.03
376.01, 8.37, 292.57
375.89, 8.39, 292.03
375.58, 8.33, 290.65
¯375.41, 8.37, 289.89
375.21, 8.41, 288.98
374.92, 8.44, 287.70
374.39, 8.43, 285.33
376.96, 8.20, 297.04
376.94, 8.21, 296.94
376.91, 8.23, 296.85
376.89, 8.24, 296.74
376.86, 8.26, 296.63
376.84, 8.27, 296.51
376.80, 8.28, 296.36
376.75, 8.28, 296.16
376.70, 8.27, 295.93
376.65, 8.28, 295.73
376.61, 8.30, 295.55
376.50, 8.26, 295.10
376.40, 8.23, 294.68
376.34, 8.25, 294.41
376.27, 8.27, 294.11
376.19, 8.29, 293.79
376.11, 8.31, 293.43
376.01, 8.34, 293.01
375.90, 8.36, 292.55
375.78, 8.39, 292.01
375.44, 8.33, 290.62
375.26, 8.37, 289.85
375.05, 8.41, 288.93
374.74, 8.44, 287.64
374.17, 8.42, 285.22
376.91, 8.20, 297.04
376.89, 8.21, 296.95
376.87, 8.23, 296.85
376.84, 8.24, 296.75
376.82, 8.26, 296.64
376.79, 8.27, 296.52
376.75, 8.29, 296.38
376.70, 8.28, 296.17
376.64, 8.28, 295.95
376.59, 8.28, 295.73
376.55, 8.30, 295.55
376.44, 8.26, 295.13
376.32, 8.23, 294.67
376.26, 8.25, 294.40
376.18, 8.27, 294.10
376.10, 8.29, 293.78
376.01, 8.31, 293.41
375.91, 8.34, 293.00
375.79, 8.36, 292.53
375.47, 8.29, 291.26
375.31, 8.32, 290.59
375.12, 8.36, 289.82
¯374.89, 8.41, 288.89
374.56, 8.44, 287.58
373.94, 8.42, 285.08
376.87, 8.20, 297.05
376.85, 8.21, 296.95
376.82, 8.23, 296.86
376.80, 8.24, 296.76
376.77, 8.26, 296.64
376.74, 8.27, 296.53
376.70, 8.29, 296.39
376.65, 8.28, 296.18
376.59, 8.28, 295.96
376.53, 8.28, 295.74
376.48, 8.30, 295.55
376.37, 8.27, 295.15
376.24, 8.23, 294.67
376.17, 8.25, 294.39
376.10, 8.27, 294.10
376.01, 8.29, 293.77
375.92, 8.31, 293.40
375.81, 8.34, 292.98
375.69, 8.36, 292.51
375.35, 8.29, 291.24
375.17, 8.32, 290.56
374.97, 8.36, 289.78
374.72, 8.41, 288.84
374.38, 8.44, 287.52
373.69, 8.41, 284.90
376.82, 8.20, 297.05
376.80, 8.21, 296.96
376.77, 8.23, 296.86
376.75, 8.24, 296.76
376.72, 8.26, 296.65
376.69, 8.28, 296.53
376.65, 8.29, 296.40
376.59, 8.29, 296.20
376.53, 8.28, 295.97
376.47, 8.28, 295.74
376.42, 8.30, 295.56
376.31, 8.27, 295.18
376.17, 8.23, 294.66
376.09, 8.24, 294.39
376.01, 8.26, 294.09
375.92, 8.29, 293.76
375.82, 8.31, 293.39
375.70, 8.33, 292.97
375.58, 8.36, 292.49
375.22, 8.29, 291.21
375.03, 8.32, 290.53
374.82, 8.36, 289.75
374.56, 8.41, 288.79
¯374.19, 8.44, 287.47
373.43, 8.41, 284.73
376.78, 8.20, 297.06
376.75, 8.21, 296.97
376.73, 8.23, 296.87
376.70, 8.24, 296.77
376.67, 8.26, 296.66
376.63, 8.28, 296.54
376.60, 8.29, 296.41
376.54, 8.29, 296.21
376.48, 8.29, 295.99
376.41, 8.28, 295.75
376.35, 8.30, 295.56
376.25, 8.28, 295.21
376.09, 8.22, 294.66
376.01, 8.24, 294.38
375.92, 8.26, 294.08
375.83, 8.29, 293.75
375.72, 8.31, 293.38
375.60, 8.33, 292.96
375.26, 8.26, 291.79
375.09, 8.29, 291.19
374.89, 8.32, 290.51
374.66, 8.36, 289.71
374.39, 8.41, 288.74
374.00, 8.44, 287.41
373.17, 8.40, 284.55
376.74, 8.20, 297.07
376.71, 8.21, 296.97
376.68, 8.23, 296.88
376.65, 8.24, 296.78
376.62, 8.26, 296.67
376.58, 8.28, 296.55
376.55, 8.29, 296.42
376.49, 8.29, 296.23
376.42, 8.29, 296.01
376.35, 8.28, 295.76
376.29, 8.30, 295.57
376.19, 8.29, 295.24
376.01, 8.22, 294.65
375.93, 8.24, 294.38
375.84, 8.26, 294.08
375.74, 8.28, 293.74
375.62, 8.31, 293.37
375.50, 8.33, 292.94
375.14, 8.25, 291.78
374.96, 8.29, 291.17
374.75, 8.32, 290.48
374.51, 8.36, 289.68
374.21, 8.40, 288.69
373.81, 8.44, 287.36
¯372.91, 8.39, 284.37
376.69, 8.20, 297.07
376.66, 8.21, 296.98
376.63, 8.23, 296.88
376.60, 8.24, 296.78
376.57, 8.26, 296.68
376.53, 8.28, 296.56
376.49, 8.29, 296.43
376.44, 8.30, 296.25
376.37, 8.29, 296.02
376.29, 8.29, 295.78
376.22, 8.30, 295.58
376.13, 8.29, 295.27
375.93, 8.22, 294.67
375.84, 8.24, 294.37
375.75, 8.26, 294.07
375.64, 8.28, 293.74
375.53, 8.31, 293.36
375.39, 8.33, 292.93
375.02, 8.25, 291.76
374.83, 8.28, 291.15
374.61, 8.32, 290.45
374.35, 8.36, 289.65
374.04, 8.40, 288.64
373.62, 8.44, 287.30
372.63, 8.39, 284.19
376.65, 8.20, 297.08
376.62, 8.21, 296.99
376.59, 8.23, 296.89
376.55, 8.24, 296.79
376.52, 8.26, 296.69
376.48, 8.28, 296.57
376.44, 8.29, 296.44
376.38, 8.30, 296.26
376.31, 8.29, 296.04
376.23, 8.29, 295.80
376.16, 8.30, 295.58
376.07, 8.30, 295.30
375.87, 8.23, 294.71
375.76, 8.24, 294.37
375.66, 8.26, 294.06
375.55, 8.28, 293.73
375.43, 8.30, 293.35
375.07, 8.22, 292.29
374.89, 8.25, 291.75
374.69, 8.28, 291.13
374.46, 8.32, 290.43
374.20, 8.36, 289.61
373.86, 8.40, 288.60
373.42, 8.44, 287.25
372.35, 8.38, 284.01
¯376.60, 8.20, 297.09
376.57, 8.21, 297.00
376.54, 8.23, 296.90
376.51, 8.24, 296.80
376.47, 8.26, 296.69
376.43, 8.28, 296.58
376.39, 8.29, 296.45
376.33, 8.30, 296.28
376.26, 8.30, 296.06
376.17, 8.29, 295.82
376.09, 8.30, 295.59
376.01, 8.30, 295.34
375.80, 8.24, 294.75
375.67, 8.23, 294.37
375.57, 8.26, 294.06
375.45, 8.28, 293.72
375.33, 8.30, 293.35
374.96, 8.22, 292.28
374.77, 8.25, 291.74
374.56, 8.28, 291.12
374.32, 8.32, 290.41
374.04, 8.36, 289.58
373.68, 8.40, 288.55
373.22, 8.44, 287.19
372.06, 8.37, 283.83
376.56, 8.20, 297.10
376.53, 8.21, 297.00
376.49, 8.23, 296.91
376.46, 8.24, 296.81
376.42, 8.26, 296.70
376.38, 8.28, 296.59
376.34, 8.29, 296.46
376.28, 8.30, 296.30
376.20, 8.30, 296.08
376.12, 8.30, 295.84
376.03, 8.30, 295.60
375.95, 8.31, 295.37
375.74, 8.25, 294.79
375.59, 8.23, 294.36
375.48, 8.25, 294.06
375.36, 8.28, 293.72
375.22, 8.30, 293.34
374.84, 8.22, 292.27
374.64, 8.25, 291.72
374.42, 8.28, 291.10
374.17, 8.32, 290.38
373.87, 8.36, 289.55
373.50, 8.40, 288.50
373.02, 8.44, 287.14
371.77, 8.37, 283.65
370.29, 8.34, 279.49
¯376.51, 8.20, 297.10
376.48, 8.21, 297.01
376.45, 8.23, 296.92
376.41, 8.24, 296.82
376.37, 8.26, 296.71
376.33, 8.28, 296.60
376.28, 8.30, 296.47
376.23, 8.31, 296.32
376.15, 8.30, 296.10
376.06, 8.30, 295.86
375.96, 8.30, 295.61
375.89, 8.32, 295.41
375.67, 8.25, 294.83
375.50, 8.23, 294.36
375.39, 8.25, 294.05
375.26, 8.27, 293.71
374.90, 8.20, 292.75
374.72, 8.22, 292.26
374.52, 8.25, 291.71
374.29, 8.28, 291.08
374.02, 8.31, 290.36
373.71, 8.36, 289.52
373.32, 8.40, 288.45
372.82, 8.44, 287.10
371.47, 8.36, 283.46
370.18, 8.38, 280.00
376.47, 8.20, 297.11
376.43, 8.21, 297.02
376.40, 8.23, 296.93
376.36, 8.24, 296.83
376.32, 8.26, 296.72
376.28, 8.28, 296.61
376.23, 8.30, 296.48
376.18, 8.31, 296.34
376.09, 8.31, 296.12
376.00, 8.30, 295.88
375.90, 8.30, 295.62
375.82, 8.32, 295.42
375.61, 8.26, 294.87
375.41, 8.23, 294.36
375.29, 8.25, 294.05
375.16, 8.27, 293.71
374.79, 8.19, 292.75
374.60, 8.22, 292.26
374.39, 8.25, 291.70
374.15, 8.28, 291.07
373.87, 8.31, 290.34
373.55, 8.35, 289.49
373.13, 8.39, 288.40
372.61, 8.44, 287.05
371.16, 8.35, 283.28
¯370.00, 8.41, 280.27
376.42, 8.20, 297.12
376.39, 8.21, 297.03
376.35, 8.23, 296.94
376.31, 8.24, 296.83
376.27, 8.26, 296.73
376.23, 8.28, 296.62
376.18, 8.30, 296.49
376.13, 8.31, 296.36
376.04, 8.31, 296.14
375.95, 8.31, 295.90
375.84, 8.30, 295.64
375.75, 8.32, 295.43
375.55, 8.27, 294.91
375.33, 8.23, 294.36
375.20, 8.25, 294.05
375.07, 8.27, 293.70
374.68, 8.19, 292.74
374.48, 8.22, 292.25
374.26, 8.24, 291.69
374.01, 8.27, 291.05
373.72, 8.31, 290.32
373.38, 8.35, 289.46
372.95, 8.39, 288.37
372.40, 8.44, 286.99
370.94, 8.36, 283.35
369.70, 8.41, 280.23
376.38, 8.19, 297.13
376.34, 8.21, 297.04
376.30, 8.23, 296.95
376.26, 8.24, 296.84
376.22, 8.26, 296.74
376.18, 8.28, 296.63
376.13, 8.30, 296.50
376.07, 8.31, 296.37
375.99, 8.31, 296.16
375.89, 8.31, 295.93
375.78, 8.31, 295.67
375.69, 8.32, 295.43
375.49, 8.28, 294.96
375.24, 8.22, 294.36
375.11, 8.24, 294.05
374.74, 8.16, 293.16
374.56, 8.19, 292.73
374.36, 8.21, 292.24
374.13, 8.24, 291.68
373.87, 8.27, 291.04
373.56, 8.31, 290.29
373.21, 8.35, 289.43
372.76, 8.40, 288.35
372.19, 8.44, 286.94
¯370.76, 8.38, 283.49
369.39, 8.42, 280.19
376.34, 8.19, 297.14
376.30, 8.21, 297.05
376.26, 8.23, 296.96
376.21, 8.24, 296.85
376.17, 8.26, 296.75
376.12, 8.28, 296.64
376.07, 8.30, 296.52
376.02, 8.31, 296.38
375.93, 8.32, 296.19
375.83, 8.31, 295.95
375.72, 8.31, 295.69
375.62, 8.32, 295.45
375.43, 8.29, 295.01
375.15, 8.22, 294.36
375.01, 8.24, 294.05
374.63, 8.16, 293.16
374.45, 8.19, 292.73
374.24, 8.21, 292.24
374.00, 8.24, 291.67
373.72, 8.27, 291.02
373.41, 8.31, 290.27
373.04, 8.35, 289.41
372.58, 8.40, 288.33
371.97, 8.44, 286.89
370.57, 8.40, 283.64
376.29, 8.19, 297.15
376.25, 8.21, 297.06
376.21, 8.22, 296.97
376.17, 8.24, 296.87
376.12, 8.26, 296.76
376.07, 8.28, 296.65
376.02, 8.30, 296.53
375.96, 8.31, 296.40
375.88, 8.32, 296.21
375.78, 8.32, 295.98
375.66, 8.31, 295.72
375.55, 8.32, 295.46
375.37, 8.29, 295.06
375.06, 8.22, 294.37
374.69, 8.13, 293.53
374.52, 8.16, 293.15
374.33, 8.18, 292.72
374.11, 8.21, 292.23
373.87, 8.24, 291.66
373.58, 8.27, 291.01
373.25, 8.31, 290.25
372.89, 8.36, 289.45
372.40, 8.40, 288.32
371.75, 8.44, 286.84
¯370.39, 8.41, 283.78
376.25, 8.19, 297.16
376.20, 8.21, 297.07
376.16, 8.22, 296.98
376.12, 8.24, 296.88
376.07, 8.26, 296.77
376.02, 8.28, 296.66
375.97, 8.30, 296.54
375.91, 8.31, 296.41
375.83, 8.32, 296.23
375.72, 8.32, 296.00
375.60, 8.32, 295.74
375.48, 8.32, 295.47
375.31, 8.30, 295.10
375.00, 8.23, 294.43
374.58, 8.13, 293.53
374.41, 8.16, 293.15
374.21, 8.18, 292.72
373.99, 8.21, 292.22
373.73, 8.24, 291.66
373.43, 8.27, 291.00
373.09, 8.30, 290.24
372.75, 8.36, 289.49
372.23, 8.40, 288.34
371.52, 8.44, 286.80
370.21, 8.43, 283.92
376.20, 8.19, 297.18
376.16, 8.21, 297.08
376.11, 8.22, 296.99
376.07, 8.24, 296.89
376.02, 8.26, 296.78
375.97, 8.28, 296.67
375.91, 8.30, 296.56
375.85, 8.31, 296.42
375.78, 8.33, 296.26
375.67, 8.32, 296.03
375.55, 8.32, 295.77
375.41, 8.32, 295.49
375.25, 8.31, 295.15
374.94, 8.24, 294.49
374.48, 8.13, 293.53
374.30, 8.15, 293.15
374.09, 8.18, 292.71
373.86, 8.20, 292.21
373.60, 8.23, 291.65
373.29, 8.26, 290.99
372.95, 8.31, 290.26
372.61, 8.37, 289.53
372.08, 8.41, 288.42
371.30, 8.44, 286.75
370.04, 8.44, 284.07
¯376.16, 8.19, 297.19
376.11, 8.21, 297.10
376.07, 8.22, 297.00
376.02, 8.24, 296.90
375.97, 8.26, 296.80
375.92, 8.28, 296.68
375.86, 8.30, 296.57
375.80, 8.31, 296.44
375.72, 8.33, 296.28
375.61, 8.33, 296.05
375.49, 8.32, 295.80
375.35, 8.32, 295.52
375.20, 8.32, 295.21
374.88, 8.25, 294.55
374.38, 8.13, 293.54
374.19, 8.15, 293.15
373.98, 8.17, 292.71
373.73, 8.20, 292.20
373.46, 8.23, 291.63
373.14, 8.26, 290.98
372.81, 8.31, 290.30
372.46, 8.37, 289.57
371.94, 8.42, 288.50
371.08, 8.44, 286.72
369.86, 8.46, 284.22
376.11, 8.19, 297.20
376.07, 8.21, 297.11
376.02, 8.22, 297.01
375.97, 8.24, 296.91
375.92, 8.26, 296.81
375.86, 8.28, 296.70
375.81, 8.29, 296.58
375.74, 8.31, 296.45
375.67, 8.33, 296.31
375.56, 8.33, 296.08
375.43, 8.33, 295.83
375.29, 8.32, 295.55
375.14, 8.33, 295.26
374.82, 8.26, 294.61
374.27, 8.12, 293.54
374.08, 8.15, 293.15
373.85, 8.17, 292.71
373.60, 8.20, 292.20
373.31, 8.23, 291.62
372.99, 8.26, 290.98
372.68, 8.32, 290.35
372.32, 8.38, 289.62
371.80, 8.43, 288.58
370.91, 8.45, 286.80
369.69, 8.47, 284.37
376.07, 8.19, 297.21
¯376.02, 8.20, 297.12
375.97, 8.22, 297.03
375.92, 8.24, 296.93
375.87, 8.26, 296.82
375.81, 8.27, 296.71
375.75, 8.29, 296.59
375.69, 8.31, 296.47
375.62, 8.33, 296.33
375.50, 8.33, 296.11
375.37, 8.33, 295.86
375.23, 8.33, 295.58
375.09, 8.34, 295.30
374.76, 8.27, 294.68
374.16, 8.12, 293.54
373.96, 8.14, 293.15
373.73, 8.17, 292.70
373.47, 8.19, 292.19
373.17, 8.22, 291.61
372.85, 8.26, 290.98
372.55, 8.32, 290.39
372.17, 8.38, 289.66
371.66, 8.44, 288.66
370.81, 8.47, 287.01
369.52, 8.49, 284.52
376.02, 8.19, 297.23
375.97, 8.20, 297.13
375.92, 8.22, 297.04
375.87, 8.24, 296.94
375.82, 8.25, 296.83
375.76, 8.27, 296.72
375.70, 8.29, 296.61
375.63, 8.31, 296.48
375.56, 8.33, 296.35
375.45, 8.34, 296.14
375.32, 8.33, 295.89
375.17, 8.33, 295.61
375.01, 8.33, 295.32
374.24, 8.09, 293.90
374.06, 8.12, 293.55
373.85, 8.14, 293.15
373.61, 8.16, 292.70
373.34, 8.19, 292.19
373.03, 8.22, 291.61
372.70, 8.26, 290.98
372.40, 8.32, 290.42
372.03, 8.39, 289.71
371.52, 8.45, 288.75
370.72, 8.49, 287.23
369.35, 8.50, 284.68
375.98, 8.19, 297.24
375.93, 8.20, 297.15
¯375.88, 8.22, 297.05
375.82, 8.24, 296.95
375.77, 8.25, 296.85
375.71, 8.27, 296.74
375.64, 8.29, 296.62
375.58, 8.31, 296.50
375.50, 8.33, 296.36
375.40, 8.34, 296.17
375.26, 8.34, 295.92
375.11, 8.34, 295.64
374.94, 8.33, 295.33
374.14, 8.09, 293.91
373.95, 8.11, 293.55
373.73, 8.14, 293.16
373.49, 8.16, 292.70
373.20, 8.19, 292.19
372.89, 8.22, 291.61
372.55, 8.26, 290.98
372.24, 8.32, 290.42
371.88, 8.39, 289.76
371.38, 8.46, 288.83
370.60, 8.51, 287.41
369.19, 8.52, 284.83
375.93, 8.19, 297.25
375.88, 8.20, 297.16
375.83, 8.22, 297.07
375.77, 8.23, 296.97
375.71, 8.25, 296.86
375.65, 8.27, 296.75
375.59, 8.29, 296.64
375.52, 8.31, 296.51
375.45, 8.33, 296.38
375.34, 8.34, 296.20
375.20, 8.34, 295.95
375.05, 8.34, 295.68
374.88, 8.34, 295.37
374.04, 8.09, 293.92
373.84, 8.11, 293.56
373.62, 8.13, 293.16
373.36, 8.16, 292.70
373.07, 8.18, 292.18
372.75, 8.22, 291.62
372.39, 8.26, 290.98
372.08, 8.32, 290.42
371.72, 8.40, 289.78
371.24, 8.47, 288.92
370.49, 8.52, 287.59
375.89, 8.19, 297.27
375.83, 8.20, 297.18
375.78, 8.22, 297.08
375.72, 8.23, 296.98
¯375.66, 8.25, 296.88
375.60, 8.27, 296.77
375.53, 8.29, 296.65
375.46, 8.31, 296.53
375.39, 8.33, 296.40
375.29, 8.35, 296.23
375.15, 8.34, 295.98
374.99, 8.34, 295.71
374.81, 8.34, 295.41
374.16, 8.17, 294.30
373.73, 8.10, 293.56
373.50, 8.13, 293.16
373.23, 8.15, 292.71
372.94, 8.18, 292.19
372.61, 8.21, 291.62
372.24, 8.25, 290.98
