žVERSION 0.7
FIELDS x y z
SIZE 8 8 8
TYPE F F F
COUNT 1 1 1
WIDTH 2271
HEIGHT 1
VIEWPOINT 343.30, 7.14, 364.14 1 358.45, 2.20, 351.06
POINTS 2271
DATA ascii
358.51, 0.74, 344.40
358.56, 0.82, 344.19
358.61, 0.90, 343.97
358.67, 0.99, 343.74
358.77, 1.06, 343.32
358.90, 1.12, 342.75
359.06, 1.19, 342.05
359.16, 1.30, 341.63
359.26, 1.41, 341.20
359.38, 1.54, 340.69
359.50, 1.67, 340.20
359.66, 1.82, 339.48
359.82, 1.98, 338.80
360.23, 2.15, 337.08
361.96, 2.42, 329.67
357.79, 0.01, 347.18
357.84, 0.01, 346.95
357.89, 0.01, 346.70
357.95, 0.02, 346.44
358.00, 0.04, 346.22
358.03, 0.10, 346.10
¯358.05, 0.16, 345.98
358.08, 0.22, 345.85
358.11, 0.28, 345.72
358.15, 0.34, 345.54
358.19, 0.39, 345.34
358.24, 0.45, 345.14
358.28, 0.51, 344.93
358.33, 0.57, 344.71
358.38, 0.65, 344.50
358.42, 0.72, 344.30
358.47, 0.80, 344.08
358.52, 0.89, 343.86
358.59, 0.96, 343.54
358.69, 1.03, 343.09
358.83, 1.09, 342.45
358.98, 1.17, 341.77
359.04, 1.29, 341.52
359.13, 1.41, 341.09
359.25, 1.53, 340.58
359.37, 1.67, 340.02
359.51, 1.81, 339.39
359.66, 1.98, 338.71
360.01, 2.15, 337.13
361.73, 2.42, 329.38
357.71, 0.01, 347.16
357.76, 0.01, 346.93
357.81, 0.01, 346.69
357.87, 0.02, 346.42
357.92, 0.03, 346.17
357.95, 0.09, 346.05
357.97, 0.15, 345.92
358.00, 0.21, 345.80
358.03, 0.27, 345.65
358.07, 0.32, 345.46
358.11, 0.38, 345.26
358.15, 0.43, 345.05
358.20, 0.50, 344.84
358.25, 0.56, 344.61
358.29, 0.63, 344.40
358.33, 0.71, 344.19
358.38, 0.79, 343.97
358.43, 0.87, 343.74
358.51, 0.94, 343.32
358.62, 1.01, 342.83
358.76, 1.06, 342.14
358.86, 1.16, 341.66
358.91, 1.28, 341.41
359.00, 1.40, 340.98
359.11, 1.53, 340.46
359.23, 1.66, 339.89
359.35, 1.81, 339.31
¯359.50, 1.97, 338.61
359.79, 2.15, 337.19
361.49, 2.42, 329.08
357.64, 0.01, 347.15
357.69, 0.01, 346.92
357.74, 0.01, 346.67
357.79, 0.02, 346.40
357.84, 0.02, 346.12
357.87, 0.08, 346.00
357.89, 0.14, 345.87
357.92, 0.20, 345.74
357.95, 0.25, 345.57
357.99, 0.31, 345.38
358.03, 0.36, 345.17
358.07, 0.42, 344.96
358.11, 0.48, 344.74
358.16, 0.54, 344.51
358.20, 0.62, 344.30
358.24, 0.69, 344.09
358.28, 0.78, 343.86
358.35, 0.85, 343.54
358.43, 0.91, 343.10
358.54, 0.98, 342.54
358.68, 1.03, 341.82
358.74, 1.15, 341.55
358.79, 1.28, 341.30
358.87, 1.40, 340.87
358.97, 1.52, 340.34
359.08, 1.66, 339.80
359.18, 1.81, 339.30
359.33, 1.97, 338.53
359.58, 2.15, 337.25
361.24, 2.43, 328.78
357.57, 0.01, 347.13
357.61, 0.01, 346.90
357.66, 0.01, 346.65
357.71, 0.01, 346.39
357.76, 0.02, 346.10
357.79, 0.07, 345.95
357.81, 0.13, 345.82
357.84, 0.19, 345.68
357.87, 0.24, 345.49
357.91, 0.29, 345.29
357.94, 0.35, 345.09
357.98, 0.40, 344.87
358.02, 0.46, 344.64
358.07, 0.53, 344.41
358.11, 0.60, 344.20
358.15, 0.68, 343.98
358.19, 0.76, 343.75
358.26, 0.82, 343.33
¯358.35, 0.89, 342.87
358.46, 0.94, 342.24
358.56, 1.02, 341.70
358.61, 1.14, 341.45
358.66, 1.27, 341.18
358.74, 1.39, 340.76
358.83, 1.52, 340.22
358.92, 1.66, 339.72
359.00, 1.81, 339.30
359.14, 1.97, 338.53
359.36, 2.15, 337.33
357.50, 0.01, 347.12
357.54, 0.01, 346.89
357.58, 0.01, 346.64
357.62, 0.01, 346.37
357.67, 0.02, 346.08
357.70, 0.06, 345.89
357.73, 0.12, 345.76
357.75, 0.17, 345.60
357.79, 0.22, 345.41
357.82, 0.27, 345.21
357.86, 0.33, 345.00
357.89, 0.39, 344.78
357.93, 0.45, 344.55
357.97, 0.51, 344.30
358.01, 0.59, 344.09
358.05, 0.66, 343.87
358.10, 0.73, 343.55
358.18, 0.79, 343.11
358.26, 0.86, 342.63
358.38, 0.91, 341.92
358.44, 1.01, 341.59
358.48, 1.14, 341.33
358.53, 1.26, 341.07
358.60, 1.39, 340.64
358.69, 1.51, 340.10
358.77, 1.66, 339.65
358.83, 1.81, 339.29
358.96, 1.97, 338.52
359.10, 2.15, 337.67
357.42, 0.01, 347.10
357.46, 0.01, 346.87
357.50, 0.01, 346.62
357.54, 0.01, 346.36
357.59, 0.02, 346.07
357.62, 0.04, 345.84
357.64, 0.10, 345.71
357.67, 0.15, 345.52
357.70, 0.20, 345.33
357.74, 0.26, 345.12
357.77, 0.31, 344.91
¯357.80, 0.37, 344.68
357.84, 0.43, 344.45
357.88, 0.49, 344.20
357.91, 0.57, 343.98
357.95, 0.65, 343.76
358.02, 0.70, 343.34
358.09, 0.76, 342.89
358.17, 0.82, 342.34
358.27, 0.89, 341.73
358.31, 1.01, 341.48
358.35, 1.13, 341.22
358.39, 1.25, 340.95
358.46, 1.38, 340.53
358.55, 1.51, 339.98
358.61, 1.65, 339.58
358.67, 1.81, 339.21
358.78, 1.97, 338.51
358.91, 2.15, 337.67
357.35, 0.01, 347.09
357.38, 0.01, 346.86
357.42, 0.01, 346.61
357.46, 0.01, 346.34
357.50, 0.02, 346.06
357.54, 0.03, 345.79
357.56, 0.09, 345.63
357.59, 0.14, 345.44
357.62, 0.19, 345.25
357.65, 0.24, 345.04
357.68, 0.29, 344.82
357.71, 0.35, 344.59
357.75, 0.41, 344.35
357.78, 0.48, 344.10
357.82, 0.55, 343.88
357.86, 0.62, 343.56
357.93, 0.67, 343.13
357.99, 0.73, 342.65
358.08, 0.79, 342.03
358.14, 0.88, 341.63
358.18, 1.00, 341.37
358.22, 1.12, 341.11
358.26, 1.25, 340.83
358.32, 1.37, 340.42
358.40, 1.50, 339.85
358.45, 1.65, 339.50
358.50, 1.81, 339.14
358.60, 1.97, 338.51
358.72, 2.15, 337.66
359.82, 2.41, 330.11
357.27, 0.01, 347.08
357.31, 0.01, 346.85
357.34, 0.01, 346.60
¯357.38, 0.01, 346.33
357.41, 0.02, 346.04
357.45, 0.02, 345.73
357.48, 0.07, 345.56
357.50, 0.12, 345.36
357.53, 0.17, 345.16
357.56, 0.22, 344.95
357.59, 0.28, 344.73
357.62, 0.33, 344.49
357.65, 0.40, 344.25
357.69, 0.46, 343.99
357.72, 0.54, 343.77
357.77, 0.59, 343.36
357.83, 0.64, 342.90
357.90, 0.70, 342.41
357.98, 0.75, 341.77
358.01, 0.87, 341.52
358.05, 0.99, 341.26
358.08, 1.11, 340.99
358.12, 1.24, 340.71
358.18, 1.37, 340.30
358.25, 1.50, 339.78
358.29, 1.65, 339.43
358.34, 1.81, 339.06
358.41, 1.97, 338.50
358.53, 2.15, 337.65
359.48, 2.40, 330.51
357.20, 0.01, 347.08
357.23, 0.01, 346.84
357.26, 0.01, 346.59
357.29, 0.01, 346.32
357.33, 0.02, 346.03
357.36, 0.02, 345.72
357.39, 0.06, 345.51
357.42, 0.10, 345.29
357.44, 0.15, 345.08
357.47, 0.20, 344.86
357.50, 0.26, 344.64
357.52, 0.32, 344.40
357.55, 0.38, 344.15
357.59, 0.44, 343.89
357.62, 0.51, 343.58
357.67, 0.56, 343.15
357.73, 0.61, 342.67
357.80, 0.67, 342.15
357.85, 0.74, 341.67
357.88, 0.86, 341.41
357.91, 0.98, 341.15
357.95, 1.10, 340.88
357.98, 1.23, 340.59
358.03, 1.36, 340.18
¯358.09, 1.49, 339.70
358.13, 1.65, 339.35
358.18, 1.80, 338.98
358.23, 1.97, 338.49
358.34, 2.15, 337.65
358.52, 2.35, 336.09
357.13, 0.01, 347.07
357.15, 0.01, 346.83
357.18, 0.01, 346.58
357.21, 0.01, 346.31
357.24, 0.02, 346.02
357.27, 0.02, 345.71
357.30, 0.06, 345.50
357.32, 0.10, 345.28
357.35, 0.15, 345.05
357.37, 0.19, 344.81
357.40, 0.24, 344.56
357.43, 0.30, 344.30
357.45, 0.36, 344.04
357.48, 0.42, 343.78
357.53, 0.47, 343.38
357.58, 0.52, 342.93
357.63, 0.57, 342.43
357.69, 0.62, 341.83
357.72, 0.73, 341.56
357.75, 0.85, 341.31
357.78, 0.97, 341.04
357.81, 1.09, 340.76
357.84, 1.22, 340.47
357.88, 1.35, 340.06
357.93, 1.49, 339.63
357.97, 1.64, 339.28
358.01, 1.80, 338.90
358.05, 1.97, 338.49
358.14, 2.15, 337.64
358.25, 2.35, 336.64
357.05, 0.01, 347.06
357.07, 0.01, 346.83
357.10, 0.01, 346.58
357.13, 0.01, 346.31
357.15, 0.02, 346.02
357.18, 0.02, 345.70
357.20, 0.06, 345.49
357.22, 0.10, 345.27
357.25, 0.14, 345.04
357.27, 0.19, 344.80
357.29, 0.24, 344.55
357.32, 0.30, 344.28
357.35, 0.35, 344.00
357.38, 0.40, 343.66
357.43, 0.44, 343.17
¯357.47, 0.49, 342.70
357.52, 0.54, 342.18
357.57, 0.61, 341.71
357.59, 0.72, 341.46
357.62, 0.83, 341.20
357.64, 0.96, 340.92
357.67, 1.08, 340.64
357.70, 1.21, 340.34
357.73, 1.34, 339.94
357.77, 1.49, 339.56
357.80, 1.64, 339.20
357.84, 1.80, 338.82
357.88, 1.97, 338.42
357.95, 2.15, 337.64
358.04, 2.35, 336.72
356.98, 0.01, 347.06
357.00, 0.01, 346.82
357.02, 0.01, 346.57
357.04, 0.01, 346.30
357.07, 0.02, 346.01
357.09, 0.02, 345.70
357.11, 0.06, 345.48
357.13, 0.10, 345.26
357.15, 0.14, 345.03
357.17, 0.19, 344.80
357.19, 0.24, 344.54
357.21, 0.30, 344.28
357.23, 0.35, 343.99
357.27, 0.39, 343.61
357.31, 0.43, 343.10
357.36, 0.46, 342.55
357.41, 0.50, 341.94
357.43, 0.60, 341.60
357.46, 0.71, 341.35
357.48, 0.82, 341.08
357.50, 0.94, 340.81
357.52, 1.07, 340.52
357.55, 1.20, 340.21
357.58, 1.34, 339.83
357.61, 1.48, 339.49
357.64, 1.64, 339.12
357.67, 1.80, 338.74
357.70, 1.97, 338.33
357.76, 2.15, 337.63
357.84, 2.34, 336.72
356.90, 0.01, 347.05
356.92, 0.01, 346.82
356.94, 0.01, 346.56
356.96, 0.01, 346.29
356.98, 0.02, 346.00
357.00, 0.02, 345.69
¯357.02, 0.06, 345.48
357.03, 0.10, 345.26
357.05, 0.14, 345.03
357.07, 0.19, 344.79
357.08, 0.24, 344.53
357.10, 0.30, 344.27
357.12, 0.35, 343.98
357.15, 0.39, 343.58
357.19, 0.42, 343.04
357.23, 0.45, 342.49
357.27, 0.49, 341.87
357.30, 0.58, 341.46
357.32, 0.69, 341.21
357.34, 0.81, 340.94
357.36, 0.93, 340.67
357.38, 1.06, 340.38
357.40, 1.19, 340.08
357.42, 1.33, 339.76
357.45, 1.48, 339.41
357.47, 1.63, 339.04
357.50, 1.79, 338.66
357.53, 1.97, 338.25
357.57, 2.15, 337.63
357.64, 2.34, 336.71
356.83, 0.01, 347.05
356.84, 0.01, 346.81
356.86, 0.01, 346.56
356.87, 0.01, 346.29
356.89, 0.02, 346.00
356.91, 0.02, 345.69
356.92, 0.06, 345.48
356.94, 0.10, 345.25
356.95, 0.14, 345.02
356.96, 0.19, 344.78
356.98, 0.24, 344.53
356.99, 0.29, 344.26
357.01, 0.35, 343.98
357.04, 0.39, 343.56
357.07, 0.41, 342.98
357.10, 0.44, 342.42
357.14, 0.48, 341.78
357.17, 0.56, 341.31
357.18, 0.67, 341.05
357.20, 0.79, 340.78
357.22, 0.91, 340.50
357.23, 1.04, 340.20
357.25, 1.18, 339.89
357.27, 1.33, 339.65
357.29, 1.47, 339.30
357.31, 1.63, 338.93
357.33, 1.79, 338.55
¯357.35, 1.96, 338.14
357.38, 2.14, 337.59
357.44, 2.34, 336.71
356.76, 0.01, 347.04
356.77, 0.01, 346.81
356.78, 0.01, 346.56
356.79, 0.01, 346.29
356.80, 0.02, 346.00
356.82, 0.02, 345.69
356.83, 0.06, 345.47
356.84, 0.10, 345.25
356.85, 0.14, 345.01
356.86, 0.19, 344.77
356.87, 0.24, 344.52
356.89, 0.29, 344.25
356.90, 0.35, 343.97
356.92, 0.39, 343.54
356.95, 0.40, 342.92
356.98, 0.43, 342.35
357.01, 0.45, 341.55
357.03, 0.54, 341.16
357.04, 0.65, 340.89
357.06, 0.77, 340.61
357.07, 0.90, 340.32
357.08, 1.03, 340.02
357.10, 1.17, 339.75
357.11, 1.32, 339.53
357.12, 1.47, 339.18
357.14, 1.62, 338.81
357.16, 1.79, 338.41
357.18, 1.96, 338.00
357.20, 2.14, 337.43
357.24, 2.34, 336.54
356.68, 0.01, 347.04
356.69, 0.01, 346.81
356.70, 0.01, 346.55
356.71, 0.01, 346.28
356.72, 0.02, 345.99
356.73, 0.02, 345.69
356.74, 0.06, 345.47
356.74, 0.10, 345.25
356.75, 0.14, 345.01
356.76, 0.19, 344.77
356.77, 0.24, 344.51
356.78, 0.29, 344.25
356.79, 0.35, 343.96
356.80, 0.38, 343.53
356.83, 0.39, 342.86
356.85, 0.42, 342.28
356.88, 0.41, 341.32
356.89, 0.51, 341.00
¯356.90, 0.64, 340.84
356.90, 0.79, 340.75
356.90, 0.93, 340.65
356.91, 1.06, 340.34
356.94, 1.16, 339.62
356.94, 1.31, 339.40
356.96, 1.46, 339.06
356.97, 1.62, 338.68
356.98, 1.78, 338.28
357.00, 1.96, 337.85
357.02, 2.14, 337.26
357.05, 2.34, 336.36
356.61, 0.01, 347.04
356.61, 0.01, 346.81
356.62, 0.01, 346.55
356.62, 0.01, 346.28
356.63, 0.02, 345.99
356.64, 0.02, 345.69
356.64, 0.06, 345.47
356.65, 0.10, 345.24
356.65, 0.14, 345.01
356.66, 0.19, 344.76
356.66, 0.24, 344.51
356.67, 0.29, 344.24
356.68, 0.35, 343.96
356.69, 0.38, 343.51
356.70, 0.38, 342.80
356.72, 0.41, 342.21
356.74, 0.38, 341.11
356.75, 0.49, 340.84
356.75, 0.64, 340.84
356.75, 0.79, 340.75
356.75, 0.93, 340.65
356.76, 1.06, 340.34
356.77, 1.15, 339.49
356.78, 1.30, 339.26
356.79, 1.45, 338.93
356.79, 1.61, 338.55
356.80, 1.78, 338.14
356.81, 1.95, 337.69
356.83, 2.14, 337.10
356.85, 2.34, 336.17
356.53, 0.01, 347.04
356.53, 0.01, 346.80
356.54, 0.01, 346.55
356.54, 0.01, 346.28
356.54, 0.02, 345.99
356.55, 0.02, 345.69
356.55, 0.06, 345.47
356.55, 0.10, 345.24
356.55, 0.14, 345.01
¯356.56, 0.19, 344.76
356.56, 0.24, 344.50
356.56, 0.29, 344.24
356.56, 0.35, 343.95
356.57, 0.38, 343.50
356.58, 0.36, 342.74
356.58, 0.40, 342.15
356.60, 0.36, 340.96
356.60, 0.49, 340.84
356.60, 0.64, 340.84
356.60, 0.79, 340.75
356.60, 0.93, 340.65
356.60, 1.06, 340.34
356.61, 1.14, 339.36
356.61, 1.29, 339.13
356.61, 1.45, 338.81
356.62, 1.61, 338.41
356.62, 1.77, 338.00
356.63, 1.95, 337.52
356.63, 2.14, 336.93
356.64, 2.35, 335.98
356.46, 0.01, 347.04
356.46, 0.01, 346.81
356.46, 0.01, 346.55
356.46, 0.01, 346.28
356.46, 0.02, 345.99
356.46, 0.02, 345.69
356.46, 0.06, 345.47
356.45, 0.10, 345.25
356.45, 0.14, 345.01
356.45, 0.19, 344.76
356.45, 0.24, 344.50
356.45, 0.29, 344.23
356.45, 0.35, 343.95
356.45, 0.37, 343.48
356.45, 0.35, 342.68
356.45, 0.39, 342.08
356.45, 0.34, 340.84
356.45, 0.49, 340.84
356.45, 0.64, 340.84
356.44, 0.79, 340.75
356.44, 0.93, 340.65
356.44, 1.05, 340.34
356.44, 1.13, 339.22
356.44, 1.28, 338.99
356.44, 1.44, 338.68
356.44, 1.60, 338.28
356.44, 1.77, 337.85
356.43, 1.95, 337.35
356.43, 2.14, 336.75
356.43, 2.35, 335.76
¯356.38, 0.01, 347.04
356.38, 0.01, 346.81
356.38, 0.01, 346.56
356.37, 0.01, 346.28
356.37, 0.02, 345.99
356.36, 0.02, 345.69
356.36, 0.06, 345.47
356.36, 0.10, 345.25
356.35, 0.14, 345.01
356.35, 0.19, 344.76
356.35, 0.24, 344.50
356.35, 0.35, 344.50
356.35, 0.46, 344.51
356.35, 0.57, 344.51
356.35, 0.68, 344.50
356.34, 0.76, 344.33
356.30, 0.34, 340.84
356.30, 0.49, 340.84
356.30, 0.64, 340.84
356.29, 0.79, 340.75
356.29, 0.93, 340.65
356.29, 1.05, 340.34
356.27, 1.11, 339.08
356.27, 1.27, 338.84
356.26, 1.43, 338.55
356.25, 1.59, 338.14
356.25, 1.76, 337.69
356.24, 1.94, 337.17
356.23, 2.14, 336.57
356.21, 2.35, 335.53
356.31, 0.01, 347.04
356.30, 0.01, 346.81
356.30, 0.01, 346.56
356.29, 0.01, 346.29
356.28, 0.02, 346.00
356.27, 0.02, 345.69
356.27, 0.06, 345.47
356.26, 0.10, 345.25
356.26, 0.14, 345.01
356.25, 0.19, 344.76
356.25, 0.29, 344.73
356.25, 0.41, 344.78
356.25, 0.51, 344.78
356.25, 0.62, 344.79
356.25, 0.71, 344.70
356.24, 0.79, 344.54
356.24, 0.87, 344.38
356.15, 0.49, 340.84
356.14, 0.64, 340.84
356.14, 0.78, 340.75
356.14, 0.93, 340.65
¯356.13, 1.05, 340.34
356.09, 1.10, 338.94
356.09, 1.26, 338.70
356.08, 1.42, 338.41
356.07, 1.59, 338.00
356.05, 1.76, 337.52
356.04, 1.94, 336.99
356.02, 2.14, 336.39
355.99, 2.35, 335.29
356.23, 0.01, 347.05
356.23, 0.01, 346.81
356.22, 0.01, 346.56
356.21, 0.01, 346.29
356.19, 0.02, 346.00
356.18, 0.02, 345.69
356.17, 0.06, 345.48
356.17, 0.10, 345.25
356.16, 0.14, 345.01
356.15, 0.20, 344.82
356.16, 0.36, 345.04
356.16, 0.46, 345.04
356.16, 0.57, 345.05
356.16, 0.67, 345.05
356.15, 0.74, 344.90
356.14, 0.82, 344.75
356.14, 0.90, 344.59
356.13, 0.98, 344.34
355.99, 0.64, 340.83
355.99, 0.78, 340.75
355.99, 0.93, 340.65
355.97, 1.05, 340.34
355.91, 1.09, 338.80
355.90, 1.25, 338.55
355.89, 1.41, 338.28
355.88, 1.58, 337.85
355.86, 1.75, 337.35
355.84, 1.94, 336.81
355.81, 2.13, 336.21
355.77, 2.35, 335.04
356.16, 0.01, 347.05
356.15, 0.01, 346.82
356.14, 0.01, 346.57
356.12, 0.01, 346.30
356.11, 0.02, 346.01
356.09, 0.02, 345.70
356.08, 0.06, 345.48
356.07, 0.10, 345.25
356.06, 0.14, 345.02
356.07, 0.31, 345.29
356.07, 0.41, 345.29
356.07, 0.51, 345.29
¯356.07, 0.61, 345.29
356.07, 0.70, 345.23
356.06, 0.78, 345.09
356.05, 0.85, 344.94
356.04, 0.93, 344.79
356.03, 0.99, 344.47
355.84, 0.64, 340.83
355.84, 0.78, 340.75
355.83, 0.92, 340.65
355.82, 1.05, 340.34
355.73, 1.08, 338.65
355.72, 1.24, 338.40
355.70, 1.41, 338.14
355.68, 1.57, 337.69
355.65, 1.75, 337.17
355.63, 1.93, 336.62
355.59, 2.13, 336.02
355.53, 2.35, 334.79
356.09, 0.01, 347.06
356.07, 0.01, 346.82
356.06, 0.01, 346.57
356.04, 0.01, 346.30
356.02, 0.02, 346.01
356.00, 0.02, 345.70
355.99, 0.06, 345.48
355.97, 0.10, 345.26
355.98, 0.23, 345.36
355.99, 0.37, 345.52
355.99, 0.46, 345.52
355.99, 0.56, 345.52
355.99, 0.66, 345.52
355.98, 0.73, 345.41
355.97, 0.81, 345.27
355.96, 0.88, 345.13
355.95, 0.96, 344.98
355.93, 1.01, 344.60
355.90, 1.06, 344.18
355.69, 0.78, 340.75
355.68, 0.92, 340.65
355.66, 1.05, 340.35
355.55, 1.06, 338.51
355.53, 1.23, 338.25
355.51, 1.40, 337.98
355.48, 1.56, 337.52
355.45, 1.74, 336.99
355.41, 1.93, 336.41
355.37, 2.13, 335.78
355.29, 2.35, 334.49
356.01, 0.01, 347.06
355.99, 0.01, 346.83
355.98, 0.01, 346.58
¯355.96, 0.01, 346.31
355.93, 0.02, 346.02
355.91, 0.02, 345.70
355.89, 0.06, 345.49
355.89, 0.14, 345.43
355.91, 0.32, 345.74
355.91, 0.42, 345.74
355.91, 0.51, 345.74
355.91, 0.61, 345.74
355.91, 0.69, 345.70
355.90, 0.76, 345.57
355.89, 0.84, 345.44
355.88, 0.91, 345.31
355.86, 0.98, 345.09
355.83, 1.03, 344.72
355.54, 0.64, 340.83
355.54, 0.78, 340.75
355.53, 0.92, 340.65
355.50, 1.05, 340.35
355.35, 1.05, 338.34
355.33, 1.21, 338.07
355.31, 1.38, 337.77
355.27, 1.55, 337.27
355.23, 1.73, 336.71
355.18, 1.92, 336.10
355.14, 2.13, 335.50
355.03, 2.35, 334.16
355.94, 0.01, 347.07
355.92, 0.01, 346.83
355.90, 0.01, 346.58
355.87, 0.01, 346.32
355.85, 0.02, 346.03
355.82, 0.02, 345.71
355.80, 0.06, 345.49
355.83, 0.24, 345.83
355.84, 0.37, 345.95
355.84, 0.46, 345.95
355.84, 0.56, 345.95
355.84, 0.65, 345.95
355.83, 0.72, 345.86
355.82, 0.79, 345.74
355.81, 0.86, 345.61
355.80, 0.94, 345.48
355.77, 0.99, 345.21
355.74, 1.04, 344.84
355.39, 0.63, 340.83
355.38, 0.78, 340.75
355.37, 0.92, 340.65
355.35, 1.05, 340.35
355.16, 1.03, 338.16
355.13, 1.20, 337.89
¯355.10, 1.37, 337.53
355.05, 1.54, 337.00
355.00, 1.72, 336.42
354.95, 1.92, 335.82
354.89, 2.13, 335.21
354.75, 2.36, 333.60
355.86, 0.01, 347.08
355.84, 0.01, 346.84
355.82, 0.01, 346.59
355.79, 0.01, 346.32
355.76, 0.02, 346.03
355.73, 0.02, 345.72
355.74, 0.16, 345.88
355.77, 0.33, 346.14
355.77, 0.42, 346.14
355.77, 0.51, 346.14
355.77, 0.60, 346.14
355.77, 0.69, 346.12
355.75, 0.75, 346.01
355.74, 0.82, 345.89
355.73, 0.89, 345.77
355.72, 0.96, 345.64
355.68, 1.01, 345.31
355.65, 1.06, 344.96
355.24, 0.63, 340.83
355.23, 0.77, 340.75
355.22, 0.92, 340.65
355.19, 1.05, 340.36
354.95, 1.02, 337.98
354.92, 1.18, 337.66
354.88, 1.35, 337.28
354.83, 1.53, 336.72
354.76, 1.71, 336.12
354.71, 1.91, 335.57
354.64, 2.12, 334.91
354.26, 2.38, 331.06
355.79, 0.01, 347.08
355.76, 0.01, 346.85
355.74, 0.01, 346.60
355.71, 0.01, 346.33
355.67, 0.02, 346.04
355.66, 0.08, 345.94
355.69, 0.26, 346.24
355.70, 0.37, 346.33
355.70, 0.46, 346.33
355.70, 0.55, 346.33
355.70, 0.64, 346.33
355.70, 0.71, 346.26
355.68, 0.78, 346.15
355.67, 0.85, 346.04
355.66, 0.92, 345.92
¯355.64, 0.98, 345.74
355.60, 1.02, 345.42
355.56, 1.07, 345.08
355.18, 0.73, 341.65
355.19, 0.89, 341.77
355.07, 0.92, 340.65
355.03, 1.04, 340.36
354.74, 1.00, 337.78
354.70, 1.17, 337.41
354.66, 1.34, 337.01
354.59, 1.51, 336.43
354.52, 1.70, 335.83
354.46, 1.91, 335.31
354.38, 2.12, 334.59
353.96, 2.38, 330.81
355.72, 0.01, 347.09
355.69, 0.01, 346.86
355.66, 0.01, 346.61
355.62, 0.01, 346.34
355.59, 0.02, 346.06
355.62, 0.18, 346.28
355.64, 0.33, 346.50
355.64, 0.42, 346.51
355.64, 0.51, 346.51
355.64, 0.59, 346.51
355.64, 0.68, 346.50
355.63, 0.74, 346.40
355.61, 0.81, 346.29
355.60, 0.87, 346.18
355.59, 0.94, 346.07
355.56, 0.99, 345.83
355.52, 1.04, 345.53
355.15, 0.71, 342.53
355.14, 0.84, 342.50
355.13, 0.96, 342.41
355.09, 1.06, 342.09
354.88, 1.04, 340.37
354.52, 0.98, 337.54
354.48, 1.15, 337.16
354.42, 1.32, 336.73
354.35, 1.50, 336.13
354.28, 1.69, 335.58
354.21, 1.90, 335.05
354.11, 2.12, 334.27
353.65, 2.38, 330.54
355.64, 0.01, 347.10
355.61, 0.01, 346.87
355.58, 0.01, 346.62
355.54, 0.01, 346.36
355.54, 0.10, 346.33
355.57, 0.27, 346.60
¯355.58, 0.38, 346.67
355.58, 0.46, 346.67
355.58, 0.55, 346.67
355.58, 0.63, 346.68
355.57, 0.70, 346.62
355.56, 0.77, 346.53
355.55, 0.83, 346.43
355.53, 0.90, 346.32
355.52, 0.96, 346.21
355.48, 1.00, 345.93
355.44, 1.05, 345.63
355.02, 0.71, 342.58
355.01, 0.83, 342.49
355.00, 0.96, 342.40
354.95, 1.06, 342.09
354.72, 1.04, 340.37
354.30, 0.96, 337.29
354.24, 1.13, 336.91
354.18, 1.30, 336.44
354.10, 1.48, 335.84
354.02, 1.68, 335.32
353.95, 1.89, 334.77
353.82, 2.12, 333.86
353.32, 2.38, 330.20
355.57, 0.01, 347.12
355.54, 0.01, 346.88
355.50, 0.01, 346.63
355.46, 0.01, 346.37
355.50, 0.19, 346.64
355.53, 0.33, 346.83
355.53, 0.42, 346.83
355.53, 0.50, 346.83
355.53, 0.58, 346.84
355.53, 0.67, 346.84
355.51, 0.73, 346.75
355.50, 0.79, 346.65
355.48, 0.85, 346.56
355.47, 0.92, 346.46
355.44, 0.98, 346.29
355.40, 1.02, 346.02
355.36, 1.06, 345.73
354.89, 0.71, 342.57
354.87, 0.83, 342.48
354.86, 0.95, 342.38
354.81, 1.06, 342.08
354.56, 1.04, 340.38
354.06, 0.93, 337.04
354.00, 1.11, 336.64
353.93, 1.28, 336.14
353.84, 1.47, 335.59
353.76, 1.67, 335.05
¯353.68, 1.89, 334.48
353.30, 2.11, 331.94
353.00, 2.38, 329.95
355.50, 0.00, 347.13
355.46, 0.01, 346.90
355.42, 0.01, 346.65
355.42, 0.11, 346.68
355.46, 0.27, 346.93
355.47, 0.37, 346.99
355.47, 0.46, 346.99
355.47, 0.54, 346.99
355.47, 0.62, 346.99
355.47, 0.69, 346.96
355.45, 0.75, 346.87
355.44, 0.81, 346.77
355.42, 0.88, 346.68
355.40, 0.94, 346.59
355.37, 0.99, 346.38
355.33, 1.03, 346.11
354.76, 0.57, 342.58
354.75, 0.70, 342.55
354.74, 0.83, 342.46
354.72, 0.95, 342.37
354.67, 1.05, 342.07
354.40, 1.04, 340.38
353.82, 0.91, 336.78
353.75, 1.09, 336.36
353.67, 1.27, 335.85
353.58, 1.46, 335.33
353.49, 1.66, 334.76
353.38, 1.88, 334.12
352.98, 2.10, 331.62
352.67, 2.38, 329.75
355.42, 0.01, 347.15
355.39, 0.01, 346.92
355.35, 0.03, 346.71
355.39, 0.19, 346.96
355.42, 0.33, 347.13
355.42, 0.41, 347.13
355.42, 0.49, 347.13
355.42, 0.58, 347.13
355.42, 0.65, 347.14
355.41, 0.72, 347.07
355.39, 0.78, 346.98
355.38, 0.84, 346.89
355.36, 0.90, 346.80
355.34, 0.96, 346.71
355.30, 1.00, 346.46
355.26, 1.04, 346.21
354.62, 0.57, 342.56
354.62, 0.70, 342.54
¯354.60, 0.82, 342.45
354.59, 0.94, 342.36
354.53, 1.05, 342.07
354.24, 1.03, 340.39
353.56, 0.88, 336.50
353.49, 1.06, 336.09
353.40, 1.25, 335.54
353.29, 1.44, 334.95
353.18, 1.65, 334.31
352.72, 1.84, 331.69
352.65, 2.10, 331.30
352.35, 2.38, 329.55
355.35, 0.01, 347.17
355.31, 0.01, 346.94
355.32, 0.12, 346.99
355.36, 0.27, 347.22
355.37, 0.37, 347.27
355.37, 0.45, 347.27
355.37, 0.53, 347.27
355.37, 0.61, 347.28
355.37, 0.68, 347.26
355.35, 0.74, 347.18
355.34, 0.80, 347.09
355.32, 0.86, 347.01
355.30, 0.92, 346.92
355.28, 0.97, 346.78
355.23, 1.01, 346.55
355.19, 1.05, 346.29
354.49, 0.56, 342.54
354.48, 0.69, 342.53
354.46, 0.81, 342.44
354.45, 0.94, 342.34
354.39, 1.04, 342.06
354.08, 1.03, 340.40
353.33, 0.87, 336.36
353.26, 1.05, 335.98
353.10, 1.22, 335.13
352.98, 1.42, 334.51
352.46, 1.57, 331.75
352.39, 1.83, 331.36
352.31, 2.10, 330.96
352.01, 2.39, 329.34
355.28, 0.01, 347.19
355.25, 0.03, 347.02
355.29, 0.20, 347.25
355.32, 0.33, 347.41
355.32, 0.41, 347.41
355.32, 0.49, 347.41
355.32, 0.57, 347.41
355.32, 0.64, 347.41
355.31, 0.71, 347.36
¯355.30, 0.76, 347.28
355.28, 0.82, 347.20
355.26, 0.88, 347.12
355.25, 0.94, 347.04
355.21, 0.99, 346.86
355.17, 1.02, 346.63
355.12, 1.07, 346.38
354.35, 0.55, 342.53
354.35, 0.69, 342.52
354.33, 0.81, 342.42
354.31, 0.93, 342.33
354.25, 1.04, 342.05
353.92, 1.03, 340.40
353.09, 0.86, 336.26
352.91, 1.01, 335.32
352.78, 1.19, 334.70
352.65, 1.40, 334.05
352.13, 1.56, 331.43
352.05, 1.82, 331.02
351.96, 2.09, 330.61
351.67, 2.39, 329.13
355.21, 0.02, 347.22
355.22, 0.12, 347.27
355.27, 0.27, 347.48
355.28, 0.37, 347.54
355.28, 0.45, 347.54
355.28, 0.52, 347.54
355.28, 0.60, 347.54
355.28, 0.67, 347.54
355.26, 0.73, 347.46
355.24, 0.78, 347.39
355.23, 0.84, 347.31
355.21, 0.90, 347.23
355.19, 0.96, 347.15
355.15, 1.00, 346.94
355.10, 1.04, 346.71
354.21, 0.41, 342.51
354.21, 0.55, 342.51
354.21, 0.68, 342.50
354.19, 0.80, 342.41
354.17, 0.93, 342.32
354.11, 1.04, 342.05
353.76, 1.03, 340.41
352.86, 0.84, 336.15
352.59, 0.97, 334.89
352.45, 1.17, 334.25
351.87, 1.29, 331.49
351.78, 1.54, 331.09
351.69, 1.81, 330.67
351.60, 2.09, 330.24
355.15, 0.04, 347.29
¯355.20, 0.20, 347.50
355.24, 0.33, 347.66
355.23, 0.40, 347.66
355.23, 0.48, 347.66
355.23, 0.55, 347.66
355.23, 0.63, 347.66
355.23, 0.69, 347.63
355.21, 0.75, 347.56
355.19, 0.80, 347.49
355.18, 0.86, 347.41
355.16, 0.92, 347.33
355.13, 0.97, 347.22
355.09, 1.01, 347.01
355.04, 1.05, 346.79
354.07, 0.40, 342.49
354.07, 0.54, 342.49
354.07, 0.67, 342.49
354.05, 0.80, 342.40
354.03, 0.92, 342.30
353.97, 1.03, 342.04
353.60, 1.02, 340.42
352.61, 0.83, 336.04
352.26, 0.94, 334.45
351.60, 1.01, 331.55
351.51, 1.27, 331.16
351.42, 1.53, 330.75
351.33, 1.80, 330.33
355.13, 0.12, 347.52
355.18, 0.27, 347.72
355.19, 0.36, 347.78
355.19, 0.44, 347.78
355.19, 0.51, 347.78
355.19, 0.59, 347.78
355.19, 0.66, 347.78
355.18, 0.72, 347.72
355.16, 0.77, 347.65
355.14, 0.82, 347.58
355.13, 0.88, 347.51
355.11, 0.94, 347.44
355.07, 0.98, 347.29
355.02, 1.02, 347.08
354.97, 1.06, 346.87
353.93, 0.39, 342.47
353.93, 0.53, 342.47
353.93, 0.67, 342.47
353.91, 0.79, 342.38
353.88, 0.92, 342.29
353.82, 1.03, 342.04
353.44, 1.02, 340.43
352.34, 0.81, 335.80
351.35, 0.74, 331.64
¯351.25, 0.99, 331.25
351.16, 1.25, 330.85
351.06, 1.52, 330.43
355.11, 0.19, 347.74
355.15, 0.32, 347.89
355.15, 0.40, 347.89
355.15, 0.47, 347.90
355.15, 0.54, 347.90
355.15, 0.62, 347.90
355.15, 0.68, 347.88
355.13, 0.74, 347.82
355.11, 0.79, 347.75
355.10, 0.84, 347.68
355.08, 0.90, 347.61
355.06, 0.96, 347.53
355.01, 0.99, 347.36
354.96, 1.03, 347.16
354.91, 1.07, 346.95
353.79, 0.38, 342.46
353.79, 0.52, 342.46
353.79, 0.66, 342.46
353.76, 0.78, 342.37
353.74, 0.91, 342.27
353.68, 1.02, 342.03
353.28, 1.02, 340.44
351.82, 0.71, 334.62
351.00, 0.72, 331.34
350.89, 0.97, 330.94
350.79, 1.23, 330.53
350.68, 1.50, 330.09
355.10, 0.26, 347.94
355.11, 0.36, 348.01
355.11, 0.43, 348.01
355.11, 0.50, 348.01
355.11, 0.57, 348.01
355.11, 0.64, 348.01
355.10, 0.70, 347.97
355.08, 0.75, 347.90
355.07, 0.81, 347.84
355.05, 0.86, 347.77
355.03, 0.92, 347.70
355.01, 0.97, 347.61
354.96, 1.00, 347.42
354.91, 1.04, 347.23
353.63, 0.22, 342.37
353.64, 0.37, 342.44
353.64, 0.51, 342.44
353.64, 0.65, 342.44
353.62, 0.78, 342.36
353.59, 0.90, 342.26
353.53, 1.02, 342.03
¯353.12, 1.01, 340.45
351.43, 0.65, 334.04
350.63, 0.69, 331.04
350.52, 0.95, 330.62
350.41, 1.21, 330.19
355.08, 0.32, 348.11
355.08, 0.39, 348.11
355.08, 0.46, 348.11
355.08, 0.53, 348.11
355.08, 0.60, 348.11
355.08, 0.67, 348.11
355.06, 0.72, 348.05
355.04, 0.77, 347.99
355.02, 0.83, 347.93
355.00, 0.88, 347.86
354.98, 0.93, 347.79
354.95, 0.98, 347.67
354.90, 1.01, 347.49
354.85, 1.05, 347.30
353.50, 0.23, 342.42
353.50, 0.36, 342.42
353.50, 0.50, 342.42
353.50, 0.64, 342.42
353.48, 0.77, 342.34
353.45, 0.90, 342.25
353.39, 1.01, 342.03
352.95, 1.01, 340.46
351.18, 0.65, 334.06
350.25, 0.66, 330.72
350.13, 0.92, 330.29
355.04, 0.35, 348.21
355.04, 0.42, 348.22
355.04, 0.49, 348.22
355.04, 0.56, 348.22
355.04, 0.63, 348.22
355.03, 0.69, 348.19
355.01, 0.74, 348.13
355.00, 0.79, 348.07
354.98, 0.84, 348.01
354.96, 0.90, 347.95
354.94, 0.95, 347.88
354.90, 0.99, 347.73
354.85, 1.02, 347.56
354.79, 1.06, 347.37
353.42, 0.25, 342.62
353.35, 0.35, 342.40
353.35, 0.49, 342.40
353.35, 0.63, 342.40
353.33, 0.76, 342.33
353.30, 0.89, 342.23
353.24, 1.01, 342.03
¯352.79, 1.00, 340.47
350.93, 0.64, 334.07
349.99, 0.66, 330.84
355.00, 0.38, 348.31
355.00, 0.45, 348.32
355.00, 0.52, 348.32
355.00, 0.59, 348.32
355.00, 0.65, 348.32
354.99, 0.71, 348.27
354.97, 0.76, 348.21
354.95, 0.81, 348.16
354.94, 0.86, 348.09
354.92, 0.91, 348.03
354.89, 0.96, 347.96
354.84, 1.00, 347.80
354.79, 1.03, 347.62
354.74, 1.07, 347.44
353.33, 0.28, 342.81
353.20, 0.34, 342.38
353.20, 0.48, 342.38
353.20, 0.62, 342.38
353.18, 0.76, 342.32
353.15, 0.88, 342.22
353.09, 1.00, 342.02
352.62, 1.00, 340.48
350.68, 0.64, 334.09
349.74, 0.67, 330.98
354.97, 0.41, 348.41
354.97, 0.48, 348.41
354.97, 0.55, 348.41
354.97, 0.61, 348.41
354.97, 0.68, 348.41
354.95, 0.73, 348.35
354.93, 0.78, 348.29
354.91, 0.83, 348.24
354.89, 0.88, 348.18
354.87, 0.93, 348.12
354.84, 0.97, 348.02
354.79, 1.01, 347.86
354.74, 1.04, 347.69
353.52, 0.34, 343.82
353.25, 0.31, 343.00
353.05, 0.33, 342.36
353.05, 0.47, 342.36
353.05, 0.62, 342.36
353.03, 0.75, 342.30
353.00, 0.88, 342.21
352.94, 1.00, 342.02
352.46, 1.00, 340.49
350.43, 0.63, 334.11
349.43, 0.66, 330.93
¯354.94, 0.44, 348.50
354.94, 0.51, 348.50
354.94, 0.57, 348.51
354.94, 0.64, 348.51
354.93, 0.69, 348.48
354.91, 0.74, 348.42
354.89, 0.79, 348.37
354.87, 0.84, 348.31
354.85, 0.89, 348.26
354.83, 0.95, 348.20
354.79, 0.98, 348.08
354.74, 1.02, 347.92
354.69, 1.05, 347.75
353.40, 0.34, 343.86
353.18, 0.34, 343.18
352.90, 0.32, 342.34
352.90, 0.46, 342.34
352.90, 0.61, 342.34
352.88, 0.74, 342.29
352.85, 0.87, 342.19
352.79, 0.99, 342.02
352.29, 0.99, 340.51
350.18, 0.63, 334.13
349.04, 0.63, 330.68
354.91, 0.47, 348.60
354.91, 0.53, 348.60
354.91, 0.60, 348.60
354.91, 0.66, 348.60
354.89, 0.71, 348.55
354.87, 0.76, 348.50
354.85, 0.81, 348.44
354.83, 0.86, 348.39
354.81, 0.91, 348.33
354.79, 0.96, 348.28
354.74, 0.99, 348.13
354.69, 1.02, 347.98
354.64, 1.06, 347.82
353.29, 0.34, 343.90
353.10, 0.36, 343.35
352.75, 0.31, 342.32
352.75, 0.45, 342.33
352.75, 0.60, 342.33
352.73, 0.73, 342.28
352.70, 0.86, 342.18
352.64, 0.99, 342.02
352.12, 0.99, 340.52
353.23, 1.42, 343.75
353.28, 1.55, 343.90
353.29, 1.67, 343.90
353.29, 1.79, 343.91
353.16, 1.90, 343.56
¯354.87, 0.49, 348.68
354.87, 0.56, 348.68
354.87, 0.62, 348.68
354.87, 0.68, 348.67
354.85, 0.73, 348.62
354.83, 0.78, 348.57
354.81, 0.82, 348.52
354.80, 0.87, 348.47
354.78, 0.92, 348.41
354.75, 0.97, 348.33
354.70, 1.00, 348.19
354.64, 1.03, 348.04
354.59, 1.07, 347.88
353.18, 0.34, 343.94
352.99, 0.36, 343.42
352.67, 0.34, 342.52
352.59, 0.44, 342.31
352.59, 0.58, 342.31
352.58, 0.72, 342.27
352.54, 0.85, 342.17
352.49, 0.98, 342.02
353.21, 1.32, 344.04
353.39, 1.48, 344.55
353.39, 1.60, 344.56
353.39, 1.71, 344.56
353.39, 1.82, 344.54
353.25, 1.92, 344.17
353.10, 2.03, 343.76
354.84, 0.52, 348.77
354.84, 0.58, 348.77
354.84, 0.64, 348.77
354.83, 0.70, 348.74
354.82, 0.74, 348.69
354.80, 0.79, 348.64
354.78, 0.84, 348.59
354.76, 0.89, 348.54
354.74, 0.94, 348.49
354.70, 0.98, 348.39
354.65, 1.01, 348.25
354.59, 1.04, 348.10
353.56, 0.50, 345.31
353.56, 0.61, 345.31
353.54, 0.71, 345.27
352.60, 0.36, 342.73
352.44, 0.43, 342.29
352.43, 0.57, 342.29
352.42, 0.71, 342.25
352.38, 0.84, 342.15
353.18, 1.23, 344.31
353.42, 1.41, 344.94
353.49, 1.53, 345.13
¯353.49, 1.63, 345.13
353.49, 1.74, 345.13
353.45, 1.84, 345.05
353.33, 1.93, 344.71
353.19, 2.04, 344.35
352.87, 2.15, 343.48
354.82, 0.54, 348.85
354.82, 0.60, 348.85
354.82, 0.67, 348.85
354.80, 0.71, 348.81
354.78, 0.76, 348.76
354.76, 0.81, 348.71
354.74, 0.85, 348.66
354.72, 0.90, 348.61
354.70, 0.95, 348.56
354.66, 0.99, 348.44
354.60, 1.02, 348.31
354.55, 1.05, 348.16
353.52, 0.53, 345.49
353.52, 0.64, 345.50
353.49, 0.73, 345.42
353.45, 0.81, 345.32
353.41, 0.90, 345.21
352.28, 0.56, 342.27
352.26, 0.70, 342.24
352.23, 0.84, 342.14
353.39, 1.32, 345.17
353.57, 1.47, 345.63
353.57, 1.57, 345.63
353.57, 1.67, 345.63
353.57, 1.77, 345.64
353.51, 1.86, 345.50
353.40, 1.95, 345.20
353.27, 2.05, 344.87
352.96, 2.15, 344.05
354.79, 0.56, 348.93
354.79, 0.63, 348.93
354.78, 0.68, 348.92
354.76, 0.73, 348.87
354.74, 0.77, 348.83
354.73, 0.82, 348.78
354.71, 0.87, 348.73
354.69, 0.92, 348.68
354.66, 0.96, 348.62
354.61, 0.99, 348.50
354.56, 1.02, 348.36
354.50, 1.06, 348.22
353.48, 0.57, 345.67
353.48, 0.67, 345.67
353.44, 0.75, 345.58
353.40, 0.83, 345.47
¯353.36, 0.92, 345.37
353.28, 0.99, 345.16
352.11, 0.69, 342.23
353.36, 1.23, 345.38
353.56, 1.39, 345.88
353.64, 1.51, 346.08
353.64, 1.60, 346.08
353.64, 1.70, 346.08
353.64, 1.79, 346.08
353.57, 1.87, 345.90
353.46, 1.96, 345.63
353.35, 2.05, 345.34
353.03, 2.15, 344.57
354.76, 0.59, 349.01
354.76, 0.65, 349.01
354.75, 0.70, 348.98
354.73, 0.74, 348.94
354.71, 0.79, 348.89
354.69, 0.84, 348.85
354.67, 0.88, 348.80
354.65, 0.93, 348.75
354.62, 0.97, 348.68
354.57, 1.00, 348.55
354.51, 1.03, 348.42
354.45, 1.06, 348.28
353.45, 0.59, 345.84
353.44, 0.69, 345.82
353.40, 0.77, 345.72
353.36, 0.85, 345.63
353.32, 0.94, 345.52
353.21, 1.00, 345.28
351.95, 0.68, 342.21
353.53, 1.31, 346.06
353.71, 1.46, 346.48
353.71, 1.54, 346.48
353.71, 1.63, 346.48
353.71, 1.72, 346.49
353.71, 1.81, 346.49
353.62, 1.89, 346.27
353.52, 1.97, 346.03
353.41, 2.06, 345.77
353.10, 2.15, 345.03
354.73, 0.61, 349.09
354.73, 0.67, 349.09
354.72, 0.71, 349.04
354.70, 0.76, 349.00
354.68, 0.80, 348.96
354.66, 0.85, 348.91
354.64, 0.90, 348.87
354.62, 0.94, 348.82
354.58, 0.98, 348.73
¯354.52, 1.01, 348.60
354.47, 1.04, 348.47
353.41, 0.52, 346.01
353.41, 0.62, 346.01
353.39, 0.71, 345.96
353.35, 0.79, 345.87
353.31, 0.87, 345.77
353.27, 0.96, 345.68
353.15, 1.02, 345.40
353.50, 1.24, 346.23
353.68, 1.38, 346.63
353.77, 1.49, 346.84
353.77, 1.58, 346.84
353.77, 1.66, 346.85
353.77, 1.75, 346.85
353.75, 1.83, 346.81
353.66, 1.90, 346.61
353.57, 1.98, 346.39
353.47, 2.07, 346.15
353.17, 2.15, 345.45
354.71, 0.63, 349.16
354.70, 0.68, 349.15
354.68, 0.73, 349.11
354.66, 0.77, 349.06
354.64, 0.82, 349.02
354.62, 0.86, 348.98
354.60, 0.91, 348.93
354.58, 0.96, 348.89
354.54, 0.99, 348.78
354.48, 1.02, 348.66
354.43, 1.05, 348.53
353.38, 0.55, 346.17
353.38, 0.65, 346.17
353.35, 0.73, 346.10
353.31, 0.81, 346.01
353.27, 0.89, 345.92
353.21, 0.97, 345.79
353.09, 1.03, 345.52
353.65, 1.31, 346.78
353.80, 1.44, 347.12
353.82, 1.53, 347.17
353.82, 1.61, 347.17
353.82, 1.69, 347.17
353.82, 1.77, 347.18
353.79, 1.84, 347.10
353.71, 1.91, 346.92
353.62, 1.99, 346.71
353.52, 2.07, 346.50
353.22, 2.16, 345.83
354.68, 0.65, 349.23
354.67, 0.70, 349.21
¯354.65, 0.74, 349.17
354.63, 0.78, 349.12
354.61, 0.83, 349.08
354.59, 0.88, 349.04
354.57, 0.92, 349.00
354.55, 0.96, 348.94
354.49, 0.99, 348.83
354.44, 1.02, 348.71
354.38, 1.05, 348.58
353.35, 0.58, 346.32
353.35, 0.67, 346.32
353.31, 0.75, 346.23
353.27, 0.83, 346.14
353.23, 0.91, 346.06
353.16, 0.98, 345.90
353.62, 1.24, 346.92
353.77, 1.37, 347.25
353.87, 1.48, 347.47
353.87, 1.56, 347.47
353.87, 1.63, 347.47
353.87, 1.71, 347.47
353.87, 1.79, 347.47
353.82, 1.86, 347.37
353.74, 1.93, 347.20
353.66, 2.00, 347.01
353.57, 2.08, 346.82
353.28, 2.16, 346.18
354.66, 0.67, 349.30
354.64, 0.71, 349.26
354.62, 0.75, 349.22
354.60, 0.80, 349.18
354.58, 0.84, 349.14
354.56, 0.89, 349.10
354.54, 0.93, 349.06
354.51, 0.97, 348.99
354.45, 1.00, 348.88
354.40, 1.03, 348.76
354.34, 1.06, 348.64
353.32, 0.60, 346.47
353.31, 0.69, 346.44
353.27, 0.77, 346.36
353.23, 0.85, 346.28
353.19, 0.93, 346.19
353.59, 1.17, 347.05
353.74, 1.30, 347.37
353.88, 1.42, 347.66
353.91, 1.51, 347.74
353.92, 1.58, 347.74
353.92, 1.66, 347.74
353.92, 1.73, 347.75
353.92, 1.80, 347.75
¯353.86, 1.87, 347.62
353.78, 1.94, 347.46
353.70, 2.01, 347.29
353.61, 2.08, 347.11
353.33, 2.16, 346.50
354.63, 0.68, 349.36
354.61, 0.72, 349.32
354.59, 0.77, 349.28
354.57, 0.81, 349.24
354.55, 0.85, 349.20
354.53, 0.90, 349.16
354.51, 0.94, 349.12
354.47, 0.98, 349.04
354.41, 1.01, 348.93
354.36, 1.04, 348.81
354.30, 1.07, 348.69
353.29, 0.63, 346.61
353.27, 0.71, 346.57
353.23, 0.79, 346.49
353.19, 0.86, 346.41
353.15, 0.94, 346.32
353.71, 1.24, 347.49
353.85, 1.36, 347.77
353.96, 1.47, 347.99
353.96, 1.54, 347.99
353.96, 1.61, 347.99
353.96, 1.68, 348.00
353.96, 1.75, 348.00
353.95, 1.82, 347.99
353.88, 1.88, 347.85
353.81, 1.95, 347.70
353.74, 2.01, 347.55
353.66, 2.09, 347.38
353.37, 2.16, 346.80
354.60, 0.69, 349.42
354.58, 0.74, 349.38
354.56, 0.78, 349.34
354.54, 0.82, 349.30
354.52, 0.87, 349.26
354.50, 0.91, 349.22
354.48, 0.96, 349.18
354.43, 0.99, 349.08
354.38, 1.01, 348.98
354.32, 1.04, 348.86
353.26, 0.56, 346.75
353.26, 0.65, 346.75
353.23, 0.73, 346.69
353.19, 0.81, 346.61
353.15, 0.88, 346.53
353.68, 1.17, 347.60
353.82, 1.30, 347.87
¯353.94, 1.41, 348.12
353.99, 1.49, 348.22
353.99, 1.56, 348.22
353.99, 1.63, 348.23
353.99, 1.70, 348.23
353.99, 1.77, 348.23
353.98, 1.83, 348.19
353.91, 1.89, 348.06
353.84, 1.95, 347.93
353.77, 2.02, 347.78
353.69, 2.09, 347.63
353.41, 2.16, 347.07
354.57, 0.71, 349.47
354.55, 0.75, 349.43
354.53, 0.79, 349.40
354.51, 0.83, 349.36
354.49, 0.88, 349.32
354.47, 0.92, 349.28
354.44, 0.96, 349.23
354.39, 0.99, 349.13
354.34, 1.02, 349.03
354.28, 1.05, 348.91
353.23, 0.59, 346.89
353.23, 0.68, 346.88
353.19, 0.75, 346.81
353.15, 0.82, 346.73
353.11, 0.90, 346.66
353.79, 1.24, 347.97
353.91, 1.35, 348.21
354.03, 1.45, 348.43
354.03, 1.52, 348.44
354.03, 1.59, 348.44
354.03, 1.65, 348.44
354.03, 1.72, 348.44
354.03, 1.78, 348.44
354.00, 1.84, 348.38
353.94, 1.90, 348.26
353.87, 1.96, 348.14
353.80, 2.03, 348.00
353.73, 2.09, 347.86
353.45, 2.16, 347.33
354.54, 0.72, 349.52
354.52, 0.76, 349.49
354.50, 0.80, 349.45
354.48, 0.85, 349.41
354.46, 0.89, 349.38
354.44, 0.93, 349.34
354.41, 0.97, 349.28
354.35, 1.00, 349.18
354.30, 1.03, 349.07
354.24, 1.06, 348.97
¯353.20, 0.61, 347.02
353.19, 0.69, 347.00
353.15, 0.76, 346.92
353.11, 0.84, 346.85
353.76, 1.18, 348.07
353.89, 1.29, 348.30
354.00, 1.40, 348.51
354.06, 1.48, 348.63
354.06, 1.54, 348.64
354.06, 1.61, 348.64
354.06, 1.67, 348.64
354.06, 1.73, 348.64
354.06, 1.80, 348.64
354.02, 1.85, 348.56
353.96, 1.91, 348.45
353.90, 1.97, 348.33
353.83, 2.03, 348.21
353.76, 2.10, 348.08
353.49, 2.16, 347.56
354.51, 0.73, 349.58
354.49, 0.77, 349.54
354.47, 0.81, 349.51
354.45, 0.86, 349.47
354.43, 0.90, 349.43
354.41, 0.94, 349.40
354.37, 0.98, 349.32
354.32, 1.00, 349.23
354.26, 1.03, 349.12
354.20, 1.06, 349.02
353.18, 0.63, 347.14
353.16, 0.71, 347.11
353.12, 0.78, 347.04
353.08, 0.85, 346.97
353.86, 1.23, 348.39
353.97, 1.34, 348.60
354.07, 1.44, 348.78
354.09, 1.51, 348.82
354.09, 1.57, 348.82
354.09, 1.63, 348.82
354.09, 1.69, 348.82
354.09, 1.75, 348.82
354.09, 1.81, 348.82
354.04, 1.86, 348.73
353.98, 1.92, 348.63
353.92, 1.98, 348.52
353.86, 2.04, 348.40
353.79, 2.10, 348.28
353.52, 2.16, 347.78
354.49, 0.74, 349.63
354.47, 0.78, 349.60
354.45, 0.83, 349.56
¯354.43, 0.87, 349.53
354.41, 0.91, 349.49
354.38, 0.95, 349.45
354.34, 0.98, 349.37
354.28, 1.01, 349.27
354.23, 1.04, 349.17
354.17, 1.07, 349.07
353.15, 0.65, 347.27
353.12, 0.73, 347.22
353.08, 0.80, 347.15
353.83, 1.18, 348.47
353.94, 1.29, 348.67
354.05, 1.38, 348.86
354.12, 1.47, 348.99
354.12, 1.53, 348.99
354.12, 1.59, 348.99
354.12, 1.65, 348.99
354.12, 1.71, 348.99
354.12, 1.77, 348.99
354.11, 1.82, 348.98
354.06, 1.87, 348.89
354.00, 1.93, 348.79
353.95, 1.98, 348.69
353.89, 2.04, 348.58
353.82, 2.10, 348.47
353.55, 2.17, 347.99
354.46, 0.75, 349.68
354.44, 0.79, 349.65
354.42, 0.84, 349.61
354.40, 0.88, 349.58
354.38, 0.92, 349.54
354.35, 0.96, 349.50
354.30, 0.99, 349.41
354.25, 1.02, 349.32
354.19, 1.04, 349.22
353.13, 0.59, 347.39
353.12, 0.67, 347.39
353.09, 0.74, 347.32
353.05, 0.81, 347.26
353.91, 1.23, 348.75
354.02, 1.33, 348.93
354.11, 1.42, 349.09
354.15, 1.49, 349.15
354.15, 1.55, 349.15
354.15, 1.61, 349.15
354.15, 1.66, 349.15
354.15, 1.72, 349.15
354.15, 1.78, 349.16
354.13, 1.83, 349.12
354.08, 1.88, 349.04
354.02, 1.93, 348.95
¯353.97, 1.99, 348.85
353.91, 2.05, 348.75
353.84, 2.11, 348.63
353.58, 2.17, 348.18
354.43, 0.76, 349.73
354.41, 0.81, 349.70
354.39, 0.85, 349.67
354.37, 0.89, 349.63
354.35, 0.93, 349.60
354.32, 0.97, 349.55
354.27, 0.99, 349.46
354.21, 1.02, 349.37
354.15, 1.05, 349.27
353.10, 0.61, 347.51
353.09, 0.69, 347.49
353.05, 0.76, 347.43
353.89, 1.17, 348.82
353.99, 1.28, 349.00
354.09, 1.37, 349.16
354.17, 1.46, 349.30
354.17, 1.51, 349.30
354.17, 1.57, 349.30
354.17, 1.63, 349.30
354.17, 1.68, 349.31
354.17, 1.74, 349.31
354.17, 1.79, 349.31
354.14, 1.84, 349.26
354.09, 1.89, 349.18
354.04, 1.94, 349.09
353.99, 2.00, 349.00
353.93, 2.05, 348.91
353.86, 2.11, 348.79
353.61, 2.17, 348.37
354.41, 0.77, 349.78
354.39, 0.82, 349.75
354.37, 0.86, 349.72
354.35, 0.90, 349.69
354.33, 0.94, 349.65
354.29, 0.97, 349.59
354.23, 1.00, 349.50
354.18, 1.03, 349.41
354.12, 1.06, 349.32
353.08, 0.63, 347.62
353.06, 0.71, 347.59
353.02, 0.77, 347.53
353.96, 1.23, 349.06
354.06, 1.32, 349.22
354.15, 1.41, 349.37
354.19, 1.48, 349.44
354.19, 1.53, 349.45
354.19, 1.59, 349.45
¯354.19, 1.64, 349.45
354.19, 1.70, 349.45
354.20, 1.75, 349.45
354.20, 1.80, 349.45
354.16, 1.85, 349.39
354.11, 1.90, 349.31
354.06, 1.95, 349.23
354.01, 2.00, 349.15
353.95, 2.05, 349.06
353.88, 2.11, 348.93
353.63, 2.17, 348.54
345.91, 2.32, 335.98
361.53, 0.02, 356.56
361.72, 0.02, 356.71
361.92, 0.02, 356.87
362.13, 0.02, 357.04
362.36, 0.02, 357.22
362.61, 0.02, 357.42
362.88, 0.02, 357.64
363.18, 0.02, 357.88
363.50, 0.02, 358.14
363.86, 0.02, 358.42
364.25, 0.02, 358.74
364.69, 0.02, 359.09
365.15, 0.02, 359.46
365.65, 0.04, 359.85
366.20, 0.05, 360.30
366.83, 0.07, 360.80
367.57, 0.08, 361.40
368.33, 0.12, 362.01
369.19, 0.16, 362.70
370.26, 0.20, 363.55
372.80, 0.07, 365.59
375.54, 0.00, 367.78
361.58, 0.02, 356.50
361.77, 0.02, 356.65
361.97, 0.02, 356.81
362.18, 0.02, 356.97
362.41, 0.02, 357.16
362.67, 0.02, 357.35
362.94, 0.02, 357.57
363.24, 0.02, 357.80
363.57, 0.02, 358.05
363.92, 0.02, 358.34
364.32, 0.02, 358.65
364.76, 0.02, 358.99
365.26, 0.02, 359.38
365.76, 0.03, 359.77
366.32, 0.05, 360.20
366.94, 0.07, 360.69
367.75, 0.07, 361.33
¯368.53, 0.10, 361.94
369.38, 0.15, 362.60
370.25, 0.22, 363.27
372.86, 0.08, 365.32
375.71, 0.00, 367.54
361.63, 0.02, 356.45
361.81, 0.02, 356.59
362.02, 0.02, 356.74
362.23, 0.02, 356.91
362.47, 0.02, 357.09
362.72, 0.02, 357.28
363.00, 0.02, 357.49
363.30, 0.02, 357.72
363.63, 0.02, 357.97
363.99, 0.02, 358.25
364.40, 0.02, 358.56
364.84, 0.02, 358.90
365.34, 0.02, 359.28
365.86, 0.03, 359.67
366.42, 0.05, 360.10
367.06, 0.06, 360.59
367.91, 0.06, 361.23
368.73, 0.09, 361.86
369.57, 0.14, 362.50
370.45, 0.21, 363.17
372.85, 0.11, 364.99
375.87, 0.01, 367.29
361.67, 0.02, 356.39
361.86, 0.02, 356.53
362.06, 0.02, 356.68
362.28, 0.02, 356.84
362.52, 0.02, 357.02
362.78, 0.02, 357.21
363.06, 0.02, 357.42
363.36, 0.02, 357.64
363.69, 0.02, 357.89
364.06, 0.02, 358.16
364.47, 0.02, 358.46
364.92, 0.02, 358.80
365.42, 0.02, 359.17
365.96, 0.03, 359.57
366.53, 0.04, 360.00
367.18, 0.06, 360.48
368.07, 0.05, 361.14
368.94, 0.07, 361.78
369.76, 0.13, 362.40
370.66, 0.20, 363.06
372.88, 0.12, 364.72
375.84, 0.03, 366.91
361.71, 0.02, 356.33
361.91, 0.02, 356.47
¯362.11, 0.02, 356.62
362.33, 0.02, 356.78
362.57, 0.02, 356.95
362.83, 0.02, 357.14
363.11, 0.02, 357.34
363.42, 0.02, 357.56
363.76, 0.02, 357.81
364.13, 0.02, 358.08
364.54, 0.02, 358.37
364.99, 0.02, 358.70
365.50, 0.02, 359.07
366.06, 0.02, 359.47
366.64, 0.04, 359.90
367.32, 0.05, 360.38
368.22, 0.04, 361.04
369.14, 0.06, 361.70
369.95, 0.12, 362.29
370.86, 0.19, 362.95
372.92, 0.14, 364.44
375.69, 0.07, 366.44
361.76, 0.02, 356.27
361.95, 0.02, 356.41
362.16, 0.02, 356.55
362.38, 0.02, 356.71
362.62, 0.02, 356.88
362.89, 0.02, 357.07
363.17, 0.02, 357.27
363.48, 0.02, 357.48
363.82, 0.02, 357.72
364.19, 0.02, 357.99
364.61, 0.02, 358.28
365.07, 0.02, 358.60
365.58, 0.02, 358.97
366.16, 0.02, 359.37
366.75, 0.03, 359.79
367.46, 0.04, 360.29
368.38, 0.03, 360.94
369.32, 0.05, 361.60
370.12, 0.11, 362.17
371.03, 0.18, 362.81
372.95, 0.15, 364.16
375.53, 0.11, 365.99
361.80, 0.02, 356.21
362.00, 0.02, 356.34
362.21, 0.02, 356.49
362.43, 0.02, 356.64
362.68, 0.02, 356.81
362.94, 0.02, 356.99
363.23, 0.02, 357.19
363.54, 0.02, 357.40
363.88, 0.02, 357.64
¯364.26, 0.02, 357.90
364.67, 0.02, 358.18
365.14, 0.02, 358.50
365.66, 0.02, 358.86
366.24, 0.02, 359.26
366.85, 0.03, 359.68
367.59, 0.03, 360.19
368.53, 0.02, 360.84
369.47, 0.04, 361.48
370.28, 0.10, 362.04
371.22, 0.17, 362.68
372.97, 0.17, 363.89
375.32, 0.15, 365.50
361.84, 0.02, 356.15
362.04, 0.02, 356.28
362.25, 0.02, 356.42
362.48, 0.02, 356.58
362.72, 0.02, 356.74
362.99, 0.02, 356.92
363.28, 0.02, 357.11
363.60, 0.02, 357.32
363.94, 0.02, 357.55
364.32, 0.02, 357.81
364.74, 0.02, 358.09
365.21, 0.02, 358.40
365.73, 0.02, 358.75
366.32, 0.02, 359.15
366.96, 0.03, 359.57
367.73, 0.02, 360.09
368.65, 0.02, 360.71
369.61, 0.03, 361.35
370.43, 0.10, 361.90
371.42, 0.16, 362.56
372.99, 0.18, 363.61
375.21, 0.18, 365.10
361.88, 0.02, 356.09
362.08, 0.02, 356.22
362.30, 0.02, 356.36
362.53, 0.02, 356.51
362.77, 0.02, 356.67
363.04, 0.02, 356.84
363.33, 0.02, 357.03
363.65, 0.02, 357.24
364.00, 0.02, 357.47
364.38, 0.02, 357.72
364.81, 0.02, 357.99
365.28, 0.02, 358.30
365.81, 0.02, 358.65
366.40, 0.02, 359.03
367.06, 0.02, 359.47
367.85, 0.02, 359.98
¯368.74, 0.02, 360.56
369.71, 0.04, 361.19
370.59, 0.09, 361.76
371.62, 0.15, 362.44
373.01, 0.20, 363.34
375.34, 0.18, 364.86
361.92, 0.02, 356.03
362.12, 0.02, 356.15
362.34, 0.02, 356.29
362.57, 0.02, 356.44
362.82, 0.02, 356.60
363.09, 0.02, 356.77
363.39, 0.02, 356.95
363.71, 0.02, 357.16
364.06, 0.02, 357.38
364.44, 0.02, 357.63
364.87, 0.02, 357.90
365.35, 0.02, 358.20
365.88, 0.02, 358.54
366.48, 0.02, 358.92
367.16, 0.02, 359.35
367.93, 0.02, 359.84
368.82, 0.02, 360.40
369.79, 0.04, 361.02
370.74, 0.09, 361.62
371.83, 0.14, 362.31
373.13, 0.20, 363.14
375.46, 0.19, 364.62
377.38, 0.28, 365.84
361.96, 0.02, 355.97
362.17, 0.02, 356.09
362.38, 0.02, 356.22
362.62, 0.02, 356.37
362.87, 0.02, 356.52
363.14, 0.02, 356.69
363.44, 0.02, 356.88
363.76, 0.02, 357.08
364.11, 0.02, 357.29
364.50, 0.02, 357.53
364.94, 0.02, 357.80
365.41, 0.02, 358.10
365.95, 0.02, 358.43
366.56, 0.02, 358.80
367.24, 0.02, 359.23
368.01, 0.02, 359.70
368.91, 0.03, 360.25
369.87, 0.04, 360.85
370.90, 0.08, 361.48
372.00, 0.13, 362.16
373.31, 0.20, 362.97
375.58, 0.19, 364.38
¯377.06, 0.32, 365.29
362.00, 0.02, 355.90
362.21, 0.02, 356.03
362.43, 0.02, 356.16
362.66, 0.02, 356.30
362.91, 0.02, 356.45
363.19, 0.02, 356.62
363.49, 0.02, 356.80
363.81, 0.02, 356.99
364.17, 0.02, 357.21
364.56, 0.02, 357.44
365.00, 0.02, 357.70
365.48, 0.02, 357.99
366.02, 0.02, 358.32
366.63, 0.02, 358.68
367.32, 0.02, 359.10
368.09, 0.03, 359.56
368.99, 0.03, 360.10
369.95, 0.05, 360.68
371.05, 0.07, 361.34
372.05, 0.14, 361.94
373.48, 0.19, 362.80
375.70, 0.19, 364.13
377.52, 0.30, 365.23
362.04, 0.02, 355.84
362.25, 0.02, 355.96
362.47, 0.02, 356.09
362.70, 0.02, 356.23
362.96, 0.02, 356.38
363.24, 0.02, 356.54
363.54, 0.02, 356.71
363.87, 0.02, 356.91
364.23, 0.02, 357.12
364.62, 0.02, 357.35
365.06, 0.02, 357.60
365.55, 0.02, 357.89
366.09, 0.02, 358.21
366.71, 0.02, 358.57
367.40, 0.02, 358.97
368.16, 0.03, 359.42
369.07, 0.03, 359.95
370.03, 0.05, 360.51
371.15, 0.07, 361.16
372.11, 0.15, 361.72
373.64, 0.19, 362.62
375.98, 0.18, 363.99
378.06, 0.26, 365.20
362.08, 0.02, 355.78
362.29, 0.02, 355.89
362.51, 0.02, 356.02
362.75, 0.02, 356.16
¯363.00, 0.02, 356.30
363.28, 0.02, 356.46
363.59, 0.02, 356.63
363.92, 0.02, 356.82
364.28, 0.02, 357.03
364.68, 0.02, 357.25
365.12, 0.02, 357.50
365.61, 0.02, 357.78
366.16, 0.02, 358.09
366.78, 0.02, 358.45
367.47, 0.02, 358.84
368.24, 0.03, 359.28
369.15, 0.03, 359.79
370.10, 0.05, 360.34
371.23, 0.08, 360.98
372.16, 0.16, 361.50
373.81, 0.18, 362.44
376.39, 0.15, 363.91
362.12, 0.02, 355.71
362.32, 0.02, 355.83
362.55, 0.02, 355.95
362.79, 0.02, 356.08
363.05, 0.02, 356.23
363.33, 0.02, 356.38
363.63, 0.02, 356.55
363.97, 0.02, 356.74
364.33, 0.02, 356.94
364.73, 0.02, 357.16
365.18, 0.02, 357.40
365.67, 0.02, 357.68
366.23, 0.02, 357.98
366.85, 0.02, 358.33
367.54, 0.02, 358.71
368.32, 0.03, 359.14
369.22, 0.04, 359.63
370.22, 0.05, 360.19
371.31, 0.08, 360.79
372.22, 0.17, 361.29
373.97, 0.18, 362.25
376.81, 0.12, 363.82
362.15, 0.02, 355.65
362.36, 0.02, 355.76
362.59, 0.02, 355.88
362.83, 0.02, 356.01
363.09, 0.02, 356.15
363.37, 0.02, 356.30
363.68, 0.02, 356.47
364.02, 0.02, 356.65
364.38, 0.02, 356.85
364.79, 0.02, 357.06
365.23, 0.02, 357.30
¯365.73, 0.02, 357.57
366.29, 0.02, 357.87
366.92, 0.02, 358.21
367.61, 0.02, 358.58
368.39, 0.03, 359.00
369.29, 0.04, 359.48
370.33, 0.05, 360.03
371.39, 0.08, 360.60
372.30, 0.17, 361.09
374.32, 0.15, 362.17
377.27, 0.09, 363.76
362.19, 0.02, 355.58
362.40, 0.02, 355.69
362.62, 0.02, 355.81
362.87, 0.02, 355.94
363.13, 0.02, 356.08
363.42, 0.02, 356.22
363.73, 0.02, 356.39
364.06, 0.02, 356.56
364.43, 0.02, 356.75
364.84, 0.02, 356.97
365.29, 0.02, 357.20
365.79, 0.02, 357.46
366.35, 0.02, 357.75
366.99, 0.02, 358.08
367.68, 0.02, 358.45
368.47, 0.03, 358.85
369.38, 0.04, 359.33
370.44, 0.05, 359.88
371.47, 0.09, 360.42
372.38, 0.17, 360.89
374.68, 0.12, 362.09
377.43, 0.09, 363.52
378.89, 0.24, 364.28
377.75, 0.64, 363.69
377.75, 0.92, 363.69
377.75, 1.21, 363.69
377.75, 1.50, 363.69
377.75, 1.79, 363.70
377.80, 2.08, 363.72
362.22, 0.02, 355.52
362.43, 0.02, 355.63
362.66, 0.02, 355.74
362.91, 0.02, 355.87
363.17, 0.02, 356.00
363.46, 0.02, 356.14
363.77, 0.02, 356.30
364.11, 0.02, 356.47
364.48, 0.02, 356.66
364.89, 0.02, 356.87
365.35, 0.02, 357.10
¯365.85, 0.02, 357.35
366.42, 0.02, 357.64
367.05, 0.02, 357.96
367.75, 0.02, 358.31
368.54, 0.03, 358.71
369.47, 0.04, 359.18
