žVERSION 0.7
FIELDS x y z
SIZE 8 8 8
TYPE F F F
COUNT 1 1 1
WIDTH 2271
HEIGHT 1
VIEWPOINT 324.11, 7.17, 396.51 1 329.01, 2.33, 377.08
POINTS 2271
DATA ascii
322.44, 0.27, 367.28
322.13, 0.35, 366.62
321.75, 0.43, 365.82
319.55, 0.09, 361.20
318.05, 0.02, 358.04
325.84, 0.17, 374.60
325.74, 0.17, 374.38
325.62, 0.17, 374.15
325.50, 0.18, 373.90
325.37, 0.18, 373.64
325.23, 0.18, 373.35
325.07, 0.18, 373.03
324.90, 0.19, 372.69
324.72, 0.19, 372.31
324.52, 0.19, 371.89
324.29, 0.20, 371.43
324.04, 0.20, 370.92
323.75, 0.20, 370.33
323.42, 0.21, 369.67
323.07, 0.22, 368.94
322.70, 0.24, 368.19
322.28, 0.27, 367.33
321.88, 0.33, 366.52
321.48, 0.41, 365.70
319.25, 0.07, 361.16
317.77, 0.01, 358.13
325.77, 0.17, 374.63
325.67, 0.17, 374.42
325.55, 0.17, 374.19
325.43, 0.17, 373.94
325.29, 0.18, 373.67
325.15, 0.18, 373.39
324.99, 0.18, 373.07
324.81, 0.19, 372.73
¯324.62, 0.19, 372.35
324.42, 0.19, 371.94
324.18, 0.20, 371.48
323.91, 0.20, 370.95
323.63, 0.20, 370.38
323.29, 0.21, 369.72
322.92, 0.21, 368.99
322.54, 0.24, 368.24
322.12, 0.27, 367.41
321.63, 0.30, 366.43
321.20, 0.38, 365.59
318.94, 0.05, 361.12
317.48, 0.01, 358.23
325.71, 0.17, 374.66
325.60, 0.17, 374.45
325.48, 0.17, 374.22
325.35, 0.17, 373.98
325.21, 0.18, 373.71
325.06, 0.18, 373.42
324.90, 0.18, 373.11
324.72, 0.19, 372.77
324.53, 0.19, 372.40
324.32, 0.19, 371.99
324.07, 0.19, 371.52
323.79, 0.19, 370.99
323.50, 0.20, 370.43
323.16, 0.20, 369.77
322.78, 0.21, 369.04
322.39, 0.23, 368.29
321.97, 0.27, 367.49
321.39, 0.28, 366.38
320.92, 0.35, 365.47
318.63, 0.03, 361.08
317.20, 0.01, 358.33
325.64, 0.17, 374.69
325.53, 0.17, 374.48
325.41, 0.17, 374.26
325.28, 0.17, 374.01
325.14, 0.18, 373.75
324.98, 0.18, 373.46
324.82, 0.18, 373.15
324.63, 0.19, 372.82
324.44, 0.19, 372.45
324.22, 0.19, 372.04
323.96, 0.19, 371.56
323.67, 0.19, 371.02
323.37, 0.20, 370.46
323.03, 0.20, 369.83
322.63, 0.21, 369.09
322.24, 0.23, 368.35
321.82, 0.27, 367.57
¯321.25, 0.29, 366.51
320.63, 0.33, 365.35
318.33, 0.02, 361.07
316.91, 0.00, 358.43
325.58, 0.17, 374.73
325.46, 0.17, 374.52
325.34, 0.17, 374.29
325.20, 0.17, 374.05
325.06, 0.18, 373.79
324.90, 0.18, 373.51
324.73, 0.18, 373.20
324.55, 0.18, 372.86
324.34, 0.19, 372.49
324.11, 0.19, 372.08
323.85, 0.19, 371.60
323.55, 0.18, 371.06
323.24, 0.19, 370.50
322.89, 0.20, 369.87
322.49, 0.20, 369.14
322.09, 0.23, 368.43
321.67, 0.27, 367.66
321.11, 0.30, 366.64
320.28, 0.29, 365.15
318.08, 0.02, 361.17
316.63, 0.00, 358.54
325.51, 0.17, 374.76
325.39, 0.17, 374.55
325.27, 0.17, 374.33
325.13, 0.17, 374.09
324.98, 0.18, 373.83
324.82, 0.18, 373.55
324.65, 0.18, 373.24
324.46, 0.18, 372.91
324.25, 0.19, 372.54
324.01, 0.19, 372.12
323.74, 0.18, 371.64
323.43, 0.18, 371.10
323.11, 0.19, 370.54
322.76, 0.19, 369.92
322.35, 0.20, 369.20
321.95, 0.23, 368.51
321.52, 0.27, 367.75
320.96, 0.30, 366.77
319.87, 0.23, 364.84
317.84, 0.01, 361.27
316.36, 0.00, 358.66
325.45, 0.17, 374.80
325.33, 0.17, 374.59
325.20, 0.17, 374.37
325.06, 0.17, 374.13
324.91, 0.18, 373.87
¯324.74, 0.18, 373.59
324.56, 0.18, 373.29
324.37, 0.18, 372.96
324.15, 0.19, 372.58
323.90, 0.18, 372.16
323.62, 0.18, 371.68
323.31, 0.18, 371.15
322.98, 0.18, 370.59
322.62, 0.19, 369.96
322.22, 0.20, 369.28
321.82, 0.23, 368.59
321.37, 0.28, 367.84
320.83, 0.31, 366.90
319.41, 0.17, 364.47
317.60, 0.01, 361.38
316.09, 0.00, 358.80
315.90, 1.19, 358.48
315.90, 1.50, 358.48
315.90, 1.80, 358.48
315.90, 2.11, 358.47
315.90, 2.41, 358.47
315.90, 2.72, 358.47
315.90, 3.02, 358.47
325.38, 0.17, 374.84
325.26, 0.17, 374.63
325.13, 0.17, 374.41
324.98, 0.17, 374.17
324.83, 0.17, 373.91
324.66, 0.18, 373.64
324.48, 0.18, 373.33
324.28, 0.18, 373.00
324.05, 0.18, 372.63
323.80, 0.18, 372.20
323.51, 0.18, 371.73
323.19, 0.17, 371.19
322.86, 0.18, 370.63
322.48, 0.18, 370.01
322.11, 0.21, 369.39
321.70, 0.24, 368.72
321.23, 0.28, 367.92
320.69, 0.32, 367.03
318.92, 0.10, 364.09
317.35, 0.01, 361.49
316.01, 0.03, 359.25
315.90, 0.31, 359.07
315.90, 0.62, 359.07
315.90, 0.92, 359.07
315.90, 1.21, 359.07
315.90, 1.51, 359.07
315.90, 1.81, 359.07
315.90, 2.11, 359.07
¯315.90, 2.41, 359.06
315.90, 2.71, 359.06
315.90, 3.01, 359.06
325.32, 0.17, 374.87
325.19, 0.17, 374.67
325.06, 0.17, 374.45
324.91, 0.17, 374.21
324.75, 0.17, 373.96
324.58, 0.18, 373.68
324.40, 0.18, 373.38
324.20, 0.18, 373.05
323.96, 0.18, 372.67
323.70, 0.18, 372.25
323.40, 0.17, 371.77
323.08, 0.17, 371.24
322.73, 0.17, 370.68
322.34, 0.18, 370.05
322.00, 0.22, 369.51
321.62, 0.26, 368.88
321.10, 0.28, 368.04
320.56, 0.32, 367.16
318.41, 0.03, 363.69
317.11, 0.01, 361.60
315.86, 0.05, 359.57
315.85, 0.35, 359.55
315.85, 0.64, 359.55
315.85, 0.94, 359.55
315.85, 1.23, 359.55
315.85, 1.53, 359.55
315.85, 1.82, 359.55
315.85, 2.12, 359.55
315.85, 2.41, 359.55
315.85, 2.70, 359.55
315.85, 3.00, 359.55
325.26, 0.17, 374.91
325.13, 0.17, 374.71
324.99, 0.17, 374.49
324.84, 0.17, 374.25
324.68, 0.17, 374.00
324.50, 0.18, 373.73
324.32, 0.18, 373.43
324.11, 0.18, 373.11
323.86, 0.18, 372.72
323.59, 0.17, 372.29
323.29, 0.17, 371.82
322.96, 0.16, 371.29
322.60, 0.17, 370.73
322.22, 0.18, 370.13
321.90, 0.23, 369.63
321.53, 0.27, 369.05
321.01, 0.30, 368.22
¯320.40, 0.32, 367.27
318.17, 0.02, 363.76
316.87, 0.00, 361.72
315.54, 0.04, 359.62
325.19, 0.17, 374.95
325.06, 0.17, 374.75
324.92, 0.17, 374.53
324.77, 0.17, 374.30
324.60, 0.17, 374.05
324.43, 0.18, 373.77
324.23, 0.18, 373.48
324.03, 0.19, 373.17
323.78, 0.18, 372.79
323.49, 0.17, 372.34
323.18, 0.17, 371.87
322.84, 0.16, 371.34
322.47, 0.16, 370.78
322.12, 0.19, 370.24
321.80, 0.23, 369.74
321.44, 0.29, 369.19
320.92, 0.31, 368.40
320.31, 0.34, 367.47
317.97, 0.02, 363.88
316.64, 0.00, 361.84
315.05, 0.00, 359.41
325.13, 0.16, 374.99
325.00, 0.17, 374.79
324.85, 0.17, 374.57
324.70, 0.17, 374.34
324.53, 0.17, 374.09
324.35, 0.18, 373.82
324.16, 0.18, 373.53
323.95, 0.19, 373.22
323.70, 0.19, 372.86
323.41, 0.17, 372.42
323.08, 0.16, 371.93
322.73, 0.16, 371.40
322.34, 0.16, 370.83
322.02, 0.19, 370.35
321.69, 0.24, 369.86
321.33, 0.29, 369.32
320.84, 0.33, 368.58
319.80, 0.26, 367.03
317.76, 0.02, 364.00
316.40, 0.00, 361.96
314.80, 0.00, 359.57
325.07, 0.16, 375.03
324.93, 0.17, 374.83
324.79, 0.17, 374.62
324.63, 0.17, 374.39
324.46, 0.17, 374.14
¯324.27, 0.18, 373.87
324.08, 0.18, 373.59
323.87, 0.19, 373.28
323.63, 0.19, 372.93
323.33, 0.18, 372.50
322.99, 0.17, 372.01
322.61, 0.15, 371.46
322.23, 0.16, 370.90
321.93, 0.20, 370.46
321.59, 0.25, 369.98
321.23, 0.30, 369.44
320.76, 0.34, 368.76
319.36, 0.19, 366.73
317.56, 0.02, 364.12
316.18, 0.00, 362.11
314.54, 0.00, 359.73
325.01, 0.16, 375.07
324.87, 0.17, 374.87
324.72, 0.17, 374.66
324.56, 0.17, 374.43
324.39, 0.17, 374.19
324.20, 0.18, 373.92
324.00, 0.18, 373.65
323.79, 0.19, 373.34
323.55, 0.19, 373.01
323.25, 0.18, 372.58
322.91, 0.17, 372.09
322.52, 0.16, 371.55
322.14, 0.16, 371.01
321.83, 0.21, 370.57
321.49, 0.25, 370.09
321.12, 0.31, 369.57
320.68, 0.36, 368.94
318.89, 0.12, 366.40
317.37, 0.02, 364.25
315.96, 0.00, 362.25
314.29, 0.00, 359.90
324.95, 0.16, 375.11
324.80, 0.17, 374.92
324.65, 0.17, 374.71
324.49, 0.17, 374.48
324.31, 0.17, 374.24
324.13, 0.18, 373.98
323.93, 0.18, 373.70
323.71, 0.19, 373.40
323.47, 0.20, 373.07
323.17, 0.19, 372.66
322.82, 0.18, 372.18
322.43, 0.16, 371.64
322.06, 0.17, 371.13
321.74, 0.22, 370.69
¯321.40, 0.26, 370.21
321.02, 0.31, 369.69
320.60, 0.37, 369.12
318.39, 0.05, 366.07
317.15, 0.01, 364.35
315.74, 0.00, 362.41
314.05, 0.00, 360.07
324.89, 0.16, 375.15
324.74, 0.17, 374.96
324.59, 0.17, 374.75
324.42, 0.17, 374.53
324.24, 0.17, 374.29
324.05, 0.18, 374.03
323.85, 0.18, 373.76
323.63, 0.19, 373.46
323.39, 0.20, 373.14
323.09, 0.19, 372.74
322.74, 0.18, 372.27
322.34, 0.17, 371.74
322.00, 0.19, 371.27
321.66, 0.23, 370.82
321.31, 0.27, 370.35
320.93, 0.32, 369.83
320.50, 0.38, 369.26
318.19, 0.04, 366.14
316.94, 0.01, 364.46
315.52, 0.00, 362.56
313.80, 0.00, 360.24
324.83, 0.16, 375.20
324.68, 0.16, 375.01
324.52, 0.17, 374.80
324.35, 0.17, 374.58
324.17, 0.17, 374.34
323.98, 0.18, 374.09
323.78, 0.18, 373.82
323.55, 0.19, 373.53
323.31, 0.20, 373.20
323.01, 0.20, 372.82
322.66, 0.19, 372.35
322.26, 0.17, 371.83
321.93, 0.20, 371.40
321.59, 0.24, 370.95
321.23, 0.28, 370.49
320.84, 0.33, 369.98
320.41, 0.39, 369.41
318.01, 0.04, 366.26
316.73, 0.01, 364.58
315.31, 0.00, 362.72
313.56, 0.00, 360.42
324.77, 0.16, 375.24
324.62, 0.16, 375.05
¯324.46, 0.17, 374.85
324.29, 0.17, 374.63
324.10, 0.17, 374.40
323.91, 0.18, 374.15
323.70, 0.18, 373.88
323.47, 0.19, 373.59
323.23, 0.20, 373.27
322.94, 0.20, 372.90
322.58, 0.19, 372.44
322.20, 0.19, 371.96
321.87, 0.22, 371.54
321.51, 0.25, 371.08
321.15, 0.29, 370.62
320.76, 0.34, 370.12
320.33, 0.40, 369.57
317.83, 0.04, 366.37
316.52, 0.00, 364.69
315.10, 0.00, 362.88
313.32, 0.00, 360.60
324.71, 0.16, 375.29
324.56, 0.16, 375.10
324.39, 0.17, 374.90
324.22, 0.17, 374.68
324.04, 0.17, 374.45
323.84, 0.18, 374.21
323.63, 0.19, 373.94
323.40, 0.19, 373.65
323.15, 0.20, 373.34
322.86, 0.21, 372.98
322.50, 0.20, 372.53
322.14, 0.20, 372.08
321.81, 0.23, 371.67
321.45, 0.26, 371.22
321.08, 0.30, 370.76
320.68, 0.35, 370.27
320.02, 0.36, 369.44
317.65, 0.04, 366.48
316.32, 0.00, 364.82
314.89, 0.00, 363.04
313.08, 0.00, 360.78
324.65, 0.16, 375.33
324.50, 0.16, 375.15
324.33, 0.17, 374.94
324.16, 0.17, 374.73
323.97, 0.17, 374.51
323.77, 0.18, 374.27
323.56, 0.19, 374.00
323.32, 0.19, 373.72
323.07, 0.20, 373.41
322.79, 0.21, 373.06
322.42, 0.20, 372.62
¯322.08, 0.21, 372.21
321.75, 0.24, 371.81
321.39, 0.27, 371.36
321.00, 0.31, 370.90
320.61, 0.36, 370.42
319.63, 0.30, 369.23
317.47, 0.03, 366.60
316.13, 0.00, 364.97
314.68, 0.00, 363.20
312.84, 0.00, 360.97
324.59, 0.16, 375.38
324.44, 0.16, 375.19
324.27, 0.16, 374.99
324.09, 0.17, 374.79
323.91, 0.17, 374.57
323.70, 0.18, 374.33
323.49, 0.19, 374.07
323.25, 0.19, 373.78
322.99, 0.20, 373.48
322.70, 0.21, 373.14
322.35, 0.21, 372.72
322.02, 0.22, 372.33
321.69, 0.25, 371.94
321.33, 0.29, 371.50
320.93, 0.32, 371.03
320.53, 0.37, 370.56
319.12, 0.22, 368.89
317.30, 0.03, 366.73
315.95, 0.00, 365.12
314.47, 0.00, 363.37
312.61, 0.00, 361.16
324.53, 0.16, 375.42
324.38, 0.16, 375.24
324.21, 0.16, 375.05
324.03, 0.17, 374.84
323.84, 0.18, 374.62
323.64, 0.18, 374.39
323.41, 0.19, 374.13
323.17, 0.20, 373.85
322.91, 0.20, 373.55
322.62, 0.21, 373.21
322.27, 0.21, 372.81
321.97, 0.24, 372.45
321.64, 0.27, 372.07
321.27, 0.30, 371.65
320.86, 0.33, 371.18
320.46, 0.38, 370.71
318.50, 0.11, 368.44
317.13, 0.03, 366.85
315.77, 0.00, 365.28
314.27, 0.00, 363.54
¯312.38, 0.00, 361.35
324.48, 0.16, 375.47
324.32, 0.16, 375.29
324.14, 0.16, 375.10
323.96, 0.17, 374.89
323.77, 0.17, 374.68
323.57, 0.18, 374.44
323.34, 0.19, 374.19
323.10, 0.20, 373.92
322.83, 0.20, 373.62
322.54, 0.21, 373.29
322.22, 0.22, 372.92
321.91, 0.25, 372.58
321.58, 0.28, 372.20
321.21, 0.31, 371.79
320.81, 0.35, 371.33
320.38, 0.39, 370.85
318.25, 0.09, 368.44
316.96, 0.03, 366.98
315.60, 0.00, 365.44
314.07, 0.00, 363.72
312.15, 0.00, 361.55
324.42, 0.16, 375.52
324.26, 0.16, 375.34
324.08, 0.16, 375.15
323.90, 0.17, 374.94
323.70, 0.17, 374.73
323.49, 0.18, 374.50
323.27, 0.19, 374.25
323.02, 0.19, 373.98
322.75, 0.20, 373.68
322.46, 0.21, 373.36
322.16, 0.23, 373.03
321.86, 0.26, 372.70
321.53, 0.29, 372.33
321.16, 0.32, 371.93
320.75, 0.36, 371.48
320.31, 0.40, 370.99
318.12, 0.09, 368.57
316.79, 0.02, 367.11
315.43, 0.00, 365.61
313.87, 0.00, 363.89
311.92, 0.00, 361.75
324.37, 0.16, 375.57
324.20, 0.16, 375.39
324.02, 0.16, 375.20
323.83, 0.16, 375.00
323.64, 0.17, 374.79
323.42, 0.18, 374.56
323.19, 0.18, 374.31
322.94, 0.19, 374.04
¯322.67, 0.20, 373.75
322.37, 0.21, 373.42
322.09, 0.24, 373.13
321.80, 0.27, 372.81
321.46, 0.30, 372.45
321.10, 0.33, 372.06
320.69, 0.37, 371.62
320.03, 0.36, 370.91
317.98, 0.09, 368.71
316.63, 0.02, 367.25
315.26, 0.01, 365.78
313.67, 0.00, 364.07
311.70, 0.00, 361.95
324.31, 0.16, 375.62
324.14, 0.16, 375.44
323.96, 0.16, 375.26
323.77, 0.16, 375.05
323.57, 0.17, 374.84
323.35, 0.18, 374.62
323.12, 0.18, 374.37
322.86, 0.19, 374.10
322.59, 0.20, 373.81
322.28, 0.21, 373.49
322.03, 0.24, 373.22
321.74, 0.28, 372.92
321.40, 0.31, 372.57
321.04, 0.34, 372.18
320.63, 0.38, 371.76
319.77, 0.33, 370.86
317.82, 0.08, 368.80
316.45, 0.02, 367.37
315.10, 0.01, 365.95
313.48, 0.00, 364.25
311.48, 0.00, 362.16
324.26, 0.16, 375.67
324.09, 0.16, 375.50
323.91, 0.16, 375.31
323.71, 0.16, 375.11
323.50, 0.17, 374.90
323.28, 0.17, 374.67
323.05, 0.18, 374.43
322.79, 0.19, 374.17
322.51, 0.20, 373.88
322.21, 0.21, 373.58
321.96, 0.25, 373.32
321.68, 0.29, 373.04
321.35, 0.32, 372.69
320.98, 0.35, 372.31
320.57, 0.39, 371.89
319.51, 0.30, 370.82
317.64, 0.08, 368.89
¯316.28, 0.02, 367.50
314.91, 0.00, 366.11
313.29, 0.00, 364.44
311.27, 0.00, 362.37
324.20, 0.16, 375.72
324.03, 0.16, 375.55
323.85, 0.16, 375.37
323.65, 0.16, 375.17
323.44, 0.17, 374.96
323.21, 0.17, 374.73
322.97, 0.18, 374.49
322.71, 0.19, 374.23
322.43, 0.19, 373.95
322.15, 0.22, 373.67
321.89, 0.25, 373.41
321.62, 0.29, 373.14
321.29, 0.33, 372.81
320.92, 0.36, 372.44
320.51, 0.40, 372.03
319.25, 0.26, 370.77
317.46, 0.07, 368.99
316.12, 0.02, 367.65
314.74, 0.00, 366.26
313.10, 0.00, 364.63
311.05, 0.00, 362.58
324.15, 0.16, 375.77
323.98, 0.16, 375.60
323.79, 0.16, 375.42
323.59, 0.16, 375.23
323.37, 0.16, 375.01
323.15, 0.17, 374.79
322.90, 0.18, 374.56
322.64, 0.18, 374.30
322.35, 0.19, 374.02
322.09, 0.22, 373.76
321.83, 0.26, 373.51
321.55, 0.30, 373.24
321.23, 0.33, 372.93
320.86, 0.37, 372.57
320.45, 0.41, 372.17
318.98, 0.23, 370.74
317.29, 0.06, 369.08
315.96, 0.01, 367.79
314.56, 0.00, 366.42
312.91, 0.00, 364.82
310.84, 0.00, 362.80
324.10, 0.16, 375.83
323.92, 0.16, 375.66
323.73, 0.16, 375.48
323.53, 0.16, 375.29
323.31, 0.16, 375.08
¯323.08, 0.17, 374.86
322.83, 0.18, 374.62
322.56, 0.18, 374.37
322.27, 0.19, 374.09
322.03, 0.22, 373.85
321.76, 0.26, 373.61
321.48, 0.30, 373.34
321.18, 0.34, 373.05
320.81, 0.38, 372.69
320.39, 0.42, 372.30
318.71, 0.20, 370.70
317.12, 0.05, 369.19
315.81, 0.01, 367.94
314.39, 0.00, 366.59
312.73, 0.00, 365.01
310.63, 0.00, 363.01
324.05, 0.16, 375.88
323.87, 0.16, 375.71
323.68, 0.16, 375.54
323.47, 0.16, 375.35
323.25, 0.16, 375.14
323.01, 0.17, 374.92
322.76, 0.17, 374.69
322.49, 0.18, 374.43
322.21, 0.19, 374.17
321.96, 0.23, 373.95
321.70, 0.26, 373.70
321.42, 0.30, 373.44
321.11, 0.35, 373.16
320.75, 0.39, 372.82
320.34, 0.43, 372.44
318.44, 0.16, 370.67
316.97, 0.05, 369.31
315.65, 0.01, 368.09
314.23, 0.00, 366.76
312.55, 0.00, 365.20
310.43, 0.00, 363.23
323.99, 0.16, 375.93
323.81, 0.16, 375.77
323.62, 0.16, 375.59
323.41, 0.16, 375.41
323.19, 0.16, 375.20
322.95, 0.17, 374.98
322.69, 0.17, 374.75
322.42, 0.18, 374.50
322.15, 0.20, 374.26
321.90, 0.23, 374.04
321.64, 0.27, 373.80
321.35, 0.31, 373.54
321.05, 0.35, 373.26
320.70, 0.39, 372.95
¯320.22, 0.42, 372.51
318.27, 0.15, 370.75
316.83, 0.05, 369.44
315.50, 0.01, 368.24
314.07, 0.00, 366.94
312.37, 0.00, 365.40
310.23, 0.00, 363.46
323.94, 0.16, 375.99
323.76, 0.16, 375.83
323.57, 0.16, 375.65
323.36, 0.16, 375.47
323.13, 0.16, 375.27
322.88, 0.16, 375.05
322.62, 0.17, 374.82
322.34, 0.18, 374.57
322.09, 0.20, 374.35
321.85, 0.24, 374.13
321.58, 0.27, 373.90
321.29, 0.31, 373.64
320.98, 0.36, 373.37
320.64, 0.40, 373.07
320.02, 0.39, 372.52
318.14, 0.15, 370.86
316.65, 0.04, 369.54
315.35, 0.01, 368.39
313.91, 0.00, 367.12
312.19, 0.00, 365.60
310.03, 0.00, 363.68
323.89, 0.16, 376.04
323.71, 0.16, 375.88
323.51, 0.16, 375.71
323.30, 0.16, 375.53
323.07, 0.16, 375.33
322.82, 0.16, 375.12
322.55, 0.17, 374.89
322.27, 0.17, 374.64
322.04, 0.21, 374.44
321.79, 0.24, 374.23
321.52, 0.28, 373.99
321.23, 0.32, 373.74
320.92, 0.36, 373.48
320.58, 0.41, 373.18
319.82, 0.37, 372.53
317.97, 0.14, 370.94
316.44, 0.02, 369.61
315.20, 0.01, 368.55
313.75, 0.00, 367.30
312.02, 0.00, 365.80
309.83, 0.00, 363.91
323.85, 0.15, 376.10
323.66, 0.16, 375.94
¯323.46, 0.16, 375.77
323.24, 0.16, 375.59
323.01, 0.16, 375.40
322.76, 0.16, 375.18
322.49, 0.17, 374.96
322.22, 0.18, 374.73
321.98, 0.21, 374.53
321.73, 0.24, 374.32
321.46, 0.28, 374.09
321.17, 0.32, 373.85
320.85, 0.36, 373.58
320.50, 0.41, 373.29
319.66, 0.35, 372.58
317.80, 0.12, 371.01
316.30, 0.02, 369.75
315.06, 0.01, 368.70
313.60, 0.00, 367.48
311.85, 0.00, 366.01
309.64, 0.00, 364.15
323.80, 0.15, 376.15
323.61, 0.16, 376.00
323.41, 0.16, 375.83
323.19, 0.16, 375.66
322.95, 0.16, 375.46
322.70, 0.16, 375.25
322.42, 0.16, 375.03
322.16, 0.18, 374.81
321.93, 0.21, 374.62
321.67, 0.25, 374.41
321.39, 0.28, 374.18
321.08, 0.32, 373.93
320.75, 0.36, 373.66
320.39, 0.40, 373.36
319.51, 0.34, 372.64
317.63, 0.11, 371.09
316.17, 0.02, 369.89
314.91, 0.00, 368.86
313.45, 0.00, 367.66
311.68, 0.00, 366.21
309.45, 0.00, 364.38
323.75, 0.15, 376.21
323.56, 0.15, 376.06
323.35, 0.16, 375.90
323.13, 0.16, 375.72
322.90, 0.16, 375.53
322.64, 0.16, 375.32
322.36, 0.16, 375.10
322.10, 0.18, 374.89
321.85, 0.21, 374.69
321.58, 0.24, 374.48
321.30, 0.27, 374.25
¯320.98, 0.31, 374.00
320.65, 0.35, 373.73
320.26, 0.39, 373.42
319.36, 0.33, 372.70
317.49, 0.10, 371.20
316.04, 0.01, 370.04
314.77, 0.00, 369.03
313.31, 0.00, 367.85
311.52, 0.00, 366.42
309.26, 0.00, 364.62
323.70, 0.15, 376.27
323.51, 0.15, 376.12
323.30, 0.16, 375.96
323.08, 0.16, 375.78
322.84, 0.16, 375.60
322.58, 0.16, 375.39
322.30, 0.16, 375.17
322.02, 0.17, 374.96
321.77, 0.20, 374.76
321.49, 0.23, 374.55
321.20, 0.27, 374.32
320.89, 0.30, 374.07
320.54, 0.34, 373.80
320.09, 0.37, 373.45
319.21, 0.32, 372.77
317.35, 0.10, 371.31
315.91, 0.01, 370.19
314.63, 0.00, 369.19
313.16, 0.00, 368.04
311.36, 0.00, 366.63
309.08, 0.00, 364.86
323.66, 0.15, 376.33
323.46, 0.15, 376.18
323.25, 0.16, 376.02
323.03, 0.16, 375.85
322.79, 0.16, 375.67
322.52, 0.16, 375.47
322.24, 0.16, 375.25
321.94, 0.17, 375.02
321.68, 0.20, 374.82
321.41, 0.23, 374.61
321.11, 0.26, 374.39
320.79, 0.30, 374.14
320.44, 0.34, 373.88
319.92, 0.35, 373.48
319.07, 0.30, 372.84
317.22, 0.09, 371.43
315.79, 0.01, 370.34
314.50, 0.00, 369.36
313.02, 0.00, 368.23
311.20, 0.00, 366.85
¯308.90, 0.00, 365.10
323.61, 0.15, 376.39
323.41, 0.15, 376.24
323.20, 0.15, 376.08
322.98, 0.16, 375.92
322.73, 0.16, 375.74
322.47, 0.16, 375.54
322.18, 0.16, 375.33
321.89, 0.17, 375.11
321.60, 0.19, 374.89
321.32, 0.22, 374.68
321.02, 0.25, 374.46
320.69, 0.29, 374.22
320.33, 0.33, 373.96
319.74, 0.32, 373.51
318.92, 0.29, 372.91
317.09, 0.09, 371.55
315.67, 0.01, 370.49
314.37, 0.00, 369.53
312.88, 0.00, 368.42
311.04, 0.00, 367.06
308.73, 0.00, 365.34
323.57, 0.15, 376.45
323.37, 0.15, 376.30
323.16, 0.15, 376.15
322.93, 0.16, 375.98
322.68, 0.16, 375.80
322.41, 0.16, 375.61
322.13, 0.16, 375.41
321.83, 0.17, 375.19
321.51, 0.18, 374.96
321.23, 0.21, 374.76
320.92, 0.25, 374.53
320.59, 0.28, 374.29
320.18, 0.31, 374.00
319.56, 0.30, 373.55
318.78, 0.28, 372.99
316.96, 0.08, 371.67
315.55, 0.01, 370.65
314.24, 0.00, 369.70
312.74, 0.00, 368.62
310.89, 0.00, 367.28
308.55, 0.00, 365.59
323.52, 0.15, 376.51
323.32, 0.15, 376.36
323.11, 0.15, 376.21
322.88, 0.15, 376.05
322.63, 0.16, 375.88
322.36, 0.16, 375.69
322.07, 0.16, 375.49
321.77, 0.17, 375.27
¯321.44, 0.18, 375.04
321.14, 0.21, 374.83
320.83, 0.24, 374.61
320.49, 0.27, 374.37
320.02, 0.29, 374.04
319.38, 0.28, 373.58
318.63, 0.26, 373.06
316.75, 0.06, 371.73
315.43, 0.01, 370.80
314.12, 0.00, 369.88
312.61, 0.00, 368.81
310.74, 0.00, 367.50
308.39, 0.00, 365.84
323.48, 0.15, 376.57
323.28, 0.15, 376.43
323.06, 0.15, 376.28
322.83, 0.15, 376.12
322.58, 0.16, 375.95
322.30, 0.16, 375.76
322.02, 0.16, 375.57
321.72, 0.17, 375.36
321.38, 0.18, 375.13
321.05, 0.20, 374.90
320.74, 0.23, 374.68
320.39, 0.27, 374.45
319.86, 0.27, 374.08
319.19, 0.25, 373.62
318.42, 0.24, 373.09
316.54, 0.04, 371.80
315.31, 0.01, 370.96
314.00, 0.00, 370.06
312.47, 0.00, 369.01
310.59, 0.00, 367.72
308.22, 0.00, 366.09
323.43, 0.15, 376.63
323.23, 0.15, 376.49
323.01, 0.15, 376.34
322.78, 0.15, 376.19
322.53, 0.16, 376.02
322.25, 0.16, 375.83
321.97, 0.16, 375.65
321.66, 0.17, 375.44
321.32, 0.18, 375.21
320.97, 0.19, 374.97
320.64, 0.22, 374.76
320.29, 0.26, 374.52
319.69, 0.24, 374.12
319.00, 0.23, 373.66
318.37, 0.25, 373.24
316.37, 0.03, 371.90
315.20, 0.01, 371.12
¯313.89, 0.00, 370.24
312.35, 0.00, 369.21
310.45, 0.00, 367.94
308.06, 0.00, 366.34
323.39, 0.15, 376.69
323.19, 0.15, 376.55
322.97, 0.15, 376.41
322.73, 0.15, 376.26
322.48, 0.15, 376.09
322.20, 0.16, 375.91
321.92, 0.16, 375.73
321.61, 0.17, 375.52
321.27, 0.18, 375.30
320.90, 0.19, 375.06
320.55, 0.22, 374.84
320.14, 0.24, 374.57
319.52, 0.22, 374.17
318.95, 0.23, 373.79
318.29, 0.25, 373.37
316.28, 0.03, 372.05
315.10, 0.01, 371.29
313.77, 0.00, 370.42
312.22, 0.00, 369.41
310.31, 0.00, 368.17
307.90, 0.00, 366.60
323.35, 0.15, 376.75
323.15, 0.15, 376.62
322.92, 0.15, 376.48
322.69, 0.15, 376.33
322.43, 0.15, 376.16
322.15, 0.16, 375.99
321.87, 0.16, 375.81
321.55, 0.17, 375.61
321.21, 0.18, 375.39
320.84, 0.19, 375.16
320.46, 0.21, 374.92
319.98, 0.21, 374.61
319.46, 0.22, 374.28
318.92, 0.24, 373.94
318.18, 0.24, 373.47
316.19, 0.03, 372.21
315.00, 0.01, 371.46
313.66, 0.00, 370.60
312.10, 0.00, 369.61
310.17, 0.00, 368.39
307.74, 0.00, 366.85
323.31, 0.15, 376.81
323.10, 0.15, 376.68
322.88, 0.15, 376.55
322.64, 0.15, 376.40
322.38, 0.15, 376.24
¯322.11, 0.16, 376.07
321.82, 0.16, 375.89
321.50, 0.17, 375.70
321.16, 0.18, 375.48
320.78, 0.19, 375.25
320.37, 0.20, 375.00
319.92, 0.21, 374.72
319.43, 0.23, 374.42
318.89, 0.25, 374.08
318.07, 0.23, 373.58
316.10, 0.03, 372.36
314.90, 0.01, 371.62
313.55, 0.00, 370.79
311.98, 0.00, 369.82
310.04, 0.00, 368.62
307.59, 0.00, 367.11
323.27, 0.15, 376.88
323.06, 0.15, 376.75
322.84, 0.15, 376.61
322.59, 0.15, 376.47
322.33, 0.15, 376.31
322.06, 0.16, 376.15
321.77, 0.17, 375.97
321.45, 0.17, 375.78
321.11, 0.18, 375.58
320.73, 0.19, 375.35
320.30, 0.20, 375.09
319.89, 0.22, 374.84
319.40, 0.24, 374.55
318.86, 0.26, 374.23
317.97, 0.23, 373.69
316.02, 0.03, 372.52
314.79, 0.01, 371.78
313.44, 0.00, 370.97
311.86, 0.00, 370.02
309.91, 0.00, 368.85
307.45, 0.00, 367.37
323.23, 0.15, 376.94
323.02, 0.15, 376.82
322.80, 0.15, 376.68
322.55, 0.15, 376.54
322.29, 0.15, 376.39
322.01, 0.16, 376.23
321.72, 0.17, 376.06
321.40, 0.17, 375.87
321.05, 0.18, 375.67
320.66, 0.19, 375.44
320.24, 0.20, 375.19
319.86, 0.23, 374.97
319.37, 0.25, 374.69
318.83, 0.27, 374.37
¯317.87, 0.22, 373.81
315.93, 0.03, 372.67
314.69, 0.00, 371.95
313.34, 0.00, 371.16
311.74, 0.00, 370.23
309.78, 0.00, 369.08
307.30, 0.00, 367.64
323.20, 0.15, 377.00
322.98, 0.15, 376.88
322.75, 0.15, 376.75
322.51, 0.15, 376.61
322.24, 0.15, 376.46
321.97, 0.16, 376.31
321.67, 0.17, 376.14
321.35, 0.17, 375.96
320.99, 0.18, 375.75
320.59, 0.18, 375.52
320.18, 0.20, 375.29
319.81, 0.23, 375.08
319.35, 0.26, 374.82
318.81, 0.28, 374.51
317.78, 0.22, 373.93
315.83, 0.03, 372.82
314.58, 0.00, 372.11
313.23, 0.00, 371.35
311.63, 0.00, 370.44
309.65, 0.00, 369.32
307.16, 0.00, 367.90
323.16, 0.15, 377.07
322.94, 0.15, 376.95
322.71, 0.15, 376.82
322.47, 0.15, 376.69
322.20, 0.15, 376.54
321.93, 0.16, 376.39
321.63, 0.17, 376.22
321.30, 0.17, 376.04
320.92, 0.17, 375.84
320.51, 0.18, 375.61
320.12, 0.20, 375.39
319.74, 0.23, 375.19
319.32, 0.26, 374.95
318.78, 0.29, 374.66
317.69, 0.22, 374.05
315.74, 0.02, 372.97
314.48, 0.00, 372.28
313.13, 0.00, 371.54
311.52, 0.00, 370.65
309.53, 0.00, 369.55
307.03, 0.00, 368.17
323.12, 0.14, 377.13
322.91, 0.15, 377.02
¯322.67, 0.15, 376.89
322.42, 0.15, 376.76
322.16, 0.15, 376.62
321.88, 0.16, 376.47
321.58, 0.16, 376.31
321.24, 0.17, 376.12
320.86, 0.17, 375.92
320.44, 0.17, 375.70
320.06, 0.19, 375.49
319.68, 0.23, 375.29
319.27, 0.27, 375.07
318.76, 0.29, 374.80
317.61, 0.21, 374.18
315.65, 0.02, 373.13
314.38, 0.00, 372.45
313.04, 0.00, 371.73
311.41, 0.00, 370.86
309.41, 0.00, 369.79
306.89, 0.00, 368.44
323.09, 0.14, 377.20
322.87, 0.15, 377.09
322.64, 0.15, 376.96
322.38, 0.15, 376.83
322.12, 0.15, 376.70
321.84, 0.16, 376.55
321.52, 0.16, 376.38
321.17, 0.16, 376.20
320.79, 0.16, 376.00
320.37, 0.17, 375.79
320.00, 0.19, 375.60
319.62, 0.23, 375.40
319.21, 0.27, 375.18
318.74, 0.30, 374.94
317.42, 0.19, 374.25
315.57, 0.02, 373.29
314.30, 0.00, 372.63
312.94, 0.00, 371.92
311.31, 0.00, 371.07
309.30, 0.00, 370.03
306.76, 0.00, 368.71
323.05, 0.14, 377.26
322.83, 0.14, 377.15
322.60, 0.15, 377.04
322.34, 0.15, 376.91
322.08, 0.15, 376.77
321.78, 0.15, 376.62
321.46, 0.15, 376.46
321.11, 0.16, 376.28
320.72, 0.16, 376.09
320.30, 0.16, 375.88
319.95, 0.19, 375.70
¯319.57, 0.23, 375.51
319.15, 0.26, 375.30
318.69, 0.30, 375.07
317.16, 0.15, 374.29
315.50, 0.02, 373.45
314.21, 0.00, 372.80
312.85, 0.00, 372.12
311.21, 0.00, 371.29
309.19, 0.00, 370.27
306.64, 0.00, 368.98
323.02, 0.14, 377.33
322.80, 0.14, 377.22
322.56, 0.15, 377.11
322.31, 0.15, 376.98
322.03, 0.15, 376.85
321.73, 0.15, 376.70
321.41, 0.15, 376.54
321.05, 0.15, 376.37
320.66, 0.15, 376.18
320.25, 0.16, 375.98
319.89, 0.19, 375.80
319.51, 0.23, 375.61
319.09, 0.26, 375.41
318.63, 0.30, 375.18
316.91, 0.12, 374.34
315.42, 0.02, 373.61
314.13, 0.00, 372.98
312.76, 0.00, 372.31
311.11, 0.00, 371.50
309.08, 0.00, 370.51
306.52, 0.00, 369.25
322.98, 0.14, 377.40
322.76, 0.14, 377.29
322.52, 0.14, 377.18
322.27, 0.15, 377.06
321.98, 0.14, 376.92
321.68, 0.14, 376.78
321.35, 0.14, 376.62
320.99, 0.15, 376.45
320.59, 0.15, 376.26
320.20, 0.16, 376.08
319.84, 0.19, 375.91
319.45, 0.22, 375.72
319.03, 0.26, 375.52
318.59, 0.31, 375.31
316.66, 0.08, 374.40
315.35, 0.02, 373.77
314.05, 0.00, 373.16
312.68, 0.00, 372.51
311.01, 0.00, 371.72
308.97, 0.00, 370.75
¯306.40, 0.00, 369.53
322.95, 0.14, 377.46
322.73, 0.14, 377.36
322.49, 0.14, 377.25
322.23, 0.14, 377.13
321.93, 0.14, 377.00
321.62, 0.14, 376.85
321.29, 0.14, 376.70
320.93, 0.14, 376.54
320.53, 0.14, 376.35
320.15, 0.16, 376.18
319.79, 0.19, 376.01
319.40, 0.22, 375.83
318.97, 0.26, 375.64
318.56, 0.31, 375.45
316.41, 0.05, 374.46
315.28, 0.02, 373.94
313.97, 0.00, 373.34
312.59, 0.00, 372.70
310.92, 0.00, 371.94
308.87, 0.00, 370.99
306.28, 0.00, 369.81
322.92, 0.14, 377.53
322.70, 0.14, 377.43
322.46, 0.14, 377.33
322.19, 0.14, 377.21
321.89, 0.14, 377.08
321.57, 0.13, 376.93
321.24, 0.14, 376.78
320.87, 0.14, 376.62
320.47, 0.14, 376.44
320.10, 0.16, 376.28
319.73, 0.19, 376.11
319.34, 0.22, 375.94
318.95, 0.27, 375.77
318.54, 0.32, 375.58
316.34, 0.05, 374.61
315.19, 0.02, 374.09
313.90, 0.00, 373.52
312.51, 0.00, 372.90
310.83, 0.00, 372.16
308.77, 0.00, 371.24
306.17, 0.00, 370.08
322.89, 0.14, 377.60
322.66, 0.14, 377.50
322.42, 0.14, 377.40
322.16, 0.14, 377.28
321.86, 0.14, 377.16
321.53, 0.13, 377.01
321.18, 0.13, 376.87
320.81, 0.13, 376.71
¯320.41, 0.13, 376.53
320.05, 0.15, 376.38
319.68, 0.19, 376.22
319.31, 0.22, 376.06
318.93, 0.27, 375.90
318.52, 0.32, 375.72
316.28, 0.05, 374.76
315.11, 0.02, 374.25
313.83, 0.00, 373.70
312.43, 0.00, 373.10
310.75, 0.00, 372.38
308.68, 0.00, 371.48
306.07, 0.00, 370.36
334.18, 0.20, 380.12
334.40, 0.20, 380.13
334.64, 0.19, 380.15
334.91, 0.19, 380.17
335.19, 0.19, 380.18
335.49, 0.18, 380.20
335.82, 0.18, 380.22
336.18, 0.17, 380.25
336.58, 0.16, 380.27
337.03, 0.16, 380.30
337.52, 0.15, 380.33
338.05, 0.14, 380.36
339.28, 0.00, 380.44
339.95, 0.00, 380.48
340.71, 0.00, 380.53
341.58, 0.00, 380.58
342.58, 0.00, 380.64
343.74, 0.00, 380.72
344.81, 0.04, 380.78
345.91, 0.10, 380.85
346.75, 0.22, 380.91
347.56, 0.37, 380.96
347.56, 0.60, 380.96
347.55, 0.83, 380.96
350.11, 0.90, 381.12
350.10, 1.17, 381.12
350.09, 1.43, 381.13
350.08, 1.69, 381.13
350.07, 1.96, 381.13
334.18, 0.20, 380.05
334.41, 0.20, 380.06
334.65, 0.19, 380.08
334.91, 0.19, 380.09
335.19, 0.19, 380.10
335.50, 0.18, 380.12
335.83, 0.18, 380.13
336.20, 0.17, 380.15
336.60, 0.16, 380.17
¯337.04, 0.15, 380.20
337.53, 0.15, 380.22
338.06, 0.14, 380.25
339.29, 0.00, 380.31
339.97, 0.00, 380.34
340.73, 0.00, 380.38
341.60, 0.00, 380.42
342.60, 0.00, 380.47
343.76, 0.00, 380.53
344.83, 0.04, 380.59
345.95, 0.10, 380.64
346.79, 0.22, 380.69
348.20, 0.30, 380.76
348.20, 0.55, 380.76
348.20, 0.79, 380.76
351.20, 0.83, 380.91
351.19, 1.11, 380.91
351.18, 1.39, 380.92
351.17, 1.67, 380.92
351.16, 1.94, 380.92
334.19, 0.20, 379.98
334.41, 0.20, 379.99
334.65, 0.19, 380.00
334.92, 0.19, 380.01
335.20, 0.19, 380.02
335.51, 0.18, 380.03
335.84, 0.17, 380.05
336.21, 0.17, 380.06
336.61, 0.16, 380.08
337.06, 0.15, 380.09
337.54, 0.15, 380.11
338.07, 0.14, 380.13
339.30, 0.00, 380.18
339.98, 0.00, 380.20
340.74, 0.00, 380.23
341.61, 0.00, 380.26
342.62, 0.00, 380.30
343.77, 0.00, 380.35
344.85, 0.04, 380.39
345.98, 0.10, 380.43
346.83, 0.22, 380.46
349.46, 0.18, 380.56
334.19, 0.20, 379.91
334.42, 0.20, 379.92
334.66, 0.19, 379.93
334.92, 0.19, 379.93
335.21, 0.18, 379.94
335.52, 0.18, 379.95
335.86, 0.17, 379.96
336.22, 0.17, 379.97
336.63, 0.16, 379.98
¯337.06, 0.15, 379.99
337.54, 0.15, 380.00
338.08, 0.14, 380.01
339.31, 0.00, 380.04
339.99, 0.00, 380.06
340.75, 0.00, 380.08
341.63, 0.00, 380.10
342.63, 0.00, 380.13
343.79, 0.00, 380.16
344.86, 0.04, 380.19
346.02, 0.10, 380.22
346.86, 0.22, 380.24
349.20, 0.21, 380.30
334.19, 0.20, 379.85
334.42, 0.20, 379.85
334.67, 0.19, 379.85
334.93, 0.19, 379.86
335.22, 0.18, 379.86
335.53, 0.18, 379.86
335.87, 0.17, 379.87
336.24, 0.16, 379.87
336.63, 0.16, 379.88
337.07, 0.15, 379.88
337.55, 0.15, 379.89
338.08, 0.14, 379.90
339.32, 0.00, 379.91
340.00, 0.00, 379.92
340.76, 0.00, 379.93
341.64, 0.00, 379.95
342.64, 0.00, 379.96
343.80, 0.00, 379.97
344.89, 0.04, 379.99
346.05, 0.10, 380.01
346.89, 0.22, 380.02
348.94, 0.24, 380.05
352.05, 0.21, 380.09
352.05, 0.50, 380.09
334.20, 0.20, 379.78
334.43, 0.19, 379.78
334.67, 0.19, 379.78
334.94, 0.19, 379.78
335.23, 0.18, 379.78
335.54, 0.17, 379.78
335.88, 0.17, 379.78
336.24, 0.16, 379.78
336.63, 0.16, 379.78
337.07, 0.15, 379.78
337.55, 0.15, 379.78
338.09, 0.14, 379.78
339.32, 0.00, 379.78
340.00, 0.00, 379.78
¯340.77, 0.00, 379.78
341.65, 0.00, 379.79
342.65, 0.00, 379.79
343.81, 0.00, 379.79
344.94, 0.04, 379.79
346.08, 0.10, 379.79
346.89, 0.22, 379.79
347.14, 0.42, 379.80
347.14, 0.65, 379.80
351.98, 0.51, 379.80
334.21, 0.20, 379.71
334.43, 0.19, 379.71
334.68, 0.19, 379.70
334.95, 0.18, 379.70
335.23, 0.18, 379.70
335.54, 0.17, 379.69
335.88, 0.17, 379.69
336.24, 0.16, 379.69
336.64, 0.16, 379.68
337.07, 0.15, 379.68
337.55, 0.15, 379.67
338.09, 0.14, 379.67
339.33, 0.00, 379.65
340.01, 0.00, 379.64
340.78, 0.00, 379.63
341.66, 0.00, 379.63
342.66, 0.00, 379.61
343.82, 0.00, 379.60
344.99, 0.03, 379.59
346.11, 0.09, 379.58
346.89, 0.22, 379.57
346.95, 0.44, 379.57
346.96, 0.67, 379.57
346.96, 0.89, 379.58
349.63, 0.95, 379.55
349.63, 1.21, 379.55
350.48, 1.43, 379.54
334.21, 0.20, 379.64
334.44, 0.19, 379.63
334.69, 0.19, 379.63
334.95, 0.18, 379.62
335.24, 0.18, 379.61
335.55, 0.17, 379.61
335.88, 0.17, 379.60
336.24, 0.16, 379.59
336.64, 0.16, 379.58
337.07, 0.15, 379.57
337.55, 0.15, 379.56
338.08, 0.15, 379.55
339.33, 0.00, 379.52
340.01, 0.00, 379.50
¯340.78, 0.00, 379.49
341.66, 0.00, 379.47
342.67, 0.00, 379.44
343.82, 0.00, 379.42
345.04, 0.03, 379.39
346.14, 0.09, 379.36
346.77, 0.24, 379.35
346.78, 0.46, 379.35
346.78, 0.69, 379.35
346.88, 0.90, 379.35
349.63, 0.95, 379.29
349.63, 1.21, 379.29
350.54, 1.43, 379.27
334.21, 0.20, 379.57
334.44, 0.19, 379.56
334.69, 0.19, 379.55
334.96, 0.18, 379.54
335.24, 0.18, 379.53
335.55, 0.17, 379.52
335.88, 0.17, 379.51
336.24, 0.16, 379.50
336.64, 0.16, 379.48
337.07, 0.16, 379.47
337.54, 0.15, 379.45
338.08, 0.15, 379.43
338.69, 0.14, 379.41
340.02, 0.00, 379.36
340.79, 0.00, 379.34
341.67, 0.00, 379.30
342.67, 0.00, 379.27
343.83, 0.00, 379.23
345.08, 0.02, 379.18
346.14, 0.09, 379.15
346.60, 0.26, 379.13
346.60, 0.48, 379.14
346.60, 0.70, 379.14
346.90, 0.90, 379.13
349.63, 0.95, 379.03
349.63, 1.21, 379.03
350.60, 1.43, 379.00
334.22, 0.19, 379.50
334.45, 0.19, 379.49
334.69, 0.18, 379.48
334.96, 0.18, 379.46
335.24, 0.18, 379.45
335.55, 0.17, 379.44
335.88, 0.17, 379.42
336.24, 0.16, 379.40
336.63, 0.16, 379.39
337.06, 0.16, 379.36
337.53, 0.16, 379.34
¯338.07, 0.15, 379.32
338.68, 0.14, 379.29
340.02, 0.00, 379.22
340.79, 0.00, 379.19
341.67, 0.00, 379.14
342.68, 0.00, 379.10
343.83, 0.00, 379.04
345.13, 0.01, 378.98
346.13, 0.09, 378.93
346.77, 0.24, 378.90
346.76, 0.47, 378.91
346.76, 0.69, 378.91
346.93, 0.90, 378.90
349.63, 0.95, 378.77
349.63, 1.21, 378.78
350.65, 1.43, 378.73
334.22, 0.19, 379.43
334.45, 0.19, 379.42
334.69, 0.18, 379.40
334.96, 0.18, 379.39
335.24, 0.18, 379.37
335.54, 0.17, 379.35
335.88, 0.17, 379.33
336.23, 0.17, 379.31
336.62, 0.16, 379.29
337.04, 0.16, 379.26
337.52, 0.16, 379.23
338.07, 0.15, 379.20
338.68, 0.14, 379.16
340.02, 0.00, 379.08
340.79, 0.00, 379.04
341.67, 0.00, 378.98
342.68, 0.00, 378.92
343.85, 0.00, 378.85
345.14, 0.01, 378.78
346.14, 0.09, 378.72
346.89, 0.23, 378.67
347.06, 0.44, 378.67
347.06, 0.67, 378.67
347.19, 0.88, 378.66
349.63, 0.96, 378.52
349.63, 1.21, 378.52
350.70, 1.43, 378.46
334.22, 0.19, 379.36
334.45, 0.19, 379.34
334.70, 0.18, 379.33
334.96, 0.18, 379.31
335.24, 0.18, 379.29
335.54, 0.17, 379.27
335.87, 0.17, 379.24
336.22, 0.17, 379.22
¯336.61, 0.17, 379.19
337.03, 0.16, 379.16
337.52, 0.16, 379.12
338.06, 0.15, 379.08
338.67, 0.14, 379.04
340.01, 0.00, 378.94
340.79, 0.00, 378.89
341.67, 0.00, 378.82
342.68, 0.00, 378.75
343.85, 0.00, 378.67
345.14, 0.01, 378.57
346.15, 0.09, 378.50
346.90, 0.23, 378.45
347.37, 0.41, 378.42
347.37, 0.64, 378.42
347.47, 0.86, 378.41
334.22, 0.19, 379.29
334.45, 0.19, 379.27
334.69, 0.18, 379.25
334.95, 0.18, 379.23
335.23, 0.18, 379.21
335.53, 0.17, 379.18
335.86, 0.17, 379.15
336.21, 0.17, 379.12
336.59, 0.17, 379.09
337.02, 0.16, 379.05
337.51, 0.16, 379.01
338.06, 0.15, 378.97
338.67, 0.14, 378.92
340.01, 0.00, 378.80
340.78, 0.00, 378.74
341.66, 0.00, 378.66
342.67, 0.00, 378.58
343.85, 0.00, 378.48
345.14, 0.01, 378.37
346.15, 0.09, 378.28
346.91, 0.23, 378.22
347.69, 0.37, 378.16
347.69, 0.61, 378.16
347.75, 0.84, 378.16
334.22, 0.19, 379.22
334.45, 0.18, 379.20
334.69, 0.18, 379.18
334.95, 0.18, 379.15
335.22, 0.18, 379.12
335.52, 0.18, 379.10
335.84, 0.17, 379.06
336.19, 0.17, 379.03
336.58, 0.17, 378.99
337.02, 0.17, 378.95
337.50, 0.16, 378.90
¯338.05, 0.15, 378.85
338.64, 0.15, 378.79
340.00, 0.00, 378.66
340.78, 0.00, 378.59
341.66, 0.00, 378.50
342.67, 0.00, 378.40
343.84, 0.00, 378.29
345.15, 0.01, 378.16
346.16, 0.09, 378.07
346.95, 0.22, 377.99
348.02, 0.34, 377.89
348.02, 0.58, 377.89
348.05, 0.82, 377.89
334.21, 0.19, 379.15
334.44, 0.19, 379.13
334.68, 0.18, 379.10
334.94, 0.18, 379.07
335.21, 0.18, 379.04
335.51, 0.18, 379.01
335.83, 0.18, 378.98
336.18, 0.18, 378.94
336.57, 0.17, 378.90
337.01, 0.17, 378.85
337.49, 0.16, 378.79
338.03, 0.15, 378.74
338.62, 0.15, 378.67
340.00, 0.00, 378.52
340.77, 0.00, 378.44
341.65, 0.00, 378.34
342.66, 0.00, 378.23
343.83, 0.00, 378.10
345.16, 0.01, 377.96
346.16, 0.09, 377.85
347.02, 0.21, 377.76
348.37, 0.31, 377.61
348.36, 0.55, 377.61
348.36, 0.80, 377.62
334.21, 0.19, 379.08
334.43, 0.19, 379.06
334.67, 0.18, 379.03
334.92, 0.18, 379.00
335.20, 0.18, 378.96
335.49, 0.18, 378.93
335.81, 0.18, 378.89
336.16, 0.18, 378.85
336.56, 0.17, 378.80
337.00, 0.17, 378.74
337.48, 0.16, 378.69
337.98, 0.16, 378.62
338.60, 0.15, 378.55
339.99, 0.00, 378.38
¯340.76, 0.00, 378.29
341.64, 0.00, 378.18
342.65, 0.00, 378.06
343.83, 0.00, 377.91
345.16, 0.01, 377.75
346.17, 0.09, 377.63
347.08, 0.21, 377.52
348.49, 0.29, 377.35
348.72, 0.52, 377.33
348.72, 0.77, 377.33
334.20, 0.19, 379.01
334.42, 0.19, 378.98
334.66, 0.19, 378.95
334.91, 0.19, 378.92
335.18, 0.18, 378.88
335.48, 0.18, 378.84
335.79, 0.18, 378.80
336.15, 0.18, 378.75
336.55, 0.17, 378.70
336.98, 0.17, 378.64
337.45, 0.17, 378.58
337.94, 0.17, 378.51
338.59, 0.15, 378.43
339.98, 0.00, 378.24
340.75, 0.00, 378.14
341.63, 0.00, 378.02
342.64, 0.00, 377.88
343.82, 0.00, 377.73
345.17, 0.01, 377.55
346.17, 0.09, 377.41
347.14, 0.20, 377.28
348.46, 0.30, 377.11
349.09, 0.49, 377.02
349.09, 0.74, 377.03
334.19, 0.19, 378.95
334.41, 0.19, 378.91
334.64, 0.19, 378.88
334.89, 0.19, 378.84
335.17, 0.19, 378.80
335.46, 0.19, 378.76
335.78, 0.19, 378.71
336.14, 0.18, 378.66
336.53, 0.17, 378.60
336.97, 0.17, 378.54
337.40, 0.17, 378.48
337.92, 0.17, 378.40
338.57, 0.15, 378.30
339.96, 0.00, 378.10
340.74, 0.00, 377.99
341.62, 0.00, 377.86
342.63, 0.00, 377.71
¯343.80, 0.00, 377.54
345.17, 0.00, 377.34
346.23, 0.08, 377.18
347.21, 0.19, 377.04
348.51, 0.29, 376.85
349.48, 0.45, 376.71
349.47, 0.71, 376.72
334.18, 0.19, 378.88
334.39, 0.19, 378.84
334.63, 0.19, 378.81
334.88, 0.19, 378.77
335.15, 0.19, 378.72
335.44, 0.19, 378.68
335.76, 0.19, 378.63
336.12, 0.18, 378.57
336.52, 0.18, 378.51
336.92, 0.18, 378.44
337.35, 0.18, 378.37
337.90, 0.17, 378.29
338.55, 0.16, 378.18
339.95, 0.00, 377.96
340.72, 0.00, 377.84
341.60, 0.00, 377.70
342.61, 0.00, 377.54
343.79, 0.00, 377.35
345.17, 0.00, 377.13
346.28, 0.07, 376.95
347.22, 0.19, 376.81
348.68, 0.27, 376.58
334.16, 0.19, 378.81
334.38, 0.19, 378.77
334.61, 0.19, 378.73
334.86, 0.19, 378.69
335.13, 0.19, 378.64
335.42, 0.19, 378.59
335.75, 0.19, 378.54
336.11, 0.18, 378.48
336.49, 0.18, 378.41
336.88, 0.19, 378.34
337.32, 0.19, 378.27
337.88, 0.17, 378.17
338.52, 0.16, 378.06
339.25, 0.14, 377.94
340.71, 0.00, 377.69
341.58, 0.00, 377.54
342.60, 0.00, 377.36
343.77, 0.00, 377.16
345.16, 0.00, 376.92
346.27, 0.07, 376.73
347.22, 0.18, 376.57
348.85, 0.25, 376.29
¯334.15, 0.20, 378.74
334.36, 0.19, 378.70
334.59, 0.19, 378.66
334.84, 0.19, 378.61
335.11, 0.19, 378.56
335.41, 0.19, 378.51
335.74, 0.19, 378.45
336.09, 0.18, 378.38
336.45, 0.19, 378.32
336.83, 0.19, 378.25
337.30, 0.19, 378.16
337.86, 0.18, 378.06
338.50, 0.16, 377.94
339.22, 0.14, 377.81
340.69, 0.00, 377.54
341.57, 0.00, 377.37
342.58, 0.00, 377.19
343.75, 0.00, 376.97
345.14, 0.00, 376.72
346.26, 0.07, 376.51
347.39, 0.16, 376.31
348.88, 0.25, 376.03
334.13, 0.20, 378.67
334.34, 0.20, 378.63
334.58, 0.20, 378.59
334.82, 0.20, 378.54
335.09, 0.20, 378.49
335.39, 0.19, 378.43
335.72, 0.19, 378.36
336.05, 0.19, 378.30
336.40, 0.20, 378.23
336.79, 0.20, 378.15
337.27, 0.19, 378.06
337.84, 0.18, 377.95
338.47, 0.16, 377.82
339.20, 0.14, 377.68
340.67, 0.00, 377.39
341.54, 0.00, 377.21
342.55, 0.00, 377.02
343.73, 0.00, 376.78
345.12, 0.00, 376.51
346.25, 0.07, 376.29
347.63, 0.13, 376.02
348.87, 0.25, 375.78
351.42, 0.28, 375.28
334.11, 0.20, 378.61
334.33, 0.20, 378.56
334.56, 0.20, 378.51
334.80, 0.20, 378.46
335.07, 0.20, 378.41
335.38, 0.19, 378.34
¯335.69, 0.19, 378.28
336.01, 0.20, 378.21
336.36, 0.20, 378.14
336.75, 0.21, 378.05
337.25, 0.19, 377.95
337.81, 0.18, 377.83
338.44, 0.16, 377.70
339.16, 0.14, 377.55
340.65, 0.00, 377.24
341.52, 0.00, 377.05
342.53, 0.00, 376.84
343.71, 0.00, 376.60
345.09, 0.00, 376.31
346.24, 0.06, 376.07
347.79, 0.11, 375.74
348.87, 0.25, 375.52
350.97, 0.31, 375.08
334.09, 0.20, 378.54
334.31, 0.20, 378.49
334.54, 0.20, 378.44
334.78, 0.20, 378.39
335.06, 0.20, 378.33
335.36, 0.19, 378.26
335.65, 0.20, 378.19
335.97, 0.20, 378.12
336.31, 0.21, 378.05
336.73, 0.21, 377.96
337.23, 0.20, 377.84
337.78, 0.18, 377.72
338.41, 0.17, 377.58
339.13, 0.15, 377.42
340.62, 0.00, 377.09
341.50, 0.00, 376.89
342.51, 0.00, 376.67
343.68, 0.00, 376.41
345.06, 0.00, 376.10
346.22, 0.06, 375.85
347.94, 0.09, 375.46
348.86, 0.24, 375.26
351.38, 0.28, 374.70
334.07, 0.20, 378.47
334.29, 0.20, 378.42
334.52, 0.20, 378.37
334.76, 0.20, 378.31
335.04, 0.20, 378.25
335.32, 0.20, 378.18
335.61, 0.21, 378.11
335.93, 0.21, 378.04
336.27, 0.22, 377.96
336.70, 0.21, 377.86
337.20, 0.20, 377.74
¯337.76, 0.18, 377.61
338.38, 0.17, 377.46
339.10, 0.15, 377.29
340.60, 0.00, 376.94
341.47, 0.00, 376.73
342.48, 0.00, 376.50
343.65, 0.00, 376.22
345.03, 0.00, 375.90
346.21, 0.06, 375.62
347.99, 0.08, 375.20
348.85, 0.24, 375.00
351.33, 0.28, 374.42
334.06, 0.21, 378.41
334.27, 0.21, 378.35
334.49, 0.21, 378.30
334.75, 0.20, 378.24
335.02, 0.20, 378.17
335.28, 0.21, 378.10
335.57, 0.21, 378.03
335.88, 0.22, 377.95
336.23, 0.22, 377.87
336.68, 0.21, 377.76
337.17, 0.20, 377.63
337.73, 0.19, 377.50
338.35, 0.17, 377.34
339.06, 0.15, 377.17
340.57, 0.00, 376.79
341.44, 0.00, 376.57
342.45, 0.00, 376.32
343.62, 0.00, 376.03
345.00, 0.00, 375.69
346.28, 0.05, 375.37
347.98, 0.08, 374.95
348.84, 0.24, 374.74
351.27, 0.28, 374.14
334.03, 0.21, 378.34
334.25, 0.21, 378.29
334.47, 0.21, 378.23
334.73, 0.20, 378.16
334.98, 0.21, 378.09
335.25, 0.21, 378.03
335.53, 0.22, 377.95
335.84, 0.23, 377.87
336.21, 0.22, 377.77
336.65, 0.21, 377.66
337.14, 0.20, 377.53
337.69, 0.19, 377.39
338.32, 0.17, 377.22
339.04, 0.15, 377.03
340.54, 0.00, 376.64
341.41, 0.00, 376.41
¯342.42, 0.00, 376.15
343.59, 0.00, 375.85
344.97, 0.00, 375.49
346.48, 0.02, 375.09
347.98, 0.08, 374.70
348.84, 0.24, 374.48
351.22, 0.28, 373.86
334.01, 0.21, 378.27
334.22, 0.21, 378.22
334.46, 0.21, 378.15
334.70, 0.21, 378.09
334.94, 0.21, 378.02
335.21, 0.22, 377.95
335.49, 0.23, 377.87
335.80, 0.23, 377.79
336.18, 0.23, 377.68
336.62, 0.22, 377.56
337.11, 0.20, 377.43
337.66, 0.19, 377.28
338.28, 0.17, 377.11
339.00, 0.15, 376.91
340.51, 0.00, 376.49
341.38, 0.00, 376.25
342.38, 0.00, 375.98
343.55, 0.00, 375.66
344.93, 0.00, 375.28
346.52, 0.01, 374.85
347.97, 0.07, 374.45
348.85, 0.23, 374.21
351.16, 0.28, 373.58
333.99, 0.21, 378.21
334.20, 0.21, 378.15
334.44, 0.21, 378.08
334.66, 0.21, 378.02
334.90, 0.22, 377.95
335.17, 0.23, 377.87
335.45, 0.23, 377.79
335.76, 0.24, 377.70
336.15, 0.23, 377.59
336.59, 0.22, 377.46
337.08, 0.20, 377.32
337.62, 0.19, 377.17
338.24, 0.18, 376.99
338.96, 0.16, 376.78
339.76, 0.14, 376.55
341.35, 0.00, 376.09
342.35, 0.00, 375.81
343.51, 0.00, 375.47
344.89, 0.00, 375.08
346.48, 0.01, 374.62
347.96, 0.07, 374.20
¯349.35, 0.17, 373.80
351.11, 0.28, 373.30
333.97, 0.21, 378.14
334.18, 0.21, 378.08
334.40, 0.21, 378.01
334.63, 0.22, 377.95
334.87, 0.23, 377.87
335.12, 0.23, 377.80
335.40, 0.24, 377.71
335.73, 0.24, 377.62
336.12, 0.23, 377.50
336.56, 0.22, 377.37
337.04, 0.21, 377.22
337.59, 0.19, 377.06
338.22, 0.18, 376.87
338.92, 0.16, 376.66
339.71, 0.14, 376.42
341.31, 0.00, 375.94
342.31, 0.00, 375.64
343.47, 0.00, 375.29
344.85, 0.00, 374.87
346.44, 0.01, 374.40
347.95, 0.06, 373.94
349.99, 0.10, 373.33
351.06, 0.28, 373.01
333.95, 0.22, 378.08
334.16, 0.21, 378.01
334.37, 0.22, 377.95
334.59, 0.23, 377.88
334.83, 0.23, 377.80
335.08, 0.24, 377.72
335.36, 0.25, 377.64
335.70, 0.24, 377.53
336.09, 0.23, 377.41
336.53, 0.22, 377.27
337.01, 0.21, 377.12
337.55, 0.20, 376.95
338.19, 0.17, 376.75
338.88, 0.16, 376.53
339.68, 0.14, 376.28
341.27, 0.00, 375.78
342.27, 0.00, 375.46
343.43, 0.00, 375.10
344.80, 0.00, 374.67
346.39, 0.01, 374.17
347.94, 0.06, 373.69
349.93, 0.11, 373.06
351.07, 0.28, 372.71
333.92, 0.22, 378.01
334.12, 0.22, 377.95
334.33, 0.23, 377.88
¯334.55, 0.23, 377.81
334.79, 0.24, 377.73
335.04, 0.24, 377.65
335.32, 0.25, 377.56
335.67, 0.24, 377.44
336.06, 0.23, 377.32
336.49, 0.22, 377.17
336.97, 0.21, 377.02
337.51, 0.20, 376.84
338.15, 0.18, 376.63
338.84, 0.16, 376.41
339.63, 0.14, 376.15
341.23, 0.00, 375.62
342.23, 0.00, 375.29
343.39, 0.00, 374.91
344.75, 0.00, 374.47
346.35, 0.01, 373.95
347.93, 0.05, 373.43
349.94, 0.10, 372.77
333.90, 0.22, 377.95
334.09, 0.23, 377.89
334.29, 0.23, 377.82
334.51, 0.24, 377.74
334.75, 0.24, 377.66
335.00, 0.25, 377.58
335.29, 0.25, 377.48
335.64, 0.24, 377.36
336.03, 0.24, 377.22
336.46, 0.22, 377.08
336.94, 0.21, 376.91
337.48, 0.20, 376.73
338.11, 0.18, 376.51
338.79, 0.16, 376.28
339.58, 0.15, 376.01
341.19, 0.00, 375.46
342.18, 0.00, 375.12
343.34, 0.00, 374.73
344.70, 0.00, 374.26
346.30, 0.01, 373.72
348.16, 0.02, 373.08
349.94, 0.09, 372.48
333.86, 0.22, 377.89
334.05, 0.23, 377.82
334.26, 0.24, 377.75
334.47, 0.24, 377.67
334.71, 0.25, 377.59
334.95, 0.26, 377.50
335.26, 0.25, 377.40
335.61, 0.25, 377.27
335.99, 0.24, 377.13
336.42, 0.23, 376.98
¯336.90, 0.22, 376.81
337.45, 0.20, 376.62
338.07, 0.18, 376.40
338.75, 0.17, 376.16
339.54, 0.15, 375.88
341.15, 0.00, 375.30
342.14, 0.00, 374.95
343.29, 0.00, 374.54
344.65, 0.00, 374.06
346.25, 0.00, 373.49
348.16, 0.01, 372.82
349.95, 0.09, 372.18
333.83, 0.23, 377.83
334.02, 0.24, 377.76
334.22, 0.24, 377.69
334.43, 0.25, 377.61
334.66, 0.26, 377.52
334.91, 0.26, 377.43
335.22, 0.26, 377.31
335.57, 0.25, 377.19
335.96, 0.24, 377.04
336.38, 0.23, 376.89
336.86, 0.22, 376.71
337.42, 0.20, 376.50
338.02, 0.18, 376.28
338.72, 0.16, 376.03
339.49, 0.15, 375.74
341.10, 0.00, 375.15
342.09, 0.00, 374.78
343.24, 0.00, 374.36
344.60, 0.00, 373.86
346.21, 0.00, 373.26
348.11, 0.01, 372.56
349.96, 0.08, 371.88
333.79, 0.24, 377.77
333.98, 0.24, 377.70
334.18, 0.25, 377.62
334.39, 0.25, 377.54
334.62, 0.26, 377.45
334.88, 0.27, 377.36
335.19, 0.26, 377.23
335.54, 0.25, 377.10
335.92, 0.24, 376.96
336.34, 0.23, 376.79
336.82, 0.22, 376.61
337.39, 0.20, 376.39
337.98, 0.18, 376.17
338.68, 0.16, 375.90
339.43, 0.15, 375.61
340.31, 0.14, 375.28
342.04, 0.00, 374.61
¯343.19, 0.00, 374.17
344.54, 0.00, 373.66
346.17, 0.00, 373.04
348.06, 0.01, 372.31
349.96, 0.07, 371.58
333.76, 0.24, 377.71
333.94, 0.25, 377.64
334.14, 0.25, 377.56
334.35, 0.26, 377.47
334.58, 0.27, 377.38
334.84, 0.27, 377.28
335.16, 0.26, 377.15
335.50, 0.25, 377.02
335.88, 0.24, 376.87
336.30, 0.23, 376.70
336.79, 0.22, 376.51
337.34, 0.20, 376.29
337.93, 0.19, 376.06
338.63, 0.17, 375.78
339.38, 0.15, 375.48
340.25, 0.14, 375.13
341.99, 0.00, 374.44
343.13, 0.00, 373.99
344.48, 0.00, 373.46
346.10, 0.00, 372.81
348.00, 0.01, 372.06
350.57, 0.00, 371.04
333.72, 0.25, 377.65
333.91, 0.25, 377.58
334.10, 0.26, 377.49
334.31, 0.27, 377.41
334.53, 0.27, 377.32
334.81, 0.27, 377.20
335.12, 0.26, 377.08
335.47, 0.25, 376.93
335.84, 0.24, 376.78
336.26, 0.23, 376.61
336.75, 0.22, 376.40
337.30, 0.20, 376.18
337.89, 0.19, 375.94
338.58, 0.17, 375.65
339.33, 0.15, 375.34
340.20, 0.14, 374.99
341.93, 0.00, 374.28
343.07, 0.00, 373.81
344.42, 0.00, 373.25
346.04, 0.00, 372.59
347.95, 0.01, 371.81
350.49, 0.00, 370.76
333.68, 0.25, 377.59
333.87, 0.26, 377.51
¯334.06, 0.26, 377.43
334.27, 0.27, 377.34
334.49, 0.28, 377.25
334.78, 0.27, 377.13
335.09, 0.26, 377.00
335.43, 0.26, 376.85
335.80, 0.25, 376.69
336.22, 0.24, 376.51
336.72, 0.22, 376.30
337.25, 0.20, 376.08
337.85, 0.19, 375.82
338.53, 0.17, 375.53
339.30, 0.15, 375.20
340.14, 0.14, 374.85
341.88, 0.00, 374.11
343.01, 0.00, 373.62
344.36, 0.00, 373.05
345.97, 0.00, 372.37
347.89, 0.01, 371.55
350.41, 0.00, 370.48
333.67, 0.25, 377.52
333.83, 0.26, 377.45
334.02, 0.27, 377.37
334.23, 0.28, 377.28
334.46, 0.28, 377.18
334.74, 0.27, 377.05
335.05, 0.27, 376.92
335.39, 0.26, 376.77
335.76, 0.25, 376.60
336.19, 0.24, 376.42
336.68, 0.22, 376.20
337.20, 0.20, 375.97
337.81, 0.18, 375.70
338.47, 0.17, 375.41
339.25, 0.15, 375.07
340.08, 0.14, 374.71
341.82, 0.00, 373.94
342.95, 0.00, 373.44
344.29, 0.00, 372.85
345.90, 0.00, 372.15
347.83, 0.00, 371.30
350.33, 0.00, 370.20
333.68, 0.23, 377.44
333.79, 0.27, 377.40
333.98, 0.27, 377.31
334.18, 0.28, 377.22
334.43, 0.28, 377.11
334.71, 0.27, 376.98
335.01, 0.27, 376.84
335.35, 0.26, 376.69
335.72, 0.25, 376.52
¯336.15, 0.24, 376.32
336.64, 0.22, 376.10
337.15, 0.21, 375.87
337.77, 0.18, 375.59
338.42, 0.17, 375.29
339.19, 0.15, 374.94
340.03, 0.14, 374.56
341.76, 0.00, 373.77
342.89, 0.00, 373.26
344.22, 0.00, 372.65
345.82, 0.00, 371.93
347.79, 0.00, 371.04
350.24, 0.00, 369.92
333.69, 0.22, 377.37
333.75, 0.27, 377.34
333.94, 0.28, 377.25
334.14, 0.29, 377.15
334.39, 0.28, 377.04
334.67, 0.28, 376.91
334.97, 0.27, 376.76
335.31, 0.26, 376.61
335.68, 0.25, 376.43
336.11, 0.24, 376.23
336.60, 0.22, 376.00
337.11, 0.21, 375.76
337.72, 0.18, 375.47
338.36, 0.18, 375.17
339.13, 0.16, 374.81
339.97, 0.14, 374.42
340.91, 0.14, 373.98
342.82, 0.00, 373.08
344.15, 0.00, 372.46
345.75, 0.00, 371.71
347.70, 0.00, 370.79
350.15, 0.00, 369.64
333.71, 0.19, 377.27
333.76, 0.26, 377.25
333.89, 0.28, 377.19
334.10, 0.29, 377.09
334.35, 0.28, 376.97
334.63, 0.28, 376.83
334.93, 0.27, 376.69
335.27, 0.26, 376.52
335.64, 0.25, 376.34
