žVERSION 0.7
FIELDS x y z
SIZE 8 8 8
TYPE F F F
COUNT 1 1 1
WIDTH 2271
HEIGHT 1
VIEWPOINT 330.20, 6.50, 320.02 1 345.79, 3.09, 306.97
POINTS 2271
DATA ascii
351.92, 1.66, 313.65
352.20, 1.70, 313.81
352.52, 1.73, 313.99
352.87, 1.78, 314.20
353.24, 1.82, 314.41
353.67, 1.87, 314.67
354.17, 1.93, 314.95
354.72, 1.99, 315.28
355.36, 2.06, 315.65
356.13, 2.14, 316.09
357.04, 2.23, 316.62
358.34, 2.32, 317.37
361.16, 2.37, 318.98
363.45, 2.54, 320.30
350.90, 1.50, 312.96
351.05, 1.54, 313.05
¯351.25, 1.57, 313.16
351.48, 1.60, 313.28
351.73, 1.63, 313.43
352.00, 1.66, 313.58
352.28, 1.70, 313.74
352.60, 1.74, 313.92
352.96, 1.78, 314.12
353.33, 1.83, 314.33
353.78, 1.88, 314.58
354.28, 1.93, 314.87
354.85, 2.00, 315.19
355.51, 2.07, 315.55
356.30, 2.14, 316.00
357.24, 2.24, 316.52
359.51, 2.27, 317.78
361.58, 2.38, 318.93
364.34, 2.54, 320.47
350.95, 1.50, 312.89
351.11, 1.54, 312.98
351.30, 1.57, 313.09
351.54, 1.60, 313.22
351.79, 1.63, 313.36
352.07, 1.66, 313.50
352.35, 1.70, 313.66
352.68, 1.74, 313.84
353.04, 1.78, 314.04
353.43, 1.83, 314.25
353.89, 1.88, 314.50
354.40, 1.94, 314.78
354.98, 2.00, 315.09
355.66, 2.07, 315.46
356.47, 2.15, 315.90
357.43, 2.24, 316.42
359.81, 2.27, 317.69
362.03, 2.39, 318.89
365.38, 2.53, 320.69
351.00, 1.51, 312.83
351.16, 1.54, 312.91
351.36, 1.58, 313.02
351.60, 1.60, 313.15
351.86, 1.63, 313.28
352.14, 1.67, 313.43
352.43, 1.71, 313.59
352.76, 1.74, 313.76
353.13, 1.79, 313.96
353.53, 1.84, 314.17
354.00, 1.89, 314.41
354.52, 1.94, 314.69
355.11, 2.01, 315.00
355.81, 2.08, 315.36
356.64, 2.16, 315.80
¯358.56, 2.18, 316.79
360.11, 2.28, 317.60
362.42, 2.40, 318.80
366.33, 2.53, 320.82
351.05, 1.51, 312.76
351.21, 1.55, 312.85
351.42, 1.58, 312.96
351.66, 1.61, 313.08
351.92, 1.64, 313.21
352.21, 1.67, 313.36
352.51, 1.71, 313.51
352.85, 1.75, 313.68
353.22, 1.79, 313.87
353.63, 1.84, 314.08
354.11, 1.89, 314.32
354.64, 1.95, 314.59
355.25, 2.01, 314.90
355.96, 2.08, 315.26
357.57, 2.09, 316.06
358.80, 2.18, 316.69
360.42, 2.29, 317.50
362.82, 2.41, 318.71
367.25, 2.54, 320.92
351.09, 1.51, 312.70
351.26, 1.55, 312.78
351.48, 1.58, 312.89
351.72, 1.61, 313.01
351.99, 1.64, 313.14
352.28, 1.67, 313.28
352.58, 1.71, 313.43
352.93, 1.75, 313.60
353.31, 1.79, 313.79
353.73, 1.84, 313.99
354.21, 1.89, 314.23
354.76, 1.95, 314.50
355.38, 2.02, 314.80
356.81, 2.01, 315.49
357.78, 2.10, 315.96
359.04, 2.19, 316.58
360.71, 2.30, 317.39
363.22, 2.42, 318.61
368.18, 2.55, 321.00
351.14, 1.51, 312.63
351.32, 1.55, 312.71
351.54, 1.58, 312.82
351.79, 1.61, 312.94
352.05, 1.64, 313.06
352.35, 1.67, 313.20
352.66, 1.71, 313.35
353.01, 1.75, 313.52
353.40, 1.80, 313.70
¯353.83, 1.84, 313.90
354.32, 1.90, 314.14
354.88, 1.95, 314.40
356.16, 1.94, 314.99
356.98, 2.02, 315.38
358.00, 2.10, 315.86
359.29, 2.20, 316.47
361.00, 2.31, 317.27
363.91, 2.42, 318.62
351.19, 1.52, 312.56
351.37, 1.55, 312.65
351.59, 1.58, 312.75
351.85, 1.61, 312.86
352.12, 1.64, 312.99
352.41, 1.68, 313.12
352.73, 1.71, 313.27
353.09, 1.75, 313.43
353.48, 1.80, 313.61
353.92, 1.85, 313.81
354.43, 1.90, 314.04
355.58, 1.88, 314.55
356.30, 1.95, 314.88
357.14, 2.02, 315.27
358.21, 2.11, 315.75
359.54, 2.20, 316.35
361.29, 2.31, 317.14
364.61, 2.42, 318.63
351.24, 1.52, 312.50
351.42, 1.56, 312.58
351.65, 1.58, 312.68
351.91, 1.61, 312.79
352.18, 1.64, 312.91
352.48, 1.68, 313.04
352.81, 1.72, 313.19
353.17, 1.76, 313.35
353.57, 1.80, 313.52
354.02, 1.85, 313.72
355.08, 1.82, 314.17
355.71, 1.88, 314.45
356.45, 1.95, 314.77
357.31, 2.03, 315.15
358.43, 2.11, 315.64
359.79, 2.21, 316.23
361.64, 2.32, 317.03
365.34, 2.42, 318.63
351.29, 1.52, 312.43
351.47, 1.56, 312.51
351.71, 1.59, 312.61
351.96, 1.61, 312.72
352.24, 1.65, 312.83
352.55, 1.68, 312.96
¯352.88, 1.72, 313.10
353.25, 1.76, 313.26
353.66, 1.80, 313.43
354.64, 1.77, 313.84
355.20, 1.83, 314.07
355.85, 1.89, 314.34
356.60, 1.95, 314.66
357.49, 2.03, 315.04
358.64, 2.11, 315.52
360.04, 2.21, 316.10
361.98, 2.33, 316.92
366.12, 2.42, 318.63
351.33, 1.52, 312.36
351.52, 1.56, 312.44
351.76, 1.59, 312.53
352.02, 1.62, 312.64
352.31, 1.65, 312.76
352.61, 1.68, 312.88
352.95, 1.72, 313.02
353.33, 1.76, 313.17
354.24, 1.72, 313.53
354.74, 1.77, 313.73
355.31, 1.83, 313.96
355.98, 1.89, 314.23
356.75, 1.96, 314.55
357.68, 2.03, 314.92
358.84, 2.12, 315.39
360.30, 2.22, 315.97
362.30, 2.34, 316.78
366.93, 2.42, 318.62
351.38, 1.53, 312.29
351.57, 1.56, 312.36
351.82, 1.59, 312.46
352.08, 1.62, 312.56
352.37, 1.65, 312.68
352.68, 1.68, 312.80
353.47, 1.63, 313.09
353.88, 1.68, 313.25
354.33, 1.72, 313.43
354.84, 1.77, 313.63
355.43, 1.83, 313.86
356.11, 1.89, 314.12
356.91, 1.96, 314.43
357.87, 2.04, 314.80
359.05, 2.13, 315.26
360.56, 2.23, 315.84
362.63, 2.34, 316.64
367.62, 2.42, 318.55
351.42, 1.53, 312.22
351.62, 1.56, 312.29
351.87, 1.59, 312.39
¯352.14, 1.62, 312.49
352.44, 1.65, 312.60
353.17, 1.60, 312.86
353.54, 1.64, 313.00
353.96, 1.68, 313.15
354.42, 1.73, 313.33
354.95, 1.78, 313.52
355.54, 1.83, 313.75
356.25, 1.89, 314.01
357.06, 1.96, 314.31
358.04, 2.04, 314.67
359.25, 2.13, 315.12
360.81, 2.23, 315.70
362.96, 2.35, 316.49
368.33, 2.43, 318.46
351.47, 1.53, 312.15
351.67, 1.56, 312.22
351.92, 1.59, 312.31
352.59, 1.53, 312.54
352.90, 1.56, 312.65
353.24, 1.60, 312.77
353.61, 1.64, 312.90
354.04, 1.68, 313.06
354.52, 1.73, 313.23
355.05, 1.78, 313.42
355.66, 1.83, 313.64
356.38, 1.90, 313.89
357.21, 1.97, 314.19
358.22, 2.05, 314.54
359.46, 2.13, 314.99
361.04, 2.24, 315.55
363.31, 2.36, 316.35
369.08, 2.43, 318.37
351.51, 1.53, 312.07
352.08, 1.47, 312.26
352.35, 1.50, 312.35
352.64, 1.53, 312.45
352.96, 1.56, 312.56
353.31, 1.60, 312.68
353.69, 1.64, 312.81
354.12, 1.68, 312.96
354.61, 1.73, 313.12
355.16, 1.78, 313.31
355.78, 1.84, 313.52
356.52, 1.90, 313.77
357.36, 1.97, 314.06
358.40, 2.05, 314.41
359.68, 2.14, 314.85
361.28, 2.25, 315.39
363.70, 2.37, 316.21
351.88, 1.44, 312.10
¯352.13, 1.47, 312.18
352.41, 1.50, 312.27
352.70, 1.53, 312.36
353.02, 1.56, 312.47
353.37, 1.60, 312.58
353.76, 1.64, 312.71
354.21, 1.68, 312.86
354.70, 1.73, 313.02
355.26, 1.78, 313.20
355.90, 1.84, 313.41
356.65, 1.90, 313.65
357.52, 1.97, 313.93
358.58, 2.05, 314.28
359.89, 2.14, 314.70
361.55, 2.25, 315.24
364.11, 2.37, 316.06
351.93, 1.44, 312.02
352.18, 1.47, 312.10
352.46, 1.50, 312.18
352.76, 1.53, 312.28
353.08, 1.57, 312.38
353.44, 1.60, 312.49
353.84, 1.64, 312.61
354.29, 1.68, 312.75
354.80, 1.73, 312.91
355.36, 1.78, 313.09
356.02, 1.84, 313.29
356.78, 1.90, 313.53
357.68, 1.97, 313.80
358.77, 2.05, 314.14
360.09, 2.15, 314.54
361.84, 2.26, 315.08
364.52, 2.38, 315.90
351.97, 1.44, 311.94
352.23, 1.47, 312.02
352.51, 1.50, 312.10
352.81, 1.53, 312.19
353.14, 1.57, 312.29
353.50, 1.60, 312.39
353.92, 1.64, 312.52
354.38, 1.68, 312.65
354.89, 1.73, 312.80
355.46, 1.78, 312.97
356.14, 1.84, 313.17
356.92, 1.90, 313.40
357.84, 1.98, 313.67
358.95, 2.06, 313.99
360.29, 2.15, 314.39
362.13, 2.26, 314.92
364.67, 2.40, 315.66
352.02, 1.44, 311.86
¯352.28, 1.47, 311.94
352.56, 1.50, 312.01
352.87, 1.53, 312.10
353.20, 1.57, 312.19
353.57, 1.60, 312.30
353.99, 1.64, 312.42
354.46, 1.68, 312.55
354.98, 1.73, 312.69
355.57, 1.78, 312.86
356.26, 1.84, 313.05
357.05, 1.91, 313.27
358.00, 1.98, 313.53
359.12, 2.06, 313.84
360.51, 2.16, 314.23
362.42, 2.27, 314.76
364.67, 2.42, 315.38
352.06, 1.44, 311.78
352.33, 1.47, 311.85
352.61, 1.50, 311.93
352.92, 1.53, 312.01
353.26, 1.57, 312.10
353.64, 1.60, 312.20
354.07, 1.64, 312.31
354.54, 1.69, 312.44
355.07, 1.73, 312.58
355.68, 1.78, 312.74
356.38, 1.84, 312.92
357.19, 1.91, 313.14
358.16, 1.98, 313.39
359.29, 2.06, 313.69
360.72, 2.16, 314.06
362.72, 2.27, 314.59
364.66, 2.44, 315.10
352.11, 1.44, 311.70
352.37, 1.47, 311.77
352.66, 1.50, 311.84
352.98, 1.53, 311.92
353.32, 1.57, 312.01
353.71, 1.60, 312.10
354.15, 1.64, 312.21
354.63, 1.69, 312.33
355.16, 1.73, 312.46
355.78, 1.78, 312.62
356.50, 1.84, 312.80
357.32, 1.91, 313.00
358.32, 1.98, 313.25
359.47, 2.07, 313.53
360.93, 2.17, 313.89
363.01, 2.28, 314.41
364.65, 2.46, 314.82
352.15, 1.44, 311.62
¯352.42, 1.47, 311.68
352.71, 1.50, 311.75
353.03, 1.53, 311.83
353.39, 1.57, 311.91
353.78, 1.60, 312.00
354.22, 1.64, 312.11
354.71, 1.69, 312.22
355.25, 1.73, 312.35
355.88, 1.78, 312.49
356.61, 1.84, 312.67
357.46, 1.91, 312.86
358.46, 1.98, 313.10
359.65, 2.07, 313.37
361.12, 2.17, 313.71
363.16, 2.29, 314.19
364.64, 2.48, 314.54
352.19, 1.44, 311.54
352.46, 1.47, 311.60
352.76, 1.50, 311.66
353.09, 1.53, 311.73
353.45, 1.57, 311.81
353.85, 1.60, 311.90
354.29, 1.64, 312.00
354.79, 1.68, 312.11
355.34, 1.73, 312.23
355.98, 1.79, 312.37
356.73, 1.84, 312.53
357.60, 1.91, 312.72
358.61, 1.98, 312.94
359.83, 2.07, 313.21
361.31, 2.18, 313.53
363.18, 2.31, 313.94
364.64, 2.51, 314.27
352.23, 1.44, 311.45
352.51, 1.47, 311.51
352.81, 1.50, 311.57
353.14, 1.53, 311.64
353.50, 1.57, 311.71
353.91, 1.60, 311.80
354.37, 1.64, 311.89
354.87, 1.68, 311.99
355.42, 1.74, 312.11
356.08, 1.79, 312.24
356.84, 1.84, 312.40
357.72, 1.91, 312.58
358.75, 1.99, 312.79
360.01, 2.08, 313.04
361.54, 2.18, 313.35
363.19, 2.33, 313.69
364.65, 2.52, 314.00
352.27, 1.44, 311.37
¯352.55, 1.47, 311.42
352.86, 1.50, 311.48
353.20, 1.53, 311.55
353.56, 1.57, 311.62
353.98, 1.60, 311.69
354.44, 1.64, 311.78
354.94, 1.68, 311.88
355.50, 1.74, 311.98
356.18, 1.79, 312.11
356.95, 1.84, 312.26
357.85, 1.91, 312.43
358.90, 1.99, 312.63
360.17, 2.08, 312.87
361.78, 2.18, 313.17
363.21, 2.34, 313.44
364.92, 2.53, 313.77
352.31, 1.44, 311.28
352.60, 1.47, 311.33
352.91, 1.50, 311.39
353.25, 1.53, 311.45
353.62, 1.56, 311.51
354.04, 1.60, 311.59
354.51, 1.64, 311.67
355.02, 1.68, 311.76
355.59, 1.74, 311.86
356.27, 1.79, 311.98
357.06, 1.84, 312.12
357.97, 1.91, 312.28
359.04, 1.99, 312.46
360.32, 2.08, 312.69
361.91, 2.19, 312.96
363.21, 2.36, 313.20
365.39, 2.54, 313.58
352.35, 1.44, 311.20
352.64, 1.47, 311.25
352.96, 1.50, 311.30
353.30, 1.53, 311.35
353.68, 1.56, 311.41
354.11, 1.60, 311.48
354.58, 1.64, 311.56
355.09, 1.69, 311.64
355.67, 1.74, 311.73
356.37, 1.79, 311.85
357.17, 1.84, 311.97
358.10, 1.91, 312.12
359.19, 1.99, 312.30
360.48, 2.09, 312.51
361.92, 2.21, 312.74
363.22, 2.38, 312.95
365.83, 2.54, 313.37
352.39, 1.44, 311.11
¯352.69, 1.47, 311.16
353.01, 1.50, 311.20
353.35, 1.53, 311.25
353.74, 1.56, 311.31
354.17, 1.60, 311.37
354.64, 1.64, 311.44
355.15, 1.69, 311.52
355.75, 1.73, 311.61
356.46, 1.79, 311.71
357.28, 1.85, 311.83
358.22, 1.91, 311.97
359.31, 2.00, 312.13
360.64, 2.09, 312.32
361.92, 2.23, 312.51
363.22, 2.40, 312.70
366.17, 2.55, 313.13
370.44, 2.77, 313.75
352.43, 1.44, 311.02
352.73, 1.46, 311.06
353.05, 1.49, 311.11
353.40, 1.53, 311.15
353.79, 1.56, 311.21
354.23, 1.60, 311.26
354.70, 1.64, 311.33
355.22, 1.69, 311.39
355.83, 1.73, 311.48
356.55, 1.79, 311.57
357.38, 1.85, 311.68
358.34, 1.91, 311.81
359.44, 2.00, 311.95
360.80, 2.09, 312.13
361.95, 2.24, 312.28
363.23, 2.41, 312.46
366.44, 2.56, 312.88
370.03, 2.80, 313.35
370.22, 3.14, 313.39
370.42, 3.48, 313.44
352.47, 1.44, 310.94
352.77, 1.46, 310.97
353.10, 1.49, 311.01
353.45, 1.52, 311.05
353.85, 1.56, 311.10
354.29, 1.59, 311.15
354.76, 1.64, 311.21
355.29, 1.69, 311.27
355.92, 1.73, 311.34
356.65, 1.79, 311.43
357.49, 1.84, 311.53
358.47, 1.91, 311.64
359.57, 2.00, 311.77
360.88, 2.10, 311.93
¯361.97, 2.25, 312.06
363.81, 2.40, 312.28
366.71, 2.57, 312.61
369.63, 2.82, 312.96
369.82, 3.16, 313.00
370.01, 3.50, 313.04
370.20, 3.84, 313.08
370.39, 4.20, 313.13
352.51, 1.43, 310.85
352.81, 1.46, 310.88
353.14, 1.49, 310.91
353.50, 1.52, 310.95
353.90, 1.56, 310.99
354.34, 1.59, 311.04
354.82, 1.64, 311.09
355.35, 1.68, 311.14
356.00, 1.73, 311.21
356.74, 1.78, 311.29
357.59, 1.84, 311.37
358.57, 1.92, 311.48
359.70, 2.00, 311.59
360.90, 2.11, 311.72
361.99, 2.27, 311.83
364.40, 2.39, 312.08
366.92, 2.58, 312.34
369.25, 2.85, 312.59
369.43, 3.18, 312.62
369.61, 3.51, 312.66
369.80, 3.85, 312.70
369.98, 4.20, 312.74
370.18, 4.55, 312.78
370.37, 4.91, 312.82
352.54, 1.43, 310.76
352.85, 1.46, 310.79
353.18, 1.49, 310.82
353.55, 1.52, 310.85
353.95, 1.55, 310.88
354.39, 1.59, 310.92
354.88, 1.64, 310.97
355.42, 1.68, 311.02
356.07, 1.73, 311.07
356.83, 1.78, 311.14
357.69, 1.84, 311.22
358.68, 1.92, 311.31
359.83, 2.00, 311.41
360.91, 2.13, 311.51
362.01, 2.28, 311.61
364.74, 2.39, 311.85
366.77, 2.61, 312.03
367.77, 2.89, 312.13
369.04, 3.20, 312.26
¯369.24, 3.53, 312.29
369.41, 3.86, 312.33
369.59, 4.20, 312.36
369.78, 4.55, 312.40
369.96, 4.90, 312.43
370.15, 5.25, 312.47
370.34, 5.62, 312.51
352.58, 1.43, 310.67
352.89, 1.46, 310.69
353.22, 1.49, 310.72
353.59, 1.52, 310.74
354.00, 1.55, 310.77
354.44, 1.59, 310.81
354.93, 1.64, 310.85
355.48, 1.68, 310.89
356.15, 1.73, 310.94
356.92, 1.78, 310.99
357.80, 1.84, 311.06
358.78, 1.92, 311.13
359.96, 2.00, 311.22
360.93, 2.14, 311.30
362.02, 2.29, 311.38
364.80, 2.41, 311.59
366.52, 2.63, 311.72
366.98, 2.91, 311.77
368.60, 3.21, 311.90
368.81, 3.54, 311.93
369.02, 3.87, 311.97
369.22, 4.20, 312.00
369.40, 4.54, 312.03
369.58, 4.89, 312.06
369.76, 5.24, 312.10
369.94, 5.59, 312.13
370.13, 5.96, 312.16
370.33, 6.33, 312.20
352.61, 1.43, 310.58
352.93, 1.45, 310.59
353.27, 1.48, 310.62
353.64, 1.52, 310.64
354.05, 1.55, 310.66
354.49, 1.59, 310.69
354.99, 1.63, 310.72
355.55, 1.68, 310.76
356.23, 1.73, 310.80
357.00, 1.78, 310.84
357.89, 1.84, 310.90
358.88, 1.92, 310.96
360.00, 2.01, 311.03
360.94, 2.15, 311.09
362.74, 2.27, 311.20
364.86, 2.42, 311.33
¯366.27, 2.65, 311.42
366.73, 2.93, 311.46
367.34, 3.23, 311.51
368.37, 3.55, 311.59
368.58, 3.87, 311.62
368.79, 4.20, 311.65
369.00, 4.53, 311.68
369.20, 4.88, 311.71
369.38, 5.22, 311.73
369.56, 5.57, 311.76
369.74, 5.93, 311.79
369.93, 6.29, 311.82
352.64, 1.43, 310.48
352.96, 1.45, 310.50
353.30, 1.48, 310.51
353.68, 1.51, 310.53
354.09, 1.55, 310.55
354.54, 1.59, 310.57
355.04, 1.63, 310.60
355.62, 1.68, 310.62
356.30, 1.73, 310.66
357.09, 1.78, 310.69
357.98, 1.84, 310.73
358.98, 1.92, 310.78
360.01, 2.02, 310.83
360.95, 2.16, 310.88
363.66, 2.23, 311.00
364.92, 2.43, 311.06
366.03, 2.67, 311.12
366.48, 2.95, 311.16
366.94, 3.24, 311.19
367.95, 3.56, 311.25
368.15, 3.87, 311.28
368.35, 4.20, 311.30
368.55, 4.52, 311.33
368.76, 4.86, 311.36
368.98, 5.20, 311.38
369.18, 5.55, 311.41
369.36, 5.90, 311.44
369.54, 6.26, 311.46
352.67, 1.42, 310.39
352.99, 1.45, 310.40
353.34, 1.48, 310.41
353.71, 1.51, 310.42
354.13, 1.55, 310.44
354.59, 1.59, 310.45
355.09, 1.63, 310.47
355.68, 1.68, 310.49
356.38, 1.72, 310.51
357.17, 1.78, 310.54
358.06, 1.84, 310.57
¯359.08, 1.92, 310.60
360.02, 2.03, 310.63
360.95, 2.17, 310.67
363.75, 2.24, 310.75
364.97, 2.44, 310.80
365.80, 2.69, 310.84
366.23, 2.97, 310.86
366.68, 3.26, 310.89
367.16, 3.56, 310.92
367.74, 3.88, 310.95
367.93, 4.19, 310.97
368.13, 4.51, 311.00
368.33, 4.84, 311.02
368.53, 5.18, 311.04
368.74, 5.52, 311.06
368.95, 5.87, 311.09
369.16, 6.23, 311.11
352.70, 1.42, 310.30
353.02, 1.45, 310.30
353.37, 1.48, 310.31
353.75, 1.51, 310.32
354.17, 1.55, 310.32
354.63, 1.59, 310.33
355.14, 1.63, 310.34
355.74, 1.68, 310.35
356.45, 1.72, 310.37
357.25, 1.78, 310.38
358.10, 1.85, 310.40
359.13, 1.93, 310.42
360.05, 2.04, 310.44
360.98, 2.18, 310.46
363.77, 2.25, 310.51
365.02, 2.46, 310.53
365.57, 2.71, 310.56
365.99, 2.99, 310.57
366.43, 3.27, 310.60
366.89, 3.57, 310.62
367.34, 3.88, 310.64
367.53, 4.19, 310.66
367.71, 4.50, 310.68
367.91, 4.83, 310.69
368.10, 5.16, 310.71
368.30, 5.49, 310.73
368.51, 5.83, 310.75
368.72, 6.18, 310.77
352.72, 1.42, 310.20
353.04, 1.45, 310.20
353.40, 1.48, 310.20
353.78, 1.51, 310.21
354.20, 1.55, 310.21
354.67, 1.59, 310.21
¯355.19, 1.63, 310.21
355.80, 1.67, 310.22
356.52, 1.72, 310.22
357.27, 1.78, 310.22
358.13, 1.85, 310.23
359.19, 1.93, 310.23
360.10, 2.05, 310.24
361.12, 2.18, 310.25
363.66, 2.27, 310.26
364.89, 2.47, 310.27
365.29, 2.73, 310.28
365.71, 3.00, 310.29
366.14, 3.28, 310.31
366.59, 3.58, 310.32
367.01, 3.88, 310.34
367.19, 4.19, 310.35
367.37, 4.50, 310.37
367.55, 4.82, 310.38
367.74, 5.14, 310.40
367.92, 5.47, 310.41
368.12, 5.80, 310.43
368.31, 6.15, 310.45
352.75, 1.42, 310.11
353.07, 1.45, 310.10
353.42, 1.48, 310.10
353.81, 1.51, 310.10
354.24, 1.55, 310.09
354.71, 1.58, 310.09
355.24, 1.63, 310.08
355.86, 1.67, 310.08
356.59, 1.72, 310.07
357.29, 1.79, 310.07
358.15, 1.86, 310.06
359.26, 1.93, 310.05
360.15, 2.05, 310.04
362.79, 2.08, 310.01
363.54, 2.29, 310.01
364.71, 2.49, 310.00
365.05, 2.75, 310.01
365.42, 3.02, 310.02
365.84, 3.29, 310.03
366.28, 3.58, 310.04
366.70, 3.88, 310.04
366.88, 4.19, 310.06
367.07, 4.49, 310.07
367.25, 4.81, 310.08
367.43, 5.13, 310.09
367.61, 5.45, 310.10
367.80, 5.78, 310.12
367.99, 6.12, 310.13
352.77, 1.42, 310.01
¯353.10, 1.45, 310.00
353.45, 1.48, 309.99
353.84, 1.51, 309.99
354.27, 1.54, 309.98
354.74, 1.58, 309.96
355.29, 1.62, 309.95
355.92, 1.67, 309.94
356.65, 1.71, 309.92
357.31, 1.79, 309.91
358.18, 1.86, 309.89
359.33, 1.93, 309.86
360.19, 2.06, 309.84
362.73, 2.10, 309.78
363.43, 2.30, 309.77
364.48, 2.51, 309.75
364.81, 2.77, 309.75
365.16, 3.03, 309.75
365.55, 3.31, 309.76
365.98, 3.59, 309.76
366.41, 3.89, 309.76
366.58, 4.19, 309.77
366.76, 4.49, 309.78
366.94, 4.80, 309.79
367.13, 5.11, 309.79
367.31, 5.43, 309.80
367.49, 5.76, 309.81
367.67, 6.09, 309.82
352.79, 1.42, 309.91
353.12, 1.44, 309.90
353.48, 1.47, 309.89
353.87, 1.51, 309.87
354.30, 1.54, 309.86
354.78, 1.58, 309.84
355.33, 1.62, 309.82
355.98, 1.66, 309.79
356.70, 1.71, 309.77
357.32, 1.80, 309.75
358.20, 1.87, 309.71
359.39, 1.94, 309.67
360.24, 2.06, 309.64
362.66, 2.11, 309.54
363.31, 2.32, 309.53
364.26, 2.53, 309.50
364.59, 2.78, 309.50
364.92, 3.04, 309.49
365.27, 3.32, 309.49
365.68, 3.60, 309.49
366.11, 3.89, 309.48
366.29, 4.18, 309.49
366.46, 4.48, 309.49
366.64, 4.79, 309.50
¯366.82, 5.10, 309.51
367.00, 5.42, 309.51
367.19, 5.74, 309.52
367.37, 6.07, 309.53
352.81, 1.41, 309.82
353.14, 1.44, 309.80
353.50, 1.47, 309.78
353.90, 1.50, 309.76
354.33, 1.54, 309.74
354.82, 1.58, 309.71
355.38, 1.62, 309.68
356.03, 1.66, 309.65
356.71, 1.72, 309.62
357.33, 1.80, 309.59
358.21, 1.87, 309.54
359.43, 1.94, 309.48
360.98, 2.01, 309.40
362.59, 2.13, 309.31
363.23, 2.33, 309.29
364.05, 2.55, 309.25
364.36, 2.80, 309.25
364.69, 3.06, 309.24
365.02, 3.33, 309.23
365.39, 3.60, 309.22
365.81, 3.89, 309.21
366.00, 4.18, 309.21
366.17, 4.48, 309.22
366.34, 4.78, 309.22
366.52, 5.08, 309.22
366.69, 5.40, 309.23
366.87, 5.72, 309.23
367.06, 6.04, 309.23
352.83, 1.41, 309.72
353.16, 1.44, 309.70
353.52, 1.47, 309.67
353.92, 1.50, 309.65
354.36, 1.54, 309.62
354.86, 1.58, 309.59
355.43, 1.62, 309.55
356.09, 1.66, 309.51
356.72, 1.72, 309.46
357.34, 1.80, 309.43
358.23, 1.88, 309.37
359.46, 1.94, 309.29
361.94, 1.95, 309.12
362.53, 2.14, 309.09
363.15, 2.34, 309.05
363.84, 2.57, 309.01
364.14, 2.81, 309.00
364.46, 3.07, 308.99
364.79, 3.33, 308.98
¯365.13, 3.61, 308.97
365.52, 3.89, 308.95
365.72, 4.18, 308.95
365.89, 4.47, 308.95
366.05, 4.77, 308.95
366.22, 5.07, 308.95
366.39, 5.38, 308.95
366.57, 5.69, 308.95
366.75, 6.01, 308.95
352.84, 1.41, 309.62
353.18, 1.44, 309.59
353.55, 1.47, 309.56
353.95, 1.50, 309.53
354.39, 1.54, 309.50
354.90, 1.57, 309.46
355.47, 1.61, 309.41
356.14, 1.65, 309.36
356.72, 1.73, 309.31
357.35, 1.81, 309.26
358.28, 1.88, 309.19
359.50, 1.95, 309.09
361.88, 1.96, 308.90
362.46, 2.15, 308.86
363.08, 2.36, 308.81
363.63, 2.58, 308.78
363.93, 2.83, 308.76
364.24, 3.08, 308.75
364.56, 3.34, 308.73
364.89, 3.61, 308.71
365.24, 3.90, 308.70
365.45, 4.18, 308.69
365.61, 4.47, 308.69
365.77, 4.76, 308.69
365.94, 5.06, 308.68
366.10, 5.36, 308.68
366.27, 5.67, 308.68
366.45, 5.99, 308.68
352.86, 1.41, 309.52
353.20, 1.44, 309.49
353.57, 1.46, 309.45
353.97, 1.50, 309.42
354.42, 1.53, 309.38
354.93, 1.57, 309.33
355.51, 1.61, 309.27
356.16, 1.65, 309.21
356.73, 1.73, 309.16
357.35, 1.81, 309.10
358.33, 1.88, 309.01
359.53, 1.95, 308.90
361.81, 1.97, 308.68
362.39, 2.16, 308.63
¯363.00, 2.37, 308.58
363.40, 2.60, 308.55
363.69, 2.84, 308.53
363.98, 3.09, 308.51
364.29, 3.35, 308.49
364.60, 3.62, 308.47
364.93, 3.90, 308.45
365.19, 4.18, 308.44
365.35, 4.46, 308.43
365.51, 4.75, 308.43
365.67, 5.05, 308.42
365.83, 5.35, 308.42
366.00, 5.65, 308.41
366.17, 5.96, 308.41
352.87, 1.41, 309.42
353.21, 1.43, 309.38
353.58, 1.46, 309.34
353.99, 1.49, 309.30
354.45, 1.53, 309.25
354.97, 1.57, 309.20
355.55, 1.61, 309.13
356.17, 1.66, 309.07
356.73, 1.73, 309.01
357.36, 1.82, 308.94
358.37, 1.88, 308.83
360.32, 1.88, 308.62
361.67, 1.99, 308.47
362.21, 2.18, 308.42
362.79, 2.39, 308.36
363.15, 2.61, 308.33
363.39, 2.86, 308.31
363.67, 3.10, 308.29
363.97, 3.36, 308.27
364.27, 3.62, 308.24
364.59, 3.89, 308.22
364.88, 4.17, 308.20
365.07, 4.46, 308.19
365.26, 4.74, 308.18
365.42, 5.04, 308.17
365.58, 5.33, 308.16
365.74, 5.63, 308.15
365.90, 5.94, 308.15
352.89, 1.40, 309.32
353.23, 1.43, 309.28
353.60, 1.46, 309.23
354.01, 1.49, 309.18
354.48, 1.53, 309.13
355.00, 1.56, 309.06
355.59, 1.60, 308.99
356.16, 1.66, 308.92
356.73, 1.74, 308.85
¯357.36, 1.82, 308.78
358.41, 1.88, 308.65
360.90, 1.84, 308.34
361.49, 2.01, 308.27
362.01, 2.20, 308.21
362.58, 2.40, 308.15
362.93, 2.63, 308.11
363.14, 2.87, 308.10
363.37, 3.11, 308.08
363.66, 3.36, 308.05
363.95, 3.62, 308.02
364.25, 3.89, 307.99
364.57, 4.17, 307.96
364.77, 4.45, 307.95
364.96, 4.73, 307.93
365.15, 5.02, 307.92
365.33, 5.32, 307.91
365.48, 5.62, 307.90
365.64, 5.92, 307.89
352.90, 1.40, 309.22
353.24, 1.43, 309.17
353.62, 1.46, 309.12
354.03, 1.49, 309.07
354.50, 1.52, 309.00
355.03, 1.56, 308.93
355.63, 1.60, 308.85
356.16, 1.66, 308.78
356.73, 1.74, 308.70
357.36, 1.82, 308.62
358.43, 1.88, 308.47
360.90, 1.84, 308.13
361.31, 2.03, 308.08
361.82, 2.22, 308.01
362.37, 2.42, 307.94
362.72, 2.64, 307.90
362.92, 2.88, 307.88
363.13, 3.12, 307.86
363.36, 3.37, 307.84
363.64, 3.62, 307.81
363.93, 3.89, 307.77
364.23, 4.16, 307.74
364.47, 4.44, 307.72
364.66, 4.72, 307.70
364.84, 5.01, 307.69
365.04, 5.30, 307.67
365.23, 5.60, 307.65
365.39, 5.90, 307.64
352.91, 1.40, 309.12
353.25, 1.42, 309.07
353.63, 1.45, 309.01
354.05, 1.49, 308.95
¯354.53, 1.52, 308.88
355.06, 1.55, 308.80
355.64, 1.60, 308.71
356.16, 1.66, 308.63
356.72, 1.74, 308.55
357.35, 1.83, 308.46
358.45, 1.88, 308.29
360.75, 1.86, 307.94
361.16, 2.04, 307.88
361.63, 2.23, 307.81
362.17, 2.43, 307.74
362.51, 2.66, 307.69
362.71, 2.89, 307.67
362.91, 3.13, 307.65
363.11, 3.37, 307.62
363.34, 3.63, 307.60
363.62, 3.89, 307.56
363.91, 4.16, 307.53
364.18, 4.43, 307.49
364.36, 4.71, 307.48
364.54, 4.99, 307.46
364.73, 5.28, 307.44
364.92, 5.58, 307.42
365.12, 5.88, 307.40
352.92, 1.39, 309.02
353.26, 1.42, 308.96
353.64, 1.45, 308.90
354.07, 1.48, 308.83
354.55, 1.51, 308.75
355.09, 1.55, 308.66
355.63, 1.60, 308.57
356.14, 1.67, 308.49
356.69, 1.75, 308.40
357.36, 1.83, 308.29
358.47, 1.88, 308.11
360.61, 1.87, 307.75
361.01, 2.06, 307.69
361.44, 2.25, 307.62
361.96, 2.45, 307.54
362.30, 2.67, 307.49
362.49, 2.90, 307.47
362.69, 3.14, 307.44
362.89, 3.38, 307.41
363.10, 3.63, 307.39
363.32, 3.88, 307.36
363.60, 4.15, 307.32
363.89, 4.42, 307.28
364.08, 4.70, 307.26
364.25, 4.97, 307.23
364.43, 5.26, 307.21
364.62, 5.55, 307.19
¯364.81, 5.85, 307.17
352.93, 1.39, 308.92
353.27, 1.42, 308.85
353.65, 1.45, 308.79
354.09, 1.48, 308.71
354.57, 1.51, 308.62
355.11, 1.55, 308.53
355.60, 1.60, 308.44
356.10, 1.67, 308.35
356.65, 1.75, 308.25
357.37, 1.83, 308.12
358.48, 1.88, 307.92
360.47, 1.89, 307.56
360.86, 2.07, 307.50
361.26, 2.26, 307.43
361.77, 2.46, 307.34
362.10, 2.68, 307.29
362.29, 2.91, 307.26
362.48, 3.15, 307.24
362.68, 3.39, 307.21
362.88, 3.63, 307.18
363.08, 3.88, 307.15
363.30, 4.14, 307.12
363.58, 4.41, 307.07
363.80, 4.68, 307.04
363.97, 4.96, 307.02
364.14, 5.24, 306.99
364.32, 5.53, 306.97
364.51, 5.82, 306.94
352.93, 1.39, 308.81
353.28, 1.41, 308.75
353.67, 1.44, 308.67
354.10, 1.47, 308.59
354.58, 1.51, 308.49
355.12, 1.54, 308.39
355.57, 1.61, 308.30
356.07, 1.68, 308.21
356.62, 1.76, 308.10
357.37, 1.83, 307.96
358.49, 1.88, 307.74
360.33, 1.90, 307.38
360.71, 2.09, 307.31
361.11, 2.28, 307.24
361.57, 2.48, 307.15
361.90, 2.69, 307.09
362.08, 2.92, 307.07
362.27, 3.15, 307.04
362.46, 3.39, 307.00
362.66, 3.63, 306.97
362.86, 3.88, 306.94
363.06, 4.14, 306.91
¯363.28, 4.40, 306.87
363.52, 4.67, 306.83
363.69, 4.94, 306.81
363.86, 5.22, 306.78
364.03, 5.50, 306.75
364.21, 5.79, 306.73
352.94, 1.38, 308.71
353.29, 1.41, 308.64
353.68, 1.44, 308.56
354.11, 1.47, 308.47
354.59, 1.50, 308.37
355.13, 1.54, 308.25
355.54, 1.61, 308.17
356.04, 1.68, 308.07
356.58, 1.76, 307.96
357.37, 1.83, 307.79
358.62, 1.87, 307.53
360.19, 1.92, 307.20
360.56, 2.10, 307.13
360.96, 2.29, 307.05
361.38, 2.49, 306.97
361.71, 2.70, 306.90
361.88, 2.93, 306.87
362.07, 3.16, 306.84
362.25, 3.39, 306.81
362.45, 3.63, 306.77
362.64, 3.88, 306.74
362.84, 4.13, 306.70
363.05, 4.39, 306.66
363.26, 4.66, 306.63
363.43, 4.93, 306.60
363.60, 5.20, 306.57
363.77, 5.48, 306.54
363.95, 5.77, 306.51
352.94, 1.38, 308.61
353.29, 1.41, 308.53
353.68, 1.44, 308.44
354.11, 1.47, 308.35
354.60, 1.50, 308.24
355.10, 1.54, 308.13
355.51, 1.62, 308.04
356.00, 1.69, 307.93
356.54, 1.77, 307.81
357.37, 1.83, 307.62
358.75, 1.86, 307.31
360.05, 1.93, 307.03
360.42, 2.11, 306.95
360.80, 2.30, 306.86
361.21, 2.50, 306.78
361.51, 2.71, 306.71
361.69, 2.94, 306.68
¯361.87, 3.16, 306.65
362.05, 3.40, 306.61
362.23, 3.64, 306.58
362.42, 3.88, 306.54
362.61, 4.13, 306.50
362.80, 4.39, 306.47
363.01, 4.65, 306.43
363.19, 4.92, 306.39
363.37, 5.19, 306.36
363.54, 5.47, 306.33
363.71, 5.75, 306.29
352.94, 1.38, 308.50
353.29, 1.40, 308.42
353.68, 1.43, 308.33
354.12, 1.46, 308.23
354.60, 1.50, 308.11
355.07, 1.55, 308.00
355.47, 1.62, 307.90
355.96, 1.69, 307.79
356.51, 1.77, 307.66
357.37, 1.83, 307.45
358.89, 1.84, 307.09
359.91, 1.94, 306.85
360.27, 2.12, 306.77
360.65, 2.31, 306.68
361.04, 2.51, 306.59
361.31, 2.72, 306.53
361.48, 2.94, 306.50
361.65, 3.17, 306.46
361.83, 3.40, 306.42
362.00, 3.64, 306.39
362.19, 3.88, 306.35
362.37, 4.13, 306.31
362.57, 4.38, 306.27
362.76, 4.64, 306.23
362.95, 4.90, 306.19
363.13, 5.18, 306.15
363.31, 5.45, 306.12
363.48, 5.73, 306.08
352.94, 1.37, 308.40
353.29, 1.40, 308.31
353.68, 1.43, 308.21
354.12, 1.46, 308.10
354.60, 1.49, 307.98
355.04, 1.55, 307.87
355.44, 1.62, 307.77
355.92, 1.70, 307.65
356.50, 1.77, 307.51
357.36, 1.83, 307.29
359.02, 1.83, 306.87
359.77, 1.96, 306.68
¯360.11, 2.14, 306.60
360.46, 2.32, 306.51
360.83, 2.52, 306.42
361.12, 2.73, 306.35
361.27, 2.95, 306.32
361.44, 3.17, 306.28
361.61, 3.40, 306.24
361.78, 3.64, 306.20
361.96, 3.88, 306.16
362.14, 4.12, 306.12
362.33, 4.37, 306.08
362.52, 4.63, 306.04
362.71, 4.89, 305.99
362.88, 5.16, 305.96
363.06, 5.43, 305.92
363.25, 5.71, 305.88
352.94, 1.37, 308.30
353.29, 1.40, 308.20
353.68, 1.43, 308.10
354.12, 1.46, 307.98
354.61, 1.49, 307.85
355.00, 1.55, 307.75
355.40, 1.63, 307.64
355.88, 1.70, 307.51
356.49, 1.77, 307.35
357.36, 1.83, 307.12
359.14, 1.82, 306.64
359.60, 1.97, 306.52
359.92, 2.15, 306.43
360.26, 2.34, 306.35
360.62, 2.53, 306.25
360.92, 2.74, 306.18
361.08, 2.96, 306.14
361.24, 3.18, 306.10
361.40, 3.41, 306.06
361.57, 3.64, 306.02
361.74, 3.87, 305.98
361.92, 4.12, 305.94
362.10, 4.36, 305.89
362.29, 4.62, 305.85
362.47, 4.88, 305.80
362.65, 5.14, 305.76
362.82, 5.41, 305.72
363.00, 5.69, 305.68
352.94, 1.36, 308.19
353.29, 1.39, 308.09
353.67, 1.42, 307.98
354.11, 1.45, 307.86
354.60, 1.49, 307.72
354.97, 1.55, 307.62
355.37, 1.63, 307.51
¯355.84, 1.70, 307.38
356.47, 1.77, 307.20
357.34, 1.83, 306.95
359.00, 1.83, 306.48
359.42, 1.99, 306.36
359.74, 2.16, 306.28
360.07, 2.35, 306.19
360.42, 2.54, 306.09
360.73, 2.75, 306.01
360.88, 2.96, 305.97
361.04, 3.18, 305.93
361.19, 3.41, 305.89
361.36, 3.64, 305.84
361.52, 3.87, 305.80
361.70, 4.11, 305.76
361.88, 4.36, 305.71
362.06, 4.61, 305.66
362.24, 4.87, 305.62
362.41, 5.13, 305.57
362.58, 5.40, 305.53
362.76, 5.67, 305.48
352.93, 1.36, 308.09
353.28, 1.39, 307.98
353.66, 1.42, 307.87
354.11, 1.45, 307.74
354.57, 1.49, 307.60
354.93, 1.56, 307.49
355.33, 1.63, 307.38
355.79, 1.71, 307.24
356.46, 1.77, 307.04
357.33, 1.83, 306.78
358.85, 1.84, 306.33
359.26, 2.00, 306.21
359.55, 2.18, 306.12
359.88, 2.36, 306.03
360.22, 2.55, 305.93
360.55, 2.75, 305.84
360.69, 2.97, 305.80
360.84, 3.19, 305.75
361.00, 3.41, 305.71
361.15, 3.64, 305.67
361.31, 3.87, 305.63
361.48, 4.11, 305.58
361.65, 4.35, 305.53
361.83, 4.60, 305.48
362.01, 4.85, 305.43
362.18, 5.11, 305.39
362.35, 5.38, 305.34
362.52, 5.65, 305.29
352.92, 1.36, 307.98
353.27, 1.39, 307.87
¯353.66, 1.42, 307.75
354.10, 1.44, 307.61
354.53, 1.49, 307.48
354.89, 1.56, 307.37
355.29, 1.63, 307.25
355.75, 1.71, 307.10
356.44, 1.77, 306.89
357.34, 1.82, 306.60
358.70, 1.85, 306.18
359.10, 2.01, 306.05
359.37, 2.19, 305.97
359.69, 2.37, 305.87
360.02, 2.56, 305.77
360.36, 2.76, 305.67
360.51, 2.97, 305.63
360.65, 3.19, 305.58
360.80, 3.41, 305.54
360.95, 3.64, 305.50
361.11, 3.87, 305.45
361.27, 4.10, 305.40
361.44, 4.34, 305.36
361.61, 4.59, 305.30
361.79, 4.84, 305.25
361.95, 5.10, 305.20
362.12, 5.36, 305.16
362.28, 5.63, 305.11
352.91, 1.35, 307.88
353.26, 1.38, 307.77
353.65, 1.41, 307.64
354.09, 1.44, 307.49
354.49, 1.49, 307.36
354.86, 1.56, 307.24
355.25, 1.63, 307.11
355.70, 1.71, 306.97
356.42, 1.77, 306.73
357.32, 1.82, 306.43
358.54, 1.87, 306.03
358.94, 2.02, 305.90
359.21, 2.20, 305.82
359.50, 2.38, 305.72
359.83, 2.57, 305.62
360.17, 2.77, 305.51
360.32, 2.98, 305.46
360.46, 3.19, 305.42
360.61, 3.41, 305.37
360.76, 3.64, 305.33
360.91, 3.86, 305.28
361.07, 4.10, 305.23
361.23, 4.34, 305.18
361.39, 4.58, 305.13
361.56, 4.83, 305.08
¯361.73, 5.08, 305.03
361.89, 5.34, 304.98
362.05, 5.61, 304.93
352.90, 1.35, 307.77
353.25, 1.38, 307.66
353.64, 1.41, 307.52
354.08, 1.44, 307.37
354.45, 1.49, 307.24
354.81, 1.56, 307.12
355.20, 1.64, 306.98
355.65, 1.71, 306.83
356.45, 1.76, 306.56
357.28, 1.82, 306.27
358.39, 1.88, 305.89
358.79, 2.03, 305.75
359.05, 2.21, 305.66
359.32, 2.39, 305.57
359.63, 2.58, 305.47
359.97, 2.77, 305.36
360.14, 2.98, 305.30
360.28, 3.20, 305.25
360.42, 3.41, 305.21
360.57, 3.63, 305.16
360.72, 3.86, 305.11
360.87, 4.09, 305.06
361.02, 4.33, 305.01
361.18, 4.57, 304.96
361.35, 4.82, 304.90
361.52, 5.07, 304.85
361.67, 5.33, 304.80
361.83, 5.59, 304.75
352.89, 1.34, 307.67
353.24, 1.37, 307.55
353.62, 1.40, 307.41
354.07, 1.43, 307.25
354.41, 1.49, 307.12
354.77, 1.56, 306.99
355.16, 1.64, 306.85
355.62, 1.71, 306.69
356.54, 1.74, 306.36
357.23, 1.82, 306.11
358.23, 1.89, 305.75
358.64, 2.04, 305.61
358.89, 2.22, 305.52
359.16, 2.40, 305.42
359.45, 2.58, 305.32
359.77, 2.78, 305.21
359.96, 2.99, 305.14
360.10, 3.20, 305.09
360.24, 3.41, 305.04
360.38, 3.63, 304.99
¯360.52, 3.86, 304.94
360.67, 4.09, 304.89
360.82, 4.32, 304.84
360.98, 4.56, 304.79
361.14, 4.81, 304.73
361.30, 5.06, 304.68
361.50, 5.32, 304.61
361.69, 5.58, 304.54
352.87, 1.34, 307.57
353.22, 1.37, 307.44
353.61, 1.40, 307.29
354.04, 1.43, 307.13
354.37, 1.49, 307.00
354.73, 1.56, 306.87
355.12, 1.64, 306.72
355.66, 1.70, 306.52
356.64, 1.72, 306.15
357.18, 1.82, 305.95
358.07, 1.90, 305.62
358.49, 2.05, 305.46
358.74, 2.22, 305.37
359.00, 2.40, 305.27
359.27, 2.59, 305.17
359.58, 2.78, 305.06
359.78, 2.99, 304.98
359.92, 3.20, 304.93
360.05, 3.41, 304.88
360.19, 3.63, 304.83
360.33, 3.85, 304.78
360.48, 4.08, 304.73
360.63, 4.31, 304.68
360.78, 4.55, 304.62
360.93, 4.79, 304.56
361.09, 5.04, 304.51
361.40, 5.32, 304.39
361.59, 5.58, 304.32
352.86, 1.33, 307.46
353.20, 1.36, 307.32
353.59, 1.39, 307.17
354.00, 1.43, 307.01
354.33, 1.49, 306.89
354.68, 1.56, 306.75
355.06, 1.64, 306.60
355.73, 1.68, 306.34
356.73, 1.70, 305.95
357.14, 1.82, 305.79
357.91, 1.91, 305.48
358.34, 2.06, 305.32
358.58, 2.23, 305.22
358.84, 2.41, 305.12
359.11, 2.60, 305.02
¯359.39, 2.79, 304.91
359.61, 2.99, 304.83
359.74, 3.20, 304.78
359.87, 3.41, 304.73
360.01, 3.63, 304.67
360.15, 3.85, 304.62
360.29, 4.08, 304.57
360.43, 4.31, 304.51
360.58, 4.54, 304.46
360.73, 4.78, 304.40
360.88, 5.03, 304.34
361.25, 5.31, 304.20
361.49, 5.58, 304.11
352.84, 1.33, 307.36
353.19, 1.36, 307.21
353.57, 1.39, 307.06
353.96, 1.43, 306.90
354.28, 1.49, 306.77
354.64, 1.56, 306.62
355.00, 1.64, 306.48
355.80, 1.66, 306.15
356.68, 1.70, 305.79
357.09, 1.82, 305.62
357.75, 1.92, 305.36
358.19, 2.07, 305.18
358.43, 2.24, 305.08
358.68, 2.42, 304.98
358.94, 2.60, 304.87
359.22, 2.79, 304.76
359.43, 2.99, 304.67
359.56, 3.20, 304.62
359.69, 3.41, 304.57
359.82, 3.63, 304.52
359.96, 3.85, 304.47
360.09, 4.07, 304.41
360.23, 4.30, 304.35
360.38, 4.53, 304.30
360.52, 4.77, 304.24
360.67, 5.02, 304.18
360.95, 5.28, 304.07
361.39, 5.58, 303.89
352.82, 1.33, 307.25
353.17, 1.35, 307.10
353.55, 1.38, 306.94
353.91, 1.43, 306.79
354.24, 1.49, 306.65
354.57, 1.57, 306.51
354.93, 1.64, 306.36
355.87, 1.65, 305.96
356.63, 1.70, 305.63
357.04, 1.82, 305.46
¯357.58, 1.94, 305.23
358.04, 2.08, 305.04
358.28, 2.25, 304.94
358.53, 2.42, 304.83
358.78, 2.61, 304.73
359.01, 2.80, 304.63
359.22, 3.00, 304.54
359.38, 3.20, 304.47
359.51, 3.41, 304.42
359.64, 3.63, 304.37
359.77, 3.84, 304.31
359.90, 4.06, 304.26
360.04, 4.29, 304.20
360.18, 4.52, 304.14
360.32, 4.76, 304.08
360.47, 5.00, 304.02
360.66, 5.26, 303.94
361.22, 5.57, 303.70
352.80, 1.32, 307.15
353.14, 1.35, 306.99
353.53, 1.38, 306.83
353.87, 1.43, 306.68
354.18, 1.50, 306.54
354.51, 1.57, 306.39
354.87, 1.65, 306.24
355.94, 1.63, 305.76
356.58, 1.70, 305.48
356.99, 1.82, 305.30
357.42, 1.95, 305.11
357.89, 2.08, 304.90
358.13, 2.25, 304.80
358.37, 2.43, 304.69
358.57, 2.61, 304.61
358.77, 2.80, 304.52
358.98, 3.00, 304.43
359.16, 3.20, 304.35
359.32, 3.41, 304.28
359.46, 3.62, 304.22
359.59, 3.84, 304.16
359.72, 4.06, 304.10
359.85, 4.28, 304.04
359.99, 4.51, 303.98
360.13, 4.75, 303.92
360.27, 4.99, 303.86
360.42, 5.23, 303.80
360.92, 5.54, 303.57
352.77, 1.32, 307.04
353.12, 1.34, 306.88
353.50, 1.37, 306.71
353.81, 1.43, 306.57
354.12, 1.50, 306.43
¯354.45, 1.57, 306.28
354.80, 1.65, 306.12
356.01, 1.61, 305.56
356.53, 1.70, 305.32
356.93, 1.82, 305.14
357.37, 1.94, 304.94
357.75, 2.09, 304.77
357.97, 2.26, 304.67
358.15, 2.44, 304.58
358.34, 2.62, 304.50
358.53, 2.81, 304.41
358.74, 3.00, 304.32
358.94, 3.20, 304.22
359.09, 3.41, 304.15
359.25, 3.62, 304.08
359.41, 3.83, 304.01
359.53, 4.05, 303.95
359.66, 4.28, 303.89
359.80, 4.50, 303.83
359.93, 4.74, 303.77
360.07, 4.98, 303.70
360.22, 5.22, 303.64
360.63, 5.51, 303.45
352.75, 1.31, 306.94
353.10, 1.34, 306.77
353.46, 1.37, 306.60
353.75, 1.43, 306.46
354.06, 1.50, 306.32
354.38, 1.57, 306.16
354.73, 1.65, 306.00
356.07, 1.59, 305.36
356.48, 1.69, 305.17
356.88, 1.81, 304.98
357.31, 1.94, 304.77
357.58, 2.10, 304.65
357.75, 2.27, 304.56
357.93, 2.44, 304.48
358.12, 2.63, 304.39
358.30, 2.81, 304.30
358.50, 3.00, 304.21
358.70, 3.20, 304.11
358.87, 3.41, 304.03
359.02, 3.61, 303.96
359.18, 3.83, 303.88
359.34, 4.05, 303.81
359.48, 4.27, 303.74
359.61, 4.50, 303.68
359.74, 4.73, 303.62
359.88, 4.96, 303.55
360.02, 5.21, 303.48
360.35, 5.48, 303.33
¯352.72, 1.30, 306.83
353.07, 1.33, 306.66
353.39, 1.38, 306.51
353.69, 1.43, 306.36
353.99, 1.50, 306.21
354.32, 1.57, 306.05
354.66, 1.65, 305.88
356.05, 1.58, 305.20
356.42, 1.69, 305.01
356.82, 1.81, 304.82
357.20, 1.94, 304.63
357.39, 2.11, 304.54
357.55, 2.28, 304.46
357.72, 2.45, 304.38
357.90, 2.63, 304.29
358.08, 2.82, 304.20
358.27, 3.01, 304.10
358.46, 3.20, 304.01
358.65, 3.40, 303.91
358.80, 3.61, 303.84
358.95, 3.82, 303.76
359.11, 4.04, 303.69
359.27, 4.26, 303.61
359.43, 4.49, 303.53
359.56, 4.72, 303.47
359.69, 4.95, 303.40
359.83, 5.19, 303.33
360.07, 5.45, 303.21
352.69, 1.30, 306.73
353.01, 1.33, 306.57
353.31, 1.38, 306.41
353.63, 1.44, 306.25
353.93, 1.50, 306.10
354.25, 1.58, 305.94
354.60, 1.65, 305.76
356.00, 1.58, 305.05
356.37, 1.69, 304.86
356.75, 1.81, 304.67
357.04, 1.95, 304.52
357.24, 2.11, 304.41
357.36, 2.29, 304.35
357.51, 2.46, 304.28
357.68, 2.64, 304.19
357.86, 2.82, 304.10
358.04, 3.01, 304.00
358.23, 3.20, 303.90
358.42, 3.40, 303.81
358.58, 3.60, 303.72
358.73, 3.81, 303.65
358.88, 4.03, 303.57
359.04, 4.25, 303.49
¯359.20, 4.47, 303.40
359.37, 4.71, 303.32
359.50, 4.94, 303.25
359.63, 5.18, 303.18
359.81, 5.43, 303.09
352.66, 1.29, 306.63
352.94, 1.34, 306.48
353.24, 1.39, 306.32
353.57, 1.44, 306.15
353.86, 1.50, 306.00
354.18, 1.58, 305.83
354.76, 1.61, 305.52
355.94, 1.57, 304.90
356.31, 1.68, 304.71
356.59, 1.82, 304.56
356.87, 1.96, 304.41
357.10, 2.12, 304.29
357.21, 2.29, 304.23
357.33, 2.46, 304.16
357.47, 2.64, 304.09
357.64, 2.82, 304.00
357.82, 3.01, 303.90
358.00, 3.20, 303.80
358.19, 3.40, 303.70
358.37, 3.60, 303.61
358.51, 3.81, 303.53
358.66, 4.02, 303.45
358.81, 4.24, 303.37
358.97, 4.46, 303.29
359.13, 4.69, 303.20
359.30, 4.92, 303.11
359.45, 5.16, 303.03
359.58, 5.41, 302.96
352.59, 1.30, 306.55
352.87, 1.34, 306.39
353.17, 1.39, 306.23
353.50, 1.44, 306.05
353.80, 1.51, 305.89
354.11, 1.58, 305.72
354.92, 1.57, 305.28
355.88, 1.57, 304.75
356.17, 1.69, 304.59
356.43, 1.83, 304.45
356.71, 1.97, 304.30
356.95, 2.12, 304.17
357.07, 2.29, 304.10
357.18, 2.47, 304.04
357.31, 2.64, 303.97
357.43, 2.82, 303.90
357.60, 3.01, 303.80
357.78, 3.20, 303.71
¯357.96, 3.39, 303.61
358.15, 3.59, 303.50
358.30, 3.80, 303.42
358.44, 4.01, 303.34
358.59, 4.22, 303.26
358.74, 4.45, 303.17
358.90, 4.67, 303.08
359.06, 4.90, 302.99
359.22, 5.14, 302.90
359.39, 5.39, 302.81
352.53, 1.30, 306.46
352.80, 1.35, 306.31
353.09, 1.39, 306.14
353.42, 1.44, 305.96
353.73, 1.51, 305.78
354.04, 1.58, 305.61
355.07, 1.53, 305.03
355.78, 1.57, 304.63
356.02, 1.70, 304.49
356.28, 1.84, 304.34
356.55, 1.98, 304.19
356.81, 2.13, 304.05
356.92, 2.30, 303.98
357.04, 2.47, 303.91
357.15, 2.65, 303.84
357.28, 2.83, 303.77
357.40, 3.01, 303.70
357.56, 3.20, 303.61
357.74, 3.39, 303.51
357.92, 3.59, 303.40
358.09, 3.79, 303.31
358.23, 4.00, 303.23
358.37, 4.21, 303.14
358.52, 4.43, 303.06
358.67, 4.66, 302.97
358.83, 4.89, 302.88
358.99, 5.12, 302.79
359.20, 5.38, 302.66
352.46, 1.31, 306.38
352.73, 1.35, 306.22
353.02, 1.40, 306.05
353.34, 1.45, 305.87
353.66, 1.51, 305.68
353.97, 1.58, 305.50
355.22, 1.49, 304.77
355.64, 1.58, 304.53
355.88, 1.71, 304.39
356.13, 1.84, 304.24
356.39, 1.98, 304.09
356.66, 2.13, 303.93
356.78, 2.30, 303.86
¯356.89, 2.47, 303.79
357.01, 2.65, 303.72
357.12, 2.83, 303.65
357.24, 3.01, 303.58
357.37, 3.19, 303.50
357.52, 3.38, 303.41
357.70, 3.58, 303.31
357.88, 3.78, 303.20
358.02, 3.99, 303.12
358.16, 4.20, 303.03
358.30, 4.42, 302.95
358.45, 4.64, 302.86
358.60, 4.87, 302.77
358.83, 5.11, 302.63
359.25, 5.40, 302.38
352.39, 1.31, 306.30
352.65, 1.35, 306.14
352.94, 1.40, 305.97
353.26, 1.45, 305.77
353.59, 1.51, 305.58
353.89, 1.58, 305.39
355.17, 1.49, 304.63
355.50, 1.59, 304.43
355.73, 1.72, 304.29
355.98, 1.85, 304.14
356.23, 1.99, 303.98
356.50, 2.14, 303.82
356.63, 2.30, 303.74
356.74, 2.47, 303.67
356.86, 2.65, 303.60
356.97, 2.83, 303.53
357.09, 3.01, 303.45
357.21, 3.19, 303.38
357.33, 3.38, 303.30
357.47, 3.58, 303.22
357.65, 3.78, 303.11
357.81, 3.98, 303.01
357.94, 4.19, 302.93
358.08, 4.40, 302.84
358.23, 4.62, 302.75
358.47, 4.86, 302.60
358.74, 5.11, 302.44
359.81, 5.51, 301.79
352.32, 1.31, 306.22
352.58, 1.36, 306.06
352.86, 1.40, 305.88
353.18, 1.45, 305.69
353.52, 1.51, 305.47
353.82, 1.58, 305.28
355.02, 1.50, 304.54
355.37, 1.59, 304.33
¯355.59, 1.72, 304.19
355.83, 1.86, 304.04
356.08, 1.99, 303.88
356.34, 2.14, 303.72
356.49, 2.30, 303.62
356.60, 2.47, 303.55
356.71, 2.65, 303.48
356.82, 2.82, 303.41
356.94, 3.01, 303.33
357.06, 3.19, 303.26
357.18, 3.38, 303.18
357.30, 3.57, 303.10
357.43, 3.77, 303.02
357.60, 3.97, 302.91
357.74, 4.18, 302.82
357.87, 4.39, 302.73
358.12, 4.62, 302.58
358.38, 4.86, 302.41
358.65, 5.11, 302.24
360.05, 5.56, 301.36
352.25, 1.32, 306.14
352.50, 1.36, 305.98
352.78, 1.41, 305.80
353.09, 1.46, 305.60
353.43, 1.51, 305.38
353.75, 1.58, 305.18
354.88, 1.51, 304.46
355.25, 1.60, 304.22
355.45, 1.73, 304.09
355.68, 1.86, 303.94
355.92, 2.00, 303.78
356.18, 2.14, 303.62
356.35, 2.30, 303.51
356.46, 2.47, 303.43
356.56, 2.65, 303.36
356.68, 2.82, 303.29
356.79, 3.00, 303.21
356.90, 3.19, 303.13
357.02, 3.37, 303.06
357.14, 3.57, 302.97
357.27, 3.76, 302.89
357.39, 3.96, 302.81
357.55, 4.17, 302.70
357.79, 4.39, 302.55
358.03, 4.62, 302.39
358.29, 4.86, 302.22
358.56, 5.11, 302.04
360.01, 5.57, 301.11
352.17, 1.32, 306.06
352.43, 1.36, 305.90
352.70, 1.41, 305.71
¯353.01, 1.46, 305.51
353.34, 1.51, 305.29
353.67, 1.58, 305.07
354.72, 1.52, 304.38
355.13, 1.60, 304.11
355.32, 1.73, 303.98
355.53, 1.87, 303.85
355.77, 2.00, 303.68
356.02, 2.15, 303.52
356.21, 2.31, 303.39
356.31, 2.47, 303.32
356.42, 2.65, 303.24
356.53, 2.82, 303.17
356.64, 3.00, 303.09
356.75, 3.18, 303.01
356.87, 3.37, 302.93
356.99, 3.56, 302.85
357.11, 3.76, 302.77
357.23, 3.95, 302.68
357.47, 4.17, 302.52
357.70, 4.39, 302.36
357.95, 4.62, 302.20
358.20, 4.86, 302.03
358.47, 5.12, 301.84
359.96, 5.58, 300.85
352.10, 1.32, 305.99
352.35, 1.36, 305.82
352.62, 1.41, 305.63
352.93, 1.46, 305.42
353.25, 1.51, 305.20
353.59, 1.57, 304.97
354.57, 1.53, 304.31
355.02, 1.60, 304.01
355.20, 1.73, 303.88
355.39, 1.87, 303.74
355.62, 2.01, 303.59
355.86, 2.15, 303.42
356.07, 2.31, 303.28
356.17, 2.47, 303.20
356.28, 2.65, 303.13
356.38, 2.82, 303.05
356.49, 3.00, 302.97
356.60, 3.18, 302.89
356.72, 3.37, 302.81
356.83, 3.56, 302.73
356.95, 3.75, 302.65
357.07, 3.95, 302.56
357.28, 4.16, 302.41
357.62, 4.39, 302.18
357.86, 4.62, 302.01
358.12, 4.86, 301.83
¯359.45, 5.28, 300.92
359.91, 5.59, 300.60
352.03, 1.32, 305.91
352.27, 1.37, 305.74
352.54, 1.41, 305.55
352.84, 1.46, 305.34
353.16, 1.52, 305.11
353.51, 1.57, 304.87
354.42, 1.54, 304.24
354.90, 1.61, 303.90
355.08, 1.74, 303.77
355.27, 1.87, 303.63
355.47, 2.01, 303.49
355.71, 2.15, 303.32
355.93, 2.31, 303.16
356.03, 2.47, 303.09
356.13, 2.64, 303.01
356.24, 2.82, 302.93
356.34, 3.00, 302.86
356.45, 3.18, 302.78
356.56, 3.36, 302.69
356.67, 3.55, 302.61
356.79, 3.74, 302.53
356.90, 3.94, 302.44
357.02, 4.14, 302.35
357.53, 4.39, 301.99
357.77, 4.62, 301.82
358.03, 4.86, 301.64
359.42, 5.29, 300.65
359.85, 5.60, 300.35
351.95, 1.32, 305.84
352.20, 1.37, 305.66
352.46, 1.42, 305.47
352.75, 1.46, 305.26
353.07, 1.52, 305.03
353.42, 1.57, 304.78
354.26, 1.55, 304.17
354.78, 1.61, 303.80
354.96, 1.74, 303.66
355.14, 1.87, 303.53
355.34, 2.01, 303.38
355.55, 2.16, 303.23
355.79, 2.31, 303.05
355.89, 2.47, 302.97
355.99, 2.64, 302.90
356.09, 2.82, 302.82
356.20, 2.99, 302.74
356.30, 3.17, 302.66
356.41, 3.36, 302.58
356.52, 3.54, 302.49
356.63, 3.74, 302.41
¯356.74, 3.93, 302.32
356.86, 4.13, 302.23
357.45, 4.39, 301.81
357.69, 4.62, 301.63
357.94, 4.86, 301.44
359.36, 5.30, 300.40
359.79, 5.61, 300.09
351.88, 1.33, 305.76
352.12, 1.37, 305.59
352.38, 1.42, 305.39
352.67, 1.47, 305.18
352.98, 1.52, 304.94
353.32, 1.58, 304.69
354.10, 1.56, 304.11
354.66, 1.61, 303.70
354.84, 1.74, 303.56
355.02, 1.87, 303.42
355.21, 2.01, 303.28
355.41, 2.16, 303.13
355.64, 2.31, 302.95
355.75, 2.47, 302.86
355.85, 2.64, 302.78
355.95, 2.81, 302.71
356.05, 2.99, 302.63
356.15, 3.17, 302.55
356.26, 3.35, 302.46
356.36, 3.54, 302.38
356.47, 3.73, 302.29
356.58, 3.93, 302.20
356.70, 4.12, 302.11
357.18, 4.37, 301.75
357.60, 4.62, 301.43
357.85, 4.86, 301.24
359.31, 5.31, 300.15
359.72, 5.62, 299.83
351.80, 1.33, 305.69
352.04, 1.37, 305.51
352.29, 1.42, 305.31
352.58, 1.47, 305.10
352.89, 1.52, 304.86
353.25, 1.57, 304.58
353.94, 1.57, 304.05
354.54, 1.61, 303.59
354.72, 1.74, 303.46
354.90, 1.87, 303.32
355.08, 2.01, 303.17
355.28, 2.16, 303.02
355.48, 2.31, 302.86
355.61, 2.47, 302.75
355.71, 2.64, 302.67
355.81, 2.81, 302.60
¯355.90, 2.99, 302.51
356.00, 3.16, 302.43
356.11, 3.35, 302.35
356.21, 3.53, 302.26
356.32, 3.72, 302.18
356.43, 3.92, 302.09
356.54, 4.12, 302.00
356.85, 4.34, 301.75
357.51, 4.62, 301.24
358.87, 5.02, 300.19
359.25, 5.31, 299.89
359.66, 5.63, 299.57
351.73, 1.33, 305.62
351.96, 1.37, 305.44
352.21, 1.42, 305.24
352.49, 1.47, 305.02
352.79, 1.52, 304.78
353.19, 1.57, 304.47
353.79, 1.58, 304.00
354.43, 1.61, 303.49
354.60, 1.74, 303.36
354.77, 1.87, 303.21
354.96, 2.01, 303.07
355.15, 2.16, 302.91
355.34, 2.31, 302.75
355.47, 2.47, 302.64
355.57, 2.64, 302.57
355.66, 2.81, 302.49
355.76, 2.98, 302.40
355.86, 3.16, 302.32
355.96, 3.34, 302.24
356.06, 3.53, 302.15
356.16, 3.72, 302.06
356.27, 3.91, 301.97
356.38, 4.11, 301.88
356.54, 4.32, 301.74
357.41, 4.62, 301.05
358.81, 5.02, 299.94
359.19, 5.32, 299.64
359.60, 5.64, 299.30
351.65, 1.33, 305.55
351.88, 1.38, 305.36
352.12, 1.42, 305.16
352.40, 1.47, 304.94
352.70, 1.52, 304.70
353.12, 1.56, 304.36
353.63, 1.59, 303.95
354.31, 1.61, 303.40
354.48, 1.74, 303.26
354.65, 1.87, 303.11
354.83, 2.01, 302.96
¯355.02, 2.16, 302.80
355.18, 2.31, 302.66
355.32, 2.47, 302.55
355.42, 2.63, 302.46
355.52, 2.80, 302.38
355.61, 2.98, 302.29
355.71, 3.16, 302.21
355.81, 3.34, 302.12
355.91, 3.52, 302.04
356.01, 3.71, 301.95
356.11, 3.90, 301.86
356.22, 4.10, 301.76
356.33, 4.30, 301.67
357.07, 4.59, 301.06
358.75, 5.03, 299.69
359.13, 5.33, 299.37
359.54, 5.65, 299.03
351.57, 1.33, 305.48
351.80, 1.38, 305.29
352.04, 1.42, 305.09
352.31, 1.47, 304.86
352.63, 1.52, 304.60
353.05, 1.55, 304.25
353.49, 1.60, 303.88
354.19, 1.61, 303.30
354.35, 1.74, 303.16
354.53, 1.87, 303.01
354.70, 2.01, 302.86
354.88, 2.16, 302.71
355.02, 2.31, 302.58
355.17, 2.47, 302.45
355.27, 2.63, 302.36
355.37, 2.80, 302.28
355.47, 2.97, 302.19
355.56, 3.15, 302.10
355.66, 3.33, 302.01
355.76, 3.51, 301.93
355.86, 3.70, 301.84
355.96, 3.89, 301.74
356.06, 4.09, 301.65
356.17, 4.29, 301.55
356.74, 4.55, 301.07
358.69, 5.04, 299.43
359.07, 5.34, 299.11
359.46, 5.66, 298.77
351.49, 1.33, 305.41
351.71, 1.38, 305.22
351.95, 1.42, 305.02
352.22, 1.47, 304.79
352.56, 1.51, 304.50
352.97, 1.55, 304.14
¯353.41, 1.59, 303.76
354.07, 1.61, 303.20
354.23, 1.74, 303.06
354.40, 1.87, 302.91
354.58, 2.01, 302.76
354.72, 2.16, 302.63
354.86, 2.31, 302.50
355.00, 2.47, 302.37
355.12, 2.63, 302.27
355.21, 2.80, 302.18
355.31, 2.97, 302.09
355.41, 3.15, 302.00
355.51, 3.32, 301.90
355.61, 3.51, 301.81
355.70, 3.70, 301.72
355.80, 3.89, 301.63
355.91, 4.08, 301.53
356.01, 4.28, 301.44
356.42, 4.52, 301.08
358.63, 5.04, 299.17
359.01, 5.34, 298.84
359.36, 5.66, 298.52
351.42, 1.33, 305.35
351.63, 1.38, 305.15
351.87, 1.42, 304.95
352.13, 1.47, 304.71
352.49, 1.51, 304.40
352.90, 1.54, 304.04
353.33, 1.59, 303.65
353.96, 1.61, 303.10
354.11, 1.74, 302.96
354.28, 1.87, 302.81
354.43, 2.01, 302.67
354.56, 2.16, 302.55
354.70, 2.31, 302.42
354.84, 2.46, 302.29
354.97, 2.63, 302.17
355.06, 2.79, 302.08
355.16, 2.97, 301.99
355.25, 3.14, 301.90
355.35, 3.32, 301.80
355.46, 3.50, 301.71
355.55, 3.69, 301.61
355.65, 3.88, 301.52
355.75, 4.07, 301.42
355.85, 4.27, 301.32
356.11, 4.50, 301.09
358.57, 5.05, 298.91
358.92, 5.35, 298.59
359.26, 5.66, 298.27
351.34, 1.33, 305.28
¯351.55, 1.38, 305.09
351.78, 1.43, 304.88
352.05, 1.47, 304.63
352.41, 1.50, 304.30
352.82, 1.53, 303.93
353.25, 1.58, 303.54
353.84, 1.61, 303.01
353.99, 1.74, 302.86
354.15, 1.87, 302.72
354.28, 2.01, 302.60
354.40, 2.16, 302.47
354.54, 2.31, 302.34
354.68, 2.46, 302.21
354.82, 2.62, 302.08
354.91, 2.79, 301.99
355.00, 2.96, 301.90
355.10, 3.13, 301.80
355.19, 3.31, 301.71
355.29, 3.49, 301.61
355.40, 3.68, 301.51
355.50, 3.87, 301.41
355.60, 4.06, 301.31
355.70, 4.26, 301.21
355.81, 4.47, 301.09
358.48, 5.05, 298.66
358.83, 5.35, 298.33
359.16, 5.67, 298.02
351.26, 1.33, 305.21
351.47, 1.38, 305.02
351.69, 1.43, 304.81
351.98, 1.46, 304.54
352.34, 1.49, 304.20
352.74, 1.53, 303.83
353.17, 1.57, 303.43
353.72, 1.61, 302.91
353.87, 1.73, 302.77
354.00, 1.87, 302.64
354.12, 2.01, 302.52
354.25, 2.16, 302.40
354.38, 2.31, 302.27
354.51, 2.46, 302.14
354.65, 2.62, 302.00
354.76, 2.79, 301.89
354.85, 2.96, 301.80
354.94, 3.13, 301.71
355.04, 3.31, 301.61
355.13, 3.49, 301.51
355.23, 3.67, 301.41
355.34, 3.86, 301.31
355.44, 4.05, 301.20
355.54, 4.25, 301.10
¯355.64, 4.46, 300.99
358.40, 5.05, 298.41
358.73, 5.36, 298.08
359.06, 5.67, 297.76
351.18, 1.33, 305.15
351.38, 1.38, 304.95
351.60, 1.43, 304.74
351.91, 1.46, 304.45
352.26, 1.49, 304.11
352.66, 1.52, 303.73
353.08, 1.57, 303.32
