ŸVERSION 0.7
FIELDS x y z
SIZE 8 8 8
TYPE F F F
COUNT 1 1 1
WIDTH 2271
HEIGHT 1
VIEWPOINT 382.51, 10.92, 322.11 1 363.19, 3.74, 322.29
POINTS 2271
DATA ascii
356.42, 1.84, 304.41
356.02, 2.05, 303.73
364.82, 2.42, 319.19
364.76, 2.42, 319.09
364.70, 2.42, 318.99
364.63, 2.42, 318.87
364.56, 2.42, 318.75
364.49, 2.42, 318.63
364.40, 2.42, 318.49
364.32, 2.42, 318.34
364.22, 2.41, 318.18
¯364.11, 2.41, 318.00
364.00, 2.40, 317.80
363.87, 2.40, 317.59
363.73, 2.39, 317.35
363.58, 2.38, 317.09
363.41, 2.37, 316.81
363.22, 2.36, 316.48
362.98, 2.34, 316.08
362.71, 2.31, 315.62
362.39, 2.28, 315.08
362.02, 2.24, 314.45
361.58, 2.20, 313.70
361.01, 2.13, 312.73
360.25, 2.03, 311.45
359.36, 1.93, 309.93
358.43, 1.88, 308.37
357.24, 1.80, 306.34
356.02, 1.79, 304.29
355.59, 2.00, 303.59
364.78, 2.42, 319.22
364.72, 2.42, 319.12
364.66, 2.42, 319.02
364.59, 2.42, 318.91
364.52, 2.42, 318.79
364.44, 2.42, 318.66
364.36, 2.42, 318.53
364.27, 2.42, 318.38
364.17, 2.41, 318.22
364.06, 2.41, 318.04
363.94, 2.40, 317.85
363.81, 2.40, 317.64
363.67, 2.39, 317.41
363.52, 2.38, 317.15
363.34, 2.38, 316.87
363.14, 2.36, 316.54
362.90, 2.34, 316.15
362.63, 2.31, 315.69
362.30, 2.28, 315.16
361.93, 2.24, 314.54
361.48, 2.20, 313.80
360.88, 2.13, 312.82
360.11, 2.03, 311.55
359.20, 1.93, 310.05
358.25, 1.87, 308.49
356.50, 1.67, 305.63
355.60, 1.74, 304.16
355.08, 1.94, 303.33
364.74, 2.42, 319.25
364.68, 2.42, 319.15
364.61, 2.42, 319.05
364.55, 2.42, 318.94
¯364.47, 2.42, 318.82
364.39, 2.42, 318.70
364.31, 2.42, 318.56
364.22, 2.42, 318.42
364.12, 2.41, 318.26
364.01, 2.41, 318.09
363.89, 2.40, 317.90
363.76, 2.40, 317.69
363.61, 2.39, 317.46
363.46, 2.38, 317.21
363.28, 2.38, 316.93
363.07, 2.36, 316.60
362.83, 2.34, 316.21
362.54, 2.31, 315.76
362.22, 2.28, 315.24
361.83, 2.24, 314.63
361.37, 2.20, 313.90
360.76, 2.12, 312.91
359.97, 2.02, 311.66
359.03, 1.92, 310.17
358.06, 1.86, 308.62
356.85, 1.79, 306.69
355.11, 1.68, 303.92
354.53, 1.87, 303.01
364.70, 2.42, 319.28
364.64, 2.42, 319.19
364.57, 2.42, 319.08
364.50, 2.42, 318.97
364.43, 2.42, 318.86
364.35, 2.42, 318.73
364.26, 2.42, 318.60
364.17, 2.42, 318.46
364.07, 2.42, 318.31
363.96, 2.41, 318.13
363.83, 2.41, 317.95
363.70, 2.40, 317.74
363.56, 2.39, 317.52
363.40, 2.39, 317.27
363.21, 2.38, 316.99
363.00, 2.36, 316.66
362.75, 2.34, 316.28
362.46, 2.31, 315.83
362.13, 2.28, 315.32
361.74, 2.24, 314.71
361.27, 2.19, 313.99
360.63, 2.12, 313.00
359.83, 2.02, 311.76
358.85, 1.91, 310.24
357.88, 1.85, 308.76
356.61, 1.78, 306.80
354.56, 1.60, 303.63
¯353.95, 1.80, 302.71
364.66, 2.42, 319.31
364.60, 2.42, 319.22
364.53, 2.42, 319.11
364.46, 2.42, 319.01
364.38, 2.42, 318.89
364.30, 2.42, 318.77
364.21, 2.42, 318.64
364.12, 2.42, 318.50
364.02, 2.42, 318.35
363.91, 2.41, 318.18
363.78, 2.41, 318.00
363.65, 2.40, 317.79
363.50, 2.39, 317.57
363.34, 2.39, 317.33
363.15, 2.37, 317.04
362.93, 2.36, 316.72
362.68, 2.34, 316.34
362.39, 2.31, 315.90
362.05, 2.28, 315.40
361.65, 2.24, 314.80
361.16, 2.19, 314.07
360.51, 2.11, 313.10
359.69, 2.01, 311.86
358.66, 1.89, 310.31
357.70, 1.85, 308.89
356.38, 1.76, 306.90
354.17, 1.56, 303.59
353.43, 1.74, 302.51
364.63, 2.42, 319.34
364.56, 2.42, 319.25
364.49, 2.42, 319.15
364.42, 2.42, 319.04
364.34, 2.42, 318.93
364.26, 2.42, 318.81
364.17, 2.42, 318.68
364.07, 2.42, 318.54
363.97, 2.42, 318.39
363.86, 2.41, 318.23
363.73, 2.41, 318.04
363.59, 2.40, 317.84
363.44, 2.40, 317.63
363.28, 2.39, 317.39
363.08, 2.37, 317.10
362.86, 2.36, 316.77
362.60, 2.34, 316.41
362.31, 2.31, 315.98
361.96, 2.28, 315.48
361.56, 2.24, 314.89
361.05, 2.19, 314.15
360.39, 2.11, 313.19
¯359.55, 2.01, 311.97
358.46, 1.88, 310.38
357.48, 1.83, 308.96
356.14, 1.75, 307.01
354.01, 1.57, 303.91
352.92, 1.69, 302.35
364.59, 2.42, 319.37
364.52, 2.42, 319.28
364.45, 2.42, 319.18
364.38, 2.42, 319.08
364.30, 2.42, 318.96
364.21, 2.42, 318.84
364.12, 2.42, 318.72
364.03, 2.42, 318.58
363.92, 2.42, 318.44
363.81, 2.41, 318.28
363.68, 2.41, 318.09
363.54, 2.40, 317.90
363.39, 2.40, 317.68
363.21, 2.39, 317.44
363.01, 2.37, 317.15
362.79, 2.36, 316.83
362.53, 2.34, 316.47
362.23, 2.31, 316.05
361.88, 2.28, 315.56
361.47, 2.24, 314.98
360.95, 2.18, 314.24
360.27, 2.10, 313.28
359.42, 2.00, 312.08
358.27, 1.86, 310.45
357.20, 1.80, 308.95
355.89, 1.73, 307.10
353.85, 1.58, 304.22
352.51, 1.65, 302.34
364.55, 2.42, 319.40
364.48, 2.42, 319.31
364.41, 2.42, 319.21
364.34, 2.42, 319.11
364.25, 2.42, 319.00
364.17, 2.42, 318.88
364.08, 2.42, 318.76
363.98, 2.42, 318.62
363.87, 2.42, 318.48
363.76, 2.42, 318.32
363.63, 2.41, 318.14
363.49, 2.41, 317.95
363.33, 2.40, 317.74
363.15, 2.39, 317.49
362.95, 2.37, 317.21
362.72, 2.35, 316.90
362.46, 2.33, 316.54
¯362.15, 2.31, 316.12
361.80, 2.28, 315.64
361.38, 2.24, 315.07
360.85, 2.18, 314.33
360.15, 2.10, 313.38
359.27, 1.99, 312.18
358.07, 1.84, 310.52
356.89, 1.76, 308.90
355.53, 1.68, 307.04
353.69, 1.58, 304.52
352.09, 1.61, 302.34
364.51, 2.42, 319.44
364.45, 2.42, 319.34
364.37, 2.42, 319.25
364.29, 2.42, 319.14
364.21, 2.42, 319.04
364.12, 2.42, 318.92
364.03, 2.42, 318.80
363.93, 2.42, 318.66
363.83, 2.42, 318.52
363.71, 2.42, 318.37
363.58, 2.41, 318.19
363.43, 2.41, 318.00
363.28, 2.40, 317.79
363.09, 2.39, 317.55
362.88, 2.37, 317.27
362.65, 2.35, 316.96
362.38, 2.33, 316.60
362.08, 2.31, 316.20
361.72, 2.28, 315.72
361.29, 2.24, 315.15
360.75, 2.18, 314.43
360.04, 2.10, 313.49
359.13, 1.99, 312.27
357.89, 1.83, 310.62
356.56, 1.71, 308.85
355.07, 1.62, 306.86
353.49, 1.58, 304.77
351.66, 1.57, 302.33
364.48, 2.42, 319.47
364.41, 2.42, 319.38
364.33, 2.42, 319.28
364.25, 2.42, 319.18
364.17, 2.42, 319.07
364.08, 2.42, 318.96
363.99, 2.42, 318.84
363.89, 2.42, 318.71
363.78, 2.42, 318.57
363.66, 2.42, 318.42
363.53, 2.41, 318.25
363.38, 2.41, 318.06
¯363.22, 2.40, 317.85
363.03, 2.39, 317.60
362.82, 2.37, 317.33
362.58, 2.35, 317.02
362.31, 2.33, 316.67
362.00, 2.31, 316.27
361.63, 2.28, 315.80
361.20, 2.24, 315.23
360.65, 2.18, 314.52
359.93, 2.10, 313.60
359.00, 1.98, 312.39
357.73, 1.82, 310.74
356.23, 1.67, 308.80
354.57, 1.55, 306.65
353.12, 1.55, 304.79
364.44, 2.42, 319.50
364.37, 2.42, 319.41
364.29, 2.42, 319.32
364.21, 2.42, 319.22
364.13, 2.42, 319.11
364.04, 2.42, 319.00
363.94, 2.42, 318.88
363.84, 2.42, 318.75
363.73, 2.42, 318.61
363.61, 2.42, 318.46
363.48, 2.42, 318.30
363.33, 2.41, 318.11
363.16, 2.40, 317.90
362.97, 2.39, 317.65
362.75, 2.37, 317.38
362.51, 2.35, 317.08
362.24, 2.33, 316.74
361.93, 2.31, 316.35
361.56, 2.28, 315.88
361.11, 2.24, 315.31
360.55, 2.18, 314.61
359.83, 2.10, 313.70
358.87, 1.98, 312.51
357.57, 1.82, 310.87
355.89, 1.63, 308.75
354.10, 1.49, 306.50
352.75, 1.51, 304.82
364.41, 2.42, 319.53
364.33, 2.42, 319.44
364.26, 2.42, 319.35
364.17, 2.42, 319.25
364.09, 2.42, 319.15
364.00, 2.42, 319.04
363.90, 2.42, 318.92
363.79, 2.42, 318.79
363.68, 2.42, 318.65
¯363.56, 2.42, 318.51
363.43, 2.42, 318.35
363.28, 2.41, 318.17
363.10, 2.40, 317.95
362.91, 2.38, 317.71
362.69, 2.37, 317.44
362.44, 2.35, 317.14
362.17, 2.33, 316.80
361.85, 2.31, 316.42
361.48, 2.28, 315.96
361.01, 2.23, 315.40
360.45, 2.18, 314.70
359.72, 2.10, 313.81
358.75, 1.98, 312.62
357.42, 1.82, 311.00
355.56, 1.59, 308.73
353.61, 1.42, 306.34
352.37, 1.48, 304.84
364.37, 2.42, 319.57
364.30, 2.42, 319.48
364.22, 2.42, 319.39
364.14, 2.42, 319.29
364.05, 2.42, 319.19
363.96, 2.42, 319.08
363.86, 2.42, 318.96
363.75, 2.42, 318.83
363.64, 2.42, 318.70
363.51, 2.42, 318.55
363.38, 2.42, 318.40
363.23, 2.41, 318.22
363.05, 2.40, 318.00
362.85, 2.38, 317.76
362.63, 2.37, 317.50
362.38, 2.35, 317.21
362.10, 2.33, 316.87
361.78, 2.31, 316.49
361.40, 2.28, 316.04
360.92, 2.23, 315.48
360.35, 2.17, 314.79
359.61, 2.09, 313.92
358.62, 1.98, 312.74
357.28, 1.81, 311.14
355.38, 1.58, 308.89
353.23, 1.38, 306.34
351.98, 1.44, 304.86
364.34, 2.42, 319.60
364.26, 2.42, 319.52
364.18, 2.42, 319.42
364.10, 2.42, 319.33
364.01, 2.42, 319.23
363.92, 2.42, 319.12
¯363.81, 2.42, 319.00
363.71, 2.42, 318.88
363.59, 2.42, 318.74
363.47, 2.42, 318.60
363.33, 2.42, 318.45
363.18, 2.41, 318.27
362.99, 2.40, 318.05
362.79, 2.38, 317.82
362.57, 2.37, 317.56
362.31, 2.35, 317.27
362.03, 2.33, 316.94
361.70, 2.31, 316.57
361.32, 2.28, 316.12
360.83, 2.23, 315.56
360.25, 2.17, 314.88
359.51, 2.09, 314.03
358.50, 1.97, 312.86
357.13, 1.81, 311.28
355.19, 1.57, 309.04
352.87, 1.35, 306.36
351.58, 1.41, 304.88
364.30, 2.42, 319.64
364.23, 2.42, 319.55
364.15, 2.42, 319.46
364.06, 2.42, 319.37
363.97, 2.42, 319.27
363.88, 2.42, 319.16
363.77, 2.42, 319.04
363.66, 2.42, 318.92
363.55, 2.42, 318.79
363.42, 2.42, 318.65
363.29, 2.42, 318.50
363.13, 2.41, 318.32
362.94, 2.40, 318.11
362.73, 2.38, 317.88
362.50, 2.37, 317.62
362.25, 2.35, 317.33
361.96, 2.33, 317.01
361.63, 2.31, 316.64
361.24, 2.28, 316.20
360.74, 2.23, 315.65
360.15, 2.17, 314.98
359.41, 2.09, 314.14
358.37, 1.97, 312.98
356.99, 1.81, 311.43
355.00, 1.57, 309.19
352.50, 1.31, 306.38
351.14, 1.36, 304.87
364.27, 2.42, 319.67
364.19, 2.42, 319.59
364.11, 2.42, 319.50
¯364.02, 2.42, 319.40
363.93, 2.42, 319.31
363.84, 2.42, 319.20
363.73, 2.42, 319.09
363.62, 2.42, 318.97
363.50, 2.42, 318.84
363.38, 2.42, 318.70
363.24, 2.42, 318.55
363.08, 2.41, 318.37
362.89, 2.40, 318.17
362.68, 2.38, 317.94
362.45, 2.37, 317.69
362.19, 2.35, 317.40
361.89, 2.33, 317.08
361.56, 2.31, 316.72
361.16, 2.28, 316.28
360.65, 2.23, 315.73
360.05, 2.17, 315.07
359.30, 2.09, 314.25
358.25, 1.97, 313.10
356.84, 1.80, 311.57
354.81, 1.56, 309.35
352.12, 1.27, 306.41
350.69, 1.32, 304.85
364.24, 2.42, 319.71
364.16, 2.42, 319.62
364.08, 2.42, 319.54
363.99, 2.42, 319.44
363.90, 2.42, 319.35
363.80, 2.42, 319.24
363.69, 2.42, 319.13
363.58, 2.42, 319.01
363.46, 2.42, 318.88
363.33, 2.42, 318.75
363.19, 2.42, 318.59
363.02, 2.41, 318.42
362.84, 2.40, 318.22
362.62, 2.39, 318.00
362.39, 2.37, 317.75
362.13, 2.35, 317.47
361.83, 2.33, 317.15
361.49, 2.31, 316.80
361.08, 2.28, 316.36
360.57, 2.23, 315.82
359.96, 2.17, 315.17
359.20, 2.09, 314.36
358.13, 1.97, 313.22
356.70, 1.80, 311.71
354.62, 1.55, 309.50
351.73, 1.23, 306.43
350.22, 1.27, 304.83
¯364.20, 2.42, 319.74
364.12, 2.42, 319.66
364.04, 2.42, 319.57
363.95, 2.42, 319.48
363.86, 2.42, 319.39
363.76, 2.42, 319.28
363.65, 2.42, 319.17
363.54, 2.42, 319.06
363.42, 2.42, 318.93
363.29, 2.42, 318.80
363.14, 2.42, 318.64
362.97, 2.41, 318.47
362.79, 2.40, 318.28
362.57, 2.39, 318.06
362.33, 2.37, 317.81
362.07, 2.35, 317.54
361.77, 2.33, 317.23
361.42, 2.31, 316.88
361.01, 2.28, 316.45
360.49, 2.23, 315.92
359.87, 2.17, 315.28
359.10, 2.09, 314.48
358.02, 1.97, 313.36
356.56, 1.80, 311.85
354.42, 1.54, 309.64
351.33, 1.19, 306.45
349.74, 1.22, 304.81
364.17, 2.42, 319.78
364.09, 2.42, 319.70
364.01, 2.42, 319.61
363.92, 2.42, 319.52
363.82, 2.42, 319.43
363.72, 2.42, 319.33
363.61, 2.42, 319.22
363.50, 2.42, 319.10
363.38, 2.42, 318.98
363.24, 2.42, 318.85
363.09, 2.41, 318.69
362.92, 2.41, 318.52
362.73, 2.40, 318.34
362.52, 2.39, 318.12
362.28, 2.37, 317.88
362.01, 2.35, 317.61
361.70, 2.33, 317.30
361.36, 2.31, 316.96
360.93, 2.28, 316.53
360.41, 2.23, 316.01
359.79, 2.17, 315.38
359.00, 2.09, 314.59
357.92, 1.97, 313.50
356.42, 1.80, 311.99
¯354.19, 1.53, 309.76
351.04, 1.17, 306.59
349.08, 1.15, 304.63
364.14, 2.42, 319.81
364.06, 2.42, 319.73
363.97, 2.42, 319.65
363.88, 2.42, 319.56
363.79, 2.42, 319.47
363.68, 2.42, 319.37
363.57, 2.42, 319.26
363.46, 2.42, 319.15
363.33, 2.42, 319.03
363.19, 2.42, 318.89
363.04, 2.41, 318.74
362.87, 2.41, 318.57
362.68, 2.40, 318.39
362.47, 2.39, 318.18
362.22, 2.37, 317.94
361.95, 2.35, 317.68
361.64, 2.33, 317.38
361.29, 2.31, 317.03
360.86, 2.27, 316.61
360.34, 2.23, 316.10
359.70, 2.17, 315.48
358.90, 2.09, 314.70
357.81, 1.97, 313.64
356.28, 1.79, 312.14
353.96, 1.51, 309.88
350.82, 1.17, 306.81
364.11, 2.42, 319.85
364.02, 2.42, 319.77
363.94, 2.42, 319.69
363.85, 2.42, 319.60
363.75, 2.42, 319.51
363.65, 2.42, 319.41
363.54, 2.42, 319.31
363.42, 2.42, 319.20
363.29, 2.42, 319.08
363.15, 2.42, 318.94
362.99, 2.41, 318.79
362.82, 2.41, 318.63
362.63, 2.40, 318.45
362.41, 2.39, 318.24
362.17, 2.37, 318.01
361.89, 2.36, 317.75
361.58, 2.34, 317.45
361.22, 2.31, 317.11
360.78, 2.27, 316.70
360.26, 2.23, 316.20
359.62, 2.17, 315.59
358.80, 2.09, 314.82
¯357.71, 1.97, 313.78
356.13, 1.79, 312.28
353.74, 1.50, 310.00
350.64, 1.17, 307.06
364.08, 2.42, 319.88
363.99, 2.42, 319.81
363.90, 2.42, 319.73
363.81, 2.42, 319.64
363.71, 2.42, 319.55
363.61, 2.42, 319.46
363.50, 2.42, 319.35
363.38, 2.42, 319.24
363.25, 2.42, 319.12
363.10, 2.42, 318.99
362.94, 2.41, 318.84
362.77, 2.41, 318.68
362.58, 2.40, 318.50
362.36, 2.39, 318.31
362.11, 2.37, 318.08
361.84, 2.36, 317.82
361.52, 2.34, 317.53
361.15, 2.31, 317.19
360.71, 2.27, 316.78
360.18, 2.23, 316.29
359.53, 2.17, 315.70
358.71, 2.09, 314.93
357.61, 1.98, 313.92
356.00, 1.79, 312.43
353.51, 1.48, 310.13
350.46, 1.17, 307.32
364.04, 2.42, 319.92
363.96, 2.42, 319.85
363.87, 2.42, 319.77
363.78, 2.42, 319.68
363.68, 2.42, 319.59
363.57, 2.43, 319.50
363.46, 2.43, 319.40
363.34, 2.43, 319.29
363.21, 2.42, 319.17
363.06, 2.42, 319.04
362.89, 2.41, 318.89
362.72, 2.40, 318.73
362.52, 2.40, 318.56
362.31, 2.39, 318.37
362.06, 2.37, 318.14
361.78, 2.36, 317.89
361.46, 2.34, 317.61
361.08, 2.31, 317.27
360.64, 2.27, 316.86
360.11, 2.23, 316.39
359.45, 2.17, 315.80
¯358.61, 2.09, 315.04
357.51, 1.98, 314.06
355.86, 1.79, 312.58
353.27, 1.47, 310.25
349.88, 1.10, 307.21
364.01, 2.43, 319.96
363.93, 2.43, 319.88
363.84, 2.43, 319.81
363.74, 2.43, 319.72
363.64, 2.43, 319.64
363.54, 2.43, 319.54
363.42, 2.43, 319.44
363.30, 2.43, 319.34
363.16, 2.42, 319.22
363.01, 2.42, 319.09
362.85, 2.41, 318.94
362.67, 2.40, 318.79
362.47, 2.40, 318.62
362.26, 2.39, 318.43
362.01, 2.38, 318.21
361.72, 2.36, 317.96
361.40, 2.34, 317.68
361.02, 2.31, 317.34
360.56, 2.27, 316.95
360.03, 2.23, 316.48
359.37, 2.17, 315.91
358.51, 2.09, 315.16
357.41, 1.98, 314.19
355.74, 1.79, 312.74
353.04, 1.46, 310.38
349.26, 1.03, 307.08
363.98, 2.43, 320.00
363.90, 2.43, 319.92
363.81, 2.43, 319.85
363.71, 2.43, 319.77
363.61, 2.43, 319.68
363.50, 2.43, 319.59
363.39, 2.43, 319.49
363.26, 2.43, 319.39
363.12, 2.42, 319.26
362.97, 2.42, 319.13
362.80, 2.41, 318.99
362.62, 2.40, 318.84
362.42, 2.40, 318.67
362.20, 2.39, 318.49
361.96, 2.38, 318.28
361.67, 2.36, 318.03
361.35, 2.34, 317.76
360.95, 2.31, 317.42
360.49, 2.27, 317.03
359.95, 2.23, 316.58
¯359.28, 2.17, 316.01
358.42, 2.09, 315.27
357.30, 1.98, 314.33
355.61, 1.79, 312.90
352.81, 1.44, 310.51
348.74, 0.97, 307.07
363.95, 2.43, 320.03
363.87, 2.43, 319.96
363.78, 2.43, 319.89
363.68, 2.43, 319.81
363.58, 2.43, 319.72
363.47, 2.43, 319.63
363.35, 2.43, 319.54
363.22, 2.43, 319.43
363.08, 2.42, 319.31
362.92, 2.41, 319.18
362.76, 2.41, 319.05
362.57, 2.40, 318.89
362.37, 2.40, 318.73
362.15, 2.39, 318.55
361.91, 2.38, 318.35
361.62, 2.36, 318.11
361.29, 2.34, 317.83
360.88, 2.31, 317.50
360.42, 2.27, 317.12
359.87, 2.23, 316.67
359.20, 2.17, 316.11
358.33, 2.09, 315.39
357.20, 1.98, 314.46
355.49, 1.79, 313.05
352.60, 1.43, 310.67
348.20, 0.91, 307.05
363.92, 2.43, 320.07
363.84, 2.43, 320.00
363.74, 2.43, 319.93
363.65, 2.43, 319.85
363.54, 2.43, 319.77
363.43, 2.43, 319.68
363.32, 2.43, 319.58
363.18, 2.42, 319.48
363.04, 2.42, 319.36
362.88, 2.41, 319.23
362.71, 2.41, 319.10
362.52, 2.40, 318.95
362.32, 2.39, 318.79
362.10, 2.39, 318.61
361.85, 2.38, 318.41
361.56, 2.36, 318.18
361.22, 2.34, 317.91
360.82, 2.31, 317.58
360.35, 2.27, 317.21
¯359.80, 2.23, 316.76
359.12, 2.18, 316.22
358.24, 2.09, 315.52
357.09, 1.98, 314.60
355.36, 1.79, 313.21
352.40, 1.42, 310.83
347.90, 0.90, 307.23
363.90, 2.43, 320.11
363.81, 2.43, 320.04
363.71, 2.43, 319.97
363.62, 2.43, 319.89
363.51, 2.43, 319.81
363.40, 2.43, 319.72
363.28, 2.43, 319.63
363.14, 2.42, 319.52
363.00, 2.42, 319.41
362.84, 2.41, 319.29
362.67, 2.41, 319.15
362.48, 2.40, 319.00
362.27, 2.39, 318.84
362.05, 2.39, 318.67
361.80, 2.38, 318.47
361.51, 2.36, 318.25
361.16, 2.34, 317.98
360.75, 2.31, 317.66
360.28, 2.27, 317.29
359.73, 2.23, 316.86
359.05, 2.18, 316.33
358.17, 2.10, 315.65
356.99, 1.98, 314.73
355.22, 1.79, 313.36
352.20, 1.42, 311.00
347.69, 0.90, 307.49
363.87, 2.43, 320.15
363.78, 2.43, 320.08
363.68, 2.43, 320.01
363.58, 2.43, 319.93
363.48, 2.43, 319.85
363.37, 2.43, 319.77
363.24, 2.43, 319.68
363.11, 2.42, 319.57
362.96, 2.42, 319.46
362.80, 2.41, 319.34
362.62, 2.41, 319.20
362.43, 2.40, 319.06
362.22, 2.39, 318.90
361.99, 2.38, 318.73
361.74, 2.38, 318.54
361.46, 2.36, 318.32
361.11, 2.34, 318.06
360.69, 2.31, 317.74
¯360.22, 2.27, 317.38
359.66, 2.23, 316.96
358.97, 2.18, 316.45
358.09, 2.10, 315.77
356.89, 1.98, 314.87
355.09, 1.79, 313.51
351.97, 1.40, 311.15
347.48, 0.90, 307.75
363.84, 2.43, 320.19
363.75, 2.43, 320.12
363.65, 2.43, 320.05
363.55, 2.43, 319.98
363.45, 2.43, 319.90
363.33, 2.43, 319.81
363.21, 2.43, 319.72
363.07, 2.42, 319.62
362.92, 2.42, 319.51
362.75, 2.41, 319.39
362.58, 2.41, 319.26
362.38, 2.40, 319.12
362.17, 2.39, 318.96
361.94, 2.38, 318.79
361.69, 2.37, 318.60
361.40, 2.36, 318.40
361.05, 2.34, 318.13
360.63, 2.31, 317.83
360.15, 2.28, 317.48
359.59, 2.24, 317.06
358.90, 2.18, 316.55
358.01, 2.10, 315.90
356.79, 1.99, 315.00
354.96, 1.78, 313.66
351.71, 1.38, 311.27
347.27, 0.90, 308.01
363.92, 2.50, 320.30
363.72, 2.43, 320.16
363.62, 2.43, 320.09
363.52, 2.43, 320.02
363.41, 2.43, 319.94
363.30, 2.43, 319.86
363.17, 2.43, 319.77
363.03, 2.42, 319.67
362.88, 2.42, 319.56
362.71, 2.41, 319.44
362.53, 2.41, 319.31
362.34, 2.40, 319.17
362.13, 2.39, 319.02
361.89, 2.38, 318.85
361.63, 2.37, 318.67
361.35, 2.37, 318.47
361.00, 2.34, 318.21
¯360.58, 2.31, 317.92
360.09, 2.28, 317.57
359.52, 2.24, 317.16
358.82, 2.18, 316.66
357.93, 2.11, 316.03
356.69, 1.99, 315.14
354.83, 1.78, 313.81
348.90, 0.90, 309.59
347.06, 0.90, 308.27
363.96, 2.54, 320.38
363.85, 2.52, 320.31
363.60, 2.43, 320.13
363.49, 2.43, 320.06
363.38, 2.43, 319.99
363.27, 2.43, 319.91
363.13, 2.43, 319.81
362.99, 2.42, 319.71
362.84, 2.42, 319.61
362.67, 2.41, 319.49
362.49, 2.40, 319.37
362.29, 2.40, 319.23
362.08, 2.39, 319.08
361.84, 2.38, 318.92
361.59, 2.38, 318.74
361.30, 2.37, 318.54
360.94, 2.34, 318.29
360.52, 2.32, 318.00
360.03, 2.28, 317.66
359.46, 2.24, 317.27
358.75, 2.19, 316.77
357.86, 2.11, 316.16
356.59, 1.99, 315.28
354.66, 1.78, 313.94
348.71, 0.90, 309.83
346.84, 0.90, 308.53
363.93, 2.54, 320.42
363.84, 2.54, 320.36
363.75, 2.54, 320.30
363.46, 2.43, 320.11
363.35, 2.43, 320.03
363.23, 2.43, 319.95
363.10, 2.43, 319.86
362.95, 2.42, 319.76
362.80, 2.42, 319.66
362.63, 2.41, 319.55
362.45, 2.40, 319.42
362.25, 2.40, 319.29
362.03, 2.39, 319.14
361.80, 2.38, 318.99
361.54, 2.38, 318.81
361.25, 2.37, 318.61
¯360.89, 2.35, 318.37
360.47, 2.32, 318.09
359.97, 2.28, 317.76
359.39, 2.24, 317.37
358.67, 2.19, 316.88
357.78, 2.12, 316.28
356.49, 1.99, 315.42
355.82, 2.03, 314.96
353.41, 1.78, 313.35
346.63, 0.90, 308.79
363.91, 2.54, 320.46
363.82, 2.54, 320.40
363.72, 2.54, 320.34
363.62, 2.54, 320.27
363.43, 2.49, 320.15
363.20, 2.43, 320.00
363.06, 2.43, 319.91
362.92, 2.42, 319.81
362.76, 2.42, 319.71
362.59, 2.41, 319.60
362.41, 2.40, 319.48
362.21, 2.40, 319.35
361.99, 2.39, 319.21
361.76, 2.39, 319.05
361.49, 2.38, 318.88
361.19, 2.37, 318.69
360.83, 2.35, 318.45
360.41, 2.32, 318.18
359.91, 2.29, 317.85
359.33, 2.25, 317.47
358.60, 2.19, 316.99
357.71, 2.12, 316.41
357.09, 2.14, 316.01
356.01, 2.09, 315.30
353.22, 1.77, 313.49
346.42, 0.90, 309.06
363.88, 2.54, 320.50
363.79, 2.54, 320.44
363.69, 2.54, 320.38
363.59, 2.54, 320.31
363.48, 2.54, 320.24
363.36, 2.53, 320.16
363.03, 2.42, 319.96
362.88, 2.42, 319.86
362.72, 2.41, 319.76
362.55, 2.41, 319.65
362.37, 2.41, 319.54
362.17, 2.40, 319.41
361.95, 2.39, 319.27
361.71, 2.39, 319.12
361.45, 2.38, 318.96
¯361.14, 2.37, 318.76
360.78, 2.35, 318.53
360.36, 2.32, 318.26
359.86, 2.29, 317.95
359.26, 2.25, 317.57
358.53, 2.19, 317.11
357.87, 2.18, 316.69
357.53, 2.25, 316.47
355.90, 2.09, 315.44
353.03, 1.76, 313.63
346.20, 0.90, 309.32
363.86, 2.54, 320.53
363.77, 2.54, 320.48
363.67, 2.54, 320.42
363.57, 2.54, 320.35
363.46, 2.54, 320.28
363.34, 2.53, 320.21
363.21, 2.53, 320.14
363.03, 2.51, 320.02
362.69, 2.42, 319.82
362.52, 2.41, 319.71
362.33, 2.41, 319.60
362.13, 2.40, 319.47
361.91, 2.40, 319.34
361.67, 2.39, 319.19
361.40, 2.38, 319.03
361.09, 2.37, 318.83
360.72, 2.35, 318.61
360.30, 2.32, 318.35
359.80, 2.29, 318.04
359.20, 2.25, 317.67
358.55, 2.22, 317.28
358.33, 2.30, 317.14
357.43, 2.25, 316.59
355.79, 2.09, 315.58
352.84, 1.75, 313.78
345.99, 0.90, 309.58
363.83, 2.54, 320.57
363.74, 2.54, 320.51
363.64, 2.54, 320.46
363.54, 2.54, 320.39
363.43, 2.54, 320.33
363.31, 2.53, 320.26
363.18, 2.53, 320.18
363.04, 2.53, 320.10
362.90, 2.53, 320.01
362.71, 2.51, 319.90
362.30, 2.41, 319.66
362.09, 2.40, 319.54
361.87, 2.40, 319.40
361.63, 2.39, 319.26
¯361.36, 2.38, 319.10
361.04, 2.37, 318.91
360.67, 2.35, 318.69
360.25, 2.32, 318.44
359.74, 2.29, 318.14
359.39, 2.32, 317.93
359.06, 2.36, 317.73
358.33, 2.32, 317.30
357.34, 2.25, 316.71
355.68, 2.09, 315.72
352.65, 1.74, 313.92
346.64, 1.03, 310.36
363.81, 2.54, 320.61
363.72, 2.54, 320.55
363.62, 2.54, 320.50
363.51, 2.54, 320.44
363.40, 2.54, 320.37
363.28, 2.53, 320.30
363.15, 2.53, 320.23
363.01, 2.53, 320.15
362.86, 2.53, 320.06
362.70, 2.52, 319.97
362.53, 2.52, 319.87
362.34, 2.51, 319.76
362.02, 2.47, 319.58
361.75, 2.45, 319.42
361.32, 2.38, 319.17
360.99, 2.37, 318.98
360.61, 2.35, 318.77
360.45, 2.40, 318.67
360.09, 2.40, 318.46
359.68, 2.41, 318.23
359.04, 2.37, 317.86
358.23, 2.31, 317.39
357.25, 2.25, 316.83
355.57, 2.09, 315.86
352.45, 1.73, 314.07
346.42, 1.03, 310.61
363.79, 2.54, 320.65
363.69, 2.54, 320.59
363.59, 2.54, 320.54
363.49, 2.54, 320.48
363.37, 2.54, 320.41
363.25, 2.53, 320.35
363.12, 2.53, 320.28
362.98, 2.53, 320.20
362.83, 2.53, 320.11
362.67, 2.52, 320.02
362.49, 2.52, 319.92
362.30, 2.51, 319.82
362.09, 2.51, 319.70
¯361.85, 2.50, 319.57
361.59, 2.49, 319.42
361.30, 2.48, 319.26
360.97, 2.47, 319.07
360.58, 2.45, 318.86
360.14, 2.43, 318.61
359.61, 2.41, 318.32
358.97, 2.37, 317.96
358.12, 2.31, 317.49
357.16, 2.25, 316.95
355.46, 2.09, 316.00
352.25, 1.72, 314.22
346.20, 1.03, 310.86
363.76, 2.54, 320.68
363.67, 2.54, 320.63
363.57, 2.54, 320.58
363.46, 2.54, 320.52
363.35, 2.54, 320.46
363.22, 2.53, 320.39
363.09, 2.53, 320.32
362.95, 2.53, 320.25
362.80, 2.53, 320.16
362.64, 2.52, 320.08
362.46, 2.52, 319.98
362.26, 2.51, 319.87
362.05, 2.51, 319.76
361.81, 2.50, 319.63
361.55, 2.49, 319.49
361.25, 2.48, 319.33
360.92, 2.47, 319.15
360.53, 2.45, 318.94
360.08, 2.43, 318.70
359.54, 2.41, 318.41
358.89, 2.37, 318.05
358.02, 2.30, 317.58
357.06, 2.25, 317.07
355.35, 2.09, 316.15
352.06, 1.71, 314.38
345.98, 1.03, 311.11
363.74, 2.54, 320.72
363.64, 2.54, 320.67
363.54, 2.54, 320.62
363.43, 2.54, 320.56
363.32, 2.54, 320.50
363.20, 2.53, 320.44
363.07, 2.53, 320.37
362.92, 2.53, 320.30
362.77, 2.53, 320.22
362.60, 2.52, 320.13
362.42, 2.52, 320.03
362.23, 2.51, 319.93
¯362.01, 2.51, 319.82
361.77, 2.50, 319.69
361.50, 2.49, 319.55
361.20, 2.48, 319.40
360.87, 2.47, 319.22
360.47, 2.45, 319.02
360.02, 2.43, 318.78
359.47, 2.40, 318.50
358.80, 2.36, 318.15
357.92, 2.30, 317.69
356.97, 2.25, 317.19
355.24, 2.09, 316.29
351.70, 1.68, 314.45
345.68, 1.01, 311.32
363.72, 2.54, 320.76
363.62, 2.54, 320.71
363.52, 2.54, 320.66
363.41, 2.54, 320.61
363.29, 2.54, 320.55
363.17, 2.54, 320.48
363.04, 2.53, 320.42
362.89, 2.53, 320.35
362.74, 2.53, 320.27
362.57, 2.52, 320.18
362.39, 2.52, 320.09
362.19, 2.51, 319.99
361.97, 2.51, 319.88
361.73, 2.50, 319.76
361.46, 2.49, 319.62
361.16, 2.48, 319.47
360.82, 2.47, 319.30
360.42, 2.45, 319.10
359.96, 2.43, 318.87
359.40, 2.40, 318.59
358.71, 2.36, 318.24
357.84, 2.30, 317.80
356.88, 2.25, 317.32
355.13, 2.09, 316.44
351.43, 1.66, 314.58
345.24, 0.98, 311.47
363.70, 2.54, 320.80
363.60, 2.54, 320.75
363.49, 2.54, 320.70
363.38, 2.54, 320.65
363.27, 2.54, 320.59
363.14, 2.54, 320.53
363.01, 2.53, 320.47
362.87, 2.53, 320.40
362.71, 2.53, 320.32
362.54, 2.52, 320.24
362.36, 2.52, 320.15
¯362.16, 2.52, 320.05
361.94, 2.51, 319.94
361.69, 2.50, 319.82
361.42, 2.49, 319.69
361.11, 2.48, 319.54
360.77, 2.47, 319.38
360.37, 2.45, 319.18
359.90, 2.43, 318.95
359.33, 2.40, 318.68
358.62, 2.35, 318.33
357.76, 2.30, 317.91
356.79, 2.25, 317.44
355.03, 2.09, 316.58
351.19, 1.64, 314.73
344.90, 0.96, 311.68
363.67, 2.54, 320.84
363.58, 2.54, 320.79
363.47, 2.54, 320.74
363.36, 2.54, 320.69
363.24, 2.54, 320.64
363.12, 2.54, 320.58
362.98, 2.53, 320.51
362.84, 2.53, 320.45
362.68, 2.53, 320.37
362.51, 2.52, 320.29
362.32, 2.52, 320.20
362.12, 2.52, 320.11
361.90, 2.51, 320.01
361.65, 2.50, 319.89
361.38, 2.49, 319.76
361.07, 2.48, 319.62
360.72, 2.47, 319.45
360.31, 2.45, 319.26
359.85, 2.43, 319.04
359.27, 2.40, 318.77
358.53, 2.35, 318.42
357.68, 2.30, 318.03
356.70, 2.25, 317.56
354.92, 2.09, 316.73
350.95, 1.63, 314.88
344.11, 0.88, 311.68
363.65, 2.54, 320.88
363.55, 2.54, 320.84
363.45, 2.54, 320.79
363.34, 2.54, 320.74
363.22, 2.54, 320.68
363.09, 2.54, 320.63
362.96, 2.53, 320.56
362.81, 2.53, 320.50
362.65, 2.53, 320.43
362.48, 2.52, 320.35
¯362.29, 2.52, 320.26
362.09, 2.52, 320.17
361.87, 2.51, 320.07
361.62, 2.50, 319.96
361.34, 2.49, 319.83
361.03, 2.48, 319.69
360.67, 2.47, 319.53
360.26, 2.45, 319.34
359.79, 2.43, 319.13
359.20, 2.40, 318.86
358.44, 2.35, 318.52
357.60, 2.30, 318.14
356.61, 2.25, 317.69
354.81, 2.09, 316.88
350.71, 1.62, 315.03
363.63, 2.54, 320.92
363.53, 2.54, 320.88
363.43, 2.54, 320.83
363.31, 2.54, 320.78
363.19, 2.54, 320.73
363.07, 2.54, 320.67
362.93, 2.53, 320.61
362.78, 2.53, 320.55
362.62, 2.53, 320.48
362.45, 2.53, 320.40
362.26, 2.52, 320.32
362.05, 2.52, 320.23
361.83, 2.51, 320.13
361.58, 2.50, 320.02
361.30, 2.49, 319.90
360.98, 2.49, 319.76
360.63, 2.47, 319.61
360.21, 2.45, 319.43
359.72, 2.43, 319.21
359.13, 2.40, 318.95
358.35, 2.34, 318.62
357.53, 2.30, 318.26
356.52, 2.25, 317.82
354.70, 2.09, 317.03
350.16, 1.55, 315.06
363.61, 2.54, 320.96
363.51, 2.54, 320.92
363.40, 2.54, 320.87
363.29, 2.54, 320.83
363.17, 2.54, 320.77
363.04, 2.54, 320.72
362.90, 2.53, 320.66
362.75, 2.53, 320.60
362.59, 2.53, 320.53
362.42, 2.53, 320.46
362.23, 2.52, 320.38
¯362.02, 2.52, 320.29
361.80, 2.51, 320.20
361.54, 2.50, 320.09
361.26, 2.50, 319.97
360.94, 2.49, 319.84
360.58, 2.47, 319.69
360.16, 2.45, 319.51
359.66, 2.43, 319.30
359.06, 2.40, 319.05
358.28, 2.34, 318.72
357.45, 2.30, 318.37
356.43, 2.25, 317.95
354.60, 2.09, 317.18
347.73, 1.20, 314.32
363.59, 2.54, 321.00
363.49, 2.54, 320.96
363.38, 2.54, 320.92
363.27, 2.54, 320.87
363.15, 2.54, 320.82
363.02, 2.54, 320.77
362.88, 2.53, 320.71
362.73, 2.53, 320.65
362.57, 2.53, 320.59
362.39, 2.53, 320.51
362.20, 2.52, 320.44
361.99, 2.52, 320.35
361.76, 2.51, 320.26
361.50, 2.50, 320.16
361.22, 2.50, 320.04
360.90, 2.49, 319.91
360.53, 2.47, 319.76
360.11, 2.45, 319.59
359.60, 2.43, 319.39
358.98, 2.39, 319.14
358.21, 2.34, 318.83
357.37, 2.30, 318.49
356.34, 2.25, 318.07
354.49, 2.09, 317.33
347.58, 1.20, 314.57
363.57, 2.54, 321.04
363.47, 2.54, 321.00
363.36, 2.54, 320.96
363.25, 2.54, 320.92
363.12, 2.54, 320.87
362.99, 2.54, 320.82
362.85, 2.53, 320.76
362.70, 2.53, 320.70
362.54, 2.53, 320.64
362.36, 2.53, 320.57
362.17, 2.52, 320.50
361.96, 2.52, 320.41
¯361.73, 2.51, 320.33
361.47, 2.51, 320.23
361.18, 2.50, 320.11
360.86, 2.49, 319.99
360.49, 2.47, 319.84
360.06, 2.45, 319.68
359.54, 2.43, 319.48
358.90, 2.39, 319.23
358.14, 2.34, 318.94
357.29, 2.30, 318.61
356.25, 2.25, 318.20
354.38, 2.09, 317.49
346.78, 1.11, 314.57
363.55, 2.54, 321.08
363.45, 2.54, 321.04
363.34, 2.54, 321.00
363.22, 2.54, 320.96
363.10, 2.54, 320.91
362.97, 2.54, 320.87
362.83, 2.54, 320.81
362.68, 2.53, 320.76
362.51, 2.53, 320.69
362.33, 2.53, 320.63
362.14, 2.52, 320.56
361.93, 2.52, 320.48
361.69, 2.51, 320.39
361.43, 2.51, 320.29
361.14, 2.50, 320.19
360.82, 2.49, 320.06
360.44, 2.47, 319.92
360.01, 2.45, 319.76
359.48, 2.43, 319.57
358.82, 2.38, 319.32
358.08, 2.34, 319.05
357.21, 2.30, 318.73
356.16, 2.25, 318.34
354.28, 2.09, 317.64
346.62, 1.11, 314.83
363.53, 2.54, 321.12
363.43, 2.54, 321.09
363.32, 2.54, 321.05
363.20, 2.54, 321.01
363.08, 2.54, 320.96
362.95, 2.54, 320.91
362.80, 2.54, 320.86
362.65, 2.53, 320.81
362.49, 2.53, 320.75
362.30, 2.53, 320.69
362.11, 2.52, 320.62
361.89, 2.52, 320.54
361.66, 2.51, 320.46
¯361.40, 2.51, 320.36
361.10, 2.50, 320.26
360.78, 2.49, 320.14
360.40, 2.47, 320.01
359.96, 2.45, 319.85
359.43, 2.43, 319.66
358.75, 2.38, 319.42
358.01, 2.34, 319.16
357.13, 2.30, 318.85
356.07, 2.25, 318.47
354.17, 2.09, 317.80
345.71, 1.00, 314.82
363.51, 2.54, 321.17
363.41, 2.54, 321.13
363.30, 2.54, 321.09
363.18, 2.54, 321.05
363.06, 2.54, 321.01
362.92, 2.54, 320.96
362.78, 2.54, 320.91
362.63, 2.53, 320.86
362.46, 2.53, 320.81
362.28, 2.53, 320.74
362.08, 2.52, 320.68
361.86, 2.52, 320.60
361.63, 2.51, 320.52
361.36, 2.51, 320.43
361.07, 2.50, 320.33
360.74, 2.49, 320.22
360.35, 2.47, 320.09
359.91, 2.46, 319.94
359.37, 2.43, 319.75
358.67, 2.38, 319.52
357.94, 2.34, 319.27
357.06, 2.30, 318.97
355.98, 2.25, 318.60
354.06, 2.09, 317.96
344.75, 0.89, 314.83
363.50, 2.54, 321.21
363.39, 2.54, 321.17
363.28, 2.54, 321.14
363.16, 2.54, 321.10
363.04, 2.54, 321.06
362.90, 2.54, 321.01
362.76, 2.54, 320.97
362.60, 2.53, 320.92
362.43, 2.53, 320.86
362.25, 2.53, 320.80
362.05, 2.52, 320.74
361.83, 2.52, 320.67
361.60, 2.52, 320.59
361.33, 2.51, 320.50
¯361.03, 2.50, 320.40
360.70, 2.49, 320.30
360.31, 2.47, 320.17
359.86, 2.45, 320.02
359.31, 2.42, 319.85
358.61, 2.38, 319.62
357.87, 2.34, 319.38
356.98, 2.30, 319.09
355.89, 2.25, 318.74
353.96, 2.09, 318.11
363.48, 2.54, 321.25
363.37, 2.54, 321.22
363.26, 2.54, 321.18
363.14, 2.54, 321.14
363.01, 2.54, 321.11
362.88, 2.54, 321.06
362.73, 2.54, 321.02
362.58, 2.53, 320.97
362.41, 2.53, 320.92
362.22, 2.53, 320.86
362.02, 2.52, 320.80
361.81, 2.52, 320.73
361.57, 2.52, 320.66
361.30, 2.51, 320.57
361.00, 2.50, 320.48
360.66, 2.49, 320.37
360.26, 2.47, 320.25
359.81, 2.45, 320.11
359.24, 2.42, 319.94
358.56, 2.38, 319.73
357.81, 2.34, 319.49
356.90, 2.30, 319.22
355.80, 2.25, 318.87
353.85, 2.09, 318.27
363.46, 2.54, 321.29
363.35, 2.54, 321.26
363.24, 2.54, 321.23
363.12, 2.54, 321.19
362.99, 2.54, 321.15
362.86, 2.54, 321.11
362.71, 2.54, 321.07
362.55, 2.53, 321.02
362.38, 2.53, 320.97
362.20, 2.53, 320.92
362.00, 2.53, 320.86
361.78, 2.52, 320.79
361.53, 2.52, 320.72
361.26, 2.51, 320.64
360.96, 2.50, 320.55
360.62, 2.49, 320.45
360.22, 2.47, 320.34
¯359.76, 2.45, 320.20
359.18, 2.42, 320.03
358.50, 2.38, 319.83
357.74, 2.35, 319.61
356.83, 2.30, 319.34
355.71, 2.25, 319.01
353.74, 2.10, 318.44
363.44, 2.54, 321.33
363.34, 2.54, 321.30
363.22, 2.54, 321.27
363.10, 2.54, 321.24
362.97, 2.54, 321.20
362.84, 2.54, 321.16
362.69, 2.54, 321.12
362.53, 2.54, 321.08
362.36, 2.53, 321.03
362.17, 2.53, 320.98
361.97, 2.53, 320.92
361.75, 2.52, 320.86
361.50, 2.52, 320.79
361.23, 2.51, 320.71
360.93, 2.50, 320.63
360.58, 2.49, 320.53
360.18, 2.47, 320.42
359.71, 2.45, 320.29
359.11, 2.42, 320.12
358.44, 2.38, 319.94
357.67, 2.35, 319.72
356.75, 2.30, 319.47
355.62, 2.25, 319.15
353.63, 2.10, 318.60
363.43, 2.54, 321.38
363.32, 2.54, 321.35
363.21, 2.54, 321.32
363.09, 2.54, 321.29
362.95, 2.54, 321.25
362.82, 2.54, 321.21
362.67, 2.54, 321.18
362.51, 2.54, 321.13
362.34, 2.53, 321.09
362.15, 2.53, 321.04
361.94, 2.53, 320.98
361.72, 2.52, 320.92
361.47, 2.52, 320.86
361.20, 2.51, 320.79
360.89, 2.50, 320.70
360.54, 2.49, 320.61
360.14, 2.48, 320.51
359.65, 2.45, 320.38
359.04, 2.41, 320.22
358.38, 2.38, 320.04
¯357.61, 2.35, 319.84
356.67, 2.30, 319.59
355.53, 2.25, 319.29
353.52, 2.10, 318.76
363.41, 2.54, 321.42
363.30, 2.54, 321.39
363.19, 2.54, 321.36
363.07, 2.54, 321.33
362.94, 2.54, 321.30
362.80, 2.54, 321.27
362.65, 2.54, 321.23
362.49, 2.54, 321.19
362.31, 2.53, 321.14
362.12, 2.53, 321.10
361.92, 2.53, 321.05
361.69, 2.52, 320.99
361.45, 2.52, 320.93
361.17, 2.51, 320.86
360.86, 2.50, 320.78
360.51, 2.49, 320.69
360.10, 2.48, 320.59
359.61, 2.45, 320.47
358.98, 2.41, 320.31
358.32, 2.38, 320.15
357.54, 2.35, 319.96
356.60, 2.30, 319.72
355.44, 2.25, 319.43
353.41, 2.10, 318.93
363.39, 2.54, 321.46
363.29, 2.54, 321.44
363.17, 2.54, 321.41
363.05, 2.54, 321.38
362.92, 2.54, 321.35
362.78, 2.54, 321.32
362.63, 2.54, 321.28
362.46, 2.54, 321.24
362.29, 2.53, 321.20
362.10, 2.53, 321.16
361.89, 2.53, 321.11
361.67, 2.52, 321.06
361.42, 2.52, 321.00
361.14, 2.51, 320.93
360.82, 2.50, 320.86
360.47, 2.49, 320.77
360.05, 2.48, 320.68
359.56, 2.45, 320.56
358.93, 2.41, 320.42
358.27, 2.38, 320.26
357.48, 2.35, 320.07
356.52, 2.30, 319.85
355.34, 2.25, 319.58
¯353.30, 2.10, 319.10
363.38, 2.54, 321.51
363.27, 2.54, 321.48
363.15, 2.54, 321.46
363.03, 2.54, 321.43
362.90, 2.54, 321.40
362.76, 2.54, 321.37
362.61, 2.54, 321.34
362.44, 2.54, 321.30
362.27, 2.53, 321.26
362.08, 2.53, 321.22
361.87, 2.53, 321.17
361.64, 2.52, 321.12
361.39, 2.52, 321.07
361.11, 2.51, 321.00
360.79, 2.50, 320.93
360.43, 2.49, 320.86
360.01, 2.48, 320.76
359.51, 2.45, 320.65
358.88, 2.41, 320.52
358.21, 2.38, 320.37
357.41, 2.35, 320.19
356.45, 2.31, 319.98
355.25, 2.25, 319.72
353.19, 2.10, 319.27
363.36, 2.54, 321.55
363.25, 2.54, 321.53
363.14, 2.54, 321.50
363.01, 2.54, 321.48
362.88, 2.54, 321.45
362.74, 2.54, 321.42
362.59, 2.54, 321.39
362.42, 2.54, 321.36
362.25, 2.53, 321.32
362.05, 2.53, 321.28
361.84, 2.53, 321.24
361.61, 2.52, 321.19
361.36, 2.52, 321.14
361.08, 2.51, 321.08
360.76, 2.51, 321.01
360.40, 2.49, 320.94
359.97, 2.48, 320.85
359.45, 2.45, 320.74
358.84, 2.41, 320.62
358.16, 2.38, 320.48
357.35, 2.35, 320.31
356.37, 2.31, 320.11
355.16, 2.25, 319.87
353.08, 2.10, 319.44
363.35, 2.54, 321.59
363.24, 2.54, 321.57
¯363.12, 2.54, 321.55
363.00, 2.54, 321.53
362.86, 2.54, 321.50
362.72, 2.54, 321.47
362.57, 2.54, 321.44
362.40, 2.54, 321.41
362.22, 2.54, 321.38
362.03, 2.53, 321.34
361.82, 2.53, 321.30
361.59, 2.53, 321.26
361.33, 2.52, 321.21
361.05, 2.51, 321.15
360.73, 2.51, 321.09
360.36, 2.49, 321.02
359.93, 2.48, 320.94
359.40, 2.45, 320.84
358.79, 2.42, 320.72
358.10, 2.39, 320.59
357.28, 2.35, 320.44
356.29, 2.31, 320.25
355.07, 2.25, 320.02
352.97, 2.10, 319.62
363.34, 2.54, 321.64
363.22, 2.54, 321.62
363.11, 2.54, 321.60
362.98, 2.54, 321.58
362.85, 2.54, 321.55
362.70, 2.54, 321.53
362.55, 2.54, 321.50
362.38, 2.54, 321.47
362.20, 2.54, 321.44
362.01, 2.53, 321.40
361.80, 2.53, 321.36
361.56, 2.53, 321.32
361.31, 2.52, 321.28
361.02, 2.52, 321.23
360.70, 2.51, 321.17
360.33, 2.50, 321.10
359.89, 2.48, 321.03
359.34, 2.44, 320.93
358.74, 2.42, 320.83
358.05, 2.39, 320.70
357.22, 2.35, 320.56
356.22, 2.31, 320.38
354.98, 2.25, 320.17
349.69, 1.63, 319.26
363.32, 2.54, 321.68
363.21, 2.54, 321.67
363.09, 2.54, 321.65
362.96, 2.54, 321.62
362.83, 2.54, 321.60
¯362.69, 2.54, 321.58
362.53, 2.54, 321.55
362.36, 2.54, 321.53
362.18, 2.54, 321.50
361.99, 2.53, 321.46
361.77, 2.53, 321.43
361.54, 2.53, 321.39
361.28, 2.52, 321.35
360.99, 2.52, 321.30
360.66, 2.51, 321.25
360.29, 2.50, 321.19
359.85, 2.48, 321.12
359.29, 2.44, 321.03
358.69, 2.42, 320.93
357.99, 2.39, 320.82
357.16, 2.35, 320.68
356.14, 2.31, 320.52
354.89, 2.25, 320.32
349.52, 1.63, 319.48
363.31, 2.54, 321.73
363.20, 2.54, 321.71
363.08, 2.54, 321.69
362.95, 2.54, 321.67
362.81, 2.54, 321.65
362.67, 2.54, 321.63
362.51, 2.54, 321.61
362.34, 2.54, 321.58
362.16, 2.54, 321.56
361.97, 2.53, 321.53
361.75, 2.53, 321.50
361.51, 2.53, 321.46
361.25, 2.52, 321.42
360.96, 2.52, 321.38
360.63, 2.51, 321.33
360.26, 2.50, 321.27
359.81, 2.48, 321.21
359.25, 2.44, 321.13
358.64, 2.42, 321.04
357.94, 2.39, 320.93
357.09, 2.35, 320.81
356.07, 2.31, 320.66
354.80, 2.26, 320.47
349.26, 1.61, 319.68
363.29, 2.54, 321.77
363.18, 2.54, 321.76
363.06, 2.54, 321.74
362.93, 2.54, 321.72
362.80, 2.54, 321.71
362.65, 2.54, 321.69
362.50, 2.54, 321.67
362.33, 2.54, 321.64
¯362.14, 2.54, 321.62
361.94, 2.53, 321.59
361.73, 2.53, 321.56
361.49, 2.53, 321.53
361.23, 2.52, 321.49
360.94, 2.52, 321.45
360.61, 2.51, 321.41
360.22, 2.50, 321.36
359.77, 2.48, 321.30
359.21, 2.45, 321.22
358.60, 2.42, 321.14
357.88, 2.39, 321.05
357.03, 2.35, 320.94
355.99, 2.31, 320.80
354.71, 2.26, 320.63
348.63, 1.54, 319.85
363.28, 2.54, 321.82
363.17, 2.54, 321.81
363.05, 2.54, 321.79
362.92, 2.54, 321.77
362.78, 2.54, 321.76
362.63, 2.54, 321.74
362.48, 2.54, 321.72
362.31, 2.54, 321.70
362.12, 2.54, 321.68
361.92, 2.54, 321.65
361.71, 2.53, 321.63
361.47, 2.53, 321.60
361.20, 2.52, 321.57
360.91, 2.52, 321.53
360.58, 2.51, 321.49
360.19, 2.50, 321.45
359.73, 2.48, 321.39
359.17, 2.45, 321.32
358.55, 2.42, 321.25
357.83, 2.39, 321.17
356.97, 2.36, 321.06
355.92, 2.31, 320.94
354.63, 2.26, 320.79
363.27, 2.54, 321.86
363.16, 2.54, 321.85
363.03, 2.54, 321.84
362.90, 2.54, 321.83
362.77, 2.54, 321.81
362.62, 2.54, 321.79
362.46, 2.54, 321.78
362.29, 2.54, 321.76
362.11, 2.54, 321.74
361.90, 2.54, 321.72
361.69, 2.53, 321.69
361.45, 2.53, 321.67
¯361.18, 2.53, 321.64
360.88, 2.52, 321.61
360.55, 2.51, 321.57
360.16, 2.50, 321.53
359.69, 2.48, 321.48
359.13, 2.45, 321.43
358.51, 2.42, 321.36
357.78, 2.39, 321.28
356.91, 2.36, 321.19
355.84, 2.31, 321.08
354.63, 2.27, 320.95
363.26, 2.54, 321.91
363.14, 2.54, 321.90
363.02, 2.54, 321.89
362.89, 2.54, 321.88
362.75, 2.54, 321.86
362.60, 2.54, 321.85
362.44, 2.54, 321.83
362.27, 2.54, 321.82
362.09, 2.54, 321.80
361.89, 2.54, 321.78
361.67, 2.53, 321.76
361.42, 2.53, 321.74
361.16, 2.53, 321.71
360.86, 2.52, 321.69
360.52, 2.51, 321.66
360.13, 2.50, 321.62
359.64, 2.48, 321.58
359.09, 2.45, 321.53
358.46, 2.42, 321.47
357.72, 2.39, 321.40
356.84, 2.36, 321.32
355.77, 2.31, 321.23
354.63, 2.29, 321.12
363.25, 2.54, 321.96
363.13, 2.54, 321.95
363.01, 2.54, 321.94
362.88, 2.54, 321.93
362.74, 2.54, 321.92
362.59, 2.54, 321.90
362.43, 2.54, 321.89
362.26, 2.54, 321.88
362.07, 2.54, 321.86
361.87, 2.54, 321.85
361.65, 2.53, 321.83
361.40, 2.53, 321.81
361.13, 2.53, 321.79
360.83, 2.52, 321.77
360.49, 2.51, 321.74
360.10, 2.50, 321.71
359.60, 2.47, 321.67
¯359.05, 2.45, 321.63
358.42, 2.43, 321.58
357.67, 2.40, 321.52
356.78, 2.36, 321.46
355.76, 2.33, 321.38
353.21, 2.09, 321.19
363.23, 2.54, 322.00
363.12, 2.54, 322.00
362.99, 2.54, 321.99
362.86, 2.54, 321.98
362.72, 2.54, 321.97
362.57, 2.54, 321.96
362.41, 2.54, 321.95
362.24, 2.54, 321.94
362.05, 2.54, 321.93
361.85, 2.54, 321.91
361.63, 2.53, 321.90
361.38, 2.53, 321.88
361.11, 2.53, 321.86
360.81, 2.52, 321.85
360.47, 2.51, 321.82
360.07, 2.50, 321.80
359.56, 2.47, 321.77
359.01, 2.45, 321.73
358.37, 2.43, 321.69
357.62, 2.40, 321.65
356.72, 2.36, 321.59
355.76, 2.34, 321.53
353.15, 2.09, 321.38
363.22, 2.54, 322.05
363.11, 2.54, 322.04
362.98, 2.54, 322.04
362.85, 2.54, 322.03
362.71, 2.54, 322.02
362.56, 2.54, 322.02
362.40, 2.54, 322.01
362.22, 2.54, 322.00
362.04, 2.54, 321.99
361.83, 2.54, 321.98
361.61, 2.54, 321.97
361.36, 2.53, 321.95
361.09, 2.53, 321.94
360.79, 2.52, 321.92
360.44, 2.52, 321.91
360.04, 2.50, 321.89
359.53, 2.48, 321.86
358.97, 2.45, 321.84
358.33, 2.43, 321.81
357.57, 2.40, 321.77
356.70, 2.37, 321.73
355.76, 2.35, 321.68
¯353.10, 2.10, 321.56
363.21, 2.54, 322.10
363.10, 2.54, 322.09
362.97, 2.54, 322.09
362.84, 2.54, 322.08
362.70, 2.54, 322.08
362.55, 2.54, 322.07
362.38, 2.54, 322.07
362.21, 2.54, 322.06
362.02, 2.54, 322.05
361.81, 2.54, 322.04
361.59, 2.54, 322.04
361.34, 2.53, 322.03
361.07, 2.53, 322.02
360.76, 2.53, 322.01
360.41, 2.52, 321.99
360.00, 2.50, 321.98
359.49, 2.48, 321.96
358.94, 2.46, 321.94
358.29, 2.43, 321.92
357.52, 2.40, 321.89
356.70, 2.38, 321.86
355.75, 2.36, 321.83
353.04, 2.11, 321.75
363.20, 2.54, 322.14
363.09, 2.54, 322.14
362.96, 2.54, 322.14
362.83, 2.54, 322.13
362.68, 2.54, 322.13
362.53, 2.54, 322.13
362.37, 2.54, 322.12
362.19, 2.54, 322.12
362.00, 2.54, 322.12
361.80, 2.54, 322.11
361.57, 2.54, 322.11
361.32, 2.53, 322.10
361.05, 2.53, 322.09
360.74, 2.53, 322.09
360.39, 2.52, 322.08
359.97, 2.50, 322.07
359.46, 2.48, 322.06
358.90, 2.46, 322.05
358.25, 2.43, 322.03
357.49, 2.40, 322.02
356.70, 2.39, 322.00
355.75, 2.38, 321.98
352.98, 2.12, 321.94
363.19, 2.54, 322.19
363.08, 2.54, 322.19
362.95, 2.54, 322.19
362.81, 2.54, 322.19
¯362.67, 2.54, 322.19
362.52, 2.54, 322.18
362.36, 2.54, 322.18
362.18, 2.54, 322.18
361.99, 2.54, 322.18
361.78, 2.54, 322.18
361.55, 2.54, 322.18
361.30, 2.53, 322.17
361.03, 2.53, 322.17
360.72, 2.53, 322.17
360.37, 2.52, 322.16
359.94, 2.50, 322.16
359.43, 2.48, 322.16
358.87, 2.46, 322.16
358.20, 2.43, 322.15
357.49, 2.42, 322.15
356.69, 2.40, 322.14
355.74, 2.39, 322.13
352.93, 2.13, 322.12
363.19, 2.54, 322.24
363.07, 2.54, 322.24
362.94, 2.54, 322.24
362.80, 2.54, 322.24
362.66, 2.54, 322.24
362.51, 2.54, 322.24
362.34, 2.54, 322.24
362.16, 2.54, 322.24
361.97, 2.54, 322.24
361.76, 2.54, 322.24
361.53, 2.54, 322.25
361.28, 2.54, 322.25
361.01, 2.53, 322.25
360.70, 2.53, 322.25
360.34, 2.52, 322.25
359.91, 2.50, 322.26
359.40, 2.48, 322.26
358.83, 2.46, 322.26
358.16, 2.43, 322.27
357.49, 2.43, 322.27
356.69, 2.42, 322.28
354.82, 2.25, 322.30
352.87, 2.13, 322.32
363.18, 2.54, 322.29
363.06, 2.54, 322.29
362.93, 2.54, 322.29
362.79, 2.54, 322.29
362.65, 2.54, 322.30
362.49, 2.54, 322.30
362.33, 2.54, 322.30
362.15, 2.54, 322.31
361.96, 2.54, 322.31
¯361.75, 2.54, 322.31
361.52, 2.54, 322.32
361.27, 2.54, 322.32
360.99, 2.53, 322.33
360.67, 2.53, 322.33
360.32, 2.52, 322.34
359.88, 2.50, 322.35
359.37, 2.48, 322.36
358.80, 2.46, 322.37
358.17, 2.45, 322.39
357.49, 2.44, 322.40
356.68, 2.42, 322.41
354.76, 2.26, 322.46
352.80, 2.14, 322.51
347.85, 1.68, 322.64
363.17, 2.54, 322.33
363.05, 2.54, 322.34
362.92, 2.54, 322.34
362.78, 2.54, 322.35
362.64, 2.54, 322.35
362.48, 2.54, 322.36
362.31, 2.54, 322.36
362.14, 2.54, 322.37
361.94, 2.54, 322.37
361.73, 2.54, 322.38
361.50, 2.54, 322.39
361.25, 2.54, 322.40
360.97, 2.53, 322.41
360.65, 2.53, 322.42
360.30, 2.52, 322.43
359.85, 2.50, 322.44
359.34, 2.49, 322.46
358.76, 2.46, 322.48
358.17, 2.46, 322.50
357.48, 2.45, 322.52
356.66, 2.43, 322.55
354.70, 2.26, 322.63
352.72, 2.14, 322.70
348.13, 1.74, 322.89
363.16, 2.54, 322.38
363.04, 2.54, 322.39
362.91, 2.54, 322.39
362.77, 2.54, 322.40
362.63, 2.54, 322.41
362.47, 2.54, 322.41
362.30, 2.54, 322.42
362.12, 2.54, 322.43
361.93, 2.54, 322.44
361.71, 2.54, 322.45
361.48, 2.54, 322.46
361.23, 2.54, 322.47
¯360.95, 2.53, 322.49
360.63, 2.53, 322.50
360.27, 2.52, 322.52
359.82, 2.51, 322.54
359.32, 2.49, 322.56
358.76, 2.47, 322.59
358.17, 2.47, 322.62
357.47, 2.45, 322.65
356.65, 2.44, 322.69
354.65, 2.27, 322.80
352.64, 2.15, 322.90
348.39, 1.80, 323.13
363.16, 2.54, 322.43
363.03, 2.54, 322.44
362.90, 2.54, 322.45
362.77, 2.54, 322.46
362.62, 2.54, 322.46
362.46, 2.54, 322.47
362.29, 2.54, 322.48
362.11, 2.54, 322.49
361.91, 2.54, 322.51
361.70, 2.54, 322.52
361.47, 2.54, 322.53
361.21, 2.54, 322.55
360.93, 2.53, 322.57
360.61, 2.53, 322.58
360.25, 2.53, 322.61
359.80, 2.51, 322.64
359.29, 2.49, 322.67
358.76, 2.48, 322.70
358.16, 2.47, 322.74
357.46, 2.46, 322.78
356.64, 2.45, 322.83
354.59, 2.27, 322.97
352.57, 2.16, 323.10
348.65, 1.85, 323.36
363.15, 2.54, 322.48
363.03, 2.54, 322.49
362.90, 2.54, 322.50
362.76, 2.54, 322.51
362.61, 2.54, 322.52
362.45, 2.54, 322.53
362.28, 2.54, 322.55
362.10, 2.54, 322.56
361.90, 2.54, 322.57
361.68, 2.54, 322.59
361.45, 2.54, 322.61
361.19, 2.54, 322.63
360.91, 2.54, 322.65
360.60, 2.53, 322.67
360.23, 2.53, 322.70
¯359.78, 2.51, 322.73
359.27, 2.49, 322.77
358.76, 2.49, 322.81
358.16, 2.48, 322.86
357.45, 2.47, 322.91
356.62, 2.46, 322.97
354.53, 2.28, 323.14
352.51, 2.16, 323.30
348.91, 1.91, 323.59
363.14, 2.54, 322.53
363.02, 2.54, 322.54
362.89, 2.54, 322.55
362.75, 2.54, 322.56
362.60, 2.54, 322.58
362.44, 2.54, 322.59
362.27, 2.54, 322.61
362.08, 2.54, 322.62
361.89, 2.54, 322.64
361.67, 2.54, 322.66
361.43, 2.54, 322.68
361.18, 2.54, 322.70
360.89, 2.54, 322.73
360.58, 2.53, 322.76
360.21, 2.53, 322.79
359.76, 2.51, 322.83
359.28, 2.50, 322.87
358.75, 2.50, 322.92
358.15, 2.49, 322.97
357.43, 2.48, 323.04
356.59, 2.47, 323.11
354.48, 2.28, 323.32
352.47, 2.17, 323.50
349.16, 1.96, 323.82
363.14, 2.54, 322.58
363.01, 2.54, 322.59
362.88, 2.54, 322.61
362.74, 2.54, 322.62
362.59, 2.54, 322.64
362.43, 2.54, 322.65
362.26, 2.54, 322.67
362.07, 2.54, 322.69
361.87, 2.54, 322.71
361.65, 2.54, 322.73
361.42, 2.54, 322.76
361.16, 2.54, 322.78
360.87, 2.54, 322.81
360.56, 2.53, 322.84
360.19, 2.53, 322.88
359.74, 2.51, 322.93
359.28, 2.51, 322.98
358.75, 2.50, 323.03
¯358.13, 2.49, 323.09
357.41, 2.48, 323.17
355.82, 2.35, 323.34
354.45, 2.29, 323.49
352.43, 2.18, 323.71
349.40, 2.01, 324.03
363.13, 2.54, 322.63
363.01, 2.54, 322.64
362.88, 2.54, 322.66
362.74, 2.54, 322.68
362.58, 2.54, 322.69
362.42, 2.54, 322.71
362.25, 2.54, 322.73
362.06, 2.54, 322.75
361.86, 2.54, 322.78
361.64, 2.54, 322.80
361.40, 2.54, 322.83
361.14, 2.54, 322.86
360.85, 2.54, 322.89
360.54, 2.53, 322.93
360.17, 2.53, 322.97
359.74, 2.52, 323.03
359.27, 2.52, 323.08
358.74, 2.51, 323.14
358.11, 2.50, 323.22
357.39, 2.49, 323.30
355.79, 2.36, 323.50
354.41, 2.30, 323.67
352.39, 2.19, 323.91
349.61, 2.05, 324.25
363.13, 2.54, 322.68
363.00, 2.54, 322.70
362.87, 2.54, 322.71
362.73, 2.54, 322.73
362.58, 2.54, 322.75
362.42, 2.54, 322.77
362.24, 2.54, 322.79
362.05, 2.54, 322.82
361.85, 2.54, 322.85
361.63, 2.54, 322.87
361.39, 2.54, 322.91
361.12, 2.54, 322.94
360.83, 2.53, 322.98
360.51, 2.53, 323.02
360.16, 2.53, 323.07
359.74, 2.53, 323.12
359.26, 2.52, 323.18
358.72, 2.51, 323.26
358.10, 2.51, 323.34
357.37, 2.50, 323.43
355.76, 2.36, 323.66
¯354.38, 2.31, 323.84
352.35, 2.21, 324.12
349.62, 2.07, 324.49
363.12, 2.54, 322.73
363.00, 2.54, 322.75
362.87, 2.54, 322.77
362.72, 2.54, 322.79
362.57, 2.54, 322.81
362.41, 2.54, 322.83
362.23, 2.54, 322.86
362.04, 2.54, 322.89
361.84, 2.54, 322.92
361.62, 2.54, 322.95
361.37, 2.54, 322.98
361.11, 2.54, 323.02
360.82, 2.53, 323.06
360.49, 2.53, 323.11
360.13, 2.53, 323.16
359.73, 2.53, 323.22
359.25, 2.53, 323.29
358.71, 2.52, 323.37
358.08, 2.51, 323.46
357.35, 2.50, 323.57
355.73, 2.37, 323.82
354.34, 2.32, 324.02
352.29, 2.21, 324.33
349.63, 2.09, 324.73
363.12, 2.54, 322.78
363.00, 2.54, 322.80
362.86, 2.54, 322.82
362.72, 2.54, 322.84
362.57, 2.54, 322.87
362.40, 2.54, 322.89
362.22, 2.54, 322.92
362.03, 2.54, 322.95
361.83, 2.54, 322.99
361.60, 2.54, 323.02
361.36, 2.54, 323.06
361.09, 2.53, 323.10
360.80, 2.53, 323.15
360.47, 2.53, 323.20
360.12, 2.53, 323.26
359.71, 2.53, 323.32
359.24, 2.53, 323.40
358.70, 2.52, 323.48
358.07, 2.52, 323.59
357.33, 2.51, 323.70
355.70, 2.38, 323.98
354.31, 2.33, 324.20
352.20, 2.22, 324.55
349.64, 2.12, 324.97
¯363.12, 2.54, 322.83
362.99, 2.54, 322.85
362.86, 2.54, 322.88
362.71, 2.54, 322.90
362.56, 2.54, 322.93
362.39, 2.54, 322.96
362.22, 2.54, 322.99
362.03, 2.54, 323.02
361.82, 2.54, 323.06
361.59, 2.54, 323.09
361.35, 2.54, 323.14
361.08, 2.53, 323.18
360.78, 2.53, 323.24
360.45, 2.53, 323.29
360.10, 2.54, 323.35
359.70, 2.54, 323.42
359.22, 2.53, 323.51
358.68, 2.53, 323.60
358.05, 2.52, 323.71
357.31, 2.51, 323.84
355.67, 2.38, 324.14
354.23, 2.33, 324.39
352.12, 2.22, 324.77
349.65, 2.14, 325.21
363.12, 2.54, 322.88
362.99, 2.54, 322.90
362.85, 2.54, 322.93
362.71, 2.54, 322.96
362.55, 2.54, 322.99
362.39, 2.54, 323.02
362.21, 2.54, 323.05
362.02, 2.54, 323.09
361.81, 2.54, 323.13
361.58, 2.54, 323.17
361.34, 2.54, 323.22
361.06, 2.53, 323.27
360.76, 2.53, 323.32
360.43, 2.53, 323.39
360.09, 2.54, 323.45
359.68, 2.54, 323.53
359.21, 2.54, 323.62
358.66, 2.53, 323.72
358.02, 2.53, 323.84
356.65, 2.41, 324.11
355.62, 2.39, 324.30
354.15, 2.33, 324.59
352.14, 2.24, 324.97
349.66, 2.16, 325.45
363.11, 2.54, 322.93
362.99, 2.54, 322.96
362.85, 2.54, 322.99
¯362.71, 2.54, 323.01
362.55, 2.54, 323.05
362.38, 2.54, 323.08
362.20, 2.54, 323.12
362.01, 2.54, 323.16
361.80, 2.54, 323.20
361.57, 2.54, 323.24
361.32, 2.53, 323.29
361.05, 2.53, 323.35
360.75, 2.53, 323.41
360.41, 2.53, 323.48
360.07, 2.54, 323.55
359.67, 2.54, 323.63
359.19, 2.54, 323.73
358.64, 2.53, 323.84
358.00, 2.53, 323.97
