ŸVERSION 0.7
FIELDS x y z
SIZE 8 8 8
TYPE F F F
COUNT 1 1 1
WIDTH 2271
HEIGHT 1
VIEWPOINT 379.83, 10.01, 320.91 1 360.31, 4.35, 324.38
POINTS 2271
DATA ascii
355.72, 3.38, 321.39
355.72, 3.49, 321.39
355.72, 3.59, 321.39
355.72, 3.70, 321.39
355.72, 3.81, 321.39
355.71, 3.92, 321.39
355.71, 4.03, 321.39
355.70, 4.14, 321.39
355.65, 4.25, 321.36
355.51, 4.35, 321.30
358.40, 2.47, 322.58
358.19, 2.46, 322.50
357.96, 2.44, 322.41
357.71, 2.43, 322.31
357.44, 2.42, 322.20
357.15, 2.40, 322.07
356.82, 2.39, 321.94
356.45, 2.37, 321.79
356.04, 2.35, 321.62
355.58, 2.33, 321.43
355.05, 2.30, 321.22
355.49, 2.54, 321.40
355.57, 2.68, 321.43
355.57, 2.79, 321.44
355.56, 2.91, 321.44
355.56, 3.02, 321.44
355.56, 3.13, 321.44
355.56, 3.24, 321.44
355.56, 3.36, 321.44
355.55, 3.47, 321.44
355.55, 3.58, 321.44
355.55, 3.69, 321.44
355.55, 3.80, 321.44
355.54, 3.91, 321.44
355.54, 4.02, 321.44
355.52, 4.13, 321.43
358.39, 2.47, 322.65
358.18, 2.46, 322.57
357.95, 2.45, 322.48
357.70, 2.44, 322.39
357.43, 2.43, 322.28
357.14, 2.41, 322.16
356.81, 2.40, 322.04
356.44, 2.38, 321.89
356.03, 2.36, 321.73
355.57, 2.34, 321.55
355.05, 2.31, 321.35
353.70, 2.09, 320.82
352.67, 1.99, 320.42
¯351.27, 1.84, 319.87
348.56, 1.46, 318.81
341.10, 0.25, 315.88
358.38, 2.48, 322.72
358.17, 2.47, 322.64
357.94, 2.46, 322.56
357.70, 2.45, 322.47
357.43, 2.43, 322.37
357.13, 2.42, 322.25
356.80, 2.40, 322.13
356.44, 2.39, 321.99
356.03, 2.37, 321.84
355.57, 2.35, 321.67
355.05, 2.33, 321.48
353.69, 2.10, 320.96
352.66, 2.00, 320.58
351.27, 1.85, 320.06
348.62, 1.49, 319.06
340.79, 0.22, 316.12
358.36, 2.48, 322.79
358.16, 2.47, 322.71
357.93, 2.46, 322.63
357.69, 2.45, 322.55
357.42, 2.44, 322.45
357.12, 2.43, 322.34
356.80, 2.41, 322.23
356.43, 2.40, 322.10
356.03, 2.38, 321.95
355.57, 2.36, 321.79
354.45, 2.17, 321.38
353.68, 2.11, 321.11
352.66, 2.01, 320.74
351.29, 1.87, 320.25
348.68, 1.51, 319.31
340.49, 0.18, 316.36
358.35, 2.48, 322.86
358.14, 2.48, 322.79
357.92, 2.47, 322.71
357.67, 2.46, 322.62
357.41, 2.45, 322.53
357.11, 2.43, 322.43
356.79, 2.42, 322.32
356.43, 2.41, 322.20
356.03, 2.39, 322.06
355.57, 2.37, 321.90
354.44, 2.18, 321.51
353.67, 2.12, 321.25
352.66, 2.02, 320.90
351.30, 1.89, 320.44
348.73, 1.54, 319.55
340.17, 0.14, 316.61
¯358.34, 2.49, 322.93
358.13, 2.48, 322.86
357.91, 2.47, 322.78
357.67, 2.46, 322.70
357.40, 2.45, 322.62
357.10, 2.44, 322.52
356.78, 2.43, 322.41
356.42, 2.41, 322.30
356.02, 2.40, 322.16
355.57, 2.38, 322.02
354.43, 2.19, 321.64
353.67, 2.13, 321.39
352.66, 2.04, 321.06
351.31, 1.90, 320.62
348.77, 1.56, 319.78
339.85, 0.09, 316.85
358.33, 2.49, 322.99
358.13, 2.49, 322.93
357.90, 2.48, 322.86
357.66, 2.47, 322.78
357.39, 2.46, 322.70
357.10, 2.45, 322.61
356.77, 2.43, 322.51
356.42, 2.42, 322.39
356.02, 2.40, 322.27
355.08, 2.25, 321.98
354.43, 2.20, 321.77
353.67, 2.14, 321.53
352.66, 2.05, 321.22
351.33, 1.91, 320.80
348.82, 1.58, 320.02
339.63, 0.07, 317.14
358.32, 2.50, 323.06
358.12, 2.49, 323.00
357.89, 2.48, 322.93
357.65, 2.47, 322.86
357.38, 2.46, 322.78
357.09, 2.45, 322.69
356.77, 2.44, 322.60
356.41, 2.43, 322.49
356.01, 2.41, 322.37
355.07, 2.26, 322.09
354.43, 2.21, 321.90
353.67, 2.15, 321.68
352.67, 2.06, 321.38
351.35, 1.93, 320.99
348.88, 1.60, 320.25
339.42, 0.05, 317.43
358.31, 2.50, 323.13
358.11, 2.49, 323.07
357.88, 2.49, 323.01
¯357.64, 2.48, 322.94
357.38, 2.47, 322.86
357.08, 2.46, 322.78
356.76, 2.44, 322.69
356.41, 2.43, 322.59
356.01, 2.42, 322.48
355.07, 2.26, 322.21
354.43, 2.21, 322.03
353.67, 2.16, 321.82
352.68, 2.07, 321.54
351.37, 1.94, 321.17
348.98, 1.63, 320.49
339.21, 0.02, 317.73
358.30, 2.50, 323.19
358.10, 2.50, 323.14
357.87, 2.49, 323.08
357.63, 2.48, 323.01
357.37, 2.47, 322.94
357.08, 2.46, 322.87
356.76, 2.45, 322.78
356.41, 2.44, 322.69
355.59, 2.30, 322.47
355.07, 2.27, 322.33
354.43, 2.22, 322.16
353.68, 2.17, 321.96
352.69, 2.08, 321.69
351.40, 1.96, 321.35
349.10, 1.67, 320.74
339.12, 0.02, 318.07
358.29, 2.51, 323.26
358.09, 2.50, 323.21
357.86, 2.49, 323.15
357.62, 2.48, 323.09
357.36, 2.48, 323.03
357.08, 2.47, 322.95
356.76, 2.46, 322.87
356.40, 2.44, 322.78
355.58, 2.31, 322.58
355.06, 2.27, 322.44
354.43, 2.23, 322.29
353.69, 2.18, 322.10
352.70, 2.09, 321.85
351.43, 1.97, 321.53
349.23, 1.70, 320.97
339.02, 0.02, 318.40
358.28, 2.51, 323.33
358.08, 2.50, 323.28
357.86, 2.50, 323.22
357.62, 2.49, 323.17
357.35, 2.48, 323.11
357.07, 2.47, 323.04
¯356.75, 2.46, 322.96
356.40, 2.45, 322.88
355.58, 2.31, 322.68
355.05, 2.28, 322.56
354.42, 2.24, 322.41
353.70, 2.19, 322.24
352.72, 2.10, 322.01
351.46, 1.99, 321.71
349.36, 1.74, 321.21
358.28, 2.51, 323.39
358.07, 2.51, 323.35
357.85, 2.50, 323.30
357.61, 2.49, 323.24
357.35, 2.48, 323.19
357.06, 2.48, 323.12
356.75, 2.47, 323.05
356.40, 2.46, 322.98
355.57, 2.32, 322.79
355.04, 2.28, 322.67
354.42, 2.24, 322.53
353.70, 2.19, 322.37
352.74, 2.11, 322.16
351.50, 2.00, 321.88
349.49, 1.77, 321.44
358.27, 2.51, 323.46
358.06, 2.51, 323.42
357.84, 2.50, 323.37
357.60, 2.50, 323.32
357.34, 2.49, 323.27
357.06, 2.48, 323.21
356.74, 2.47, 323.14
355.99, 2.34, 322.99
355.57, 2.32, 322.90
355.04, 2.29, 322.79
354.42, 2.25, 322.66
353.70, 2.20, 322.51
352.76, 2.12, 322.31
351.54, 2.02, 322.06
349.62, 1.81, 321.66
358.26, 2.52, 323.53
358.06, 2.51, 323.49
357.84, 2.51, 323.44
357.60, 2.50, 323.40
357.34, 2.49, 323.35
357.05, 2.48, 323.29
356.74, 2.47, 323.23
355.99, 2.34, 323.09
355.56, 2.33, 323.00
355.04, 2.29, 322.90
354.42, 2.25, 322.78
353.71, 2.21, 322.64
¯352.77, 2.13, 322.46
351.58, 2.03, 322.23
349.70, 1.83, 321.87
358.26, 2.52, 323.59
358.05, 2.51, 323.56
357.83, 2.51, 323.52
357.59, 2.50, 323.47
357.33, 2.50, 323.43
357.05, 2.49, 323.38
356.73, 2.48, 323.32
355.98, 2.35, 323.19
355.56, 2.33, 323.11
355.03, 2.30, 323.02
354.42, 2.26, 322.90
353.72, 2.22, 322.78
352.79, 2.14, 322.61
351.61, 2.04, 322.40
349.79, 1.85, 322.08
358.26, 2.52, 323.66
358.05, 2.52, 323.63
357.83, 2.51, 323.59
357.59, 2.51, 323.55
357.33, 2.50, 323.51
357.05, 2.49, 323.46
356.36, 2.36, 323.35
355.98, 2.35, 323.28
355.56, 2.34, 323.22
355.04, 2.31, 323.13
354.42, 2.27, 323.03
353.73, 2.23, 322.91
352.81, 2.15, 322.76
351.65, 2.06, 322.57
349.88, 1.88, 322.28
358.25, 2.53, 323.72
358.05, 2.52, 323.69
357.83, 2.52, 323.66
357.59, 2.51, 323.63
357.33, 2.50, 323.59
357.04, 2.50, 323.54
356.36, 2.37, 323.44
355.98, 2.36, 323.38
355.56, 2.34, 323.32
355.04, 2.31, 323.24
354.42, 2.27, 323.15
353.74, 2.23, 323.05
352.83, 2.16, 322.91
351.69, 2.07, 322.74
349.95, 1.90, 322.48
338.55, 0.02, 320.77
358.24, 2.53, 323.79
358.04, 2.52, 323.76
¯357.83, 2.52, 323.73
357.59, 2.51, 323.70
357.33, 2.51, 323.67
357.04, 2.50, 323.63
356.36, 2.37, 323.53
355.98, 2.36, 323.48
355.56, 2.35, 323.43
355.04, 2.32, 323.36
354.44, 2.28, 323.27
353.76, 2.24, 323.18
352.85, 2.17, 323.06
351.73, 2.09, 322.91
350.02, 1.92, 322.67
338.55, 0.03, 321.12
358.24, 2.53, 323.86
358.04, 2.53, 323.83
357.82, 2.52, 323.81
357.59, 2.52, 323.78
357.33, 2.51, 323.75
356.70, 2.39, 323.67
356.36, 2.38, 323.63
355.99, 2.37, 323.58
355.57, 2.35, 323.53
355.05, 2.32, 323.47
354.45, 2.29, 323.40
353.77, 2.25, 323.31
352.88, 2.18, 323.20
351.78, 2.10, 323.07
350.13, 1.94, 322.87
338.54, 0.03, 321.46
358.24, 2.53, 323.92
358.04, 2.53, 323.90
357.82, 2.52, 323.88
357.59, 2.52, 323.85
357.33, 2.51, 323.82
356.70, 2.39, 323.76
356.37, 2.38, 323.72
355.99, 2.37, 323.68
355.57, 2.36, 323.64
355.06, 2.33, 323.58
354.46, 2.29, 323.52
353.79, 2.26, 323.44
352.91, 2.19, 323.35
351.82, 2.11, 323.23
350.25, 1.97, 323.06
347.76, 1.70, 322.80
358.23, 2.53, 323.99
358.03, 2.53, 323.97
357.82, 2.53, 323.95
357.59, 2.52, 323.93
357.33, 2.52, 323.90
¯356.71, 2.40, 323.85
356.37, 2.39, 323.81
356.00, 2.37, 323.78
355.58, 2.36, 323.74
355.07, 2.33, 323.69
354.48, 2.30, 323.64
353.81, 2.27, 323.58
352.94, 2.21, 323.49
351.87, 2.13, 323.39
350.36, 1.99, 323.25
348.06, 1.76, 323.04
358.23, 2.53, 324.05
358.03, 2.53, 324.04
357.82, 2.53, 324.02
357.59, 2.52, 324.00
357.33, 2.52, 323.98
356.71, 2.40, 323.93
356.38, 2.39, 323.91
356.00, 2.38, 323.88
355.59, 2.37, 323.84
355.08, 2.34, 323.80
354.50, 2.31, 323.76
353.84, 2.28, 323.71
352.97, 2.22, 323.64
351.92, 2.14, 323.55
350.47, 2.02, 323.44
348.35, 1.82, 323.27
358.23, 2.54, 324.12
358.03, 2.53, 324.11
357.82, 2.53, 324.09
357.59, 2.53, 324.08
357.02, 2.42, 324.04
356.72, 2.41, 324.02
356.38, 2.40, 324.00
356.01, 2.38, 323.98
355.60, 2.37, 323.95
355.09, 2.35, 323.92
354.52, 2.32, 323.88
353.86, 2.28, 323.83
353.01, 2.23, 323.78
351.97, 2.15, 323.71
350.59, 2.04, 323.62
348.64, 1.87, 323.49
358.23, 2.54, 324.19
358.03, 2.54, 324.18
357.82, 2.53, 324.16
357.59, 2.53, 324.15
357.03, 2.42, 324.12
356.72, 2.41, 324.11
356.39, 2.40, 324.09
356.02, 2.39, 324.07
¯355.61, 2.38, 324.05
355.11, 2.35, 324.03
354.54, 2.32, 324.00
353.89, 2.29, 323.96
353.06, 2.24, 323.92
352.03, 2.17, 323.87
350.70, 2.07, 323.80
348.91, 1.92, 323.71
358.23, 2.54, 324.25
358.03, 2.54, 324.24
357.82, 2.53, 324.24
357.59, 2.53, 324.23
357.04, 2.42, 324.21
356.73, 2.42, 324.20
356.40, 2.41, 324.18
356.03, 2.39, 324.17
355.62, 2.38, 324.15
355.13, 2.36, 324.14
354.57, 2.33, 324.12
353.91, 2.30, 324.09
353.10, 2.25, 324.06
352.08, 2.18, 324.02
350.82, 2.09, 323.98
349.18, 1.97, 323.91
358.23, 2.54, 324.32
358.04, 2.54, 324.31
357.82, 2.54, 324.31
357.59, 2.53, 324.30
357.04, 2.43, 324.29
356.73, 2.42, 324.28
356.40, 2.41, 324.27
356.04, 2.40, 324.27
355.63, 2.39, 324.26
355.15, 2.37, 324.25
354.59, 2.34, 324.23
353.94, 2.31, 324.22
353.15, 2.26, 324.20
352.14, 2.20, 324.18
350.94, 2.12, 324.15
349.44, 2.02, 324.11
358.24, 2.54, 324.38
358.04, 2.54, 324.38
357.83, 2.54, 324.38
357.31, 2.43, 324.37
357.04, 2.43, 324.37
356.73, 2.42, 324.37
356.40, 2.41, 324.37
356.04, 2.40, 324.36
355.63, 2.39, 324.36
355.16, 2.37, 324.35
354.60, 2.34, 324.35
¯353.96, 2.31, 324.34
353.19, 2.27, 324.34
352.19, 2.21, 324.33
351.05, 2.14, 324.32
349.64, 2.06, 324.30
358.24, 2.55, 324.45
358.04, 2.54, 324.45
357.83, 2.54, 324.45
357.31, 2.43, 324.45
357.04, 2.43, 324.45
356.73, 2.42, 324.46
356.40, 2.41, 324.46
356.04, 2.40, 324.46
355.63, 2.39, 324.46
355.17, 2.37, 324.46
354.61, 2.35, 324.47
353.97, 2.32, 324.47
353.22, 2.28, 324.47
352.23, 2.22, 324.48
351.15, 2.16, 324.48
349.77, 2.08, 324.49
358.25, 2.55, 324.51
358.05, 2.55, 324.52
357.83, 2.54, 324.52
357.31, 2.44, 324.53
357.04, 2.43, 324.54
356.74, 2.42, 324.54
356.40, 2.41, 324.55
356.04, 2.40, 324.55
355.64, 2.39, 324.56
355.18, 2.38, 324.57
354.63, 2.35, 324.58
353.99, 2.32, 324.59
353.26, 2.29, 324.61
352.28, 2.23, 324.63
351.26, 2.18, 324.64
349.89, 2.11, 324.67
358.25, 2.55, 324.58
358.05, 2.55, 324.58
357.84, 2.54, 324.59
357.32, 2.44, 324.61
357.04, 2.43, 324.62
356.74, 2.42, 324.63
356.41, 2.41, 324.64
356.04, 2.40, 324.65
355.65, 2.39, 324.66
355.20, 2.38, 324.68
354.64, 2.36, 324.70
354.00, 2.33, 324.72
353.30, 2.30, 324.74
352.32, 2.24, 324.77
¯351.36, 2.20, 324.80
350.02, 2.13, 324.85
358.26, 2.55, 324.64
358.06, 2.55, 324.65
357.56, 2.44, 324.68
357.32, 2.44, 324.69
357.05, 2.43, 324.70
356.74, 2.42, 324.71
356.41, 2.41, 324.73
356.05, 2.40, 324.75
355.67, 2.40, 324.76
355.21, 2.38, 324.79
354.66, 2.36, 324.81
354.03, 2.33, 324.84
353.34, 2.31, 324.87
352.37, 2.25, 324.92
351.47, 2.23, 324.96
350.15, 2.15, 325.02
358.26, 2.55, 324.71
358.07, 2.55, 324.72
357.57, 2.44, 324.75
357.33, 2.44, 324.77
357.05, 2.43, 324.78
356.75, 2.42, 324.80
356.42, 2.41, 324.82
356.06, 2.40, 324.84
355.68, 2.40, 324.87
355.23, 2.39, 324.89
354.68, 2.36, 324.93
354.06, 2.34, 324.96
353.38, 2.32, 325.00
352.42, 2.26, 325.06
351.58, 2.24, 325.11
350.28, 2.18, 325.19
358.27, 2.56, 324.77
358.08, 2.55, 324.79
357.57, 2.44, 324.83
357.33, 2.44, 324.84
357.06, 2.43, 324.86
356.76, 2.42, 324.89
356.43, 2.41, 324.91
356.07, 2.41, 324.94
355.69, 2.40, 324.97
355.25, 2.39, 325.00
354.70, 2.37, 325.04
354.10, 2.35, 325.09
353.42, 2.33, 325.14
352.49, 2.27, 325.21
351.66, 2.26, 325.27
350.41, 2.20, 325.36
358.28, 2.56, 324.84
¯358.08, 2.56, 324.86
357.58, 2.44, 324.90
357.34, 2.44, 324.92
357.06, 2.43, 324.95
356.76, 2.42, 324.97
356.43, 2.41, 325.00
356.08, 2.41, 325.03
355.71, 2.41, 325.07
355.27, 2.40, 325.11
354.72, 2.37, 325.15
354.13, 2.35, 325.21
353.47, 2.34, 325.26
352.57, 2.29, 325.35
351.75, 2.28, 325.42
350.54, 2.22, 325.52
358.29, 2.56, 324.90
357.80, 2.44, 324.95
357.59, 2.44, 324.98
357.35, 2.44, 325.00
357.07, 2.43, 325.03
356.77, 2.43, 325.06
356.44, 2.42, 325.09
356.10, 2.41, 325.13
355.73, 2.41, 325.17
355.29, 2.40, 325.21
354.74, 2.38, 325.27
354.16, 2.36, 325.33
353.52, 2.34, 325.39
352.65, 2.30, 325.48
351.84, 2.29, 325.57
350.67, 2.24, 325.69
358.30, 2.56, 324.97
357.81, 2.44, 325.03
357.59, 2.44, 325.05
357.36, 2.44, 325.08
357.08, 2.43, 325.11
356.78, 2.43, 325.14
356.45, 2.42, 325.18
356.12, 2.41, 325.22
355.74, 2.41, 325.27
355.31, 2.40, 325.32
354.77, 2.38, 325.38
354.20, 2.37, 325.45
353.56, 2.35, 325.52
352.72, 2.31, 325.62
351.92, 2.31, 325.71
350.81, 2.27, 325.84
358.31, 2.56, 325.03
357.82, 2.44, 325.10
357.60, 2.44, 325.12
357.37, 2.44, 325.16
¯357.09, 2.44, 325.19
356.79, 2.43, 325.23
356.47, 2.42, 325.27
356.13, 2.42, 325.32
355.76, 2.42, 325.37
355.33, 2.41, 325.42
354.79, 2.38, 325.49
354.24, 2.37, 325.57
353.60, 2.36, 325.65
352.80, 2.33, 325.75
352.01, 2.32, 325.86
350.94, 2.29, 326.00
358.32, 2.57, 325.09
357.83, 2.44, 325.17
357.61, 2.44, 325.20
357.38, 2.44, 325.23
357.10, 2.44, 325.27
356.81, 2.43, 325.32
356.49, 2.42, 325.36
356.15, 2.42, 325.41
355.78, 2.42, 325.46
355.36, 2.41, 325.53
354.83, 2.39, 325.60
354.28, 2.38, 325.68
353.64, 2.37, 325.78
352.88, 2.34, 325.89
352.10, 2.34, 326.00
351.07, 2.31, 326.15
358.34, 2.57, 325.16
357.84, 2.45, 325.24
357.62, 2.45, 325.27
357.39, 2.44, 325.31
357.12, 2.44, 325.35
356.82, 2.43, 325.40
356.51, 2.42, 325.45
356.17, 2.42, 325.50
355.80, 2.42, 325.56
355.39, 2.42, 325.63
354.87, 2.40, 325.71
354.32, 2.39, 325.80
353.69, 2.37, 325.90
352.96, 2.36, 326.02
352.19, 2.35, 326.14
351.23, 2.34, 326.29
358.05, 2.45, 325.28
357.85, 2.45, 325.31
357.63, 2.45, 325.35
357.40, 2.45, 325.39
357.13, 2.44, 325.43
356.83, 2.43, 325.49
356.53, 2.43, 325.54
¯356.19, 2.43, 325.60
355.83, 2.42, 325.66
355.41, 2.42, 325.73
354.90, 2.40, 325.82
354.36, 2.39, 325.92
353.74, 2.38, 326.02
353.04, 2.37, 326.15
352.25, 2.36, 326.28
351.39, 2.36, 326.43
358.06, 2.45, 325.34
357.86, 2.45, 325.38
357.65, 2.45, 325.42
357.42, 2.45, 325.46
357.15, 2.44, 325.52
356.85, 2.43, 325.57
356.55, 2.43, 325.63
356.22, 2.43, 325.69
355.85, 2.43, 325.76
355.44, 2.42, 325.84
354.94, 2.41, 325.93
354.40, 2.40, 326.03
353.78, 2.39, 326.15
353.08, 2.38, 326.28
352.29, 2.36, 326.43
351.55, 2.39, 326.57
358.07, 2.45, 325.41
357.87, 2.45, 325.45
357.66, 2.45, 325.50
357.43, 2.45, 325.54
357.16, 2.44, 325.60
356.87, 2.43, 325.66
356.57, 2.43, 325.72
356.24, 2.43, 325.78
355.88, 2.43, 325.86
355.47, 2.43, 325.94
354.98, 2.42, 326.04
354.44, 2.41, 326.15
353.81, 2.39, 326.27
353.12, 2.38, 326.41
352.33, 2.37, 326.58
351.64, 2.40, 326.71
358.09, 2.45, 325.48
357.89, 2.45, 325.52
357.68, 2.45, 325.57
357.45, 2.45, 325.62
357.18, 2.44, 325.68
356.89, 2.44, 325.74
356.59, 2.44, 325.80
356.26, 2.43, 325.88
355.90, 2.43, 325.95
355.50, 2.43, 326.04
¯355.02, 2.42, 326.14
354.47, 2.41, 326.26
353.84, 2.39, 326.40
353.17, 2.38, 326.55
352.38, 2.37, 326.72
351.72, 2.41, 326.86
350.58, 2.38, 327.11
358.10, 2.45, 325.55
357.90, 2.45, 325.59
357.69, 2.45, 325.64
357.46, 2.45, 325.70
357.20, 2.44, 325.76
356.91, 2.44, 325.82
356.62, 2.44, 325.89
356.29, 2.44, 325.97
355.93, 2.44, 326.05
355.53, 2.44, 326.14
355.05, 2.42, 326.25
354.50, 2.41, 326.38
353.87, 2.39, 326.53
353.21, 2.39, 326.68
352.42, 2.38, 326.86
351.80, 2.42, 327.01
350.77, 2.41, 327.25
358.12, 2.45, 325.62
357.92, 2.45, 325.66
357.71, 2.45, 325.72
357.48, 2.45, 325.77
357.22, 2.44, 325.84
356.94, 2.44, 325.91
356.64, 2.44, 325.98
356.32, 2.44, 326.06
355.96, 2.44, 326.15
355.55, 2.44, 326.25
355.08, 2.43, 326.36
354.53, 2.41, 326.50
353.91, 2.40, 326.65
353.25, 2.39, 326.81
352.47, 2.38, 327.01
351.89, 2.43, 327.15
350.96, 2.44, 327.38
358.13, 2.45, 325.68
357.94, 2.45, 325.73
357.72, 2.45, 325.79
357.50, 2.45, 325.85
357.24, 2.45, 325.92
356.96, 2.44, 325.99
356.67, 2.44, 326.06
356.34, 2.44, 326.15
355.98, 2.44, 326.24
355.58, 2.44, 326.35
¯355.11, 2.43, 326.47
354.56, 2.41, 326.62
353.95, 2.40, 326.78
353.30, 2.40, 326.95
352.53, 2.39, 327.15
351.97, 2.44, 327.29
351.14, 2.47, 327.51
358.15, 2.45, 325.75
357.95, 2.45, 325.80
357.74, 2.45, 325.86
357.52, 2.45, 325.92
357.26, 2.45, 326.00
356.99, 2.45, 326.07
356.70, 2.45, 326.15
356.37, 2.44, 326.24
356.00, 2.44, 326.34
355.60, 2.44, 326.45
355.14, 2.43, 326.58
354.59, 2.42, 326.73
353.99, 2.41, 326.90
353.35, 2.40, 327.08
352.61, 2.40, 327.28
352.06, 2.45, 327.43
351.33, 2.49, 327.63
358.17, 2.45, 325.82
357.97, 2.45, 325.87
357.76, 2.45, 325.93
357.54, 2.45, 326.00
357.28, 2.45, 326.07
357.02, 2.45, 326.15
356.72, 2.45, 326.24
356.39, 2.44, 326.33
356.03, 2.44, 326.44
355.63, 2.44, 326.56
355.17, 2.43, 326.69
354.63, 2.42, 326.85
354.03, 2.41, 327.02
353.39, 2.41, 327.21
352.68, 2.41, 327.41
352.14, 2.46, 327.57
351.51, 2.52, 327.75
358.18, 2.45, 325.88
357.99, 2.45, 325.94
357.78, 2.45, 326.01
357.56, 2.45, 326.08
357.31, 2.45, 326.15
357.04, 2.45, 326.23
356.74, 2.45, 326.33
356.41, 2.44, 326.43
356.05, 2.44, 326.54
355.66, 2.44, 326.66
¯355.20, 2.43, 326.80
354.66, 2.42, 326.96
354.08, 2.41, 327.14
353.45, 2.41, 327.34
352.76, 2.42, 327.55
352.22, 2.47, 327.71
351.63, 2.53, 327.89
358.20, 2.45, 325.95
358.01, 2.45, 326.01
357.80, 2.45, 326.08
357.58, 2.45, 326.15
357.33, 2.45, 326.23
357.06, 2.45, 326.32
356.76, 2.45, 326.41
356.44, 2.44, 326.52
356.07, 2.44, 326.64
355.69, 2.44, 326.76
355.24, 2.44, 326.91
354.70, 2.42, 327.08
354.12, 2.42, 327.26
353.50, 2.42, 327.47
352.84, 2.43, 327.68
352.31, 2.48, 327.85
351.72, 2.54, 328.03
358.22, 2.45, 326.02
358.03, 2.45, 326.08
357.82, 2.45, 326.15
357.60, 2.45, 326.23
357.36, 2.45, 326.31
357.08, 2.45, 326.40
356.79, 2.45, 326.50
356.46, 2.44, 326.61
356.10, 2.44, 326.73
355.72, 2.44, 326.86
355.27, 2.44, 327.01
354.73, 2.42, 327.19
354.17, 2.42, 327.38
353.55, 2.42, 327.59
352.92, 2.44, 327.80
352.40, 2.49, 327.98
351.79, 2.55, 328.19
358.25, 2.45, 326.08
358.05, 2.45, 326.15
357.85, 2.45, 326.22
357.62, 2.45, 326.30
357.38, 2.45, 326.39
357.11, 2.45, 326.48
356.81, 2.45, 326.59
356.49, 2.44, 326.70
356.13, 2.44, 326.83
355.75, 2.44, 326.96
¯355.31, 2.44, 327.12
354.77, 2.43, 327.31
354.22, 2.42, 327.50
353.60, 2.42, 327.72
353.00, 2.45, 327.93
352.48, 2.50, 328.12
351.81, 2.55, 328.35
358.27, 2.45, 326.15
358.07, 2.45, 326.22
357.87, 2.45, 326.30
357.64, 2.45, 326.38
357.40, 2.45, 326.47
357.13, 2.45, 326.57
356.84, 2.45, 326.67
356.51, 2.45, 326.79
356.16, 2.44, 326.93
355.78, 2.44, 327.07
355.35, 2.44, 327.23
354.81, 2.43, 327.42
354.27, 2.43, 327.62
353.66, 2.43, 327.85
353.08, 2.46, 328.06
352.51, 2.50, 328.27
340.02, 0.53, 332.91
358.29, 2.45, 326.21
358.10, 2.45, 326.29
357.89, 2.45, 326.37
357.66, 2.45, 326.45
357.43, 2.45, 326.55
357.16, 2.45, 326.65
356.87, 2.45, 326.76
356.54, 2.45, 326.89
356.19, 2.44, 327.02
355.81, 2.44, 327.17
355.39, 2.44, 327.33
354.86, 2.43, 327.53
354.32, 2.43, 327.74
353.71, 2.43, 327.98
353.14, 2.46, 328.20
352.53, 2.50, 328.43
340.16, 0.54, 333.23
358.31, 2.45, 326.28
358.12, 2.45, 326.36
357.91, 2.45, 326.44
357.69, 2.45, 326.53
357.45, 2.45, 326.62
357.19, 2.45, 326.73
356.89, 2.45, 326.85
356.57, 2.45, 326.98
356.22, 2.44, 327.12
355.85, 2.45, 327.27
¯355.43, 2.45, 327.44
354.91, 2.43, 327.64
354.37, 2.44, 327.86
353.77, 2.44, 328.10
353.16, 2.46, 328.34
352.56, 2.49, 328.59
340.31, 0.55, 333.53
358.33, 2.45, 326.35
358.14, 2.45, 326.43
357.93, 2.45, 326.51
357.71, 2.45, 326.60
357.48, 2.45, 326.70
357.22, 2.45, 326.81
356.92, 2.45, 326.93
356.60, 2.45, 327.07
356.26, 2.45, 327.21
355.88, 2.45, 327.37
355.47, 2.45, 327.54
354.96, 2.44, 327.75
354.43, 2.44, 327.97
353.81, 2.44, 328.23
353.19, 2.45, 328.49
352.58, 2.49, 328.74
340.52, 0.57, 333.82
358.35, 2.45, 326.41
358.16, 2.45, 326.50
357.96, 2.45, 326.59
357.74, 2.45, 326.68
357.51, 2.45, 326.78
357.25, 2.45, 326.89
356.96, 2.45, 327.02
356.64, 2.45, 327.16
356.29, 2.45, 327.31
355.92, 2.45, 327.47
355.51, 2.45, 327.65
355.01, 2.44, 327.86
354.48, 2.44, 328.09
353.86, 2.44, 328.36
353.22, 2.45, 328.64
352.61, 2.49, 328.90
340.72, 0.59, 334.10
358.38, 2.45, 326.48
358.19, 2.45, 326.56
357.98, 2.45, 326.66
357.77, 2.45, 326.75
357.53, 2.45, 326.86
357.28, 2.45, 326.97
356.99, 2.45, 327.10
356.67, 2.45, 327.25
356.33, 2.45, 327.40
355.96, 2.45, 327.57
¯355.55, 2.45, 327.75
355.06, 2.45, 327.97
354.53, 2.44, 328.21
353.90, 2.44, 328.49
353.24, 2.45, 328.79
352.64, 2.48, 329.06
340.93, 0.61, 334.38
358.40, 2.45, 326.54
358.21, 2.45, 326.63
358.01, 2.45, 326.73
357.79, 2.45, 326.83
357.56, 2.45, 326.94
357.31, 2.45, 327.06
357.02, 2.45, 327.19
356.70, 2.45, 327.34
356.37, 2.45, 327.49
356.00, 2.45, 327.67
355.59, 2.45, 327.86
355.12, 2.45, 328.08
354.57, 2.45, 328.33
353.94, 2.44, 328.63
353.27, 2.44, 328.94
352.67, 2.48, 329.22
344.72, 1.25, 332.96
358.43, 2.45, 326.61
358.24, 2.45, 326.70
358.03, 2.45, 326.80
357.82, 2.45, 326.90
357.59, 2.45, 327.01
357.34, 2.45, 327.14
357.05, 2.45, 327.27
356.74, 2.45, 327.43
356.41, 2.45, 327.59
356.04, 2.45, 327.76
355.63, 2.45, 327.96
355.17, 2.45, 328.19
354.62, 2.45, 328.45
353.99, 2.44, 328.76
353.31, 2.44, 329.09
345.90, 1.17, 332.71
345.10, 1.31, 333.09
358.45, 2.45, 326.67
358.26, 2.45, 326.77
358.06, 2.45, 326.87
357.85, 2.45, 326.98
357.62, 2.45, 327.09
357.37, 2.45, 327.22
357.09, 2.45, 327.36
356.78, 2.45, 327.51
356.45, 2.45, 327.68
356.08, 2.45, 327.86
¯355.68, 2.45, 328.07
355.21, 2.45, 328.30
354.67, 2.45, 328.57
354.03, 2.44, 328.89
353.34, 2.44, 329.24
346.01, 1.18, 332.95
345.48, 1.36, 333.21
358.48, 2.45, 326.74
358.29, 2.45, 326.84
358.09, 2.45, 326.94
357.88, 2.45, 327.05
357.66, 2.45, 327.17
357.41, 2.45, 327.30
357.13, 2.45, 327.44
356.82, 2.45, 327.60
356.49, 2.45, 327.77
356.13, 2.45, 327.96
355.72, 2.45, 328.17
355.26, 2.45, 328.41
354.72, 2.45, 328.69
354.08, 2.44, 329.02
353.37, 2.43, 329.39
346.11, 1.18, 333.19
345.75, 1.39, 333.38
343.56, 1.31, 334.52
358.51, 2.45, 326.80
358.32, 2.45, 326.90
358.12, 2.45, 327.01
357.92, 2.45, 327.12
357.69, 2.45, 327.24
357.44, 2.45, 327.37
357.16, 2.45, 327.53
356.86, 2.45, 327.69
356.53, 2.45, 327.86
356.17, 2.45, 328.06
355.76, 2.45, 328.28
355.30, 2.45, 328.52
354.77, 2.45, 328.81
354.13, 2.44, 329.15
353.41, 2.43, 329.54
346.22, 1.19, 333.43
345.86, 1.39, 333.63
344.30, 1.42, 334.46
358.54, 2.45, 326.87
358.35, 2.45, 326.97
358.16, 2.45, 327.08
357.95, 2.45, 327.20
357.72, 2.45, 327.32
357.48, 2.45, 327.45
357.20, 2.45, 327.61
356.90, 2.45, 327.78
¯356.58, 2.45, 327.96
356.22, 2.45, 328.16
355.80, 2.45, 328.39
355.35, 2.45, 328.64
354.82, 2.45, 328.93
354.18, 2.44, 329.29
353.45, 2.43, 329.69
346.33, 1.19, 333.68
345.97, 1.39, 333.87
345.27, 1.56, 334.26
344.00, 1.66, 334.96
358.57, 2.45, 326.93
358.38, 2.45, 327.04
358.19, 2.45, 327.15
357.98, 2.45, 327.27
357.76, 2.45, 327.40
357.52, 2.45, 327.53
357.24, 2.45, 327.69
356.94, 2.45, 327.86
356.62, 2.45, 328.05
356.26, 2.45, 328.26
355.85, 2.45, 328.49
355.40, 2.45, 328.75
354.87, 2.45, 329.05
354.24, 2.44, 329.42
353.49, 2.42, 329.85
346.44, 1.19, 333.92
346.10, 1.40, 334.11
345.79, 1.63, 334.28
344.61, 1.73, 334.96
343.70, 1.91, 335.48
358.60, 2.45, 327.00
358.41, 2.45, 327.10
358.22, 2.45, 327.22
358.02, 2.45, 327.34
357.79, 2.45, 327.47
357.55, 2.45, 327.61
357.28, 2.45, 327.77
356.99, 2.45, 327.95
356.67, 2.45, 328.14
356.30, 2.45, 328.36
355.89, 2.45, 328.60
355.45, 2.45, 328.86
354.93, 2.45, 329.17
354.29, 2.44, 329.55
353.53, 2.42, 330.00
346.58, 1.20, 334.15
346.26, 1.41, 334.33
345.95, 1.64, 334.51
345.50, 1.85, 334.77
344.35, 1.99, 335.45
¯358.63, 2.45, 327.06
358.45, 2.44, 327.17
358.26, 2.45, 327.29
358.05, 2.45, 327.41
357.83, 2.45, 327.55
357.59, 2.45, 327.69
357.33, 2.45, 327.85
357.03, 2.45, 328.03
356.71, 2.45, 328.23
356.34, 2.45, 328.46
355.94, 2.45, 328.70
355.51, 2.45, 328.97
354.98, 2.45, 329.29
354.35, 2.44, 329.68
353.58, 2.42, 330.14
346.73, 1.21, 334.37
346.41, 1.42, 334.56
346.12, 1.65, 334.73
345.83, 1.88, 334.90
344.95, 2.05, 335.44
358.66, 2.44, 327.12
358.48, 2.44, 327.24
358.29, 2.45, 327.35
358.09, 2.45, 327.48
357.87, 2.45, 327.62
357.63, 2.45, 327.77
357.37, 2.45, 327.94
357.08, 2.45, 328.12
356.75, 2.45, 328.33
356.39, 2.45, 328.55
355.99, 2.45, 328.81
355.56, 2.45, 329.08
355.04, 2.45, 329.41
354.41, 2.44, 329.80
353.51, 2.39, 330.37
346.88, 1.22, 334.59
346.56, 1.43, 334.78
346.28, 1.66, 334.95
346.00, 1.89, 335.12
345.71, 2.14, 335.30
344.70, 2.31, 335.93
358.69, 2.44, 327.18
358.51, 2.44, 327.30
358.33, 2.45, 327.42
358.13, 2.45, 327.55
357.91, 2.45, 327.70
357.67, 2.45, 327.85
357.41, 2.45, 328.02
357.12, 2.45, 328.21
356.80, 2.45, 328.42
356.43, 2.45, 328.65
¯356.04, 2.45, 328.91
355.61, 2.45, 329.19
355.10, 2.45, 329.52
354.47, 2.44, 329.93
353.39, 2.35, 330.64
347.03, 1.22, 334.80
346.72, 1.44, 335.00
346.45, 1.67, 335.17
346.17, 1.90, 335.35
345.88, 2.15, 335.53
345.29, 2.37, 335.91
358.73, 2.44, 327.25
358.55, 2.44, 327.37
358.36, 2.44, 327.49
358.16, 2.45, 327.62
357.95, 2.45, 327.77
357.71, 2.45, 327.93
357.46, 2.45, 328.10
357.17, 2.45, 328.29
356.84, 2.45, 328.51
356.48, 2.45, 328.75
356.09, 2.45, 329.02
355.66, 2.45, 329.30
355.16, 2.45, 329.64
354.53, 2.44, 330.06
353.27, 2.30, 330.91
347.19, 1.23, 335.02
346.88, 1.45, 335.22
346.61, 1.68, 335.39
346.33, 1.91, 335.57
346.05, 2.16, 335.76
345.75, 2.41, 335.95
358.76, 2.44, 327.31
358.59, 2.44, 327.43
358.40, 2.44, 327.56
358.20, 2.45, 327.69
357.99, 2.45, 327.84
357.76, 2.45, 328.00
357.50, 2.45, 328.18
357.21, 2.45, 328.38
356.89, 2.45, 328.60
356.53, 2.45, 328.85
356.14, 2.45, 329.12
355.72, 2.45, 329.41
355.22, 2.45, 329.75
354.58, 2.43, 330.20
353.16, 2.26, 331.18
347.34, 1.24, 335.24
347.04, 1.45, 335.44
346.77, 1.68, 335.61
346.50, 1.92, 335.80
¯346.19, 2.16, 336.00
345.72, 2.39, 336.32
358.80, 2.44, 327.37
358.62, 2.44, 327.49
358.44, 2.44, 327.62
358.24, 2.45, 327.76
358.03, 2.45, 327.92
357.80, 2.45, 328.08
357.54, 2.45, 328.26
357.26, 2.45, 328.47
356.94, 2.45, 328.69
356.58, 2.45, 328.95
356.20, 2.45, 329.22
355.77, 2.45, 329.52
355.29, 2.45, 329.87
354.63, 2.43, 330.34
353.06, 2.22, 331.46
347.49, 1.25, 335.46
347.20, 1.46, 335.66
346.94, 1.69, 335.83
346.61, 1.92, 336.06
346.21, 2.15, 336.34
358.83, 2.44, 327.43
358.66, 2.44, 327.56
358.48, 2.44, 327.69
358.28, 2.45, 327.83
358.07, 2.45, 327.99
357.84, 2.45, 328.16
357.59, 2.45, 328.35
357.30, 2.45, 328.55
356.99, 2.45, 328.79
356.63, 2.45, 329.04
356.25, 2.45, 329.32
355.83, 2.45, 329.63
355.35, 2.45, 329.98
354.68, 2.42, 330.48
347.98, 1.06, 335.43
347.64, 1.25, 335.67
347.36, 1.47, 335.87
347.03, 1.69, 336.11
346.64, 1.91, 336.39
346.20, 2.13, 336.70
358.87, 2.44, 327.49
358.70, 2.44, 327.62
358.52, 2.44, 327.76
358.33, 2.45, 327.90
358.12, 2.45, 328.06
357.89, 2.45, 328.24
357.63, 2.45, 328.43
357.35, 2.45, 328.64
357.04, 2.45, 328.88
¯356.69, 2.44, 329.14
356.31, 2.45, 329.43
355.89, 2.45, 329.74
355.41, 2.45, 330.10
354.73, 2.42, 330.62
348.16, 1.07, 335.62
347.82, 1.26, 335.87
347.44, 1.46, 336.16
347.06, 1.67, 336.43
346.67, 1.89, 336.72
346.17, 2.11, 337.09
358.91, 2.44, 327.55
358.74, 2.44, 327.68
358.56, 2.44, 327.82
358.37, 2.44, 327.97
358.16, 2.45, 328.13
357.93, 2.45, 328.31
357.68, 2.45, 328.51
357.40, 2.45, 328.72
357.09, 2.45, 328.97
356.74, 2.44, 329.24
356.37, 2.45, 329.53
355.95, 2.45, 329.85
355.47, 2.45, 330.23
354.78, 2.42, 330.76
348.33, 1.08, 335.82
347.86, 1.25, 336.17
347.47, 1.44, 336.47
347.09, 1.66, 336.76
346.67, 1.88, 337.08
346.15, 2.09, 337.48
358.95, 2.44, 327.61
358.78, 2.44, 327.75
358.60, 2.44, 327.89
358.41, 2.44, 328.04
358.21, 2.45, 328.21
357.98, 2.45, 328.39
357.73, 2.45, 328.59
357.45, 2.45, 328.81
357.14, 2.45, 329.06
356.80, 2.44, 329.33
356.43, 2.44, 329.63
356.02, 2.45, 329.96
355.52, 2.44, 330.35
354.84, 2.41, 330.90
348.44, 1.07, 336.07
347.91, 1.23, 336.48
347.50, 1.42, 336.80
347.12, 1.64, 337.10
346.65, 1.85, 337.46
346.12, 2.07, 337.88
¯358.99, 2.44, 327.67
358.82, 2.44, 327.81
358.65, 2.44, 327.95
358.46, 2.44, 328.11
358.25, 2.44, 328.28
358.02, 2.44, 328.47
357.78, 2.45, 328.67
357.50, 2.45, 328.89
357.20, 2.44, 329.15
356.85, 2.44, 329.43
356.49, 2.44, 329.73
356.08, 2.45, 330.06
355.57, 2.44, 330.48
354.90, 2.41, 331.04
348.41, 1.04, 336.42
347.95, 1.21, 336.80
347.54, 1.40, 337.13
347.14, 1.62, 337.44
346.63, 1.83, 337.86
359.03, 2.44, 327.73
358.87, 2.44, 327.87
358.69, 2.44, 328.02
358.50, 2.44, 328.18
358.30, 2.44, 328.35
358.07, 2.44, 328.54
357.83, 2.44, 328.75
357.55, 2.44, 328.98
357.25, 2.44, 329.23
356.91, 2.44, 329.52
356.55, 2.44, 329.83
356.14, 2.45, 330.18
355.63, 2.44, 330.61
354.96, 2.40, 331.18
348.41, 1.00, 336.77
348.00, 1.19, 337.11
347.57, 1.38, 337.47
347.13, 1.59, 337.83
359.07, 2.44, 327.79
358.91, 2.44, 327.93
358.74, 2.44, 328.08
358.55, 2.44, 328.24
358.34, 2.44, 328.42
358.12, 2.44, 328.62
357.88, 2.44, 328.83
357.61, 2.44, 329.06
357.31, 2.44, 329.32
356.97, 2.44, 329.62
356.61, 2.44, 329.93
356.20, 2.44, 330.29
355.69, 2.43, 330.74
355.02, 2.40, 331.31
¯348.46, 0.98, 337.08
348.04, 1.17, 337.44
347.61, 1.36, 337.81
346.63, 1.48, 338.65
359.11, 2.44, 327.85
358.95, 2.44, 327.99
358.78, 2.44, 328.14
358.59, 2.44, 328.31
358.39, 2.44, 328.49
358.17, 2.44, 328.69
357.93, 2.44, 328.91
357.66, 2.44, 329.15
357.37, 2.44, 329.41
357.03, 2.44, 329.71
356.68, 2.44, 330.03
356.26, 2.44, 330.40
355.75, 2.43, 330.86
355.09, 2.40, 331.45
353.97, 2.28, 332.45
348.09, 1.14, 337.77
347.19, 1.25, 338.57
359.16, 2.44, 327.91
359.00, 2.44, 328.05
358.83, 2.44, 328.21
358.64, 2.44, 328.38
358.44, 2.44, 328.56
358.22, 2.44, 328.77
357.98, 2.44, 328.99
357.72, 2.44, 329.23
357.43, 2.44, 329.50
357.10, 2.44, 329.80
356.74, 2.44, 330.13
356.32, 2.44, 330.51
355.81, 2.42, 330.99
355.16, 2.39, 331.59
354.14, 2.30, 332.53
348.18, 1.13, 338.07
359.20, 2.44, 327.96
359.04, 2.44, 328.11
358.87, 2.44, 328.27
358.69, 2.44, 328.44
358.49, 2.44, 328.63
358.27, 2.44, 328.84
358.04, 2.44, 329.07
357.77, 2.44, 329.31
357.49, 2.44, 329.59
357.16, 2.44, 329.89
356.80, 2.44, 330.23
356.39, 2.43, 330.63
355.87, 2.42, 331.11
355.23, 2.39, 331.73
¯354.31, 2.31, 332.60
348.29, 1.12, 338.35
359.24, 2.44, 328.02
359.09, 2.44, 328.17
358.92, 2.44, 328.33
358.74, 2.44, 328.51
358.54, 2.44, 328.70
358.33, 2.44, 328.91
358.09, 2.44, 329.14
357.83, 2.44, 329.39
357.55, 2.44, 329.67
357.23, 2.44, 329.98
356.87, 2.44, 330.34
356.45, 2.43, 330.74
355.94, 2.41, 331.24
355.29, 2.38, 331.87
354.48, 2.33, 332.67
348.41, 1.11, 338.63
359.29, 2.44, 328.08
359.14, 2.44, 328.23
358.97, 2.44, 328.40
358.79, 2.44, 328.58
358.59, 2.44, 328.77
358.38, 2.44, 328.99
358.15, 2.44, 329.22
357.89, 2.44, 329.48
357.61, 2.44, 329.76
357.29, 2.44, 330.08
356.93, 2.43, 330.44
356.52, 2.43, 330.85
356.01, 2.41, 331.37
355.33, 2.37, 332.04
354.64, 2.35, 332.73
359.34, 2.44, 328.13
359.18, 2.44, 328.29
359.02, 2.44, 328.46
358.84, 2.44, 328.64
358.65, 2.44, 328.84
358.44, 2.44, 329.06
358.20, 2.44, 329.30
357.95, 2.44, 329.56
357.67, 2.44, 329.85
357.36, 2.43, 330.17
357.00, 2.43, 330.54
356.59, 2.43, 330.96
356.08, 2.41, 331.49
355.48, 2.38, 332.11
354.81, 2.37, 332.80
345.77, 0.42, 342.19
359.38, 2.43, 328.19
359.23, 2.43, 328.35
¯359.07, 2.43, 328.52
358.89, 2.43, 328.71
358.70, 2.43, 328.91
358.49, 2.43, 329.13
358.26, 2.43, 329.37
358.01, 2.43, 329.64
357.73, 2.43, 329.93
357.42, 2.43, 330.26
357.06, 2.43, 330.64
356.66, 2.42, 331.07
356.15, 2.40, 331.61
355.59, 2.39, 332.21
354.97, 2.39, 332.86
346.54, 0.55, 341.87
346.76, 0.94, 341.63
359.43, 2.43, 328.24
359.28, 2.43, 328.40
359.12, 2.43, 328.58
358.95, 2.43, 328.77
358.76, 2.43, 328.98
358.55, 2.43, 329.20
358.32, 2.43, 329.45
358.07, 2.43, 329.72
357.80, 2.43, 330.02
357.49, 2.43, 330.36
357.13, 2.43, 330.74
356.73, 2.42, 331.18
356.22, 2.40, 331.74
355.70, 2.39, 332.31
355.14, 2.40, 332.92
346.41, 0.47, 342.52
346.62, 0.87, 342.26
359.48, 2.43, 328.30
359.33, 2.43, 328.46
359.17, 2.43, 328.64
359.00, 2.43, 328.83
358.81, 2.43, 329.04
358.61, 2.43, 329.27
358.38, 2.43, 329.52
358.14, 2.43, 329.80
357.86, 2.43, 330.10
357.55, 2.43, 330.46
357.20, 2.42, 330.84
356.81, 2.42, 331.29
356.30, 2.39, 331.86
355.81, 2.40, 332.41
355.30, 2.42, 332.98
347.31, 0.98, 342.00
359.52, 2.43, 328.35
359.38, 2.43, 328.52
359.22, 2.43, 328.70
¯359.05, 2.43, 328.90
358.87, 2.43, 329.11
358.67, 2.43, 329.34
358.45, 2.43, 329.60
358.20, 2.43, 329.88
357.93, 2.43, 330.19
357.62, 2.42, 330.55
357.28, 2.42, 330.94
356.88, 2.42, 331.40
356.37, 2.39, 331.98
355.92, 2.40, 332.51
355.47, 2.44, 333.03
347.51, 0.64, 342.28
347.27, 0.92, 342.54
359.57, 2.43, 328.41
359.43, 2.43, 328.58
359.28, 2.43, 328.76
359.11, 2.43, 328.96
358.93, 2.43, 329.18
358.73, 2.43, 329.41
358.51, 2.43, 329.67
358.27, 2.43, 329.95
357.99, 2.42, 330.28
357.69, 2.42, 330.65
357.35, 2.42, 331.04
356.96, 2.41, 331.50
356.47, 2.39, 332.09
356.03, 2.41, 332.61
355.59, 2.44, 333.13
349.03, 0.97, 340.98
347.19, 0.86, 343.16
347.31, 1.58, 342.98
359.62, 2.43, 328.46
359.48, 2.43, 328.63
359.33, 2.43, 328.82
359.17, 2.43, 329.02
358.99, 2.43, 329.24
358.79, 2.43, 329.48
358.57, 2.43, 329.74
358.34, 2.43, 330.03
358.06, 2.42, 330.37
357.76, 2.42, 330.74
357.43, 2.42, 331.14
357.04, 2.41, 331.61
356.58, 2.40, 332.18
356.14, 2.41, 332.71
355.71, 2.45, 333.24
349.32, 0.99, 341.09
347.95, 1.99, 342.72
359.67, 2.43, 328.52
359.54, 2.43, 328.69
¯359.39, 2.43, 328.88
359.22, 2.43, 329.08
359.05, 2.43, 329.30
358.85, 2.43, 329.55
358.64, 2.43, 329.82
358.40, 2.43, 330.11
358.13, 2.42, 330.46
357.83, 2.41, 330.83
357.50, 2.41, 331.24
357.12, 2.41, 331.72
356.69, 2.40, 332.27
356.26, 2.42, 332.80
355.83, 2.45, 333.34
349.62, 1.02, 341.21
359.73, 2.42, 328.57
359.59, 2.43, 328.75
359.44, 2.43, 328.93
359.28, 2.43, 329.14
359.11, 2.43, 329.37
358.91, 2.43, 329.62
358.70, 2.43, 329.89
358.47, 2.42, 330.19
358.20, 2.42, 330.54
357.90, 2.41, 330.93
357.58, 2.41, 331.34
357.20, 2.40, 331.83
356.79, 2.41, 332.35
356.38, 2.42, 332.89
355.95, 2.46, 333.44
349.91, 1.04, 341.32
348.38, 1.33, 343.27
347.97, 1.58, 343.79
359.78, 2.42, 328.62
359.64, 2.42, 328.80
359.50, 2.43, 328.99
359.34, 2.43, 329.20
359.17, 2.43, 329.43
358.98, 2.42, 329.68
358.77, 2.42, 329.96
358.54, 2.42, 330.27
358.27, 2.41, 330.63
357.98, 2.41, 331.02
357.66, 2.41, 331.44
357.29, 2.40, 331.93
356.90, 2.41, 332.44
356.49, 2.43, 332.99
356.07, 2.46, 333.54
350.20, 1.07, 341.43
348.63, 0.99, 343.51
348.46, 1.29, 343.73
348.45, 1.64, 343.73
¯359.83, 2.42, 328.67
359.70, 2.42, 328.86
359.56, 2.42, 329.05
359.40, 2.42, 329.26
359.23, 2.42, 329.49
359.04, 2.42, 329.75
358.84, 2.42, 330.03
358.60, 2.42, 330.35
358.34, 2.41, 330.71
358.05, 2.40, 331.11
357.73, 2.40, 331.54
357.37, 2.40, 332.04
357.02, 2.41, 332.53
356.61, 2.43, 333.08
356.20, 2.46, 333.64
348.84, 0.99, 343.79
348.49, 1.25, 344.26
348.44, 1.59, 344.31
348.98, 2.03, 343.54
359.88, 2.42, 328.73
359.75, 2.42, 328.91
359.61, 2.42, 329.11
359.46, 2.42, 329.32
359.29, 2.42, 329.56
359.11, 2.42, 329.81
358.91, 2.42, 330.10
358.67, 2.41, 330.43
358.41, 2.41, 330.80
358.13, 2.40, 331.20
357.82, 2.40, 331.64
357.47, 2.40, 332.13
357.13, 2.42, 332.61
356.73, 2.43, 333.17
356.32, 2.47, 333.74
349.02, 0.63, 344.14
349.30, 1.05, 343.72
349.43, 1.41, 343.51
349.41, 1.74, 343.53
349.05, 2.01, 344.02
359.94, 2.42, 328.78
359.81, 2.42, 328.96
359.67, 2.42, 329.16
359.52, 2.42, 329.38
359.36, 2.42, 329.62
359.18, 2.42, 329.88
358.98, 2.42, 330.17
358.75, 2.41, 330.51
358.49, 2.40, 330.88
358.21, 2.40, 331.29
357.90, 2.40, 331.74
357.56, 2.40, 332.24
¯357.24, 2.42, 332.69
356.85, 2.44, 333.26
356.45, 2.47, 333.84
349.02, 0.57, 344.74
349.56, 1.05, 343.93
349.48, 1.37, 344.03
349.44, 1.70, 344.06
349.12, 1.99, 344.50
359.99, 2.42, 328.83
359.87, 2.42, 329.02
359.73, 2.42, 329.22
359.58, 2.42, 329.44
359.42, 2.42, 329.68
359.25, 2.42, 329.94
359.05, 2.42, 330.24
358.82, 2.41, 330.59
358.56, 2.40, 330.97
358.29, 2.39, 331.38
357.98, 2.39, 331.84
357.64, 2.39, 332.34
357.35, 2.43, 332.77
356.97, 2.44, 333.34
356.58, 2.48, 333.93
349.98, 0.77, 343.90
349.91, 1.09, 344.00
349.68, 1.37, 344.31
349.70, 1.71, 344.28
349.20, 1.96, 345.00
360.05, 2.42, 328.88
359.93, 2.42, 329.07
359.79, 2.42, 329.27
359.65, 2.42, 329.50
359.49, 2.42, 329.74
359.32, 2.42, 330.01
359.12, 2.41, 330.32
358.89, 2.41, 330.66
358.64, 2.40, 331.05
358.37, 2.39, 331.47
358.07, 2.39, 331.93
357.73, 2.39, 332.45
357.46, 2.43, 332.87
357.10, 2.45, 333.43
356.70, 2.48, 334.03
350.30, 0.79, 344.02
350.04, 1.06, 344.39
349.71, 1.32, 344.89
349.68, 1.66, 344.92
350.20, 2.10, 344.09
360.11, 2.41, 328.92
359.98, 2.41, 329.12
359.85, 2.42, 329.33
¯359.71, 2.42, 329.55
359.56, 2.42, 329.80
359.39, 2.42, 330.07
359.19, 2.41, 330.39
358.97, 2.40, 330.74
358.72, 2.39, 331.13
358.45, 2.39, 331.56
358.16, 2.39, 332.03
357.83, 2.38, 332.55
357.56, 2.42, 332.98
357.22, 2.45, 333.51
356.82, 2.48, 334.14
350.95, 0.92, 343.58
350.91, 1.23, 343.63
350.85, 1.54, 343.70
351.06, 1.91, 343.35
350.27, 2.08, 344.60
360.16, 2.41, 328.97
360.04, 2.41, 329.17
359.91, 2.41, 329.38
359.78, 2.41, 329.61
359.62, 2.41, 329.86
359.46, 2.41, 330.14
359.26, 2.41, 330.46
359.04, 2.40, 330.81
358.80, 2.39, 331.21
358.54, 2.39, 331.65
358.24, 2.38, 332.13
357.92, 2.38, 332.66
357.65, 2.42, 333.09
357.34, 2.46, 333.60
356.95, 2.48, 334.25
351.46, 1.00, 343.35
350.95, 1.18, 344.18
350.85, 1.48, 344.32
351.01, 1.85, 344.03
350.34, 2.05, 345.13
360.22, 2.41, 329.02
360.10, 2.41, 329.22
359.98, 2.41, 329.43
359.84, 2.41, 329.67
359.69, 2.41, 329.92
359.52, 2.41, 330.20
359.33, 2.40, 330.52
359.12, 2.40, 330.89
358.88, 2.39, 331.29
358.62, 2.38, 331.73
358.33, 2.38, 332.23
358.01, 2.38, 332.76
357.75, 2.42, 333.21
357.46, 2.46, 333.69
¯357.07, 2.48, 334.36
351.12, 0.82, 344.56
350.99, 1.12, 344.75
350.85, 1.43, 344.96
351.66, 1.94, 343.55
350.41, 2.02, 345.67
360.28, 2.41, 329.07
360.17, 2.41, 329.27
360.04, 2.41, 329.49
359.91, 2.41, 329.72
359.76, 2.41, 329.98
359.59, 2.41, 330.27
359.41, 2.40, 330.59
359.20, 2.39, 330.96
358.96, 2.38, 331.37
358.71, 2.38, 331.82
358.42, 2.37, 332.33
358.11, 2.37, 332.87
357.85, 2.41, 333.32
357.57, 2.45, 333.82
357.19, 2.48, 334.46
351.16, 0.76, 345.14
351.89, 1.31, 343.83
351.89, 1.63, 343.81
351.70, 1.90, 344.11
360.34, 2.41, 329.11
360.23, 2.41, 329.32
360.11, 2.41, 329.54
359.97, 2.41, 329.78
359.83, 2.41, 330.04
359.67, 2.40, 330.33
359.48, 2.40, 330.66
359.28, 2.39, 331.03
359.05, 2.38, 331.45
358.80, 2.38, 331.91
358.51, 2.37, 332.42
358.21, 2.37, 332.97
357.95, 2.41, 333.43
357.67, 2.45, 333.94
357.32, 2.48, 334.57
351.21, 0.70, 345.74
352.29, 1.36, 343.73
352.22, 1.66, 343.84
352.34, 2.00, 343.61
360.40, 2.41, 329.16
360.29, 2.41, 329.37
360.17, 2.41, 329.59
360.04, 2.41, 329.83
359.90, 2.41, 330.09
359.74, 2.40, 330.40
359.56, 2.40, 330.73
¯359.36, 2.39, 331.11
359.13, 2.38, 331.53
358.89, 2.37, 331.99
358.61, 2.36, 332.52
358.31, 2.36, 333.08
358.06, 2.40, 333.54
357.77, 2.44, 334.08
357.44, 2.48, 334.68
352.85, 1.15, 343.36
352.40, 1.32, 344.19
352.31, 1.62, 344.34
352.40, 1.96, 344.15
360.46, 2.41, 329.20
360.35, 2.41, 329.41
360.24, 2.41, 329.64
360.11, 2.41, 329.88
359.97, 2.40, 330.15
359.81, 2.40, 330.46
359.64, 2.39, 330.80
359.44, 2.38, 331.18
359.22, 2.38, 331.61
358.98, 2.37, 332.08
358.70, 2.36, 332.61
358.41, 2.36, 333.18
358.16, 2.40, 333.65
357.86, 2.43, 334.24
357.54, 2.47, 334.84
357.14, 2.51, 335.63
353.19, 1.49, 343.33
353.19, 1.79, 343.31
353.05, 2.06, 343.56
360.52, 2.40, 329.25
360.42, 2.40, 329.46
360.30, 2.40, 329.69
360.18, 2.40, 329.94
360.04, 2.40, 330.21
359.89, 2.39, 330.52
359.72, 2.39, 330.87
359.52, 2.38, 331.25
359.31, 2.37, 331.68
359.07, 2.36, 332.16
358.80, 2.35, 332.71
358.51, 2.35, 333.28
358.27, 2.39, 333.77
357.95, 2.42, 334.40
357.64, 2.46, 335.01
357.28, 2.51, 335.74
353.26, 1.44, 343.85
353.27, 1.75, 343.82
353.15, 2.03, 344.04
360.59, 2.40, 329.29
¯360.48, 2.40, 329.51
360.37, 2.40, 329.74
360.25, 2.40, 329.99
360.12, 2.40, 330.27
359.96, 2.39, 330.59
359.80, 2.39, 330.94
359.61, 2.38, 331.32
359.40, 2.37, 331.76
359.16, 2.36, 332.25
358.90, 2.35, 332.80
358.61, 2.35, 333.39
358.38, 2.39, 333.88
358.05, 2.40, 334.56
357.75, 2.45, 335.17
357.42, 2.51, 335.85
353.32, 1.38, 344.44
353.36, 1.71, 344.34
353.25, 2.00, 344.53
360.65, 2.40, 329.33
360.55, 2.40, 329.55
360.44, 2.40, 329.78
360.32, 2.40, 330.04
360.19, 2.39, 330.33
360.04, 2.39, 330.65
359.88, 2.38, 331.00
359.69, 2.37, 331.39
359.49, 2.37, 331.84
359.26, 2.36, 332.33
359.00, 2.34, 332.90
358.72, 2.34, 333.49
358.49, 2.38, 333.99
358.15, 2.39, 334.72
357.86, 2.44, 335.34
353.32, 0.97, 345.20
353.37, 1.32, 345.06
353.45, 1.67, 344.88
353.36, 1.97, 345.04
353.03, 2.21, 345.73
360.72, 2.40, 329.38
360.62, 2.40, 329.60
360.51, 2.40, 329.83
360.40, 2.40, 330.09
360.26, 2.39, 330.38
360.12, 2.39, 330.71
359.96, 2.38, 331.07
359.78, 2.37, 331.47
359.58, 2.36, 331.91
359.35, 2.35, 332.42
359.10, 2.34, 332.99
358.83, 2.34, 333.59
358.58, 2.37, 334.13
¯358.25, 2.38, 334.87
357.97, 2.43, 335.50
353.25, 0.85, 346.17
353.43, 1.25, 345.72
353.54, 1.62, 345.45
353.47, 1.93, 345.57
353.18, 2.19, 346.20
360.78, 2.40, 329.42
360.68, 2.40, 329.64
360.58, 2.40, 329.88
360.47, 2.39, 330.14
360.34, 2.39, 330.44
360.20, 2.38, 330.77
360.04, 2.38, 331.13
359.87, 2.37, 331.53
359.67, 2.36, 331.99
359.45, 2.35, 332.50
359.20, 2.34, 333.08
358.93, 2.33, 333.70
358.68, 2.36, 334.28
358.36, 2.37, 335.02
358.08, 2.42, 335.67
353.49, 1.18, 346.40
353.64, 1.57, 346.04
353.59, 1.89, 346.12
353.33, 2.17, 346.69
360.85, 2.40, 329.46
360.75, 2.40, 329.68
360.65, 2.39, 329.92
360.54, 2.39, 330.19
360.42, 2.39, 330.49
360.28, 2.38, 330.83
360.13, 2.37, 331.19
359.96, 2.36, 331.60
359.76, 2.35, 332.06
359.55, 2.34, 332.59
359.31, 2.33, 333.17
359.04, 2.33, 333.80
358.78, 2.34, 334.43
358.47, 2.36, 335.17
358.19, 2.41, 335.84
353.74, 1.52, 346.66
353.71, 1.85, 346.69
353.49, 2.14, 347.19
360.91, 2.40, 329.50
360.82, 2.39, 329.72
360.72, 2.39, 329.97
360.62, 2.39, 330.24
360.49, 2.38, 330.55
360.36, 2.38, 330.88
360.21, 2.37, 331.26
¯360.05, 2.36, 331.67
359.86, 2.35, 332.14
359.65, 2.34, 332.67
359.41, 2.33, 333.26
359.16, 2.32, 333.90
358.89, 2.33, 334.57
358.59, 2.34, 335.33
358.30, 2.39, 336.06
353.84, 1.46, 347.31
353.84, 1.81, 347.28
360.98, 2.39, 329.53
360.89, 2.39, 329.77
360.80, 2.39, 330.01
360.69, 2.39, 330.29
360.57, 2.38, 330.60
360.44, 2.37, 330.94
360.30, 2.36, 331.32
360.14, 2.36, 331.74
359.95, 2.34, 332.22
359.75, 2.33, 332.76
359.52, 2.32, 333.35
359.27, 2.32, 334.01
359.00, 2.32, 334.72
358.70, 2.33, 335.49
358.37, 2.35, 336.34
361.05, 2.39, 329.57
360.96, 2.39, 329.81
360.87, 2.39, 330.05
360.77, 2.38, 330.34
360.65, 2.38, 330.65
360.53, 2.37, 331.00
360.39, 2.36, 331.38
360.23, 2.35, 331.80
360.05, 2.34, 332.29
359.85, 2.33, 332.84
359.63, 2.32, 333.45
359.37, 2.30, 334.14
359.11, 2.31, 334.87
358.82, 2.32, 335.64
358.46, 2.32, 336.63
355.04, 1.02, 346.09
361.12, 2.39, 329.61
361.03, 2.39, 329.84
360.94, 2.39, 330.10
360.84, 2.38, 330.38
360.73, 2.37, 330.70
360.61, 2.37, 331.05
360.47, 2.36, 331.44
360.32, 2.35, 331.87
360.15, 2.34, 332.36
359.95, 2.32, 332.92
¯359.74, 2.31, 333.54
359.49, 2.29, 334.26
359.22, 2.29, 335.02
358.94, 2.31, 335.80
358.55, 2.29, 336.93
355.31, 1.02, 346.30
361.18, 2.39, 329.64
361.10, 2.39, 329.88
361.02, 2.38, 330.14
360.92, 2.38, 330.43
360.81, 2.37, 330.75
360.70, 2.36, 331.10
360.56, 2.35, 331.49
360.42, 2.35, 331.93
360.25, 2.33, 332.44
360.06, 2.32, 333.00
359.85, 2.30, 333.63
359.60, 2.29, 334.37
359.33, 2.28, 335.17
359.06, 2.29, 335.98
355.72, 0.74, 346.13
361.25, 2.39, 329.68
361.18, 2.38, 329.92
361.09, 2.38, 330.18
361.00, 2.38, 330.48
360.90, 2.37, 330.80
360.78, 2.36, 331.16
360.66, 2.35, 331.55
360.51, 2.34, 331.99
360.35, 2.33, 332.51
360.17, 2.31, 333.08
359.96, 2.30, 333.72
359.72, 2.28, 334.48
359.46, 2.27, 335.30
359.16, 2.26, 336.25
361.32, 2.39, 329.71
361.25, 2.38, 329.96
361.17, 2.38, 330.22
361.08, 2.37, 330.52
360.98, 2.37, 330.85
360.87, 2.36, 331.21
360.75, 2.35, 331.61
360.61, 2.34, 332.06
360.45, 2.32, 332.58
360.28, 2.31, 333.16
360.08, 2.29, 333.81
359.84, 2.27, 334.59
359.59, 2.26, 335.43
359.26, 2.22, 336.52
361.39, 2.38, 329.75
361.32, 2.38, 329.99
¯361.25, 2.38, 330.26
361.16, 2.37, 330.56
361.06, 2.36, 330.89
360.96, 2.35, 331.26
360.84, 2.35, 331.66
360.71, 2.33, 332.12
360.56, 2.32, 332.65
360.39, 2.30, 333.24
360.20, 2.29, 333.89
359.96, 2.26, 334.70
359.72, 2.25, 335.56
359.36, 2.19, 336.80
361.46, 2.38, 329.78
361.40, 2.38, 330.03
361.32, 2.37, 330.30
361.24, 2.37, 330.61
361.15, 2.36, 330.94
361.05, 2.35, 331.31
360.94, 2.34, 331.72
360.81, 2.33, 332.18
360.66, 2.31, 332.71
360.50, 2.29, 333.32
360.32, 2.28, 333.98
360.09, 2.25, 334.81
359.85, 2.24, 335.68
359.50, 2.17, 336.98
361.54, 2.38, 329.82
361.47, 2.38, 330.07
361.40, 2.37, 330.34
361.32, 2.36, 330.65
361.23, 2.36, 330.98
361.14, 2.35, 331.36
361.03, 2.34, 331.77
360.91, 2.33, 332.24
360.77, 2.31, 332.78
360.61, 2.29, 333.39
360.44, 2.27, 334.07
360.22, 2.24, 334.92
359.99, 2.23, 335.81
359.64, 2.16, 337.16
361.61, 2.38, 329.85
361.55, 2.37, 330.10
361.48, 2.37, 330.38
361.40, 2.36, 330.69
361.32, 2.35, 331.03
361.23, 2.35, 331.40
361.13, 2.34, 331.82
361.01, 2.32, 332.30
360.88, 2.30, 332.85
360.73, 2.28, 333.47
360.56, 2.27, 334.16
¯360.35, 2.23, 335.03
360.13, 2.22, 335.93
359.79, 2.14, 337.33
361.68, 2.37, 329.88
361.62, 2.37, 330.14
361.56, 2.36, 330.42
361.49, 2.36, 330.73
361.41, 2.35, 331.07
361.32, 2.34, 331.45
361.23, 2.33, 331.87
361.11, 2.32, 332.36
360.99, 2.30, 332.91
360.84, 2.28, 333.54
360.68, 2.26, 334.26
360.48, 2.22, 335.14
360.27, 2.20, 336.07
359.94, 2.12, 337.50
361.75, 2.37, 329.92
361.70, 2.37, 330.17
361.64, 2.36, 330.46
361.57, 2.35, 330.77
361.50, 2.35, 331.12
361.41, 2.34, 331.50
361.32, 2.33, 331.92
361.22, 2.31, 332.41
361.10, 2.29, 332.97
360.96, 2.27, 333.61
360.81, 2.25, 334.35
360.61, 2.21, 335.25
360.41, 2.19, 336.21
360.09, 2.11, 337.67
361.83, 2.37, 329.95
361.78, 2.36, 330.21
361.72, 2.36, 330.50
361.65, 2.35, 330.81
361.59, 2.34, 331.16
361.51, 2.33, 331.54
361.42, 2.32, 331.97
361.32, 2.31, 332.47
361.21, 2.29, 333.03
361.08, 2.27, 333.68
360.93, 2.24, 334.43
360.75, 2.20, 335.35
360.55, 2.18, 336.35
360.25, 2.09, 337.84
361.90, 2.37, 329.98
361.85, 2.36, 330.24
361.80, 2.35, 330.53
361.74, 2.35, 330.85
361.68, 2.34, 331.20
361.60, 2.33, 331.59
¯361.52, 2.32, 332.02
361.43, 2.30, 332.53
361.33, 2.29, 333.09
361.20, 2.26, 333.75
361.06, 2.23, 334.52
360.89, 2.20, 335.45
360.70, 2.16, 336.48
360.42, 2.08, 337.99
362.04, 2.51, 329.62
361.93, 2.36, 330.27
361.88, 2.35, 330.57
361.83, 2.34, 330.89
361.77, 2.34, 331.24
361.70, 2.33, 331.64
361.62, 2.32, 332.07
361.54, 2.30, 332.59
361.44, 2.28, 333.16
361.33, 2.26, 333.82
361.19, 2.23, 334.61
361.03, 2.19, 335.55
360.85, 2.15, 336.62
360.59, 2.07, 338.14
359.83, 1.55, 342.68
362.11, 2.50, 329.65
362.01, 2.35, 330.31
361.96, 2.35, 330.60
361.91, 2.34, 330.93
361.86, 2.33, 331.28
361.80, 2.32, 331.68
361.73, 2.31, 332.13
361.64, 2.29, 332.65
361.55, 2.27, 333.23
361.45, 2.25, 333.89
361.33, 2.22, 334.69
361.18, 2.18, 335.65
361.00, 2.14, 336.76
360.77, 2.06, 338.28
360.17, 1.65, 342.16
359.87, 1.63, 344.10
362.18, 2.50, 329.67
362.09, 2.35, 330.34
362.05, 2.34, 330.63
362.00, 2.34, 330.96
361.95, 2.33, 331.32
361.89, 2.32, 331.72
361.83, 2.30, 332.18
361.75, 2.28, 332.71
361.67, 2.27, 333.29
361.58, 2.24, 333.97
361.46, 2.21, 334.79
361.32, 2.17, 335.75
¯361.16, 2.12, 336.90
360.95, 2.05, 338.41
360.61, 1.87, 340.83
360.28, 1.79, 343.12
362.25, 2.50, 329.69
362.17, 2.35, 330.36
362.13, 2.34, 330.67
362.09, 2.33, 331.00
362.04, 2.32, 331.36
361.99, 2.31, 331.76
361.93, 2.30, 332.23
361.86, 2.28, 332.77
361.79, 2.26, 333.36
361.70, 2.23, 334.05
361.59, 2.20, 334.89
361.47, 2.16, 335.86
361.32, 2.11, 337.03
361.13, 2.04, 338.55
360.85, 1.91, 340.71
360.61, 1.88, 342.58
360.40, 1.93, 344.23
362.32, 2.50, 329.71
362.29, 2.49, 329.97
362.22, 2.34, 330.70
362.18, 2.33, 331.03
362.14, 2.32, 331.40
362.09, 2.31, 331.80
362.04, 2.29, 332.27
361.98, 2.27, 332.82
