ŸVERSION 0.7
FIELDS x y z
SIZE 8 8 8
TYPE F F F
COUNT 1 1 1
WIDTH 2271
HEIGHT 1
VIEWPOINT 440.95, 14.78, 254.11 1 443.68, 9.24, 273.78
POINTS 2271
DATA ascii
427.51, 7.80, 277.34
427.51, 8.02, 277.34
427.51, 8.24, 277.35
427.51, 8.46, 277.36
427.51, 8.68, 277.37
427.51, 8.90, 277.38
427.51, 9.12, 277.39
427.51, 9.34, 277.39
436.82, 7.00, 273.75
436.58, 6.99, 273.85
436.31, 6.99, 273.95
436.03, 6.98, 274.07
435.72, 6.98, 274.19
435.41, 6.98, 274.32
435.09, 6.99, 274.45
434.75, 7.00, 274.59
434.26, 6.98, 274.79
433.70, 6.95, 275.02
433.20, 6.96, 275.22
432.84, 7.02, 275.37
432.43, 7.07, 275.54
432.02, 7.14, 275.71
432.02, 7.30, 275.72
432.02, 7.46, 275.72
431.78, 7.57, 275.82
¯430.67, 7.57, 276.28
427.51, 7.34, 277.56
427.51, 7.57, 277.56
427.51, 7.79, 277.57
427.51, 8.01, 277.58
427.51, 8.23, 277.59
427.51, 8.45, 277.60
427.51, 8.67, 277.61
427.51, 8.89, 277.61
427.51, 9.11, 277.62
427.51, 9.33, 277.63
436.85, 7.00, 273.82
436.61, 6.99, 273.92
436.35, 6.99, 274.03
436.07, 6.98, 274.15
435.76, 6.97, 274.28
435.44, 6.97, 274.42
435.13, 6.98, 274.55
434.78, 6.99, 274.70
434.29, 6.97, 274.91
433.72, 6.94, 275.15
433.27, 6.96, 275.34
432.89, 7.01, 275.50
432.47, 7.07, 275.68
432.11, 7.14, 275.84
432.11, 7.30, 275.84
432.12, 7.46, 275.85
431.87, 7.57, 275.95
430.78, 7.57, 276.42
427.51, 7.33, 277.80
427.51, 7.55, 277.80
427.51, 7.77, 277.81
427.51, 8.00, 277.82
427.51, 8.22, 277.83
427.51, 8.44, 277.84
427.51, 8.66, 277.85
427.51, 8.88, 277.85
427.51, 9.11, 277.86
427.51, 9.33, 277.87
436.88, 6.99, 273.90
436.65, 6.99, 274.00
436.39, 6.98, 274.11
436.11, 6.98, 274.24
435.80, 6.97, 274.37
435.48, 6.97, 274.51
435.17, 6.98, 274.65
434.81, 6.98, 274.81
434.31, 6.96, 275.03
433.75, 6.93, 275.27
433.32, 6.96, 275.46
432.94, 7.01, 275.64
¯432.52, 7.06, 275.82
432.20, 7.14, 275.96
432.20, 7.30, 275.97
432.21, 7.46, 275.97
431.97, 7.57, 276.08
430.89, 7.57, 276.56
429.55, 7.57, 277.15
427.51, 7.53, 278.05
427.51, 7.76, 278.05
427.51, 7.98, 278.06
427.51, 8.20, 278.07
427.51, 8.43, 278.08
427.51, 8.65, 278.09
427.51, 8.87, 278.10
427.51, 9.10, 278.11
427.51, 9.32, 278.11
436.92, 6.99, 273.97
436.68, 6.99, 274.08
436.43, 6.98, 274.19
436.15, 6.98, 274.32
435.85, 6.97, 274.46
435.52, 6.96, 274.61
435.21, 6.97, 274.75
434.84, 6.97, 274.92
434.34, 6.95, 275.14
433.79, 6.92, 275.40
433.36, 6.95, 275.59
432.98, 7.00, 275.77
432.57, 7.05, 275.96
432.29, 7.15, 276.09
432.30, 7.30, 276.09
432.30, 7.46, 276.10
432.07, 7.57, 276.21
431.00, 7.57, 276.70
429.68, 7.57, 277.30
427.51, 7.51, 278.29
427.51, 7.74, 278.30
427.51, 7.96, 278.31
427.51, 8.19, 278.32
427.51, 8.42, 278.33
427.51, 8.64, 278.33
427.51, 8.86, 278.34
427.51, 9.09, 278.35
427.51, 9.31, 278.36
436.96, 6.99, 274.04
436.72, 6.99, 274.15
436.47, 6.98, 274.27
436.19, 6.97, 274.40
435.89, 6.97, 274.54
435.56, 6.96, 274.70
435.25, 6.97, 274.85
¯434.87, 6.96, 275.03
434.38, 6.94, 275.26
433.85, 6.92, 275.51
433.41, 6.94, 275.72
433.03, 6.99, 275.90
432.62, 7.04, 276.10
432.38, 7.15, 276.21
432.39, 7.30, 276.22
432.39, 7.46, 276.22
432.16, 7.57, 276.33
431.11, 7.57, 276.83
429.81, 7.57, 277.45
427.51, 7.49, 278.54
427.51, 7.72, 278.55
427.51, 7.95, 278.56
427.51, 8.18, 278.57
427.51, 8.40, 278.57
427.51, 8.63, 278.58
427.51, 8.85, 278.59
427.51, 9.08, 278.60
427.51, 9.31, 278.61
436.99, 6.99, 274.11
436.76, 6.98, 274.22
436.51, 6.98, 274.35
436.24, 6.97, 274.48
435.94, 6.97, 274.63
435.61, 6.96, 274.79
435.30, 6.96, 274.94
434.90, 6.96, 275.14
434.41, 6.93, 275.38
433.92, 6.92, 275.62
433.46, 6.94, 275.85
433.08, 6.98, 276.03
432.67, 7.04, 276.24
432.48, 7.15, 276.34
432.48, 7.30, 276.34
432.48, 7.46, 276.35
432.26, 7.57, 276.46
431.22, 7.57, 276.97
429.94, 7.57, 277.60
427.51, 7.47, 278.79
427.51, 7.70, 278.80
427.51, 7.93, 278.81
427.51, 8.16, 278.82
427.51, 8.39, 278.83
427.51, 8.62, 278.83
427.51, 8.84, 278.84
427.51, 9.07, 278.85
427.51, 9.30, 278.86
437.03, 6.99, 274.18
436.80, 6.98, 274.30
¯436.55, 6.98, 274.43
436.28, 6.97, 274.56
435.98, 6.96, 274.71
435.66, 6.96, 274.88
435.34, 6.96, 275.04
434.93, 6.95, 275.25
434.47, 6.93, 275.48
433.98, 6.92, 275.73
433.51, 6.93, 275.97
433.13, 6.98, 276.17
432.72, 7.03, 276.38
432.57, 7.15, 276.46
432.57, 7.30, 276.46
432.57, 7.45, 276.47
432.36, 7.57, 276.58
431.34, 7.57, 277.10
430.08, 7.57, 277.74
427.51, 7.45, 279.05
427.51, 7.69, 279.05
427.51, 7.92, 279.06
427.51, 8.15, 279.07
427.51, 8.38, 279.08
427.51, 8.60, 279.09
427.51, 8.83, 279.10
427.51, 9.06, 279.11
427.51, 9.29, 279.12
437.07, 6.99, 274.25
436.84, 6.98, 274.37
436.60, 6.97, 274.50
436.33, 6.97, 274.64
436.03, 6.96, 274.80
435.71, 6.95, 274.97
435.39, 6.95, 275.14
434.97, 6.94, 275.36
434.53, 6.93, 275.59
434.05, 6.92, 275.84
433.56, 6.92, 276.10
433.18, 6.97, 276.30
432.78, 7.02, 276.52
432.66, 7.15, 276.58
432.66, 7.30, 276.59
432.66, 7.45, 276.59
432.46, 7.57, 276.70
431.45, 7.57, 277.23
430.21, 7.57, 277.89
427.51, 7.43, 279.30
427.51, 7.67, 279.31
427.51, 7.90, 279.32
427.51, 8.13, 279.33
427.51, 8.36, 279.34
427.51, 8.59, 279.35
¯427.51, 8.82, 279.36
427.51, 9.05, 279.37
427.51, 9.29, 279.37
437.11, 6.98, 274.32
436.89, 6.98, 274.44
436.64, 6.97, 274.58
436.37, 6.97, 274.72
436.08, 6.96, 274.88
435.76, 6.95, 275.05
435.43, 6.95, 275.23
435.02, 6.93, 275.46
434.60, 6.93, 275.69
434.12, 6.92, 275.95
433.62, 6.91, 276.22
433.24, 6.96, 276.43
432.81, 7.00, 276.67
432.74, 7.14, 276.71
432.75, 7.30, 276.71
432.75, 7.45, 276.71
432.56, 7.57, 276.82
431.57, 7.57, 277.36
430.34, 7.57, 278.03
427.51, 7.41, 279.57
427.51, 7.65, 279.58
427.51, 7.88, 279.58
427.51, 8.11, 279.59
427.51, 8.35, 279.60
427.51, 8.58, 279.61
427.51, 8.81, 279.62
427.51, 9.05, 279.63
427.51, 9.28, 279.64
437.15, 6.98, 274.39
436.93, 6.98, 274.52
436.69, 6.97, 274.65
436.42, 6.96, 274.80
436.13, 6.96, 274.96
435.82, 6.95, 275.14
435.48, 6.94, 275.33
435.09, 6.93, 275.55
434.67, 6.92, 275.79
434.20, 6.92, 276.05
433.70, 6.91, 276.33
433.29, 6.95, 276.56
432.84, 6.99, 276.82
432.83, 7.14, 276.83
432.84, 7.30, 276.83
432.84, 7.45, 276.83
432.67, 7.57, 276.94
431.68, 7.57, 277.49
430.48, 7.57, 278.17
427.51, 7.39, 279.83
¯427.51, 7.63, 279.84
427.51, 7.86, 279.85
427.51, 8.10, 279.86
427.51, 8.33, 279.87
427.51, 8.57, 279.88
427.51, 8.80, 279.89
427.51, 9.04, 279.90
427.51, 9.27, 279.90
437.20, 6.98, 274.46
436.97, 6.98, 274.59
436.73, 6.97, 274.73
436.47, 6.96, 274.88
436.18, 6.96, 275.05
435.87, 6.95, 275.23
435.53, 6.94, 275.43
435.15, 6.93, 275.64
434.73, 6.92, 275.89
434.27, 6.91, 276.16
433.77, 6.91, 276.44
433.34, 6.94, 276.69
432.87, 6.98, 276.97
432.92, 7.14, 276.95
432.93, 7.30, 276.95
432.93, 7.45, 276.96
432.77, 7.57, 277.05
431.80, 7.57, 277.62
430.61, 7.57, 278.31
427.51, 7.37, 280.10
427.51, 7.61, 280.11
427.51, 7.84, 280.12
427.51, 8.08, 280.13
427.51, 8.32, 280.14
427.51, 8.55, 280.15
427.51, 8.79, 280.16
427.51, 9.03, 280.17
427.51, 9.26, 280.17
437.24, 6.98, 274.53
437.02, 6.97, 274.66
436.78, 6.97, 274.80
436.52, 6.96, 274.96
436.24, 6.95, 275.13
435.93, 6.95, 275.31
435.59, 6.94, 275.51
435.22, 6.93, 275.74
434.80, 6.92, 275.98
434.35, 6.91, 276.26
433.86, 6.91, 276.55
433.40, 6.93, 276.83
432.91, 6.96, 277.13
433.01, 7.14, 277.07
433.01, 7.29, 277.07
¯433.02, 7.45, 277.08
432.87, 7.57, 277.17
431.92, 7.57, 277.74
430.75, 7.57, 278.44
427.51, 7.35, 280.38
427.51, 7.59, 280.39
427.51, 7.83, 280.40
427.51, 8.06, 280.41
427.51, 8.30, 280.42
427.51, 8.54, 280.42
427.51, 8.78, 280.43
427.51, 9.02, 280.44
427.51, 9.26, 280.45
437.28, 6.98, 274.59
437.06, 6.97, 274.73
436.83, 6.97, 274.87
436.57, 6.96, 275.03
436.29, 6.95, 275.21
435.98, 6.94, 275.40
435.65, 6.94, 275.60
435.28, 6.93, 275.83
434.87, 6.92, 276.08
434.42, 6.91, 276.36
433.94, 6.91, 276.66
433.46, 6.92, 276.96
432.94, 6.95, 277.28
433.10, 7.14, 277.19
433.10, 7.29, 277.19
433.10, 7.44, 277.20
432.98, 7.57, 277.28
432.04, 7.57, 277.86
430.88, 7.57, 278.58
427.51, 7.32, 280.66
427.51, 7.57, 280.67
427.51, 7.81, 280.68
427.51, 8.05, 280.69
427.51, 8.29, 280.70
427.51, 8.53, 280.70
427.51, 8.77, 280.71
427.51, 9.01, 280.72
427.51, 9.25, 280.73
437.33, 6.98, 274.66
437.11, 6.97, 274.80
436.88, 6.97, 274.95
436.62, 6.96, 275.11
436.34, 6.95, 275.29
436.04, 6.94, 275.48
435.71, 6.94, 275.69
435.35, 6.93, 275.92
434.95, 6.92, 276.18
434.50, 6.91, 276.46
¯434.02, 6.91, 276.77
433.52, 6.92, 277.09
433.00, 6.94, 277.42
433.19, 7.14, 277.31
433.19, 7.29, 277.31
433.19, 7.44, 277.32
433.09, 7.57, 277.39
432.16, 7.57, 277.98
431.02, 7.57, 278.71
429.60, 7.57, 279.62
427.51, 7.54, 280.95
427.51, 7.79, 280.96
427.51, 8.03, 280.97
427.51, 8.27, 280.98
427.51, 8.51, 280.99
427.51, 8.76, 281.00
427.51, 9.00, 281.01
427.51, 9.24, 281.02
437.37, 6.98, 274.72
437.16, 6.97, 274.87
436.93, 6.96, 275.02
436.67, 6.96, 275.18
436.40, 6.95, 275.36
436.10, 6.94, 275.56
435.78, 6.94, 275.77
435.42, 6.93, 276.01
435.02, 6.92, 276.27
434.58, 6.91, 276.56
434.11, 6.91, 276.87
433.58, 6.91, 277.22
433.08, 6.93, 277.55
433.22, 7.12, 277.47
433.22, 7.27, 277.47
433.21, 7.42, 277.48
433.19, 7.57, 277.50
432.28, 7.57, 278.10
431.16, 7.57, 278.84
429.76, 7.57, 279.76
427.51, 7.52, 281.24
427.51, 7.77, 281.25
427.51, 8.01, 281.26
427.51, 8.26, 281.27
427.51, 8.50, 281.28
427.51, 8.75, 281.29
427.51, 8.99, 281.30
427.51, 9.23, 281.31
437.42, 6.97, 274.79
437.21, 6.97, 274.93
436.98, 6.96, 275.09
436.73, 6.95, 275.26
436.46, 6.95, 275.44
¯436.17, 6.94, 275.64
435.84, 6.93, 275.86
435.49, 6.93, 276.10
435.09, 6.92, 276.37
434.66, 6.91, 276.66
434.19, 6.91, 276.98
433.66, 6.90, 277.34
433.15, 6.92, 277.69
433.17, 7.08, 277.68
433.17, 7.24, 277.68
433.17, 7.39, 277.69
433.17, 7.55, 277.70
432.40, 7.57, 278.22
431.30, 7.57, 278.97
429.92, 7.57, 279.90
427.51, 7.50, 281.54
427.51, 7.74, 281.55
427.51, 7.99, 281.56
427.51, 8.24, 281.57
427.51, 8.49, 281.57
427.51, 8.73, 281.58
427.51, 8.98, 281.59
427.51, 9.23, 281.60
437.47, 6.97, 274.85
437.26, 6.97, 275.00
437.03, 6.96, 275.16
436.78, 6.95, 275.33
436.52, 6.95, 275.52
436.23, 6.94, 275.72
435.91, 6.93, 275.94
435.56, 6.93, 276.19
435.17, 6.92, 276.46
434.74, 6.91, 276.76
434.28, 6.91, 277.08
433.76, 6.90, 277.45
433.23, 6.92, 277.82
433.13, 7.05, 277.89
433.13, 7.21, 277.90
433.13, 7.36, 277.90
433.13, 7.52, 277.91
432.52, 7.57, 278.33
431.44, 7.57, 279.09
430.09, 7.57, 280.04
427.51, 7.47, 281.84
427.51, 7.72, 281.85
427.51, 7.97, 281.86
427.51, 8.22, 281.87
427.51, 8.47, 281.88
427.51, 8.72, 281.88
427.51, 8.97, 281.89
427.51, 9.22, 281.90
¯437.52, 6.97, 274.92
437.31, 6.97, 275.07
437.08, 6.96, 275.23
436.84, 6.95, 275.40
436.58, 6.95, 275.59
436.29, 6.94, 275.80
435.98, 6.93, 276.02
435.63, 6.92, 276.27
435.25, 6.92, 276.55
434.82, 6.91, 276.86
434.37, 6.90, 277.18
433.85, 6.90, 277.56
433.31, 6.91, 277.95
433.08, 7.01, 278.11
433.08, 7.17, 278.12
433.08, 7.33, 278.13
433.08, 7.49, 278.13
432.65, 7.57, 278.45
431.58, 7.57, 279.22
430.25, 7.57, 280.17
427.51, 7.45, 282.15
427.51, 7.70, 282.16
427.51, 7.95, 282.16
427.51, 8.21, 282.17
427.51, 8.46, 282.18
427.51, 8.71, 282.19
427.51, 8.96, 282.20
427.51, 9.21, 282.21
437.56, 6.97, 274.98
437.36, 6.96, 275.13
437.14, 6.96, 275.30
436.90, 6.95, 275.47
436.64, 6.95, 275.67
436.36, 6.94, 275.88
436.05, 6.93, 276.11
435.70, 6.92, 276.36
435.32, 6.91, 276.64
434.91, 6.91, 276.95
434.45, 6.90, 277.29
433.95, 6.90, 277.66
433.39, 6.90, 278.08
432.84, 6.92, 278.48
433.04, 7.13, 278.35
433.03, 7.30, 278.35
433.03, 7.46, 278.36
432.77, 7.57, 278.56
431.72, 7.57, 279.34
430.41, 7.57, 280.31
427.51, 7.42, 282.46
427.51, 7.68, 282.47
427.51, 7.93, 282.48
¯427.51, 8.19, 282.49
427.51, 8.44, 282.50
427.51, 8.70, 282.51
427.51, 8.95, 282.51
427.51, 9.21, 282.52
437.61, 6.97, 275.04
437.41, 6.96, 275.20
437.19, 6.96, 275.37
436.96, 6.95, 275.54
436.70, 6.94, 275.74
436.42, 6.94, 275.95
436.12, 6.93, 276.19
435.78, 6.92, 276.44
435.40, 6.91, 276.73
434.99, 6.91, 277.05
434.54, 6.90, 277.39
434.04, 6.90, 277.77
433.47, 6.89, 278.21
432.93, 6.92, 278.62
432.99, 7.10, 278.58
432.99, 7.26, 278.59
432.98, 7.42, 278.60
432.89, 7.57, 278.67
431.86, 7.57, 279.46
430.58, 7.57, 280.44
427.51, 7.40, 282.78
427.51, 7.65, 282.79
427.51, 7.91, 282.80
427.51, 8.17, 282.81
427.51, 8.43, 282.82
427.51, 8.68, 282.82
427.51, 8.94, 282.83
427.51, 9.20, 282.84
437.67, 6.97, 275.10
437.47, 6.96, 275.26
437.25, 6.96, 275.43
437.02, 6.95, 275.61
436.77, 6.94, 275.81
436.49, 6.94, 276.03
436.19, 6.93, 276.27
435.85, 6.92, 276.53
435.48, 6.91, 276.82
435.08, 6.91, 277.14
434.64, 6.90, 277.48
434.14, 6.90, 277.87
433.55, 6.89, 278.33
433.01, 6.91, 278.76
432.94, 7.06, 278.83
432.93, 7.22, 278.83
432.93, 7.39, 278.84
432.93, 7.56, 278.85
¯432.01, 7.57, 279.58
430.74, 7.57, 280.57
427.51, 7.37, 283.10
427.51, 7.63, 283.11
427.51, 7.89, 283.12
427.51, 8.15, 283.13
427.51, 8.41, 283.14
427.51, 8.67, 283.15
427.51, 8.93, 283.16
427.51, 9.19, 283.17
437.72, 6.97, 275.17
437.52, 6.96, 275.33
437.31, 6.95, 275.50
437.08, 6.95, 275.68
436.83, 6.94, 275.88
436.56, 6.94, 276.10
436.26, 6.93, 276.34
435.93, 6.92, 276.61
435.56, 6.91, 276.91
435.16, 6.90, 277.23
434.73, 6.90, 277.58
434.24, 6.90, 277.98
433.65, 6.88, 278.45
433.09, 6.90, 278.90
432.88, 7.02, 279.08
432.88, 7.19, 279.08
432.88, 7.36, 279.09
432.88, 7.52, 279.10
432.15, 7.57, 279.69
430.91, 7.57, 280.70
427.51, 7.34, 283.44
427.51, 7.60, 283.45
427.51, 7.87, 283.46
427.51, 8.13, 283.47
427.51, 8.39, 283.48
427.51, 8.66, 283.49
427.51, 8.92, 283.50
427.51, 9.18, 283.50
437.77, 6.97, 275.23
437.57, 6.96, 275.39
437.37, 6.95, 275.56
437.14, 6.95, 275.75
436.89, 6.94, 275.95
436.63, 6.94, 276.18
436.33, 6.93, 276.42
436.01, 6.92, 276.69
435.64, 6.91, 276.99
435.25, 6.90, 277.32
434.82, 6.90, 277.68
434.34, 6.90, 278.08
433.76, 6.88, 278.56
¯433.18, 6.89, 279.05
432.46, 6.88, 279.64
432.83, 7.15, 279.34
432.83, 7.32, 279.35
432.83, 7.49, 279.36
432.29, 7.57, 279.81
431.07, 7.57, 280.82
427.51, 7.31, 283.78
427.51, 7.58, 283.79
427.51, 7.85, 283.80
427.51, 8.11, 283.81
427.51, 8.38, 283.82
427.51, 8.64, 283.83
427.51, 8.91, 283.84
427.51, 9.17, 283.85
437.82, 6.96, 275.28
437.63, 6.96, 275.45
437.43, 6.95, 275.62
437.20, 6.95, 275.81
436.96, 6.94, 276.02
436.70, 6.93, 276.25
436.41, 6.93, 276.50
436.08, 6.92, 276.77
435.73, 6.91, 277.08
435.34, 6.90, 277.41
434.92, 6.90, 277.77
434.44, 6.90, 278.18
433.87, 6.88, 278.67
433.26, 6.88, 279.19
432.58, 6.88, 279.77
432.77, 7.10, 279.61
432.77, 7.28, 279.62
432.77, 7.45, 279.63
432.44, 7.57, 279.92
431.24, 7.57, 280.94
427.51, 7.28, 284.13
427.51, 7.55, 284.14
427.51, 7.82, 284.15
427.51, 8.09, 284.16
427.51, 8.36, 284.17
427.51, 8.63, 284.18
427.51, 8.90, 284.19
427.51, 9.17, 284.20
437.88, 6.96, 275.34
437.69, 6.96, 275.51
437.49, 6.95, 275.69
437.27, 6.95, 275.88
437.03, 6.94, 276.09
436.77, 6.93, 276.32
436.48, 6.93, 276.57
436.16, 6.92, 276.85
¯435.81, 6.91, 277.16
435.43, 6.90, 277.50
435.01, 6.90, 277.86
434.54, 6.89, 278.28
433.98, 6.88, 278.77
433.36, 6.87, 279.32
432.70, 6.88, 279.90
432.72, 7.06, 279.89
432.71, 7.24, 279.90
432.71, 7.42, 279.91
432.58, 7.57, 280.03
431.41, 7.57, 281.06
427.51, 7.25, 284.49
427.51, 7.52, 284.50
427.51, 7.80, 284.51
427.51, 8.07, 284.52
427.51, 8.34, 284.53
427.51, 8.61, 284.54
427.51, 8.89, 284.54
427.51, 9.16, 284.55
437.93, 6.96, 275.40
437.75, 6.96, 275.57
437.55, 6.95, 275.75
437.33, 6.95, 275.94
437.10, 6.94, 276.16
436.84, 6.93, 276.39
436.56, 6.93, 276.65
436.24, 6.92, 276.93
435.90, 6.91, 277.24
435.52, 6.90, 277.59
435.11, 6.90, 277.96
434.65, 6.89, 278.37
434.09, 6.88, 278.88
433.47, 6.87, 279.44
432.82, 6.87, 280.02
432.66, 7.02, 280.18
432.65, 7.20, 280.19
432.65, 7.38, 280.20
432.65, 7.56, 280.21
431.57, 7.57, 281.18
427.51, 7.22, 284.85
427.51, 7.50, 284.86
427.51, 7.77, 284.87
427.51, 8.05, 284.88
427.51, 8.32, 284.89
427.51, 8.60, 284.90
427.51, 8.88, 284.91
427.51, 9.15, 284.92
437.99, 6.96, 275.46
437.81, 6.96, 275.63
437.61, 6.95, 275.81
¯437.40, 6.95, 276.01
437.16, 6.94, 276.22
436.91, 6.93, 276.46
436.63, 6.93, 276.72
436.32, 6.92, 277.01
435.98, 6.91, 277.32
435.61, 6.90, 277.67
435.21, 6.90, 278.05
434.75, 6.89, 278.47
434.20, 6.88, 278.98
433.58, 6.86, 279.56
432.95, 6.87, 280.15
432.13, 6.86, 280.91
432.59, 7.15, 280.49
432.59, 7.34, 280.50
432.59, 7.52, 280.51
431.74, 7.57, 281.30
427.51, 7.19, 285.23
427.51, 7.47, 285.24
427.51, 7.75, 285.25
427.51, 8.03, 285.26
427.51, 8.31, 285.27
427.51, 8.58, 285.28
427.51, 8.86, 285.29
427.51, 9.14, 285.30
438.05, 6.96, 275.51
437.87, 6.96, 275.68
437.67, 6.95, 275.87
437.46, 6.95, 276.07
437.23, 6.94, 276.29
436.98, 6.93, 276.53
436.71, 6.92, 276.79
436.41, 6.92, 277.08
436.07, 6.91, 277.40
435.70, 6.90, 277.76
435.30, 6.90, 278.14
434.86, 6.89, 278.56
434.32, 6.88, 279.08
433.71, 6.86, 279.67
433.07, 6.87, 280.27
432.26, 6.85, 281.05
432.53, 7.11, 280.80
432.53, 7.30, 280.81
432.52, 7.48, 280.82
431.91, 7.57, 281.41
427.51, 7.15, 285.62
427.51, 7.44, 285.63
427.51, 7.72, 285.64
427.51, 8.00, 285.65
427.51, 8.29, 285.66
427.51, 8.57, 285.67
¯427.51, 8.85, 285.68
427.51, 9.13, 285.69
438.10, 6.96, 275.57
437.93, 6.96, 275.74
437.74, 6.95, 275.93
437.53, 6.94, 276.13
437.30, 6.94, 276.35
437.06, 6.93, 276.60
436.79, 6.92, 276.86
436.49, 6.92, 277.16
436.16, 6.91, 277.48
435.80, 6.90, 277.84
435.40, 6.90, 278.22
434.96, 6.89, 278.66
434.43, 6.88, 279.18
433.83, 6.86, 279.77
433.20, 6.86, 280.40
432.40, 6.85, 281.18
432.46, 7.06, 281.13
432.46, 7.25, 281.14
432.46, 7.44, 281.15
432.08, 7.57, 281.52
427.51, 7.12, 286.01
427.51, 7.40, 286.02
427.51, 7.69, 286.03
427.51, 7.98, 286.04
427.51, 8.27, 286.05
427.51, 8.55, 286.06
427.51, 8.84, 286.07
427.51, 9.13, 286.08
438.16, 6.96, 275.62
437.99, 6.96, 275.80
437.80, 6.95, 275.99
437.60, 6.94, 276.19
437.38, 6.94, 276.42
437.13, 6.93, 276.66
436.87, 6.92, 276.93
436.57, 6.92, 277.23
436.25, 6.91, 277.56
435.89, 6.90, 277.92
435.50, 6.89, 278.31
435.07, 6.89, 278.75
434.55, 6.88, 279.28
433.96, 6.86, 279.88
433.33, 6.86, 280.52
432.55, 6.85, 281.31
432.39, 7.01, 281.47
432.39, 7.20, 281.48
432.39, 7.40, 281.49
432.25, 7.57, 281.63
427.51, 7.08, 286.42
¯427.51, 7.37, 286.43
427.51, 7.66, 286.44
427.51, 7.96, 286.45
427.51, 8.25, 286.46
427.51, 8.54, 286.47
427.51, 8.83, 286.48
427.51, 9.12, 286.49
438.22, 6.96, 275.67
438.05, 6.95, 275.85
437.87, 6.95, 276.04
437.67, 6.94, 276.25
437.45, 6.94, 276.48
437.21, 6.93, 276.73
436.95, 6.92, 277.00
436.66, 6.91, 277.30
436.34, 6.91, 277.64
435.99, 6.90, 278.00
435.61, 6.89, 278.40
435.18, 6.89, 278.84
434.67, 6.88, 279.37
434.08, 6.86, 279.98
433.45, 6.86, 280.64
432.70, 6.85, 281.43
431.81, 6.84, 282.34
432.31, 7.15, 281.83
432.31, 7.35, 281.84
432.31, 7.55, 281.85
427.51, 7.04, 286.84
427.51, 7.34, 286.85
427.51, 7.63, 286.86
427.51, 7.93, 286.87
427.51, 8.22, 286.88
427.51, 8.52, 286.89
427.51, 8.81, 286.90
427.51, 9.11, 286.91
438.28, 6.96, 275.72
438.11, 6.95, 275.90
437.93, 6.95, 276.10
437.73, 6.94, 276.31
437.52, 6.94, 276.54
437.28, 6.93, 276.79
437.03, 6.92, 277.07
436.74, 6.91, 277.37
436.43, 6.90, 277.71
436.08, 6.90, 278.08
435.71, 6.89, 278.48
435.29, 6.89, 278.93
434.79, 6.87, 279.47
434.21, 6.86, 280.08
433.58, 6.85, 280.76
432.85, 6.85, 281.54
¯431.98, 6.84, 282.47
431.15, 6.87, 283.36
430.14, 6.91, 284.44
428.95, 6.95, 285.72
427.51, 7.00, 287.27
427.51, 7.30, 287.28
427.51, 7.60, 287.29
427.51, 7.90, 287.30
427.51, 8.20, 287.31
427.51, 8.50, 287.32
427.51, 8.80, 287.33
427.51, 9.10, 287.34
438.34, 6.96, 275.78
438.18, 6.95, 275.96
438.00, 6.95, 276.16
437.80, 6.94, 276.37
437.59, 6.94, 276.60
437.36, 6.93, 276.86
437.11, 6.92, 277.14
436.83, 6.91, 277.44
436.52, 6.90, 277.78
436.18, 6.90, 278.16
435.81, 6.89, 278.56
435.40, 6.89, 279.02
434.91, 6.87, 279.56
434.34, 6.86, 280.18
433.72, 6.85, 280.86
433.00, 6.84, 281.66
432.15, 6.84, 282.59
431.29, 6.86, 283.55
430.26, 6.89, 284.68
429.10, 6.93, 285.96
427.51, 6.96, 287.71
427.51, 7.27, 287.72
427.51, 7.57, 287.74
427.51, 7.88, 287.75
427.51, 8.18, 287.76
427.51, 8.48, 287.77
427.51, 8.79, 287.78
427.51, 9.09, 287.79
438.65, 7.10, 275.56
438.24, 6.95, 276.01
438.07, 6.95, 276.21
437.87, 6.94, 276.43
437.67, 6.94, 276.66
437.44, 6.93, 276.92
437.19, 6.92, 277.20
436.92, 6.91, 277.51
436.61, 6.90, 277.86
436.28, 6.90, 278.24
435.92, 6.89, 278.64
¯435.51, 6.89, 279.10
435.03, 6.87, 279.65
434.47, 6.86, 280.28
433.86, 6.85, 280.97
433.16, 6.84, 281.77
432.32, 6.83, 282.72
431.43, 6.85, 283.73
430.39, 6.87, 284.91
429.24, 6.92, 286.21
427.51, 6.92, 288.17
427.51, 7.23, 288.18
427.51, 7.54, 288.19
427.51, 7.85, 288.20
427.51, 8.16, 288.22
427.51, 8.47, 288.23
427.51, 8.77, 288.24
427.51, 9.08, 288.25
438.71, 7.10, 275.60
438.55, 7.10, 275.78
438.13, 6.95, 276.26
437.95, 6.94, 276.48
437.74, 6.94, 276.72
437.52, 6.93, 276.98
437.27, 6.92, 277.26
437.00, 6.91, 277.58
436.71, 6.90, 277.93
436.38, 6.89, 278.31
436.02, 6.89, 278.72
435.62, 6.89, 279.19
435.15, 6.87, 279.74
434.60, 6.86, 280.38
434.01, 6.85, 281.07
433.31, 6.84, 281.88
432.49, 6.83, 282.84
431.57, 6.84, 283.91
430.51, 6.85, 285.14
429.39, 6.90, 286.45
427.51, 6.88, 288.65
427.51, 7.19, 288.66
427.51, 7.51, 288.67
427.51, 7.82, 288.68
427.51, 8.13, 288.69
427.51, 8.45, 288.70
427.51, 8.76, 288.71
427.51, 9.07, 288.72
438.76, 7.10, 275.65
438.61, 7.10, 275.83
438.45, 7.09, 276.03
438.02, 6.94, 276.54
437.82, 6.94, 276.78
437.60, 6.93, 277.04
¯437.36, 6.92, 277.33
437.09, 6.91, 277.64
436.80, 6.90, 278.00
436.47, 6.89, 278.39
436.13, 6.89, 278.80
435.74, 6.89, 279.27
435.27, 6.87, 279.82
434.73, 6.86, 280.47
434.15, 6.85, 281.17
433.47, 6.84, 281.99
432.66, 6.83, 282.95
431.73, 6.83, 284.07
430.70, 6.85, 285.30
429.54, 6.88, 286.70
427.64, 6.85, 288.98
427.59, 7.16, 289.05
427.51, 7.47, 289.16
427.51, 7.79, 289.17
427.51, 8.11, 289.18
427.51, 8.43, 289.19
427.51, 8.75, 289.20
427.51, 9.06, 289.21
438.82, 7.10, 275.69
438.68, 7.10, 275.87
438.52, 7.09, 276.07
438.35, 7.09, 276.27
437.89, 6.94, 276.83
437.68, 6.93, 277.10
437.44, 6.92, 277.39
437.18, 6.91, 277.71
436.89, 6.90, 278.06
436.58, 6.89, 278.46
436.23, 6.89, 278.88
435.85, 6.88, 279.35
435.40, 6.87, 279.91
434.87, 6.86, 280.56
434.29, 6.85, 281.27
433.63, 6.84, 282.09
432.84, 6.83, 283.07
431.93, 6.83, 284.18
430.90, 6.84, 285.46
429.69, 6.87, 286.95
428.08, 6.88, 288.93
428.03, 7.18, 289.00
427.98, 7.49, 289.08
427.51, 7.76, 289.67
427.51, 8.08, 289.68
427.51, 8.41, 289.69
427.51, 8.73, 289.71
427.51, 9.06, 289.72
438.88, 7.10, 275.74
¯438.74, 7.10, 275.92
438.59, 7.09, 276.11
438.42, 7.09, 276.32
438.24, 7.08, 276.55
437.76, 6.93, 277.16
437.53, 6.92, 277.45
437.27, 6.91, 277.77
436.99, 6.90, 278.13
436.68, 6.89, 278.53
436.34, 6.89, 278.95
435.97, 6.88, 279.43
435.52, 6.87, 279.99
435.00, 6.85, 280.65
434.44, 6.85, 281.36
433.79, 6.84, 282.19
433.01, 6.83, 283.18
432.13, 6.83, 284.30
431.09, 6.84, 285.62
429.91, 6.86, 287.12
428.52, 6.90, 288.88
428.47, 7.20, 288.96
428.42, 7.51, 289.03
427.51, 7.73, 290.20
427.51, 8.06, 290.21
427.51, 8.39, 290.22
427.51, 8.72, 290.23
427.51, 9.05, 290.24
438.94, 7.10, 275.78
438.80, 7.10, 275.96
438.65, 7.09, 276.16
438.49, 7.09, 276.37
438.31, 7.08, 276.60
438.12, 7.07, 276.86
437.61, 6.92, 277.51
437.36, 6.91, 277.84
437.09, 6.90, 278.20
436.78, 6.89, 278.60
436.45, 6.89, 279.03
436.08, 6.88, 279.51
435.65, 6.87, 280.08
435.14, 6.85, 280.74
434.59, 6.85, 281.46
433.95, 6.84, 282.29
433.19, 6.83, 283.29
432.33, 6.83, 284.41
431.29, 6.83, 285.77
430.12, 6.85, 287.29
428.69, 6.88, 289.16
428.69, 7.20, 289.17
439.00, 7.10, 275.82
438.87, 7.10, 276.01
¯438.72, 7.09, 276.20
438.56, 7.09, 276.42
438.38, 7.08, 276.65
438.19, 7.07, 276.91
437.99, 7.07, 277.19
437.46, 6.91, 277.90
437.18, 6.90, 278.26
436.88, 6.89, 278.67
436.56, 6.89, 279.10
436.20, 6.88, 279.59
435.77, 6.87, 280.16
435.28, 6.85, 280.83
434.74, 6.85, 281.55
434.12, 6.84, 282.38
433.37, 6.83, 283.39
432.52, 6.83, 284.53
431.49, 6.83, 285.92
430.34, 6.85, 287.46
428.41, 6.79, 290.06
427.30, 6.94, 291.56
439.06, 7.10, 275.86
438.93, 7.10, 276.05
438.79, 7.09, 276.25
438.63, 7.09, 276.47
438.46, 7.08, 276.70
438.27, 7.07, 276.96
438.07, 7.07, 277.24
437.84, 7.06, 277.55
437.28, 6.90, 278.32
436.99, 6.89, 278.73
436.67, 6.89, 279.17
436.32, 6.88, 279.66
435.90, 6.87, 280.23
435.41, 6.85, 280.91
434.89, 6.85, 281.63
434.29, 6.84, 282.47
433.55, 6.83, 283.49
432.72, 6.83, 284.64
431.69, 6.82, 286.06
430.56, 6.84, 287.63
429.63, 6.95, 288.93
429.59, 7.25, 288.98
429.56, 7.54, 289.04
439.13, 7.10, 275.90
438.99, 7.10, 276.09
438.85, 7.09, 276.29
438.70, 7.09, 276.51
438.53, 7.08, 276.75
438.35, 7.07, 277.01
438.15, 7.07, 277.29
437.93, 7.06, 277.61
¯437.69, 7.05, 277.95
437.09, 6.89, 278.80
436.78, 6.89, 279.24
436.43, 6.88, 279.73
436.03, 6.87, 280.31
435.55, 6.85, 280.99
435.04, 6.85, 281.72
434.45, 6.84, 282.56
433.73, 6.83, 283.59
432.92, 6.83, 284.74
431.91, 6.82, 286.19
430.78, 6.84, 287.80
429.91, 6.95, 289.05
429.87, 7.25, 289.11
429.84, 7.54, 289.16
439.19, 7.10, 275.94
439.06, 7.10, 276.13
438.92, 7.09, 276.34
438.77, 7.09, 276.56
438.61, 7.08, 276.80
438.43, 7.07, 277.06
438.23, 7.07, 277.34
438.02, 7.06, 277.66
437.78, 7.05, 278.01
437.51, 7.04, 278.40
436.89, 6.89, 279.31
436.55, 6.88, 279.81
436.16, 6.87, 280.39
435.69, 6.85, 281.07
435.19, 6.85, 281.81
434.62, 6.85, 282.65
433.91, 6.83, 283.69
433.12, 6.83, 284.85
432.13, 6.82, 286.31
431.00, 6.83, 287.96
430.18, 6.95, 289.17
430.15, 7.25, 289.23
430.12, 7.54, 289.28
439.25, 7.10, 275.98
439.13, 7.10, 276.17
438.99, 7.09, 276.38
438.84, 7.09, 276.60
438.68, 7.08, 276.84
438.51, 7.07, 277.11
438.32, 7.07, 277.39
438.11, 7.06, 277.71
437.87, 7.05, 278.07
437.61, 7.04, 278.46
437.32, 7.03, 278.90
436.67, 6.88, 279.88
436.29, 6.87, 280.46
¯435.83, 6.85, 281.15
435.35, 6.85, 281.89
434.79, 6.85, 282.73
434.09, 6.83, 283.79
433.32, 6.83, 284.95
432.35, 6.82, 286.43
431.23, 6.82, 288.13
430.46, 6.95, 289.29
430.43, 7.25, 289.35
430.40, 7.54, 289.40
439.31, 7.10, 276.02
439.19, 7.10, 276.21
439.06, 7.09, 276.42
438.92, 7.09, 276.64
438.76, 7.08, 276.89
438.59, 7.07, 277.15
438.40, 7.07, 277.44
438.20, 7.06, 277.76
437.97, 7.05, 278.12
437.71, 7.04, 278.52
437.43, 7.03, 278.96
437.12, 7.02, 279.44
436.42, 6.87, 280.53
435.97, 6.85, 281.23
435.50, 6.85, 281.97
434.96, 6.85, 282.82
434.28, 6.83, 283.88
433.53, 6.83, 285.05
432.57, 6.82, 286.54
431.45, 6.82, 288.29
430.02, 6.81, 290.53
428.72, 6.90, 292.56
439.38, 7.10, 276.06
439.26, 7.10, 276.25
439.13, 7.09, 276.46
438.99, 7.09, 276.68
438.84, 7.08, 276.93
438.67, 7.07, 277.20
438.49, 7.07, 277.49
438.29, 7.06, 277.81
438.06, 7.05, 278.17
437.82, 7.04, 278.57
437.54, 7.03, 279.02
437.24, 7.02, 279.50
436.90, 7.02, 280.05
436.12, 6.85, 281.30
435.65, 6.85, 282.05
435.13, 6.85, 282.90
434.46, 6.83, 283.96
433.73, 6.83, 285.15
432.79, 6.82, 286.65
¯431.68, 6.81, 288.44
430.31, 6.81, 290.65
429.00, 6.90, 292.76
439.44, 7.10, 276.09
439.33, 7.10, 276.29
439.20, 7.09, 276.50
439.06, 7.09, 276.72
438.91, 7.08, 276.97
438.75, 7.07, 277.24
438.57, 7.07, 277.54
438.38, 7.06, 277.86
438.16, 7.05, 278.22
437.92, 7.04, 278.63
437.65, 7.03, 279.08
437.35, 7.02, 279.56
437.02, 7.02, 280.11
436.64, 7.01, 280.75
435.81, 6.85, 282.13
435.30, 6.85, 282.97
434.65, 6.83, 284.05
433.93, 6.83, 285.25
433.02, 6.82, 286.76
431.94, 6.81, 288.55
431.04, 6.90, 290.05
431.04, 7.21, 290.05
431.05, 7.51, 290.05
439.51, 7.10, 276.13
439.39, 7.10, 276.32
439.27, 7.09, 276.54
439.14, 7.09, 276.76
438.99, 7.08, 277.01
438.83, 7.07, 277.29
438.66, 7.07, 277.58
438.47, 7.06, 277.91
438.25, 7.05, 278.27
438.02, 7.04, 278.68
437.75, 7.03, 279.13
437.47, 7.02, 279.62
437.15, 7.01, 280.18
436.77, 7.00, 280.82
436.33, 6.99, 281.57
435.47, 6.85, 283.05
434.84, 6.83, 284.13
434.13, 6.83, 285.35
433.24, 6.81, 286.87
432.20, 6.81, 288.66
431.21, 6.88, 290.36
431.14, 7.17, 290.48
431.08, 7.47, 290.60
439.57, 7.10, 276.16
439.46, 7.10, 276.36
¯439.34, 7.09, 276.57
439.21, 7.09, 276.80
439.07, 7.08, 277.05
438.91, 7.07, 277.33
438.74, 7.07, 277.63
438.56, 7.06, 277.96
438.35, 7.05, 278.32
438.12, 7.04, 278.73
437.86, 7.03, 279.19
437.59, 7.02, 279.68
437.27, 7.01, 280.24
436.91, 7.00, 280.88
436.48, 6.99, 281.64
436.01, 6.99, 282.46
435.03, 6.83, 284.21
434.33, 6.83, 285.44
433.46, 6.81, 286.98
432.45, 6.81, 288.77
431.22, 6.82, 290.96
431.15, 7.12, 291.08
439.64, 7.10, 276.20
439.53, 7.10, 276.39
439.41, 7.09, 276.61
439.28, 7.09, 276.84
439.15, 7.08, 277.09
439.00, 7.07, 277.37
438.83, 7.07, 277.67
438.65, 7.06, 278.00
438.45, 7.05, 278.37
438.23, 7.04, 278.78
437.97, 7.03, 279.24
437.70, 7.02, 279.73
437.40, 7.01, 280.30
437.04, 7.00, 280.95
436.62, 6.99, 281.71
436.17, 6.99, 282.54
435.65, 6.98, 283.50
434.53, 6.83, 285.54
433.69, 6.81, 287.08
432.71, 6.81, 288.87
431.48, 6.81, 291.13
431.17, 7.06, 291.71
431.10, 7.37, 291.84
439.70, 7.10, 276.23
439.60, 7.10, 276.43
439.48, 7.09, 276.64
439.36, 7.09, 276.88
439.23, 7.08, 277.13
439.08, 7.07, 277.41
438.92, 7.07, 277.71
438.74, 7.06, 278.05
¯438.55, 7.05, 278.42
438.33, 7.04, 278.83
438.09, 7.03, 279.29
437.82, 7.02, 279.79
437.52, 7.01, 280.35
437.18, 7.00, 281.01
436.77, 6.99, 281.78
436.33, 6.99, 282.61
435.82, 6.98, 283.58
434.74, 6.83, 285.63
433.92, 6.81, 287.17
432.97, 6.81, 288.97
431.77, 6.81, 291.24
431.18, 7.00, 292.37
431.11, 7.32, 292.51
439.77, 7.10, 276.26
439.67, 7.10, 276.46
439.56, 7.09, 276.68
439.44, 7.09, 276.91
439.31, 7.08, 277.17
439.16, 7.07, 277.45
439.01, 7.07, 277.75
438.84, 7.06, 278.09
438.65, 7.05, 278.46
438.43, 7.04, 278.88
438.20, 7.03, 279.34
437.94, 7.02, 279.84
437.65, 7.01, 280.41
437.31, 7.00, 281.07
436.92, 6.99, 281.84
436.49, 6.99, 282.68
435.99, 6.98, 283.66
435.37, 6.97, 284.87
434.15, 6.81, 287.27
433.23, 6.81, 289.07
432.07, 6.81, 291.34
431.09, 6.92, 293.25
431.10, 7.26, 293.25
431.02, 7.59, 293.42
439.84, 7.10, 276.29
439.74, 7.10, 276.49
439.63, 7.09, 276.71
439.51, 7.09, 276.95
439.39, 7.08, 277.20
439.25, 7.07, 277.48
439.10, 7.07, 277.79
438.93, 7.06, 278.13
438.74, 7.05, 278.50
438.54, 7.04, 278.92
438.31, 7.03, 279.39
438.06, 7.02, 279.89
¯437.78, 7.01, 280.47
437.45, 7.00, 281.13
437.07, 6.99, 281.91
436.65, 6.99, 282.75
436.17, 6.98, 283.73
435.56, 6.97, 284.95
434.38, 6.81, 287.35
433.48, 6.81, 289.17
432.36, 6.81, 291.45
439.90, 7.10, 276.32
439.81, 7.10, 276.52
439.70, 7.09, 276.74
439.59, 7.09, 276.98
439.47, 7.08, 277.24
439.33, 7.07, 277.52
439.18, 7.07, 277.83
439.02, 7.06, 278.17
438.84, 7.05, 278.55
438.64, 7.04, 278.97
438.42, 7.03, 279.43
438.18, 7.02, 279.94
437.90, 7.01, 280.52
437.59, 7.00, 281.19
437.21, 6.99, 281.97
436.81, 6.98, 282.81
436.34, 6.98, 283.80
435.76, 6.97, 285.03
435.06, 6.96, 286.50
433.74, 6.81, 289.26
432.65, 6.81, 291.55
439.97, 7.10, 276.35
439.88, 7.10, 276.55
439.78, 7.09, 276.77
439.67, 7.09, 277.01
439.55, 7.08, 277.27
439.42, 7.07, 277.56
439.27, 7.07, 277.87
439.12, 7.06, 278.21
438.94, 7.05, 278.59
438.75, 7.04, 279.01
438.53, 7.03, 279.48
438.30, 7.02, 279.99
438.03, 7.01, 280.57
437.72, 7.00, 281.25
437.36, 6.99, 282.03
436.97, 6.98, 282.88
436.52, 6.98, 283.88
435.95, 6.97, 285.11
435.27, 6.95, 286.58
434.00, 6.81, 289.35
432.95, 6.81, 291.65
¯440.04, 7.10, 276.38
439.95, 7.10, 276.58
439.85, 7.09, 276.80
439.74, 7.09, 277.04
439.63, 7.08, 277.31
439.50, 7.07, 277.59
439.36, 7.07, 277.90
439.21, 7.06, 278.25
439.04, 7.05, 278.63
438.86, 7.04, 279.05
438.65, 7.03, 279.52
438.42, 7.02, 280.03
438.16, 7.01, 280.62
437.86, 7.00, 281.30
437.51, 6.99, 282.09
437.14, 6.98, 282.94
436.69, 6.98, 283.94
436.15, 6.97, 285.18
435.49, 6.95, 286.67
434.71, 6.95, 288.42
433.24, 6.81, 291.75
440.11, 7.10, 276.40
440.02, 7.10, 276.61
439.92, 7.09, 276.83
439.82, 7.09, 277.08
439.71, 7.08, 277.34
439.59, 7.07, 277.62
439.45, 7.07, 277.94
439.31, 7.06, 278.28
439.14, 7.05, 278.67
438.96, 7.04, 279.09
438.76, 7.03, 279.57
438.54, 7.02, 280.08
438.29, 7.01, 280.67
438.00, 7.00, 281.35
437.66, 6.99, 282.14
437.30, 6.98, 283.00
436.87, 6.98, 284.01
436.34, 6.97, 285.25
435.71, 6.95, 286.74
434.96, 6.95, 288.51
433.54, 6.81, 291.84
440.18, 7.10, 276.43
440.09, 7.10, 276.64
440.00, 7.09, 276.86
439.90, 7.09, 277.10
439.79, 7.08, 277.37
439.67, 7.07, 277.66
439.54, 7.07, 277.97
439.40, 7.06, 278.32
439.25, 7.05, 278.70
¯439.07, 7.04, 279.13
438.87, 7.03, 279.61
438.66, 7.02, 280.12
438.42, 7.01, 280.72
438.14, 7.00, 281.40
437.81, 6.99, 282.20
437.46, 6.98, 283.06
437.05, 6.98, 284.08
436.54, 6.97, 285.32
435.92, 6.95, 286.82
435.20, 6.95, 288.58
434.31, 6.95, 290.77
440.24, 7.10, 276.45
440.16, 7.10, 276.66
440.07, 7.09, 276.89
439.98, 7.09, 277.13
439.87, 7.08, 277.40
439.76, 7.07, 277.69
439.63, 7.07, 278.00
439.50, 7.06, 278.35
439.35, 7.05, 278.74
439.18, 7.04, 279.17
438.99, 7.03, 279.65
438.79, 7.02, 280.16
438.55, 7.01, 280.76
438.28, 7.00, 281.45
437.97, 6.99, 282.25
437.63, 6.98, 283.12
437.22, 6.98, 284.14
436.73, 6.96, 285.39
436.14, 6.95, 286.89
435.45, 6.95, 288.66
434.59, 6.95, 290.85
440.31, 7.10, 276.48
440.23, 7.10, 276.69
440.15, 7.09, 276.92
440.06, 7.09, 277.16
439.96, 7.08, 277.43
439.85, 7.07, 277.72
439.73, 7.07, 278.03
439.59, 7.06, 278.38
439.45, 7.05, 278.77
439.29, 7.04, 279.20
439.10, 7.03, 279.68
438.91, 7.02, 280.20
438.68, 7.01, 280.81
438.42, 7.00, 281.50
438.12, 6.99, 282.30
437.79, 6.98, 283.17
437.40, 6.98, 284.20
436.93, 6.96, 285.46
¯436.36, 6.95, 286.96
435.69, 6.95, 288.73
434.87, 6.95, 290.93
433.82, 6.96, 293.71
440.38, 7.10, 276.50
440.31, 7.10, 276.71
440.22, 7.09, 276.94
440.13, 7.09, 277.19
440.04, 7.08, 277.45
439.93, 7.07, 277.75
439.82, 7.07, 278.06
439.69, 7.06, 278.42
439.55, 7.05, 278.80
439.39, 7.04, 279.24
439.22, 7.03, 279.72
439.03, 7.03, 280.24
438.81, 7.01, 280.85
438.56, 7.00, 281.55
438.27, 6.99, 282.35
437.95, 6.98, 283.23
437.58, 6.98, 284.26
437.13, 6.96, 285.52
436.58, 6.95, 287.03
435.94, 6.95, 288.81
435.14, 6.95, 291.01
434.14, 6.96, 293.79
440.45, 7.10, 276.52
440.38, 7.10, 276.74
440.30, 7.09, 276.96
440.21, 7.09, 277.21
440.12, 7.08, 277.48
440.02, 7.07, 277.77
439.91, 7.07, 278.09
439.79, 7.06, 278.45
439.65, 7.05, 278.84
439.50, 7.04, 279.27
439.34, 7.03, 279.76
439.15, 7.03, 280.28
438.94, 7.01, 280.89
438.70, 7.00, 281.59
438.42, 6.99, 282.40
438.12, 6.98, 283.28
437.76, 6.98, 284.32
437.32, 6.96, 285.58
436.80, 6.95, 287.09
436.19, 6.95, 288.87
435.42, 6.95, 291.09
436.44, 7.54, 288.16
436.54, 8.53, 287.89
436.54, 8.77, 287.89
436.54, 9.01, 287.89
¯440.52, 7.10, 276.55
440.45, 7.10, 276.76
440.38, 7.09, 276.99
440.29, 7.09, 277.24
440.20, 7.08, 277.51
440.11, 7.08, 277.80
440.00, 7.07, 278.12
439.89, 7.06, 278.47
439.76, 7.05, 278.87
439.61, 7.04, 279.30
439.45, 7.03, 279.79
439.28, 7.03, 280.31
439.08, 7.01, 280.93
438.84, 7.00, 281.63
438.58, 6.99, 282.44
438.28, 6.98, 283.33
437.94, 6.97, 284.37
437.52, 6.96, 285.64
437.02, 6.95, 287.16
436.43, 6.95, 288.94
435.70, 6.95, 291.16
436.68, 7.54, 288.21
436.67, 7.78, 288.24
436.63, 8.02, 288.36
436.48, 8.24, 288.83
436.77, 8.53, 287.95
436.78, 8.77, 287.95
436.78, 9.01, 287.95
440.59, 7.10, 276.57
440.52, 7.10, 276.78
440.45, 7.09, 277.01
440.37, 7.09, 277.26
440.29, 7.08, 277.53
440.20, 7.08, 277.82
440.09, 7.07, 278.15
439.98, 7.06, 278.50
439.86, 7.05, 278.89
439.72, 7.04, 279.33
439.57, 7.03, 279.82
439.40, 7.03, 280.35
439.21, 7.01, 280.97
438.99, 7.00, 281.67
438.73, 6.99, 282.49
438.45, 6.98, 283.38
438.12, 6.97, 284.42
437.72, 6.96, 285.69
437.24, 6.95, 287.22
436.68, 6.95, 289.00
435.98, 6.95, 291.23
436.92, 7.54, 288.27
436.91, 7.78, 288.29
¯436.90, 8.02, 288.34
436.80, 8.25, 288.65
437.01, 8.53, 288.00
437.01, 8.77, 288.00
437.01, 9.00, 288.00
440.66, 7.10, 276.59
440.60, 7.10, 276.80
440.53, 7.09, 277.03
440.45, 7.09, 277.28
440.37, 7.08, 277.55
440.28, 7.08, 277.85
440.19, 7.07, 278.17
440.08, 7.06, 278.53
439.96, 7.05, 278.92
439.83, 7.04, 279.36
439.68, 7.03, 279.85
439.53, 7.03, 280.38
439.34, 7.01, 281.00
439.13, 7.00, 281.71
438.88, 6.99, 282.53
438.62, 6.98, 283.42
438.30, 6.97, 284.48
437.92, 6.96, 285.75
437.47, 6.95, 287.27
436.93, 6.95, 289.07
436.26, 6.95, 291.30
437.16, 7.54, 288.32
437.15, 7.78, 288.35
437.14, 8.02, 288.39
437.13, 8.26, 288.44
437.24, 8.53, 288.05
437.24, 8.76, 288.05
437.25, 9.00, 288.05
440.73, 7.10, 276.60
440.67, 7.10, 276.82
440.61, 7.09, 277.05
440.53, 7.09, 277.30
440.46, 7.08, 277.57
440.37, 7.08, 277.87
440.28, 7.07, 278.20
440.18, 7.06, 278.55
440.07, 7.05, 278.95
439.94, 7.04, 279.39
439.80, 7.03, 279.88
439.65, 7.03, 280.41
439.47, 7.02, 281.04
439.27, 7.00, 281.75
439.04, 6.99, 282.57
438.78, 6.98, 283.47
438.48, 6.97, 284.52
438.12, 6.96, 285.80
¯437.69, 6.95, 287.33
437.18, 6.95, 289.13
436.54, 6.95, 291.36
437.39, 7.54, 288.38
437.39, 7.78, 288.40
437.38, 8.02, 288.45
437.36, 8.26, 288.49
437.48, 8.52, 288.11
437.48, 8.76, 288.11
437.48, 9.00, 288.11
440.80, 7.10, 276.62
440.75, 7.10, 276.84
440.68, 7.09, 277.07
440.61, 7.09, 277.32
440.54, 7.08, 277.59
440.46, 7.08, 277.89
440.37, 7.07, 278.22
440.28, 7.06, 278.58
440.17, 7.05, 278.97
440.05, 7.04, 279.41
439.92, 7.03, 279.91
439.78, 7.03, 280.44
439.61, 7.02, 281.07
439.42, 7.00, 281.78
439.19, 6.99, 282.60
438.95, 6.98, 283.51
438.67, 6.97, 284.57
438.32, 6.96, 285.85
437.91, 6.95, 287.38
437.43, 6.95, 289.18
436.82, 6.95, 291.43
437.63, 7.54, 288.43
437.63, 7.78, 288.46
437.61, 8.02, 288.50
437.60, 8.26, 288.55
437.71, 8.52, 288.16
437.71, 8.76, 288.16
437.71, 9.00, 288.16
440.87, 7.10, 276.64
440.82, 7.10, 276.86
440.76, 7.09, 277.09
440.70, 7.09, 277.34
440.63, 7.08, 277.61
440.55, 7.08, 277.91
440.47, 7.07, 278.24
440.38, 7.06, 278.60
440.28, 7.05, 279.00
440.16, 7.04, 279.44
440.04, 7.03, 279.93
439.90, 7.03, 280.47
439.74, 7.02, 281.10
¯439.56, 7.00, 281.81
439.35, 6.99, 282.64
439.12, 6.98, 283.55
438.85, 6.97, 284.61
438.52, 6.96, 285.90
438.13, 6.95, 287.43
437.67, 6.95, 289.24
437.10, 6.95, 291.49
437.87, 7.54, 288.49
437.86, 7.78, 288.51
437.85, 8.02, 288.56
437.84, 8.26, 288.60
437.94, 8.52, 288.21
437.94, 8.76, 288.21
437.94, 9.00, 288.21
440.95, 7.10, 276.65
440.89, 7.10, 276.87
440.84, 7.10, 277.11
440.78, 7.09, 277.36
440.71, 7.08, 277.63
440.64, 7.08, 277.93
440.56, 7.07, 278.26
440.48, 7.06, 278.62
440.38, 7.05, 279.02
440.27, 7.05, 279.46
440.16, 7.04, 279.96
440.03, 7.03, 280.50
439.88, 7.02, 281.13
439.70, 7.00, 281.85
439.51, 6.99, 282.67
439.29, 6.98, 283.59
439.03, 6.97, 284.66
438.72, 6.96, 285.95
438.36, 6.95, 287.48
437.92, 6.95, 289.29
437.38, 6.95, 291.54
438.10, 7.54, 288.54
438.10, 7.78, 288.56
438.09, 8.02, 288.61
438.08, 8.26, 288.66
438.17, 8.52, 288.27
438.18, 8.76, 288.27
438.18, 9.00, 288.27
441.02, 7.10, 276.67
440.97, 7.10, 276.89
440.92, 7.10, 277.12
440.86, 7.09, 277.37
440.80, 7.08, 277.65
440.73, 7.08, 277.95
440.66, 7.07, 278.28
440.57, 7.06, 278.64
¯440.48, 7.06, 279.04
440.38, 7.05, 279.48
440.27, 7.04, 279.98
440.15, 7.03, 280.52
440.01, 7.02, 281.15
439.85, 7.00, 281.87
439.66, 6.99, 282.70
439.46, 6.98, 283.62
439.21, 6.97, 284.70
438.92, 6.96, 285.99
438.58, 6.95, 287.53
438.17, 6.95, 289.34
437.67, 6.95, 291.60
438.34, 7.54, 288.59
438.34, 7.78, 288.62
438.33, 8.02, 288.67
438.30, 8.26, 288.79
438.41, 8.52, 288.32
438.41, 8.76, 288.32
438.41, 9.00, 288.32
441.09, 7.11, 276.68
441.04, 7.10, 276.90
440.99, 7.10, 277.14
440.94, 7.09, 277.39
440.88, 7.08, 277.67
440.82, 7.08, 277.97
440.75, 7.07, 278.30
440.67, 7.06, 278.66
440.59, 7.06, 279.06
440.50, 7.05, 279.50
440.39, 7.04, 280.00
440.28, 7.03, 280.55
440.14, 7.02, 281.18
439.99, 7.00, 281.90
439.82, 6.99, 282.73
439.62, 6.98, 283.66
439.40, 6.97, 284.73
439.13, 6.96, 286.03
438.80, 6.95, 287.57
438.42, 6.95, 289.39
437.95, 6.95, 291.65
438.58, 7.53, 288.65
438.57, 7.78, 288.67
438.56, 8.02, 288.75
438.47, 8.24, 289.18
438.64, 8.52, 288.37
438.64, 8.76, 288.37
438.64, 9.00, 288.37
441.16, 7.11, 276.70
441.12, 7.10, 276.91
441.07, 7.10, 277.15
¯441.02, 7.09, 277.40
440.97, 7.09, 277.68
440.91, 7.08, 277.98
440.84, 7.07, 278.31
440.77, 7.06, 278.68
440.69, 7.06, 279.08
440.61, 7.05, 279.52
440.51, 7.04, 280.02
440.40, 7.03, 280.57
440.28, 7.02, 281.20
440.14, 7.00, 281.93
439.97, 6.99, 282.76
439.79, 6.98, 283.69
439.58, 6.97, 284.77
439.33, 6.96, 286.07
439.03, 6.95, 287.61
438.67, 6.95, 289.43
438.23, 6.95, 291.70
438.82, 7.53, 288.70
438.81, 7.77, 288.74
438.73, 7.99, 289.13
438.69, 8.23, 289.34
438.87, 8.52, 288.43
438.87, 8.76, 288.43
438.87, 9.00, 288.43
441.23, 7.11, 276.71
441.19, 7.10, 276.93
441.15, 7.10, 277.16
441.10, 7.09, 277.42
441.05, 7.09, 277.70
441.00, 7.08, 278.00
440.94, 7.07, 278.33
440.87, 7.07, 278.69
440.80, 7.06, 279.09
440.72, 7.05, 279.54
440.63, 7.04, 280.04
440.53, 7.03, 280.59
440.41, 7.02, 281.23
440.28, 7.00, 281.95
440.13, 6.99, 282.79
439.96, 6.98, 283.72
439.77, 6.97, 284.80
439.53, 6.96, 286.11
439.25, 6.95, 287.65
438.92, 6.95, 289.47
438.51, 6.95, 291.75
438.01, 6.96, 294.53
439.10, 8.52, 288.48
439.11, 8.76, 288.48
439.11, 9.00, 288.48
441.30, 7.11, 276.72
¯441.27, 7.10, 276.94
441.23, 7.10, 277.17
441.18, 7.09, 277.43
441.14, 7.09, 277.71
441.09, 7.08, 278.01
441.03, 7.07, 278.34
440.97, 7.07, 278.71
440.91, 7.06, 279.11
440.83, 7.05, 279.56
440.75, 7.04, 280.06
440.66, 7.03, 280.61
440.55, 7.02, 281.25
440.43, 7.00, 281.97
440.29, 6.99, 282.81
440.13, 6.98, 283.75
439.95, 6.97, 284.84
439.73, 6.96, 286.15
439.48, 6.95, 287.69
439.17, 6.95, 289.51
438.79, 6.95, 291.79
438.33, 6.96, 294.58
441.38, 7.11, 276.73
441.34, 7.10, 276.95
441.31, 7.10, 277.19
441.27, 7.09, 277.44
441.22, 7.09, 277.72
441.18, 7.08, 278.02
441.13, 7.07, 278.35
441.07, 7.07, 278.72
441.01, 7.06, 279.12
440.94, 7.05, 279.57
440.87, 7.04, 280.07
440.78, 7.03, 280.63
440.69, 7.02, 281.26
440.57, 7.00, 281.99
440.45, 6.99, 282.83
440.30, 6.98, 283.77
440.14, 6.97, 284.87
439.94, 6.96, 286.18
439.70, 6.95, 287.72
439.42, 6.95, 289.55
439.08, 6.95, 291.84
438.65, 6.96, 294.62
441.45, 7.11, 276.74
441.42, 7.10, 276.96
441.38, 7.10, 277.20
441.35, 7.09, 277.45
441.31, 7.09, 277.73
441.27, 7.08, 278.03
441.22, 7.08, 278.37
441.17, 7.07, 278.73
¯441.12, 7.06, 279.13
441.06, 7.05, 279.58
440.99, 7.04, 280.09
440.91, 7.03, 280.64
440.82, 7.02, 281.28
440.72, 7.01, 282.01
440.60, 6.99, 282.85
440.47, 6.98, 283.80
440.32, 6.97, 284.89
440.14, 6.96, 286.21
439.93, 6.95, 287.76
439.68, 6.95, 289.59
439.36, 6.95, 291.88
438.98, 6.97, 294.66
441.52, 7.11, 276.75
441.49, 7.10, 276.97
441.46, 7.10, 277.20
441.43, 7.09, 277.46
441.40, 7.09, 277.74
441.36, 7.08, 278.04
441.32, 7.08, 278.38
441.27, 7.07, 278.74
441.22, 7.06, 279.15
441.17, 7.05, 279.59
441.11, 7.04, 280.10
441.04, 7.03, 280.66
440.96, 7.02, 281.30
440.87, 7.01, 282.03
440.76, 6.99, 282.87
440.64, 6.98, 283.82
440.51, 6.97, 284.92
440.35, 6.96, 286.24
440.03, 6.81, 288.77
439.79, 6.81, 290.71
439.49, 6.81, 293.13
439.15, 6.85, 295.90
441.59, 7.11, 276.75
441.57, 7.10, 276.97
441.54, 7.10, 277.21
441.51, 7.09, 277.47
441.48, 7.09, 277.75
441.45, 7.08, 278.05
441.41, 7.08, 278.39
441.37, 7.07, 278.75
441.33, 7.06, 279.16
441.28, 7.05, 279.61
441.22, 7.04, 280.11
441.16, 7.03, 280.67
441.09, 7.02, 281.31
441.01, 7.01, 282.04
440.92, 6.99, 282.89
¯440.82, 6.98, 283.84
440.69, 6.97, 284.94
440.45, 6.81, 287.21
440.27, 6.81, 288.80
440.06, 6.81, 290.74
439.79, 6.81, 293.16
439.93, 7.24, 291.93
439.93, 7.53, 291.93
439.91, 7.80, 292.11
441.66, 7.11, 276.76
441.64, 7.10, 276.98
441.62, 7.10, 277.22
441.60, 7.10, 277.48
441.57, 7.09, 277.76
441.54, 7.08, 278.06
441.51, 7.08, 278.39
441.47, 7.07, 278.76
441.43, 7.06, 279.16
441.39, 7.05, 279.61
441.34, 7.04, 280.12
441.29, 7.03, 280.68
441.23, 7.02, 281.32
441.16, 7.01, 282.05
441.08, 6.99, 282.90
440.99, 6.98, 283.86
440.80, 6.82, 285.83
440.67, 6.81, 287.23
440.51, 6.81, 288.82
440.59, 7.16, 287.97
440.59, 7.39, 288.05
440.58, 7.61, 288.12
440.57, 7.84, 288.20
440.05, 7.69, 293.70
441.74, 7.11, 276.77
441.72, 7.11, 276.99
441.70, 7.10, 277.22
441.68, 7.10, 277.48
441.66, 7.09, 277.76
441.63, 7.08, 278.07
441.60, 7.08, 278.40
441.57, 7.07, 278.77
441.54, 7.06, 279.17
441.50, 7.05, 279.62
441.46, 7.04, 280.12
441.42, 7.03, 280.69
441.37, 7.02, 281.33
441.31, 7.01, 282.07
441.24, 6.99, 282.92
441.09, 6.83, 284.67
441.00, 6.82, 285.85
440.88, 6.81, 287.25
¯440.75, 6.81, 288.85
440.84, 7.20, 287.73
440.84, 7.42, 287.80
440.83, 7.64, 287.87
440.81, 7.85, 288.09
440.21, 7.57, 295.55
440.13, 7.85, 296.53
441.81, 7.11, 276.77
441.79, 7.11, 276.99
441.78, 7.10, 277.23
441.76, 7.10, 277.49
441.74, 7.09, 277.77
441.72, 7.09, 278.07
441.70, 7.08, 278.40
441.67, 7.07, 278.77
441.65, 7.06, 279.18
441.62, 7.06, 279.63
441.58, 7.05, 280.13
441.54, 7.03, 280.70
441.50, 7.02, 281.34
441.45, 7.01, 282.07
441.39, 6.99, 282.93
441.28, 6.83, 284.69
441.20, 6.82, 285.87
441.10, 6.81, 287.27
441.09, 7.01, 287.42
441.09, 7.23, 287.49
441.08, 7.45, 287.56
441.08, 7.66, 287.63
441.88, 7.11, 276.77
441.87, 7.11, 276.99
441.86, 7.10, 277.23
441.84, 7.10, 277.49
441.83, 7.09, 277.77
441.81, 7.09, 278.08
441.79, 7.08, 278.41
441.78, 7.07, 278.78
441.75, 7.06, 279.18
441.73, 7.06, 279.63
441.70, 7.05, 280.14
441.67, 7.04, 280.70
441.64, 7.02, 281.34
441.60, 7.01, 282.08
441.51, 6.85, 283.69
441.46, 6.84, 284.70
441.40, 6.82, 285.89
441.32, 6.81, 287.29
441.31, 7.01, 287.50
441.31, 7.23, 287.50
441.31, 7.46, 287.50
441.31, 7.68, 287.50
¯441.95, 7.11, 276.78
441.95, 7.11, 277.00
441.94, 7.10, 277.24
441.93, 7.10, 277.49
441.92, 7.09, 277.77
441.90, 7.09, 278.08
441.89, 7.08, 278.41
441.88, 7.07, 278.78
441.86, 7.07, 279.18
441.84, 7.06, 279.63
441.82, 7.05, 280.14
441.80, 7.04, 280.71
441.77, 7.02, 281.35
441.75, 7.01, 282.09
441.68, 6.85, 283.69
441.64, 6.84, 284.70
441.60, 6.83, 285.89
441.54, 6.81, 287.30
441.48, 6.81, 288.91
441.40, 6.81, 290.87
441.30, 6.82, 293.30
441.19, 6.85, 296.08
442.03, 7.11, 276.78
442.02, 7.11, 277.00
442.02, 7.10, 277.24
442.01, 7.10, 277.49
442.00, 7.09, 277.77
441.99, 7.09, 278.08
441.99, 7.08, 278.41
441.98, 7.07, 278.78
441.97, 7.07, 279.19
441.95, 7.06, 279.64
441.94, 7.05, 280.14
441.93, 7.04, 280.71
441.91, 7.03, 281.35
441.87, 6.86, 282.81
441.85, 6.85, 283.69
441.83, 6.84, 284.70
441.80, 6.83, 285.89
441.76, 6.81, 287.31
441.72, 6.81, 288.92
441.67, 6.81, 290.89
441.61, 6.82, 293.32
441.54, 6.85, 296.10
442.10, 7.11, 276.78
442.10, 7.11, 277.00
442.09, 7.10, 277.24
442.09, 7.10, 277.50
442.09, 7.09, 277.77
442.08, 7.09, 278.08
442.08, 7.08, 278.41
¯442.08, 7.08, 278.78
442.07, 7.07, 279.19
442.07, 7.06, 279.64
442.06, 7.05, 280.14
442.05, 7.04, 280.71
442.05, 7.03, 281.35
442.03, 6.86, 282.80
442.02, 6.85, 283.69
442.01, 6.84, 284.70
442.00, 6.83, 285.89
441.98, 6.82, 287.30
441.96, 6.81, 288.94
441.94, 6.81, 290.90
441.91, 6.82, 293.33
441.88, 6.85, 296.12
442.17, 7.11, 276.78
442.17, 7.11, 277.00
442.17, 7.11, 277.24
442.17, 7.10, 277.49
442.17, 7.10, 277.77
442.18, 7.09, 278.08
442.18, 7.08, 278.41
442.18, 7.08, 278.78
442.18, 7.07, 279.18
442.18, 7.06, 279.63
442.18, 7.05, 280.14
442.18, 7.04, 280.71
442.19, 6.88, 282.01
442.19, 6.86, 282.80
442.19, 6.85, 283.69
442.19, 6.84, 284.70
442.20, 6.83, 285.88
442.20, 6.82, 287.30
442.20, 6.81, 288.95
442.21, 6.81, 290.91
442.21, 6.84, 293.11
442.21, 7.14, 293.11
442.21, 7.45, 293.11
442.21, 7.75, 293.11
442.21, 8.05, 293.11
442.21, 8.35, 293.11
442.20, 8.65, 293.11
442.20, 8.95, 293.11
442.24, 7.11, 276.78
442.25, 7.11, 277.00
442.25, 7.11, 277.24
442.26, 7.10, 277.49
442.26, 7.10, 277.77
442.27, 7.09, 278.08
442.27, 7.08, 278.41
442.28, 7.08, 278.78
¯442.28, 7.07, 279.18
442.29, 7.06, 279.63
442.30, 7.05, 280.14
442.31, 7.04, 280.70
442.33, 6.88, 282.01
442.35, 6.86, 282.80
442.36, 6.85, 283.68
442.38, 6.84, 284.69
442.40, 6.83, 285.88
442.42, 6.82, 287.29
442.45, 6.81, 288.95
442.48, 6.81, 290.92
442.51, 6.85, 293.08
442.51, 7.14, 293.13
442.51, 7.45, 293.13
442.51, 7.75, 293.13
442.51, 8.05, 293.13
442.51, 8.35, 293.13
442.50, 8.65, 293.13
442.50, 8.95, 293.13
442.32, 7.12, 276.77
442.32, 7.11, 276.99
442.33, 7.11, 277.23
442.34, 7.10, 277.49
442.35, 7.10, 277.77
442.36, 7.09, 278.07
442.37, 7.08, 278.41
442.38, 7.08, 278.77
442.39, 7.07, 279.18
442.40, 7.06, 279.63
442.42, 7.05, 280.13
442.46, 6.89, 281.32
442.48, 6.88, 282.00
442.50, 6.87, 282.79
442.53, 6.85, 283.68
442.56, 6.85, 284.68
442.57, 6.96, 285.13
442.57, 7.15, 285.13
442.57, 7.34, 285.13
442.57, 7.53, 285.13
442.57, 7.73, 285.13
442.57, 7.92, 285.13
442.56, 8.11, 285.13
442.56, 8.29, 285.13
442.56, 8.48, 285.13
442.56, 8.67, 285.13
442.56, 8.86, 285.13
442.56, 9.05, 285.13
442.39, 7.12, 276.77
442.40, 7.11, 276.99
442.41, 7.11, 277.23
¯442.42, 7.10, 277.49
442.43, 7.10, 277.77
