ŸVERSION 0.7
FIELDS x y z
SIZE 8 8 8
TYPE F F F
COUNT 1 1 1
WIDTH 2271
HEIGHT 1
VIEWPOINT 436.63, 13.93, 286.64 1 443.32, 9.32, 267.69
POINTS 2271
DATA ascii
431.23, 10.08, 251.13
431.22, 10.41, 251.12
439.31, 7.25, 266.57
439.19, 7.26, 266.35
439.05, 7.27, 266.10
438.91, 7.28, 265.84
438.75, 7.29, 265.55
438.59, 7.31, 265.25
438.41, 7.33, 264.93
438.22, 7.35, 264.57
438.01, 7.37, 264.18
437.77, 7.39, 263.73
437.51, 7.42, 263.26
437.23, 7.46, 262.74
436.91, 7.50, 262.17
436.56, 7.55, 261.52
436.18, 7.60, 260.81
435.73, 7.67, 260.00
435.14, 7.73, 258.90
434.34, 7.78, 257.43
433.04, 7.80, 255.04
430.91, 7.77, 251.12
430.76, 8.42, 250.87
430.82, 8.76, 250.99
430.81, 9.09, 250.98
430.82, 9.42, 251.03
430.81, 9.75, 251.03
430.80, 10.08, 251.03
430.79, 10.42, 251.03
439.24, 7.25, 266.61
439.11, 7.26, 266.39
438.97, 7.27, 266.15
438.83, 7.28, 265.88
438.67, 7.29, 265.60
438.50, 7.31, 265.30
438.32, 7.32, 264.98
438.12, 7.34, 264.62
437.90, 7.37, 264.23
437.66, 7.39, 263.80
437.39, 7.42, 263.33
³437.11, 7.46, 262.82
436.79, 7.50, 262.25
436.43, 7.54, 261.61
436.03, 7.60, 260.91
435.58, 7.67, 260.10
434.97, 7.72, 259.02
434.17, 7.78, 257.59
432.85, 7.79, 255.24
430.60, 7.76, 251.23
430.32, 8.40, 250.77
430.38, 8.74, 250.89
430.37, 9.08, 250.89
430.39, 9.42, 250.93
430.38, 9.75, 250.93
430.37, 10.09, 250.93
430.36, 10.42, 250.93
439.17, 7.25, 266.66
439.04, 7.26, 266.43
438.90, 7.27, 266.19
438.75, 7.28, 265.93
438.58, 7.29, 265.65
438.41, 7.30, 265.35
438.22, 7.32, 265.03
438.02, 7.34, 264.68
437.79, 7.36, 264.29
437.54, 7.39, 263.86
437.28, 7.42, 263.41
436.99, 7.46, 262.90
436.66, 7.50, 262.34
436.29, 7.54, 261.70
435.89, 7.60, 261.01
435.43, 7.67, 260.22
434.81, 7.72, 259.16
434.00, 7.78, 257.76
432.67, 7.80, 255.46
430.34, 7.76, 251.44
429.87, 8.38, 250.65
429.93, 8.73, 250.79
429.92, 9.07, 250.78
429.94, 9.41, 250.83
429.93, 9.75, 250.83
429.92, 10.09, 250.83
429.91, 10.43, 250.83
439.10, 7.25, 266.70
438.96, 7.26, 266.48
438.82, 7.26, 266.24
438.66, 7.27, 265.98
438.50, 7.29, 265.70
438.32, 7.30, 265.40
438.13, 7.32, 265.09
437.92, 7.34, 264.74
²437.69, 7.36, 264.35
437.44, 7.39, 263.94
437.18, 7.42, 263.51
436.87, 7.45, 262.99
436.54, 7.49, 262.43
436.16, 7.54, 261.80
435.74, 7.60, 261.11
435.28, 7.66, 260.33
434.68, 7.73, 259.33
433.82, 7.78, 257.90
432.50, 7.80, 255.69
430.08, 7.75, 251.65
429.39, 8.36, 250.52
429.41, 8.71, 250.57
429.41, 9.06, 250.59
429.49, 9.40, 250.73
429.47, 9.75, 250.73
429.46, 10.09, 250.73
429.45, 10.43, 250.72
439.03, 7.25, 266.74
438.89, 7.25, 266.53
438.74, 7.26, 266.29
438.58, 7.27, 266.03
438.41, 7.28, 265.75
438.23, 7.30, 265.46
438.03, 7.32, 265.14
437.82, 7.33, 264.80
437.58, 7.36, 264.41
437.35, 7.39, 264.03
437.09, 7.43, 263.62
436.77, 7.46, 263.10
436.41, 7.49, 262.52
436.03, 7.54, 261.90
435.60, 7.59, 261.21
435.13, 7.66, 260.45
434.54, 7.73, 259.50
433.66, 7.78, 258.08
432.32, 7.80, 255.91
429.83, 7.75, 251.87
429.02, 9.39, 250.62
429.01, 9.74, 250.62
428.99, 10.09, 250.62
438.96, 7.24, 266.79
438.82, 7.25, 266.57
438.67, 7.26, 266.34
438.51, 7.27, 266.08
438.33, 7.28, 265.81
438.14, 7.29, 265.51
437.94, 7.31, 265.20
437.72, 7.33, 264.86
437.48, 7.35, 264.48
¯437.25, 7.39, 264.12
437.00, 7.43, 263.72
436.68, 7.46, 263.22
436.31, 7.50, 262.64
435.90, 7.54, 262.00
435.46, 7.59, 261.31
434.98, 7.66, 260.56
434.41, 7.73, 259.67
433.52, 7.78, 258.28
432.14, 7.80, 256.10
429.60, 7.75, 252.11
438.89, 7.24, 266.84
438.74, 7.25, 266.62
438.59, 7.26, 266.39
438.43, 7.27, 266.14
438.25, 7.28, 265.86
438.05, 7.29, 265.57
437.85, 7.31, 265.26
437.62, 7.33, 264.92
437.39, 7.36, 264.57
437.16, 7.39, 264.21
436.90, 7.43, 263.82
436.59, 7.47, 263.34
436.21, 7.50, 262.77
435.79, 7.54, 262.13
435.32, 7.59, 261.42
434.84, 7.66, 260.68
434.27, 7.73, 259.83
433.39, 7.78, 258.48
431.98, 7.80, 256.34
429.38, 7.74, 252.37
438.82, 7.24, 266.88
438.67, 7.25, 266.67
438.52, 7.26, 266.44
438.35, 7.27, 266.19
438.17, 7.28, 265.92
437.96, 7.29, 265.62
437.76, 7.31, 265.32
437.53, 7.32, 264.98
437.31, 7.36, 264.65
437.07, 7.40, 264.30
436.81, 7.44, 263.91
436.50, 7.48, 263.46
436.12, 7.51, 262.90
435.69, 7.55, 262.27
435.28, 7.61, 261.67
434.69, 7.66, 260.80
434.12, 7.73, 259.96
433.25, 7.79, 258.68
431.90, 7.81, 256.68
429.17, 7.74, 252.63
¯438.75, 7.24, 266.93
438.60, 7.25, 266.72
438.44, 7.26, 266.49
438.27, 7.26, 266.24
438.08, 7.27, 265.98
437.88, 7.29, 265.68
437.66, 7.30, 265.38
437.44, 7.32, 265.05
437.22, 7.36, 264.74
436.98, 7.40, 264.39
436.71, 7.44, 264.01
436.41, 7.48, 263.58
436.03, 7.51, 263.04
435.60, 7.55, 262.42
435.22, 7.63, 261.88
434.66, 7.68, 261.08
433.97, 7.73, 260.09
433.12, 7.79, 258.88
431.82, 7.83, 257.01
428.96, 7.74, 252.90
438.68, 7.24, 266.98
438.53, 7.25, 266.77
438.37, 7.25, 266.54
438.20, 7.26, 266.30
438.00, 7.27, 266.03
437.80, 7.28, 265.74
437.57, 7.30, 265.44
437.36, 7.33, 265.14
437.13, 7.36, 264.82
436.89, 7.40, 264.48
436.62, 7.44, 264.11
436.32, 7.48, 263.70
435.94, 7.52, 263.17
435.51, 7.56, 262.58
435.15, 7.64, 262.07
434.67, 7.71, 261.41
433.96, 7.75, 260.42
433.00, 7.79, 259.08
431.75, 7.84, 257.35
428.76, 7.74, 253.18
438.62, 7.24, 267.03
438.46, 7.24, 266.82
438.30, 7.25, 266.60
438.12, 7.26, 266.36
437.93, 7.27, 266.09
437.71, 7.28, 265.81
437.49, 7.30, 265.50
437.28, 7.33, 265.22
437.05, 7.36, 264.91
436.80, 7.40, 264.58
436.52, 7.44, 264.21
¯436.22, 7.49, 263.80
435.85, 7.53, 263.30
435.45, 7.57, 262.75
435.08, 7.65, 262.27
434.68, 7.73, 261.72
433.99, 7.78, 260.79
433.14, 7.84, 259.64
431.68, 7.85, 257.67
428.57, 7.74, 253.45
438.55, 7.23, 267.08
438.40, 7.24, 266.87
438.23, 7.25, 266.65
438.05, 7.26, 266.41
437.85, 7.27, 266.15
437.63, 7.28, 265.87
437.41, 7.30, 265.58
437.20, 7.33, 265.30
436.96, 7.36, 265.00
436.71, 7.40, 264.67
436.43, 7.44, 264.31
436.13, 7.49, 263.91
435.77, 7.53, 263.43
435.38, 7.58, 262.93
435.02, 7.66, 262.45
434.61, 7.74, 261.93
434.01, 7.81, 261.14
433.22, 7.87, 260.10
431.83, 7.89, 258.27
428.38, 7.74, 253.73
438.49, 7.23, 267.13
438.33, 7.24, 266.93
438.16, 7.25, 266.71
437.97, 7.26, 266.47
437.77, 7.27, 266.22
437.55, 7.28, 265.94
437.33, 7.30, 265.65
437.11, 7.33, 265.38
436.88, 7.36, 265.08
436.62, 7.40, 264.76
436.34, 7.44, 264.41
436.04, 7.49, 264.01
435.68, 7.54, 263.56
435.32, 7.59, 263.10
434.95, 7.67, 262.64
434.55, 7.75, 262.13
434.04, 7.84, 261.48
433.26, 7.90, 260.49
432.14, 7.95, 259.05
428.19, 7.74, 254.00
438.42, 7.23, 267.18
438.26, 7.24, 266.98
¯438.09, 7.25, 266.77
437.90, 7.25, 266.53
437.69, 7.26, 266.28
437.47, 7.28, 266.01
437.25, 7.30, 265.74
437.03, 7.33, 265.46
436.79, 7.36, 265.16
436.53, 7.40, 264.85
436.25, 7.44, 264.50
435.94, 7.49, 264.12
435.60, 7.54, 263.69
435.26, 7.61, 263.27
434.89, 7.68, 262.82
434.49, 7.77, 262.33
434.04, 7.86, 261.78
433.31, 7.93, 260.87
432.42, 8.01, 259.77
427.98, 7.73, 254.25
438.36, 7.23, 267.24
438.19, 7.24, 267.04
438.02, 7.24, 266.82
437.83, 7.25, 266.59
437.62, 7.26, 266.34
437.40, 7.28, 266.08
437.18, 7.30, 265.82
436.94, 7.33, 265.53
436.70, 7.36, 265.25
436.44, 7.40, 264.93
436.16, 7.44, 264.59
435.84, 7.49, 264.21
435.50, 7.54, 263.81
435.19, 7.61, 263.43
434.83, 7.69, 263.00
434.43, 7.77, 262.52
433.98, 7.87, 261.99
433.35, 7.95, 261.23
432.49, 8.03, 260.19
427.78, 7.73, 254.51
438.30, 7.23, 267.29
438.13, 7.23, 267.09
437.95, 7.24, 266.88
437.75, 7.25, 266.66
437.54, 7.26, 266.41
437.33, 7.28, 266.16
437.11, 7.30, 265.90
436.86, 7.32, 265.61
436.62, 7.36, 265.33
436.35, 7.40, 265.02
436.06, 7.44, 264.68
435.74, 7.49, 264.31
435.42, 7.54, 263.93
¯435.10, 7.62, 263.57
434.75, 7.69, 263.15
434.35, 7.78, 262.69
433.91, 7.87, 262.18
433.41, 7.98, 261.59
432.56, 8.06, 260.60
427.57, 7.72, 254.74
438.23, 7.22, 267.34
438.06, 7.23, 267.15
437.88, 7.24, 266.94
437.68, 7.25, 266.72
437.47, 7.26, 266.48
437.26, 7.28, 266.24
437.03, 7.30, 265.98
436.79, 7.33, 265.70
436.53, 7.36, 265.41
436.26, 7.40, 265.11
435.97, 7.44, 264.77
435.65, 7.48, 264.41
435.34, 7.55, 264.06
435.02, 7.62, 263.70
434.66, 7.70, 263.30
434.27, 7.78, 262.85
433.82, 7.88, 262.35
433.39, 7.99, 261.86
432.67, 8.09, 261.04
431.67, 8.18, 259.90
438.17, 7.22, 267.40
438.00, 7.23, 267.21
437.81, 7.24, 267.00
437.61, 7.24, 266.78
437.41, 7.26, 266.55
437.19, 7.28, 266.32
436.96, 7.30, 266.06
436.71, 7.33, 265.79
436.45, 7.36, 265.50
436.18, 7.39, 265.20
435.88, 7.44, 264.87
435.55, 7.48, 264.51
435.26, 7.55, 264.18
434.94, 7.62, 263.84
434.58, 7.70, 263.44
434.18, 7.79, 263.00
433.74, 7.88, 262.52
433.32, 8.00, 262.06
432.80, 8.12, 261.49
431.84, 8.21, 260.43
438.11, 7.22, 267.46
437.94, 7.23, 267.27
437.75, 7.23, 267.07
437.54, 7.24, 266.85
¯437.34, 7.26, 266.63
437.13, 7.28, 266.40
436.89, 7.30, 266.15
436.64, 7.33, 265.88
436.37, 7.35, 265.58
436.09, 7.39, 265.29
435.79, 7.43, 264.96
435.47, 7.48, 264.62
435.18, 7.55, 264.31
434.86, 7.63, 263.97
434.51, 7.71, 263.59
434.10, 7.79, 263.16
433.66, 7.88, 262.69
433.26, 8.00, 262.26
432.84, 8.13, 261.82
432.00, 8.24, 260.92
438.05, 7.22, 267.51
437.87, 7.22, 267.33
437.68, 7.23, 267.13
437.48, 7.24, 266.91
437.28, 7.26, 266.70
437.06, 7.28, 266.48
436.83, 7.30, 266.23
436.57, 7.33, 265.96
436.29, 7.35, 265.67
436.01, 7.39, 265.38
435.70, 7.43, 265.06
435.40, 7.49, 264.74
435.10, 7.55, 264.44
434.78, 7.63, 264.10
434.43, 7.71, 263.73
434.02, 7.79, 263.32
433.58, 7.89, 262.86
433.20, 8.01, 262.46
432.78, 8.14, 262.03
432.16, 8.26, 261.38
437.99, 7.22, 267.57
437.81, 7.22, 267.39
437.62, 7.23, 267.19
437.42, 7.24, 266.99
437.22, 7.26, 266.78
437.00, 7.28, 266.56
436.76, 7.30, 266.32
436.50, 7.33, 266.05
436.22, 7.35, 265.77
435.92, 7.39, 265.47
435.61, 7.43, 265.15
435.32, 7.49, 264.86
435.02, 7.56, 264.56
434.70, 7.63, 264.23
434.34, 7.71, 263.87
¯433.95, 7.80, 263.47
433.52, 7.89, 263.04
433.13, 8.01, 262.66
432.72, 8.14, 262.23
432.26, 8.28, 261.77
437.94, 7.21, 267.63
437.75, 7.22, 267.45
437.56, 7.23, 267.25
437.36, 7.24, 267.06
437.15, 7.26, 266.86
436.93, 7.28, 266.64
436.69, 7.30, 266.40
436.43, 7.33, 266.14
436.14, 7.36, 265.86
435.84, 7.39, 265.56
435.53, 7.43, 265.25
435.25, 7.49, 264.98
434.95, 7.56, 264.68
434.62, 7.63, 264.36
434.26, 7.71, 264.01
433.87, 7.80, 263.63
433.46, 7.90, 263.22
433.07, 8.02, 262.85
432.66, 8.14, 262.44
432.20, 8.29, 261.99
437.88, 7.21, 267.69
437.69, 7.22, 267.51
437.49, 7.22, 267.32
437.30, 7.24, 267.14
437.09, 7.26, 266.94
436.87, 7.28, 266.72
436.63, 7.30, 266.49
436.36, 7.33, 266.24
436.07, 7.36, 265.96
435.76, 7.38, 265.66
435.46, 7.43, 265.37
435.18, 7.49, 265.10
434.87, 7.56, 264.81
434.54, 7.63, 264.50
434.18, 7.71, 264.15
433.79, 7.80, 263.78
433.40, 7.90, 263.40
433.02, 8.02, 263.04
432.60, 8.15, 262.64
432.14, 8.29, 262.21
431.64, 8.44, 261.73
437.82, 7.21, 267.75
437.63, 7.21, 267.57
437.44, 7.23, 267.39
437.24, 7.24, 267.21
437.03, 7.26, 267.01
¯436.81, 7.28, 266.80
436.56, 7.31, 266.58
436.30, 7.33, 266.33
436.00, 7.36, 266.05
435.69, 7.39, 265.76
435.39, 7.43, 265.48
435.10, 7.49, 265.22
434.80, 7.56, 264.93
434.46, 7.63, 264.62
434.10, 7.71, 264.28
433.70, 7.80, 263.91
433.33, 7.90, 263.57
432.95, 8.02, 263.22
432.53, 8.15, 262.83
432.07, 8.29, 262.40
431.58, 8.44, 261.96
437.77, 7.21, 267.81
437.58, 7.21, 267.64
437.38, 7.23, 267.46
437.19, 7.24, 267.28
436.97, 7.26, 267.09
436.74, 7.28, 266.88
436.49, 7.30, 266.66
436.22, 7.33, 266.41
435.92, 7.35, 266.14
435.60, 7.38, 265.84
435.31, 7.43, 265.58
435.02, 7.49, 265.32
434.71, 7.56, 265.04
434.37, 7.63, 264.74
434.00, 7.71, 264.40
433.60, 7.80, 264.04
433.26, 7.91, 263.73
432.87, 8.02, 263.39
432.45, 8.15, 263.01
431.99, 8.29, 262.60
431.53, 8.44, 262.18
432.67, 8.71, 263.23
437.71, 7.21, 267.88
437.52, 7.21, 267.70
437.32, 7.22, 267.53
437.12, 7.24, 267.35
436.90, 7.26, 267.16
436.67, 7.28, 266.96
436.42, 7.30, 266.73
436.14, 7.32, 266.49
435.84, 7.35, 266.22
435.52, 7.38, 265.94
435.23, 7.43, 265.69
434.93, 7.49, 265.43
434.62, 7.56, 265.15
¯434.28, 7.63, 264.85
433.91, 7.71, 264.52
433.62, 7.81, 264.27
433.65, 7.98, 264.31
433.68, 8.14, 264.34
433.71, 8.31, 264.37
433.74, 8.47, 264.41
433.77, 8.63, 264.44
433.25, 8.75, 263.98
437.66, 7.20, 267.94
437.46, 7.21, 267.77
437.26, 7.22, 267.60
437.06, 7.23, 267.42
436.84, 7.25, 267.23
436.60, 7.27, 267.03
436.34, 7.29, 266.81
436.06, 7.32, 266.57
435.76, 7.34, 266.31
435.45, 7.38, 266.04
435.16, 7.43, 265.79
434.85, 7.49, 265.53
434.53, 7.55, 265.26
434.48, 7.69, 265.22
434.50, 7.84, 265.24
434.53, 7.98, 265.27
434.55, 8.13, 265.30
434.57, 8.28, 265.32
434.60, 8.42, 265.35
434.54, 8.55, 265.31
433.97, 8.65, 264.82
434.38, 8.82, 265.17
434.39, 8.97, 265.20
434.41, 9.11, 265.22
434.43, 9.25, 265.24
434.45, 9.39, 265.26
434.47, 9.54, 265.28
434.49, 9.68, 265.30
437.60, 7.20, 268.00
437.41, 7.21, 267.84
437.21, 7.22, 267.67
436.99, 7.23, 267.49
436.77, 7.25, 267.30
436.53, 7.27, 267.10
436.27, 7.29, 266.89
435.99, 7.31, 266.65
435.68, 7.34, 266.39
435.38, 7.38, 266.15
435.14, 7.44, 265.95
435.16, 7.58, 265.97
435.18, 7.72, 265.99
435.20, 7.85, 266.02
¯435.22, 7.99, 266.04
435.24, 8.12, 266.06
435.22, 8.24, 266.05
434.98, 8.34, 265.85
434.72, 8.44, 265.64
434.45, 8.55, 265.41
434.41, 8.69, 265.39
434.44, 8.83, 265.41
434.68, 8.98, 265.62
434.48, 9.11, 265.46
434.50, 9.25, 265.48
434.61, 9.39, 265.58
434.54, 9.53, 265.52
434.56, 9.66, 265.55
437.55, 7.20, 268.06
437.36, 7.21, 267.90
437.15, 7.22, 267.74
436.93, 7.23, 267.56
436.70, 7.24, 267.38
436.46, 7.26, 267.18
436.20, 7.29, 266.97
435.91, 7.31, 266.73
435.71, 7.37, 266.57
435.72, 7.49, 266.59
435.74, 7.62, 266.61
435.76, 7.74, 266.63
435.78, 7.87, 266.64
435.79, 7.99, 266.66
435.59, 8.07, 266.50
435.37, 8.15, 266.33
435.14, 8.24, 266.14
434.90, 8.33, 265.95
434.63, 8.44, 265.74
435.04, 8.61, 266.07
435.05, 8.74, 266.09
435.07, 8.87, 266.11
435.09, 9.00, 266.13
435.11, 9.13, 266.15
435.12, 9.25, 266.17
435.14, 9.38, 266.19
435.16, 9.50, 266.20
435.17, 9.63, 266.22
437.50, 7.19, 268.13
437.30, 7.20, 267.97
437.10, 7.21, 267.81
436.87, 7.22, 267.63
436.64, 7.24, 267.45
436.39, 7.26, 267.26
436.13, 7.28, 267.05
436.14, 7.40, 267.06
436.16, 7.52, 267.08
¯436.17, 7.63, 267.09
436.19, 7.75, 267.11
436.09, 7.84, 267.04
435.91, 7.91, 266.90
435.71, 7.98, 266.75
435.51, 8.06, 266.59
435.29, 8.15, 266.42
435.06, 8.23, 266.24
435.54, 8.43, 266.63
435.56, 8.55, 266.64
435.57, 8.67, 266.66
435.59, 8.79, 266.68
435.60, 8.90, 266.69
435.61, 9.02, 266.71
435.63, 9.14, 266.72
435.64, 9.25, 266.74
435.66, 9.37, 266.75
435.67, 9.48, 266.77
435.69, 9.60, 266.78
437.45, 7.19, 268.19
437.25, 7.20, 268.04
437.04, 7.21, 267.88
436.82, 7.22, 267.71
436.58, 7.24, 267.52
436.33, 7.26, 267.33
436.06, 7.28, 267.13
436.06, 7.39, 267.13
436.07, 7.51, 267.15
436.09, 7.63, 267.17
436.11, 7.74, 267.18
436.02, 7.83, 267.12
435.84, 7.90, 266.98
435.64, 7.98, 266.83
435.43, 8.06, 266.68
435.97, 8.27, 267.10
435.98, 8.38, 267.11
436.00, 8.49, 267.13
436.01, 8.60, 267.14
436.02, 8.71, 267.15
436.03, 8.82, 267.17
436.05, 8.93, 267.18
436.06, 9.04, 267.19
436.07, 9.15, 267.21
436.08, 9.25, 267.22
436.09, 9.36, 267.23
436.11, 9.46, 267.25
435.76, 9.59, 266.98
437.40, 7.19, 268.26
437.20, 7.20, 268.11
436.99, 7.21, 267.96
436.76, 7.22, 267.79
¯436.51, 7.23, 267.60
436.26, 7.25, 267.41
435.99, 7.27, 267.21
435.98, 7.38, 267.20
435.99, 7.50, 267.22
436.01, 7.62, 267.24
436.02, 7.74, 267.25
435.95, 7.83, 267.20
435.76, 7.90, 267.07
436.34, 8.13, 267.50
436.35, 8.24, 267.51
436.36, 8.34, 267.53
436.37, 8.45, 267.54
436.38, 8.55, 267.55
436.39, 8.65, 267.56
436.40, 8.75, 267.58
436.42, 8.85, 267.59
436.43, 8.96, 267.60
436.44, 9.06, 267.61
436.45, 9.15, 267.62
436.46, 9.25, 267.63
436.47, 9.35, 267.65
436.22, 9.46, 267.46
435.69, 9.58, 267.07
437.35, 7.19, 268.33
437.15, 7.20, 268.18
436.94, 7.21, 268.03
436.71, 7.22, 267.86
436.46, 7.23, 267.68
436.20, 7.25, 267.49
435.92, 7.27, 267.29
435.89, 7.37, 267.28
435.91, 7.49, 267.29
435.93, 7.61, 267.31
435.94, 7.73, 267.33
435.88, 7.83, 267.29
436.51, 8.07, 267.75
436.53, 8.18, 267.76
436.54, 8.28, 267.78
436.55, 8.38, 267.79
436.57, 8.48, 267.81
436.58, 8.58, 267.82
436.59, 8.68, 267.83
436.61, 8.78, 267.85
436.62, 8.87, 267.86
436.63, 8.97, 267.87
436.65, 9.06, 267.89
436.66, 9.16, 267.90
436.67, 9.25, 267.91
436.61, 9.35, 267.87
436.15, 9.45, 267.54
¯435.61, 9.58, 267.16
437.31, 7.19, 268.40
437.11, 7.20, 268.26
436.89, 7.21, 268.10
436.66, 7.22, 267.94
436.40, 7.23, 267.76
436.13, 7.24, 267.57
435.85, 7.26, 267.37
435.81, 7.36, 267.35
435.83, 7.48, 267.37
435.84, 7.60, 267.38
435.86, 7.72, 267.40
435.81, 7.82, 267.37
436.44, 8.07, 267.82
436.45, 8.17, 267.83
436.47, 8.27, 267.84
436.48, 8.37, 267.86
436.49, 8.48, 267.87
436.51, 8.57, 267.89
436.52, 8.67, 267.90
436.54, 8.77, 267.91
436.55, 8.87, 267.93
436.56, 8.96, 267.94
436.58, 9.06, 267.95
436.59, 9.16, 267.96
436.60, 9.25, 267.98
436.55, 9.34, 267.94
436.09, 9.45, 267.62
435.78, 9.57, 267.41
437.26, 7.19, 268.47
437.06, 7.19, 268.33
436.84, 7.20, 268.18
436.61, 7.22, 268.02
436.35, 7.23, 267.85
436.07, 7.24, 267.66
435.78, 7.26, 267.46
435.73, 7.35, 267.42
435.74, 7.47, 267.44
435.76, 7.59, 267.46
435.78, 7.71, 267.47
435.75, 7.82, 267.45
435.55, 7.89, 267.32
436.38, 8.16, 267.90
436.39, 8.27, 267.91
436.41, 8.37, 267.92
436.42, 8.47, 267.94
436.43, 8.57, 267.95
436.45, 8.67, 267.96
436.46, 8.77, 267.98
436.48, 8.86, 267.99
436.49, 8.96, 268.00
¯436.50, 9.06, 268.02
436.52, 9.15, 268.03
436.53, 9.25, 268.04
436.49, 9.34, 268.02
436.09, 9.45, 267.75
436.10, 9.55, 267.76
437.22, 7.18, 268.54
437.01, 7.19, 268.40
436.79, 7.20, 268.25
436.56, 7.21, 268.10
436.30, 7.22, 267.93
436.02, 7.24, 267.74
435.72, 7.25, 267.54
435.44, 7.28, 267.36
435.17, 7.32, 267.18
434.88, 7.37, 266.99
434.81, 7.48, 266.95
434.83, 7.61, 266.97
434.85, 7.75, 266.99
436.30, 8.16, 267.96
436.32, 8.26, 267.98
436.33, 8.36, 267.99
436.35, 8.46, 268.00
436.36, 8.56, 268.02
436.37, 8.66, 268.03
436.39, 8.76, 268.04
436.40, 8.86, 268.06
436.42, 8.96, 268.07
436.43, 9.05, 268.08
436.44, 9.15, 268.09
436.46, 9.24, 268.11
436.43, 9.34, 268.09
436.05, 9.44, 267.84
436.06, 9.54, 267.86
437.17, 7.18, 268.61
436.97, 7.19, 268.47
436.75, 7.20, 268.33
436.51, 7.21, 268.18
436.25, 7.22, 268.01
435.97, 7.23, 267.83
435.66, 7.25, 267.63
435.38, 7.28, 267.46
435.10, 7.32, 267.28
434.81, 7.37, 267.09
434.71, 7.47, 267.04
434.73, 7.60, 267.05
434.75, 7.74, 267.07
436.23, 8.15, 268.03
436.24, 8.25, 268.04
436.26, 8.36, 268.06
436.27, 8.46, 268.07
¯436.28, 8.56, 268.08
436.30, 8.66, 268.10
436.31, 8.76, 268.11
436.33, 8.85, 268.12
436.34, 8.95, 268.13
436.36, 9.05, 268.15
436.37, 9.15, 268.16
436.38, 9.24, 268.17
436.37, 9.34, 268.16
435.97, 9.44, 267.91
435.98, 9.54, 267.93
437.13, 7.18, 268.68
436.92, 7.19, 268.55
436.70, 7.20, 268.41
436.46, 7.21, 268.26
436.20, 7.22, 268.10
435.91, 7.23, 267.92
435.60, 7.24, 267.72
435.32, 7.28, 267.55
435.04, 7.32, 267.38
434.74, 7.36, 267.20
434.62, 7.46, 267.12
434.64, 7.59, 267.14
434.66, 7.73, 267.15
436.15, 8.14, 268.10
436.16, 8.25, 268.11
436.18, 8.35, 268.12
436.19, 8.45, 268.14
436.21, 8.55, 268.15
436.22, 8.65, 268.16
436.24, 8.75, 268.18
436.25, 8.85, 268.19
436.27, 8.95, 268.20
436.28, 9.05, 268.21
436.30, 9.14, 268.23
436.31, 9.24, 268.24
436.31, 9.33, 268.24
435.99, 9.44, 268.05
436.00, 9.54, 268.06
437.09, 7.18, 268.75
436.88, 7.19, 268.62
436.66, 7.20, 268.49
436.41, 7.21, 268.34
436.15, 7.22, 268.18
435.86, 7.23, 268.00
435.54, 7.24, 267.81
435.27, 7.27, 267.65
434.98, 7.31, 267.48
434.68, 7.36, 267.30
434.52, 7.45, 267.21
434.54, 7.58, 267.22
¯434.56, 7.71, 267.24
436.07, 8.13, 268.17
436.09, 8.24, 268.18
436.10, 8.34, 268.19
436.12, 8.44, 268.21
436.13, 8.55, 268.22
436.15, 8.65, 268.23
436.16, 8.75, 268.24
436.18, 8.85, 268.26
436.19, 8.94, 268.27
436.21, 9.04, 268.28
436.22, 9.14, 268.29
436.24, 9.23, 268.31
436.25, 9.33, 268.31
436.06, 9.43, 268.21
436.08, 9.53, 268.22
437.05, 7.18, 268.82
436.84, 7.19, 268.70
436.61, 7.19, 268.56
436.37, 7.20, 268.42
436.09, 7.21, 268.26
435.80, 7.22, 268.09
435.49, 7.24, 267.91
435.22, 7.27, 267.75
434.92, 7.31, 267.58
434.62, 7.35, 267.40
434.42, 7.44, 267.29
434.44, 7.57, 267.31
434.46, 7.70, 267.32
435.99, 8.13, 268.23
436.01, 8.23, 268.25
436.03, 8.33, 268.26
436.04, 8.44, 268.27
436.06, 8.54, 268.29
436.07, 8.64, 268.30
436.09, 8.74, 268.31
436.10, 8.84, 268.32
436.12, 8.94, 268.34
436.13, 9.04, 268.35
436.15, 9.13, 268.36
436.16, 9.23, 268.37
436.18, 9.33, 268.38
435.73, 9.43, 268.13
435.75, 9.54, 268.14
437.01, 7.17, 268.89
436.80, 7.18, 268.77
436.57, 7.19, 268.64
436.31, 7.20, 268.50
436.04, 7.21, 268.34
435.74, 7.22, 268.18
435.45, 7.24, 268.01
¯435.17, 7.27, 267.85
434.87, 7.31, 267.68
434.56, 7.35, 267.51
434.32, 7.42, 267.38
434.34, 7.56, 267.40
434.37, 7.69, 267.41
435.91, 8.12, 268.30
435.93, 8.22, 268.32
435.95, 8.33, 268.33
435.96, 8.43, 268.34
435.98, 8.53, 268.36
435.99, 8.63, 268.37
436.01, 8.74, 268.38
436.03, 8.84, 268.39
436.04, 8.93, 268.40
436.06, 9.03, 268.42
436.07, 9.13, 268.43
436.09, 9.23, 268.44
436.10, 9.32, 268.45
435.65, 9.43, 268.20
435.67, 9.53, 268.21
436.97, 7.17, 268.96
436.75, 7.18, 268.85
436.52, 7.19, 268.72
436.26, 7.20, 268.58
435.99, 7.20, 268.43
435.69, 7.21, 268.26
435.40, 7.24, 268.11
435.12, 7.27, 267.95
434.82, 7.31, 267.79
434.50, 7.35, 267.62
434.22, 7.41, 267.47
434.24, 7.55, 267.48
434.27, 7.68, 267.50
435.84, 8.11, 268.37
435.85, 8.21, 268.39
435.87, 8.32, 268.40
435.88, 8.42, 268.41
435.90, 8.53, 268.42
435.92, 8.63, 268.44
435.93, 8.73, 268.45
435.95, 8.83, 268.46
435.96, 8.93, 268.47
435.98, 9.03, 268.49
435.99, 9.13, 268.50
436.01, 9.22, 268.51
436.03, 9.32, 268.52
435.57, 9.43, 268.27
435.58, 9.53, 268.29
448.12, 7.12, 272.69
448.39, 7.12, 272.73
¯448.69, 7.12, 272.78
449.00, 7.12, 272.83
449.25, 7.15, 272.86
449.35, 7.24, 272.88
449.44, 7.32, 272.90
449.54, 7.41, 272.92
449.64, 7.49, 272.93
449.74, 7.58, 272.95
449.85, 7.67, 272.97
449.96, 7.76, 272.99
450.06, 7.86, 273.01
450.18, 7.96, 273.03
450.29, 8.05, 273.05
450.41, 8.16, 273.07
450.53, 8.26, 273.09
450.65, 8.37, 273.11
450.78, 8.48, 273.13
450.93, 8.59, 273.16
451.18, 8.70, 273.20
451.34, 8.82, 273.23
451.51, 8.94, 273.26
451.69, 9.07, 273.29
451.87, 9.20, 273.32
452.06, 9.34, 273.35
452.26, 9.49, 273.38
452.47, 9.64, 273.42
448.13, 7.12, 272.61
448.41, 7.12, 272.65
448.70, 7.12, 272.69
449.01, 7.13, 272.73
449.25, 7.16, 272.76
449.35, 7.24, 272.78
449.44, 7.33, 272.79
449.54, 7.41, 272.81
449.64, 7.50, 272.83
449.75, 7.59, 272.84
449.85, 7.68, 272.86
449.96, 7.77, 272.88
450.07, 7.86, 272.89
450.18, 7.96, 272.91
450.29, 8.06, 272.93
450.41, 8.16, 272.95
450.53, 8.27, 272.97
450.65, 8.37, 272.99
450.82, 8.48, 273.01
451.06, 8.58, 273.05
451.26, 8.70, 273.08
451.43, 8.82, 273.11
451.60, 8.94, 273.13
451.78, 9.07, 273.16
451.97, 9.21, 273.19
¯452.16, 9.35, 273.22
452.37, 9.49, 273.25
452.58, 9.64, 273.29
448.14, 7.12, 272.52
448.42, 7.12, 272.56
448.71, 7.13, 272.59
449.02, 7.13, 272.63
449.26, 7.17, 272.66
449.35, 7.25, 272.68
449.45, 7.33, 272.69
449.54, 7.42, 272.71
449.64, 7.50, 272.72
449.75, 7.59, 272.74
449.85, 7.68, 272.75
449.96, 7.77, 272.77
450.07, 7.87, 272.78
450.18, 7.97, 272.80
450.29, 8.06, 272.81
450.41, 8.17, 272.83
450.53, 8.27, 272.85
450.70, 8.37, 272.87
450.94, 8.47, 272.91
451.18, 8.58, 272.94
451.35, 8.69, 272.96
451.52, 8.82, 272.99
451.70, 8.94, 273.01
451.88, 9.07, 273.04
452.07, 9.21, 273.06
452.27, 9.35, 273.09
452.47, 9.50, 273.12
452.69, 9.65, 273.15
448.15, 7.12, 272.44
448.42, 7.13, 272.47
448.71, 7.13, 272.50
449.03, 7.14, 272.54
449.26, 7.17, 272.56
449.35, 7.25, 272.58
449.45, 7.34, 272.59
449.55, 7.42, 272.60
449.65, 7.51, 272.61
449.75, 7.60, 272.63
449.85, 7.69, 272.64
449.96, 7.78, 272.66
450.07, 7.87, 272.67
450.18, 7.97, 272.68
450.29, 8.07, 272.70
450.41, 8.17, 272.72
450.59, 8.27, 272.74
450.82, 8.36, 272.77
451.07, 8.46, 272.80
451.27, 8.58, 272.82
¯451.44, 8.69, 272.84
451.61, 8.82, 272.86
451.79, 8.94, 272.89
451.98, 9.08, 272.91
452.17, 9.21, 272.94
452.37, 9.36, 272.96
452.58, 9.50, 272.99
452.77, 9.66, 273.01
448.16, 7.13, 272.36
448.43, 7.13, 272.38
448.72, 7.13, 272.41
449.03, 7.14, 272.44
449.26, 7.18, 272.46
449.35, 7.26, 272.47
449.45, 7.34, 272.49
449.55, 7.43, 272.50
449.65, 7.51, 272.51
449.75, 7.60, 272.52
449.85, 7.69, 272.53
449.96, 7.78, 272.55
450.07, 7.88, 272.56
450.18, 7.97, 272.57
450.29, 8.07, 272.58
450.48, 8.17, 272.61
450.71, 8.26, 272.63
450.95, 8.35, 272.65
451.19, 8.46, 272.68
451.35, 8.57, 272.70
451.52, 8.69, 272.72
451.70, 8.82, 272.74
451.88, 8.94, 272.76
452.07, 9.08, 272.78
452.27, 9.22, 272.80
452.48, 9.36, 272.83
452.64, 9.51, 272.85
452.79, 9.66, 272.86
448.17, 7.13, 272.27
448.43, 7.13, 272.29
448.72, 7.14, 272.32
449.04, 7.14, 272.34
449.26, 7.18, 272.36
449.35, 7.26, 272.37
449.45, 7.35, 272.38
449.55, 7.43, 272.39
449.65, 7.52, 272.40
449.75, 7.61, 272.41
449.85, 7.70, 272.42
449.96, 7.79, 272.44
450.07, 7.88, 272.45
450.18, 7.98, 272.46
450.38, 8.07, 272.48
¯450.60, 8.15, 272.50
450.83, 8.25, 272.52
451.08, 8.35, 272.54
451.27, 8.45, 272.56
451.44, 8.57, 272.58
451.61, 8.69, 272.59
451.79, 8.82, 272.61
451.98, 8.94, 272.63
452.17, 9.08, 272.65
452.37, 9.22, 272.67
452.51, 9.36, 272.68
452.66, 9.51, 272.70
452.82, 9.67, 272.72
448.17, 7.13, 272.19
448.44, 7.14, 272.21
448.73, 7.14, 272.23
449.04, 7.15, 272.25
449.26, 7.19, 272.26
449.36, 7.27, 272.27
449.45, 7.35, 272.28
449.55, 7.44, 272.29
449.65, 7.52, 272.30
449.75, 7.61, 272.31
449.85, 7.70, 272.32
449.96, 7.79, 272.33
450.07, 7.89, 272.34
450.27, 7.97, 272.35
450.49, 8.05, 272.37
450.72, 8.14, 272.39
450.95, 8.24, 272.40
451.19, 8.34, 272.42
451.36, 8.45, 272.44
451.53, 8.57, 272.45
451.71, 8.69, 272.47
451.89, 8.81, 272.48
452.08, 8.95, 272.50
452.25, 9.08, 272.51
452.39, 9.22, 272.53
452.54, 9.37, 272.54
452.69, 9.52, 272.55
452.84, 9.67, 272.57
448.17, 7.14, 272.10
448.44, 7.14, 272.12
448.73, 7.14, 272.13
449.04, 7.15, 272.15
449.26, 7.19, 272.16
449.36, 7.27, 272.17
449.45, 7.36, 272.18
449.55, 7.44, 272.19
449.65, 7.53, 272.19
449.75, 7.61, 272.20
¯449.85, 7.70, 272.21
449.97, 7.80, 272.22
450.17, 7.87, 272.23
450.38, 7.96, 272.24
450.60, 8.04, 272.26
450.84, 8.13, 272.27
451.08, 8.23, 272.29
451.28, 8.33, 272.30
451.44, 8.45, 272.31
451.62, 8.56, 272.32
451.80, 8.69, 272.34
451.98, 8.81, 272.35
452.14, 8.95, 272.36
452.27, 9.08, 272.37
452.42, 9.23, 272.38
452.56, 9.37, 272.40
452.71, 9.52, 272.41
452.87, 9.67, 272.42
448.17, 7.14, 272.02
448.44, 7.14, 272.03
448.73, 7.15, 272.04
449.04, 7.15, 272.05
449.26, 7.19, 272.06
449.36, 7.28, 272.07
449.45, 7.36, 272.08
449.55, 7.44, 272.08
449.65, 7.53, 272.09
449.75, 7.62, 272.09
449.87, 7.71, 272.10
450.07, 7.78, 272.11
450.27, 7.86, 272.12
450.49, 7.94, 272.13
450.72, 8.03, 272.14
450.96, 8.12, 272.16
451.20, 8.22, 272.17
451.36, 8.33, 272.18
451.53, 8.44, 272.19
451.71, 8.56, 272.20
451.89, 8.68, 272.21
452.02, 8.82, 272.21
452.16, 8.95, 272.22
452.30, 9.09, 272.23
452.44, 9.23, 272.24
452.59, 9.37, 272.25
452.74, 9.52, 272.26
452.89, 9.68, 272.27
448.17, 7.14, 271.94
448.44, 7.15, 271.94
448.73, 7.15, 271.95
449.04, 7.16, 271.96
449.26, 7.20, 271.97
¯449.36, 7.28, 271.97
449.45, 7.36, 271.97
449.55, 7.45, 271.98
449.65, 7.53, 271.98
449.77, 7.62, 271.99
449.97, 7.69, 272.00
450.17, 7.76, 272.00
450.38, 7.84, 272.01
450.60, 7.93, 272.02
450.84, 8.01, 272.03
451.08, 8.11, 272.03
451.28, 8.21, 272.04
451.45, 8.32, 272.05
451.62, 8.44, 272.06
451.79, 8.56, 272.06
451.91, 8.69, 272.07
452.05, 8.82, 272.08
452.18, 8.95, 272.08
452.32, 9.09, 272.09
452.46, 9.23, 272.10
452.61, 9.38, 272.11
452.76, 9.53, 272.11
452.92, 9.68, 272.12
448.17, 7.14, 271.85
448.44, 7.15, 271.85
448.72, 7.15, 271.86
449.04, 7.16, 271.86
449.26, 7.20, 271.87
449.35, 7.28, 271.87
449.45, 7.37, 271.87
449.55, 7.45, 271.88
449.68, 7.53, 271.88
449.87, 7.60, 271.88
450.06, 7.67, 271.89
450.27, 7.75, 271.89
450.49, 7.83, 271.90
450.72, 7.91, 271.90
450.96, 8.00, 271.91
451.20, 8.09, 271.91
451.36, 8.20, 271.92
451.53, 8.32, 271.92
451.68, 8.44, 271.92
451.81, 8.56, 271.93
451.94, 8.69, 271.93
452.07, 8.82, 271.94
452.20, 8.96, 271.94
452.34, 9.09, 271.95
452.49, 9.24, 271.95
452.64, 9.38, 271.96
452.79, 9.53, 271.96
452.94, 9.69, 271.97
¯448.17, 7.15, 271.77
448.43, 7.15, 271.77
448.72, 7.16, 271.77
449.03, 7.16, 271.77
449.26, 7.20, 271.77
449.35, 7.28, 271.77
449.45, 7.37, 271.77
449.58, 7.44, 271.77
449.77, 7.51, 271.77
449.96, 7.58, 271.77
450.16, 7.65, 271.78
450.38, 7.73, 271.78
450.60, 7.81, 271.78
450.84, 7.90, 271.78
451.08, 7.98, 271.78
451.28, 8.09, 271.78
451.45, 8.20, 271.79
451.58, 8.32, 271.79
451.70, 8.44, 271.79
451.83, 8.56, 271.79
451.96, 8.69, 271.80
452.09, 8.82, 271.80
452.23, 8.96, 271.80
452.37, 9.10, 271.81
452.51, 9.24, 271.81
452.66, 9.39, 271.81
452.81, 9.54, 271.82
452.97, 9.69, 271.82
448.16, 7.15, 271.68
448.43, 7.16, 271.68
448.72, 7.16, 271.67
449.03, 7.17, 271.67
449.26, 7.21, 271.67
449.35, 7.29, 271.67
449.49, 7.36, 271.67
449.67, 7.43, 271.67
449.86, 7.49, 271.66
450.06, 7.56, 271.66
450.27, 7.64, 271.66
450.49, 7.71, 271.66
450.72, 7.79, 271.66
450.96, 7.88, 271.66
451.20, 7.97, 271.66
451.36, 8.08, 271.66
451.48, 8.20, 271.66
451.60, 8.32, 271.66
451.72, 8.44, 271.66
451.85, 8.56, 271.66
451.98, 8.69, 271.66
452.11, 8.82, 271.66
452.25, 8.96, 271.66
¯452.39, 9.10, 271.66
452.54, 9.24, 271.66
452.69, 9.39, 271.66
452.84, 9.54, 271.67
453.00, 9.70, 271.67
448.16, 7.15, 271.60
448.42, 7.16, 271.59
448.71, 7.16, 271.58
449.02, 7.17, 271.57
449.26, 7.21, 271.57
449.39, 7.28, 271.57
449.57, 7.34, 271.56
449.76, 7.41, 271.56
449.95, 7.47, 271.55
450.16, 7.54, 271.55
450.37, 7.62, 271.54
450.60, 7.70, 271.54
450.83, 7.78, 271.53
451.08, 7.86, 271.53
451.26, 7.96, 271.53
451.37, 8.08, 271.53
451.49, 8.20, 271.53
451.62, 8.32, 271.52
451.74, 8.44, 271.52
451.87, 8.57, 271.52
452.00, 8.69, 271.52
452.13, 8.83, 271.52
452.27, 8.96, 271.52
452.41, 9.10, 271.52
452.56, 9.25, 271.52
452.71, 9.39, 271.52
452.86, 9.54, 271.52
453.02, 9.70, 271.51
448.15, 7.16, 271.52
448.42, 7.16, 271.50
448.70, 7.17, 271.49
449.01, 7.17, 271.48
449.28, 7.20, 271.47
449.45, 7.26, 271.46
449.63, 7.33, 271.46
449.82, 7.39, 271.45
450.01, 7.46, 271.44
450.21, 7.53, 271.43
450.43, 7.61, 271.43
450.65, 7.69, 271.42
450.88, 7.77, 271.41
451.14, 7.85, 271.40
451.28, 7.96, 271.40
451.40, 8.08, 271.40
451.52, 8.20, 271.39
451.64, 8.32, 271.39
¯451.76, 8.44, 271.39
451.89, 8.57, 271.39
452.02, 8.70, 271.38
452.16, 8.83, 271.38
452.30, 8.97, 271.38
452.44, 9.10, 271.37
452.59, 9.25, 271.37
452.74, 9.40, 271.37
452.89, 9.55, 271.36
453.07, 9.71, 271.36
448.15, 7.16, 271.43
448.41, 7.16, 271.42
448.70, 7.17, 271.40
449.01, 7.18, 271.38
449.28, 7.20, 271.37
449.45, 7.26, 271.36
449.63, 7.33, 271.35
449.82, 7.39, 271.34
450.01, 7.46, 271.33
450.21, 7.53, 271.32
450.43, 7.61, 271.31
450.65, 7.69, 271.30
450.88, 7.77, 271.29
451.18, 7.85, 271.27
451.30, 7.96, 271.27
451.42, 8.08, 271.27
451.54, 8.20, 271.26
451.66, 8.32, 271.26
451.79, 8.44, 271.25
451.92, 8.57, 271.25
452.05, 8.70, 271.24
452.19, 8.83, 271.24
452.33, 8.97, 271.23
452.47, 9.11, 271.23
452.62, 9.25, 271.22
452.77, 9.40, 271.22
452.94, 9.55, 271.21
448.14, 7.16, 271.35
448.41, 7.17, 271.33
448.69, 7.17, 271.31
449.00, 7.18, 271.29
449.28, 7.20, 271.27
449.45, 7.26, 271.26
449.63, 7.33, 271.25
449.82, 7.39, 271.23
450.01, 7.46, 271.22
450.21, 7.54, 271.21
450.43, 7.61, 271.20
450.65, 7.69, 271.18
450.90, 7.77, 271.17
451.20, 7.85, 271.14
¯451.32, 7.96, 271.14
451.44, 8.08, 271.13
451.56, 8.20, 271.13
451.68, 8.32, 271.12
451.81, 8.44, 271.11
451.94, 8.57, 271.11
452.08, 8.70, 271.10
452.21, 8.83, 271.10
452.35, 8.97, 271.09
452.50, 9.11, 271.08
452.65, 9.26, 271.07
452.82, 9.40, 271.06
453.02, 9.56, 271.05
448.13, 7.16, 271.27
448.40, 7.17, 271.24
448.68, 7.18, 271.22
449.00, 7.18, 271.19
449.28, 7.20, 271.17
449.45, 7.26, 271.15
449.63, 7.33, 271.14
449.82, 7.39, 271.13
450.01, 7.46, 271.11
450.21, 7.54, 271.10
450.43, 7.61, 271.08
450.65, 7.69, 271.06
450.96, 7.76, 271.04
451.22, 7.85, 271.02
451.34, 7.96, 271.01
451.46, 8.08, 271.00
451.58, 8.20, 270.99
451.71, 8.32, 270.99
451.84, 8.44, 270.98
451.97, 8.57, 270.97
452.10, 8.70, 270.96
452.24, 8.83, 270.95
452.38, 8.97, 270.94
452.53, 9.11, 270.93
452.70, 9.26, 270.92
452.90, 9.41, 270.91
453.11, 9.57, 270.89
448.12, 7.17, 271.18
448.39, 7.17, 271.16
448.67, 7.18, 271.13
448.99, 7.18, 271.10
449.28, 7.20, 271.07
449.45, 7.26, 271.05
449.63, 7.33, 271.04
449.82, 7.39, 271.02
450.01, 7.46, 271.00
450.21, 7.54, 270.98
450.42, 7.61, 270.96
¯450.66, 7.69, 270.94
451.03, 7.75, 270.91
451.24, 7.84, 270.89
451.36, 7.96, 270.88
451.48, 8.08, 270.87
451.60, 8.19, 270.86
451.73, 8.32, 270.85
451.86, 8.44, 270.84
451.99, 8.57, 270.83
452.13, 8.70, 270.82
452.26, 8.84, 270.81
452.41, 8.97, 270.80
452.59, 9.12, 270.78
452.78, 9.26, 270.76
452.98, 9.41, 270.75
448.12, 7.17, 271.10
448.38, 7.17, 271.07
448.66, 7.18, 271.04
448.99, 7.18, 271.00
449.28, 7.20, 270.97
449.45, 7.26, 270.95
449.63, 7.33, 270.93
449.81, 7.40, 270.91
450.01, 7.46, 270.89
450.21, 7.54, 270.87
450.42, 7.61, 270.85
450.72, 7.68, 270.81
451.09, 7.74, 270.77
451.26, 7.84, 270.76
451.38, 7.96, 270.74
451.50, 8.07, 270.73
451.63, 8.19, 270.72
451.75, 8.32, 270.71
451.88, 8.44, 270.70
452.02, 8.57, 270.69
452.15, 8.70, 270.67
452.29, 8.84, 270.66
452.47, 8.97, 270.64
452.66, 9.12, 270.62
452.86, 9.26, 270.61
453.06, 9.42, 270.59
448.10, 7.17, 271.02
448.37, 7.18, 270.98
448.65, 7.18, 270.95
448.98, 7.18, 270.90
449.27, 7.20, 270.87
449.44, 7.26, 270.85
449.62, 7.33, 270.82
449.81, 7.40, 270.80
450.00, 7.46, 270.78
450.21, 7.54, 270.75
¯450.42, 7.61, 270.73
450.78, 7.67, 270.68
451.16, 7.73, 270.64
451.28, 7.84, 270.62
451.40, 7.95, 270.61
451.53, 8.07, 270.60
451.65, 8.19, 270.58
451.78, 8.31, 270.57
451.91, 8.44, 270.56
452.04, 8.57, 270.54
452.18, 8.70, 270.53
452.36, 8.84, 270.51
452.54, 8.98, 270.49
452.74, 9.12, 270.47
452.94, 9.27, 270.44
454.52, 9.44, 270.24
448.09, 7.17, 270.93
448.35, 7.18, 270.90
448.64, 7.18, 270.85
448.97, 7.18, 270.81
449.27, 7.20, 270.77
449.44, 7.26, 270.74
449.62, 7.33, 270.72
449.81, 7.39, 270.69
450.00, 7.46, 270.67
450.20, 7.54, 270.64
450.48, 7.60, 270.60
450.84, 7.66, 270.55
451.19, 7.72, 270.50
451.30, 7.84, 270.49
451.42, 7.95, 270.48
451.55, 8.07, 270.46
451.67, 8.19, 270.45
451.80, 8.31, 270.43
451.93, 8.44, 270.41
452.07, 8.57, 270.40
452.25, 8.70, 270.38
452.43, 8.84, 270.35
452.62, 8.98, 270.33
452.82, 9.12, 270.30
453.02, 9.27, 270.28
454.51, 9.45, 270.07
448.08, 7.17, 270.85
448.34, 7.18, 270.81
448.63, 7.18, 270.76
448.96, 7.19, 270.71
449.26, 7.20, 270.67
449.44, 7.26, 270.64
449.62, 7.33, 270.61
449.80, 7.39, 270.59
450.00, 7.46, 270.56
¯450.20, 7.54, 270.53
450.53, 7.59, 270.48
450.90, 7.65, 270.42
451.21, 7.72, 270.37
451.32, 7.83, 270.36
451.44, 7.95, 270.34
451.57, 8.07, 270.32
451.69, 8.19, 270.31
451.82, 8.31, 270.29
451.96, 8.44, 270.27
452.14, 8.57, 270.25
452.32, 8.70, 270.22
452.50, 8.83, 270.19
452.69, 8.98, 270.17
452.89, 9.12, 270.14
453.10, 9.27, 270.11
454.49, 9.45, 269.90
448.06, 7.18, 270.77
448.33, 7.18, 270.72
448.62, 7.19, 270.67
448.95, 7.19, 270.62
449.26, 7.20, 270.56
449.43, 7.26, 270.54
449.61, 7.33, 270.51
449.80, 7.39, 270.48
449.99, 7.46, 270.44
450.24, 7.53, 270.40
450.59, 7.58, 270.35
450.96, 7.63, 270.28
451.22, 7.72, 270.24
451.34, 7.83, 270.22
451.46, 7.95, 270.20
451.59, 8.06, 270.18
451.72, 8.19, 270.17
451.86, 8.31, 270.14
452.03, 8.43, 270.12
452.21, 8.56, 270.09
452.39, 8.70, 270.06
452.58, 8.83, 270.03
452.77, 8.98, 270.00
452.97, 9.12, 269.97
453.87, 9.28, 269.82
454.48, 9.45, 269.72
448.05, 7.18, 270.69
448.31, 7.18, 270.64
448.61, 7.19, 270.58
448.93, 7.19, 270.52
449.25, 7.20, 270.46
449.42, 7.26, 270.43
449.60, 7.33, 270.40
449.79, 7.39, 270.37
¯449.99, 7.46, 270.33
450.29, 7.51, 270.28
450.64, 7.56, 270.21
451.02, 7.62, 270.14
451.24, 7.71, 270.10
451.36, 7.83, 270.09
451.49, 7.94, 270.07
451.61, 8.06, 270.04
451.75, 8.18, 270.02
451.92, 8.30, 269.99
452.10, 8.43, 269.96
452.27, 8.56, 269.93
452.46, 8.69, 269.90
452.65, 8.83, 269.87
452.85, 8.98, 269.83
453.06, 9.13, 269.80
453.86, 9.28, 269.65
454.46, 9.46, 269.55
448.03, 7.18, 270.60
448.29, 7.19, 270.55
448.59, 7.19, 270.49
448.92, 7.19, 270.43
449.25, 7.20, 270.36
449.42, 7.26, 270.33
449.60, 7.32, 270.29
449.79, 7.39, 270.26
450.02, 7.45, 270.21
450.34, 7.50, 270.15
450.69, 7.55, 270.08
451.08, 7.61, 270.00
451.26, 7.71, 269.97
451.38, 7.82, 269.95
451.51, 7.94, 269.93
451.65, 8.06, 269.90
451.82, 8.18, 269.87
451.99, 8.30, 269.84
452.16, 8.42, 269.80
452.34, 8.56, 269.77
452.53, 8.69, 269.74
452.73, 8.83, 269.70
452.93, 8.98, 269.66
453.29, 9.13, 269.59
453.86, 9.29, 269.48
454.54, 9.46, 269.35
448.02, 7.18, 270.52
448.28, 7.19, 270.47
448.58, 7.19, 270.40
448.90, 7.19, 270.33
449.24, 7.20, 270.26
449.41, 7.26, 270.22
449.59, 7.32, 270.19
¯449.78, 7.39, 270.15
450.06, 7.44, 270.09
450.39, 7.49, 270.02
450.75, 7.54, 269.94
451.14, 7.59, 269.86
451.28, 7.70, 269.83
451.40, 7.82, 269.81
451.55, 7.93, 269.78
451.71, 8.05, 269.75
451.88, 8.17, 269.71
452.05, 8.29, 269.68
452.23, 8.42, 269.64
452.42, 8.55, 269.61
452.61, 8.69, 269.57
452.80, 8.83, 269.53
452.99, 8.98, 269.49
453.32, 9.13, 269.42
453.94, 9.29, 269.30
454.62, 9.47, 269.15
448.00, 7.18, 270.44
448.26, 7.19, 270.38
448.56, 7.19, 270.31
448.89, 7.19, 270.24
449.23, 7.19, 270.16
449.40, 7.26, 270.12
449.58, 7.32, 270.08
449.79, 7.38, 270.03
450.10, 7.43, 269.96
450.44, 7.47, 269.89
450.80, 7.52, 269.80
451.18, 7.58, 269.72
451.30, 7.70, 269.69
451.45, 7.81, 269.66
451.61, 7.92, 269.63
451.77, 8.04, 269.59
451.94, 8.16, 269.56
452.11, 8.29, 269.52
452.28, 8.42, 269.48
452.45, 8.55, 269.45
452.63, 8.69, 269.41
452.81, 8.83, 269.37
453.01, 8.98, 269.33
453.39, 9.13, 269.25
454.02, 9.29, 269.11
454.70, 9.47, 268.95
447.98, 7.19, 270.36
448.24, 7.19, 270.29
448.54, 7.19, 270.22
448.87, 7.19, 270.14
449.22, 7.19, 270.06
449.39, 7.25, 270.01
¯449.57, 7.32, 269.97
449.83, 7.37, 269.91
450.15, 7.41, 269.83
450.49, 7.46, 269.75
450.86, 7.51, 269.66
451.20, 7.58, 269.58
451.34, 7.69, 269.55
451.50, 7.80, 269.51
451.65, 7.92, 269.48
451.80, 8.03, 269.44
451.96, 8.16, 269.41
452.12, 8.28, 269.37
452.29, 8.42, 269.33
452.46, 8.55, 269.29
452.64, 8.69, 269.25
452.82, 8.83, 269.21
453.03, 8.98, 269.16
453.46, 9.13, 269.06
454.09, 9.30, 268.91
454.78, 9.48, 268.75
447.96, 7.19, 270.28
448.23, 7.19, 270.21
448.52, 7.19, 270.13
448.85, 7.19, 270.05
449.20, 7.19, 269.95
449.38, 7.25, 269.91
449.57, 7.32, 269.86
449.87, 7.36, 269.79
450.19, 7.40, 269.70
450.54, 7.45, 269.62
450.91, 7.50, 269.52
451.21, 7.57, 269.44
451.35, 7.68, 269.41
451.50, 7.80, 269.37
451.65, 7.91, 269.34
451.80, 8.03, 269.30
451.96, 8.16, 269.26
452.12, 8.28, 269.22
452.29, 8.41, 269.18
452.47, 8.55, 269.14
452.65, 8.69, 269.10
452.85, 8.83, 269.05
453.06, 8.98, 269.00
453.53, 9.13, 268.88
454.17, 9.30, 268.71
454.86, 9.49, 268.54
447.93, 7.19, 270.20
448.21, 7.19, 270.12
448.50, 7.19, 270.04
448.83, 7.19, 269.95
449.18, 7.19, 269.86
¯449.37, 7.25, 269.80
449.61, 7.30, 269.74
449.91, 7.34, 269.66
450.23, 7.38, 269.57
450.56, 7.44, 269.48
450.89, 7.50, 269.40
451.21, 7.57, 269.31
451.35, 7.68, 269.27
451.50, 7.79, 269.23
451.65, 7.91, 269.19
451.81, 8.03, 269.15
451.97, 8.15, 269.11
452.13, 8.28, 269.07
452.30, 8.41, 269.03
452.47, 8.55, 268.98
452.66, 8.69, 268.93
452.87, 8.83, 268.88
453.08, 8.98, 268.83
453.60, 9.14, 268.69
454.25, 9.30, 268.51
454.95, 9.49, 268.33
447.91, 7.19, 270.12
448.19, 7.19, 270.04
448.48, 7.19, 269.95
448.80, 7.19, 269.86
449.16, 7.19, 269.76
449.36, 7.25, 269.70
449.64, 7.29, 269.62
449.95, 7.33, 269.53
450.23, 7.38, 269.45
450.54, 7.44, 269.36
450.86, 7.50, 269.27
451.21, 7.56, 269.17
451.36, 7.67, 269.13
451.50, 7.79, 269.09
451.65, 7.91, 269.05
451.81, 8.03, 269.01
451.97, 8.15, 268.96
452.14, 8.28, 268.92
452.31, 8.41, 268.87
452.49, 8.55, 268.82
452.68, 8.69, 268.77
452.89, 8.83, 268.71
453.10, 8.99, 268.65
453.67, 9.14, 268.49
454.32, 9.31, 268.31
455.03, 9.50, 268.11
447.89, 7.19, 270.03
448.16, 7.19, 269.95
448.46, 7.19, 269.86
448.78, 7.19, 269.77
¯449.13, 7.20, 269.66
449.38, 7.23, 269.58
449.66, 7.28, 269.50
449.93, 7.33, 269.42
450.21, 7.38, 269.33
450.52, 7.44, 269.24
450.86, 7.49, 269.14
451.21, 7.56, 269.03
451.36, 7.67, 268.99
451.51, 7.79, 268.95
451.66, 7.90, 268.90
451.81, 8.02, 268.86
451.97, 8.15, 268.81
452.14, 8.28, 268.77
452.31, 8.41, 268.72
452.51, 8.55, 268.66
452.71, 8.69, 268.60
452.91, 8.83, 268.54
453.14, 8.99, 268.48
453.74, 9.14, 268.30
454.39, 9.31, 268.10
447.87, 7.19, 269.95
448.14, 7.19, 269.87
448.43, 7.19, 269.77
448.75, 7.20, 269.67
449.10, 7.20, 269.56
449.38, 7.23, 269.47
449.64, 7.27, 269.39
449.90, 7.32, 269.31
450.19, 7.38, 269.22
450.49, 7.44, 269.12
450.85, 7.49, 269.01
451.21, 7.55, 268.89
451.36, 7.67, 268.85
451.51, 7.78, 268.80
451.66, 7.90, 268.76
451.82, 8.02, 268.71
451.98, 8.15, 268.66
452.15, 8.28, 268.61
452.33, 8.41, 268.56
452.52, 8.55, 268.50
452.73, 8.69, 268.43
452.94, 8.84, 268.37
453.20, 8.99, 268.29
453.81, 9.14, 268.10
454.47, 9.32, 267.89
447.85, 7.19, 269.87
448.11, 7.19, 269.78
448.41, 7.20, 269.69
448.73, 7.20, 269.58
449.07, 7.20, 269.46
¯449.36, 7.23, 269.37
449.61, 7.27, 269.28
449.88, 7.32, 269.20
450.17, 7.38, 269.10
450.47, 7.43, 269.00
450.85, 7.48, 268.87
451.21, 7.55, 268.75
451.36, 7.66, 268.71
451.51, 7.78, 268.66
451.66, 7.90, 268.61
451.82, 8.02, 268.56
451.98, 8.14, 268.51
452.16, 8.27, 268.45
452.35, 8.41, 268.39
452.54, 8.54, 268.33
452.75, 8.69, 268.26
452.96, 8.84, 268.20
453.26, 8.99, 268.10
453.88, 9.14, 267.89
454.54, 9.32, 267.68
447.82, 7.19, 269.79
448.09, 7.19, 269.70
448.38, 7.20, 269.60
448.70, 7.20, 269.49
449.04, 7.20, 269.37
449.34, 7.23, 269.26
449.59, 7.27, 269.18
449.86, 7.32, 269.08
450.14, 7.38, 268.98
450.44, 7.43, 268.88
450.85, 7.48, 268.74
451.21, 7.54, 268.61
451.36, 7.66, 268.56
451.51, 7.77, 268.51
451.66, 7.89, 268.46
451.82, 8.01, 268.41
451.99, 8.14, 268.35
452.17, 8.27, 268.29
452.36, 8.40, 268.23
452.56, 8.54, 268.16
452.77, 8.69, 268.09
452.98, 8.84, 268.02
453.33, 8.99, 267.90
453.94, 9.15, 267.69
454.78, 9.32, 267.40
447.80, 7.19, 269.71
448.06, 7.20, 269.62
448.35, 7.20, 269.51
448.66, 7.20, 269.40
449.01, 7.20, 269.27
449.32, 7.22, 269.16
¯449.57, 7.27, 269.07
449.83, 7.32, 268.97
450.12, 7.37, 268.87
450.42, 7.43, 268.76
450.84, 7.47, 268.60
451.21, 7.54, 268.47
451.36, 7.65, 268.42
451.51, 7.77, 268.37
451.67, 7.89, 268.31
451.82, 8.01, 268.25
452.00, 8.14, 268.19
452.19, 8.27, 268.13
452.38, 8.40, 268.06
452.58, 8.54, 267.99
452.79, 8.68, 267.92
453.00, 8.84, 267.84
453.39, 8.99, 267.70
454.13, 9.15, 267.43
454.87, 9.33, 267.17
447.77, 7.20, 269.63
448.03, 7.20, 269.53
448.32, 7.20, 269.42
448.63, 7.20, 269.30
448.97, 7.20, 269.18
449.29, 7.22, 269.05
449.54, 7.27, 268.96
449.81, 7.32, 268.86
450.09, 7.37, 268.75
450.42, 7.43, 268.63
450.84, 7.47, 268.47
451.21, 7.53, 268.33
451.36, 7.64, 268.27
451.51, 7.76, 268.22
451.67, 7.88, 268.16
451.84, 8.01, 268.10
452.02, 8.13, 268.03
452.20, 8.26, 267.96
452.40, 8.40, 267.89
452.60, 8.54, 267.81
452.81, 8.68, 267.74
453.03, 8.83, 267.66
453.54, 8.99, 267.46
454.47, 9.15, 267.11
454.90, 9.33, 266.95
447.74, 7.20, 269.55
448.00, 7.20, 269.45
448.29, 7.20, 269.34
448.60, 7.20, 269.21
448.93, 7.21, 269.08
449.26, 7.22, 268.95
449.51, 7.27, 268.85
¯449.78, 7.32, 268.75
450.06, 7.37, 268.63
450.41, 7.42, 268.50
450.83, 7.46, 268.33
451.21, 7.52, 268.18
451.36, 7.64, 268.12
451.51, 7.76, 268.07
451.67, 7.88, 268.00
451.85, 8.00, 267.94
452.03, 8.13, 267.87
452.22, 8.26, 267.79
452.42, 8.39, 267.72
452.62, 8.54, 267.64
452.83, 8.68, 267.56
453.06, 8.83, 267.47
453.84, 8.98, 267.16
454.56, 9.15, 266.88
454.92, 9.34, 266.74
447.71, 7.20, 269.48
447.97, 7.20, 269.37
448.25, 7.20, 269.25
448.56, 7.20, 269.12
448.89, 7.21, 268.99
449.24, 7.22, 268.84
449.49, 7.27, 268.74
449.75, 7.32, 268.63
450.03, 7.37, 268.52
450.40, 7.41, 268.37
450.82, 7.45, 268.19
451.21, 7.52, 268.03
451.36, 7.63, 267.97
451.51, 7.75, 267.91
451.68, 7.87, 267.84
451.86, 7.99, 267.77
452.05, 8.12, 267.70
452.24, 8.25, 267.62
452.43, 8.39, 267.54
452.63, 8.53, 267.46
452.84, 8.68, 267.38
453.27, 8.83, 267.20
454.17, 8.97, 266.84
454.59, 9.15, 266.66
454.96, 9.34, 266.52
447.68, 7.20, 269.40
447.93, 7.20, 269.29
448.22, 7.20, 269.17
448.52, 7.21, 269.04
448.85, 7.21, 268.89
449.20, 7.22, 268.74
449.46, 7.26, 268.63
449.72, 7.31, 268.52
¯450.00, 7.37, 268.40
450.39, 7.41, 268.24
450.81, 7.45, 268.05
451.21, 7.51, 267.89
451.36, 7.62, 267.82
451.52, 7.74, 267.75
451.69, 7.86, 267.68
451.87, 7.99, 267.61
452.06, 8.12, 267.53
452.25, 8.25, 267.45
452.44, 8.39, 267.37
452.64, 8.53, 267.29
452.92, 8.68, 267.17
453.56, 8.81, 266.90
454.27, 8.97, 266.59
454.62, 9.15, 266.45
454.99, 9.34, 266.29
447.64, 7.20, 269.32
447.90, 7.20, 269.21
448.18, 7.20, 269.08
448.48, 7.21, 268.95
448.81, 7.21, 268.80
449.16, 7.22, 268.64
449.43, 7.26, 268.53
449.69, 7.31, 268.41
449.98, 7.36, 268.28
450.37, 7.40, 268.11
450.80, 7.44, 267.91
451.20, 7.50, 267.74
451.36, 7.62, 267.67
451.53, 7.73, 267.59
451.70, 7.86, 267.52
451.88, 7.98, 267.44
452.06, 8.11, 267.36
452.25, 8.24, 267.28
452.45, 8.38, 267.19
452.65, 8.53, 267.11
453.06, 8.67, 266.93
453.87, 8.80, 266.57
454.29, 8.97, 266.38
454.64, 9.15, 266.23
455.02, 9.35, 266.06
447.61, 7.20, 269.25
447.86, 7.20, 269.13
448.14, 7.21, 269.00
448.44, 7.21, 268.86
448.76, 7.22, 268.71
449.11, 7.22, 268.55
449.40, 7.26, 268.42
449.66, 7.31, 268.30
449.97, 7.36, 268.15
¯450.36, 7.39, 267.97
450.79, 7.44, 267.77
451.20, 7.49, 267.58
451.36, 7.61, 267.51
451.53, 7.73, 267.43
451.70, 7.85, 267.36
451.88, 7.97, 267.28
452.07, 8.10, 267.19
452.26, 8.24, 267.11
452.46, 8.38, 267.02
452.79, 8.52, 266.87
453.28, 8.65, 266.64
453.98, 8.80, 266.32
454.32, 8.97, 266.17
454.67, 9.16, 266.00
455.05, 9.35, 265.83
447.57, 7.20, 269.17
447.83, 7.21, 269.05
448.10, 7.21, 268.92
448.40, 7.21, 268.77
448.72, 7.22, 268.62
449.07, 7.23, 268.45
449.37, 7.26, 268.31
449.63, 7.31, 268.18
449.95, 7.35, 268.03
450.34, 7.39, 267.84
450.77, 7.43, 267.63
451.20, 7.48, 267.43
451.36, 7.60, 267.35
451.53, 7.72, 267.27
451.71, 7.84, 267.19
451.89, 7.97, 267.11
452.07, 8.10, 267.02
452.27, 8.24, 266.93
452.52, 8.37, 266.81
452.92, 8.51, 266.62
453.57, 8.64, 266.31
454.00, 8.80, 266.11
454.34, 8.97, 265.95
454.70, 9.16, 265.78
447.53, 7.20, 269.09
447.79, 7.21, 268.97
448.06, 7.21, 268.83
448.36, 7.21, 268.68
448.67, 7.22, 268.53
449.02, 7.23, 268.36
449.33, 7.25, 268.20
449.59, 7.30, 268.07
449.93, 7.34, 267.90
450.33, 7.38, 267.71
450.74, 7.42, 267.50
¯451.20, 7.47, 267.27
451.36, 7.59, 267.19
451.53, 7.71, 267.11
451.71, 7.83, 267.03
451.89, 7.96, 266.94
452.08, 8.09, 266.85
452.27, 8.23, 266.75
452.64, 8.36, 266.57
453.06, 8.49, 266.36
453.69, 8.63, 266.05
454.02, 8.80, 265.89
454.36, 8.97, 265.72
454.73, 9.16, 265.55
447.50, 7.21, 269.02
447.75, 7.21, 268.89
448.02, 7.21, 268.75
448.31, 7.21, 268.60
448.63, 7.22, 268.44
448.97, 7.23, 268.26
449.30, 7.25, 268.09
449.56, 7.30, 267.96
449.91, 7.34, 267.77
450.31, 7.37, 267.57
450.70, 7.42, 267.37
451.20, 7.46, 267.11
451.36, 7.58, 267.03
451.53, 7.70, 266.95
451.71, 7.82, 266.86
451.89, 7.95, 266.76
452.08, 8.09, 266.67
452.38, 8.21, 266.52
452.78, 8.34, 266.32
453.28, 8.47, 266.06
453.71, 8.63, 265.84
454.04, 8.80, 265.67
454.39, 8.97, 265.50
454.75, 9.16, 265.31
447.46, 7.21, 268.95
447.71, 7.21, 268.81
447.98, 7.21, 268.67
448.27, 7.22, 268.51
448.58, 7.22, 268.35
448.92, 7.23, 268.17
449.26, 7.25, 267.98
449.53, 7.30, 267.84
449.89, 7.33, 267.65
450.27, 7.37, 267.45
450.66, 7.42, 267.24
451.20, 7.45, 266.95
451.36, 7.57, 266.87
451.53, 7.69, 266.78
¯451.71, 7.82, 266.68
451.90, 7.95, 266.59
452.12, 8.08, 266.47
452.50, 8.20, 266.27
452.91, 8.33, 266.05
453.41, 8.46, 265.79
453.73, 8.62, 265.62
454.06, 8.79, 265.45
454.41, 8.97, 265.26
447.42, 7.21, 268.87
447.66, 7.21, 268.74
447.93, 7.21, 268.59
448.22, 7.22, 268.43
448.53, 7.23, 268.26
448.86, 7.23, 268.07
449.23, 7.24, 267.87
449.51, 7.29, 267.72
449.86, 7.32, 267.52
450.22, 7.37, 267.33
450.62, 7.42, 267.11
451.19, 7.44, 266.79
451.36, 7.56, 266.70
451.53, 7.68, 266.61
451.71, 7.81, 266.51
451.90, 7.94, 266.41
452.23, 8.06, 266.23
452.63, 8.18, 266.01
453.05, 8.31, 265.78
453.43, 8.46, 265.58
453.75, 8.62, 265.40
454.08, 8.79, 265.22
454.44, 8.97, 265.03
447.38, 7.21, 268.80
447.62, 7.21, 268.66
447.89, 7.22, 268.51
448.17, 7.22, 268.35
448.48, 7.23, 268.17
448.81, 7.24, 267.98
