žVERSION 0.7
FIELDS x y z
SIZE 8 8 8
TYPE F F F
COUNT 1 1 1
WIDTH 2271
HEIGHT 1
VIEWPOINT 337.50, 7.61, 342.20 1 336.31, 2.27, 322.33
POINTS 2271
DATA ascii
331.09, 0.00, 310.75
330.74, 0.06, 309.78
330.35, 0.13, 308.73
331.27, 0.68, 311.33
331.31, 0.89, 311.46
331.41, 1.11, 311.78
331.51, 1.31, 312.07
331.57, 1.51, 312.24
331.60, 1.69, 312.36
331.64, 1.87, 312.48
331.67, 2.05, 312.59
¯331.65, 2.22, 312.55
334.06, 0.14, 319.26
333.99, 0.14, 319.05
333.90, 0.14, 318.83
333.81, 0.14, 318.59
333.71, 0.14, 318.33
333.61, 0.14, 318.04
333.49, 0.14, 317.73
333.36, 0.14, 317.39
333.22, 0.14, 317.02
333.07, 0.14, 316.60
332.89, 0.14, 316.14
332.70, 0.14, 315.62
332.48, 0.14, 315.04
331.99, 0.00, 313.73
331.69, 0.00, 312.92
331.33, 0.00, 311.97
330.91, 0.00, 310.86
330.54, 0.05, 309.87
330.15, 0.13, 308.85
331.11, 0.68, 311.45
331.15, 0.89, 311.59
331.26, 1.11, 311.90
331.36, 1.31, 312.19
331.42, 1.50, 312.36
331.46, 1.69, 312.48
331.49, 1.87, 312.59
331.53, 2.04, 312.70
331.51, 2.21, 312.67
334.00, 0.14, 319.29
333.92, 0.14, 319.09
333.83, 0.14, 318.86
333.74, 0.14, 318.63
333.63, 0.14, 318.37
333.52, 0.14, 318.08
333.40, 0.14, 317.78
333.27, 0.14, 317.44
333.13, 0.14, 317.07
332.96, 0.14, 316.66
332.79, 0.14, 316.20
332.58, 0.14, 315.69
332.36, 0.14, 315.11
331.86, 0.00, 313.82
331.54, 0.00, 313.01
331.17, 0.00, 312.08
330.74, 0.00, 310.98
330.34, 0.04, 309.95
329.95, 0.12, 308.95
330.95, 0.68, 311.58
331.00, 0.89, 311.72
331.11, 1.10, 312.02
¯331.22, 1.31, 312.31
331.26, 1.50, 312.43
331.28, 1.68, 312.52
331.31, 1.86, 312.60
331.32, 2.03, 312.66
331.33, 2.21, 312.68
333.93, 0.14, 319.33
333.85, 0.14, 319.12
333.76, 0.14, 318.90
333.66, 0.14, 318.66
333.55, 0.14, 318.41
333.44, 0.14, 318.13
333.32, 0.14, 317.82
333.18, 0.14, 317.49
333.03, 0.14, 317.12
332.86, 0.14, 316.71
332.68, 0.14, 316.26
332.47, 0.14, 315.75
332.24, 0.14, 315.18
331.72, 0.00, 313.90
331.40, 0.00, 313.10
331.02, 0.00, 312.18
330.57, 0.00, 311.09
330.14, 0.04, 310.04
329.75, 0.12, 309.07
330.80, 0.68, 311.70
330.85, 0.89, 311.84
330.96, 1.10, 312.14
331.03, 1.30, 312.33
331.06, 1.49, 312.42
331.09, 1.67, 312.50
331.10, 1.85, 312.56
331.12, 2.03, 312.61
331.14, 2.20, 312.67
333.86, 0.14, 319.36
333.78, 0.14, 319.16
333.68, 0.14, 318.94
333.58, 0.14, 318.70
333.48, 0.14, 318.45
333.36, 0.14, 318.17
333.23, 0.14, 317.87
333.09, 0.14, 317.54
332.94, 0.14, 317.18
332.76, 0.14, 316.77
332.57, 0.14, 316.32
332.36, 0.14, 315.82
332.12, 0.14, 315.26
331.59, 0.00, 313.98
331.25, 0.00, 313.20
330.86, 0.00, 312.28
330.41, 0.00, 311.21
¯329.95, 0.03, 310.14
329.55, 0.12, 309.19
330.65, 0.68, 311.83
330.70, 0.89, 311.96
330.80, 1.10, 312.23
330.83, 1.29, 312.32
330.86, 1.47, 312.39
330.88, 1.66, 312.45
330.89, 1.84, 312.51
330.91, 2.02, 312.57
330.93, 2.19, 312.63
333.80, 0.14, 319.40
333.71, 0.14, 319.20
333.61, 0.14, 318.98
333.51, 0.14, 318.75
333.40, 0.14, 318.49
333.28, 0.14, 318.22
333.15, 0.14, 317.92
333.00, 0.14, 317.59
332.84, 0.14, 317.23
332.67, 0.14, 316.83
332.47, 0.14, 316.39
332.25, 0.14, 315.89
332.00, 0.14, 315.33
331.45, 0.00, 314.07
331.11, 0.00, 313.29
330.71, 0.00, 312.39
330.24, 0.00, 311.32
329.77, 0.03, 310.26
329.35, 0.11, 309.31
330.49, 0.68, 311.95
330.55, 0.88, 312.08
330.60, 1.08, 312.21
330.62, 1.27, 312.29
330.64, 1.46, 312.35
330.66, 1.64, 312.41
330.68, 1.83, 312.47
330.70, 2.01, 312.53
330.72, 2.19, 312.58
333.73, 0.14, 319.43
333.64, 0.14, 319.23
333.54, 0.14, 319.02
333.44, 0.14, 318.79
333.32, 0.14, 318.54
333.20, 0.14, 318.27
333.06, 0.14, 317.97
332.91, 0.14, 317.64
332.75, 0.14, 317.29
332.57, 0.14, 316.89
332.37, 0.14, 316.45
332.14, 0.14, 315.96
¯331.89, 0.14, 315.40
331.32, 0.00, 314.16
330.97, 0.00, 313.39
330.56, 0.00, 312.49
330.08, 0.00, 311.44
329.62, 0.04, 310.45
329.16, 0.11, 309.44
330.34, 0.68, 312.07
330.35, 0.87, 312.11
330.38, 1.07, 312.18
330.40, 1.26, 312.24
330.42, 1.45, 312.30
330.44, 1.63, 312.36
330.46, 1.82, 312.42
330.48, 2.00, 312.48
330.50, 2.18, 312.54
333.67, 0.14, 319.47
333.57, 0.14, 319.27
333.47, 0.14, 319.06
333.36, 0.14, 318.83
333.25, 0.14, 318.58
333.12, 0.14, 318.31
332.98, 0.14, 318.02
332.83, 0.14, 317.70
332.66, 0.14, 317.34
332.47, 0.14, 316.95
332.27, 0.14, 316.52
332.03, 0.14, 316.03
331.51, 0.00, 314.91
331.19, 0.00, 314.25
330.83, 0.00, 313.48
330.41, 0.00, 312.60
329.95, 0.01, 311.63
329.48, 0.05, 310.64
328.98, 0.11, 309.59
330.19, 0.68, 312.19
330.17, 0.86, 312.16
330.15, 1.05, 312.13
330.17, 1.24, 312.19
330.19, 1.43, 312.25
330.22, 1.62, 312.31
330.24, 1.81, 312.37
330.26, 1.99, 312.44
330.28, 2.17, 312.50
333.60, 0.14, 319.51
333.51, 0.14, 319.31
333.40, 0.14, 319.10
333.29, 0.14, 318.87
333.17, 0.14, 318.63
333.04, 0.14, 318.36
332.90, 0.14, 318.07
¯332.74, 0.14, 317.75
332.57, 0.14, 317.40
332.38, 0.14, 317.01
332.16, 0.14, 316.58
331.93, 0.14, 316.10
331.39, 0.00, 314.99
331.06, 0.00, 314.34
330.69, 0.00, 313.58
330.26, 0.00, 312.71
329.82, 0.02, 311.81
329.34, 0.06, 310.85
328.83, 0.12, 309.80
329.99, 0.66, 312.21
329.92, 0.84, 312.08
329.90, 1.03, 312.05
329.93, 1.22, 312.12
329.95, 1.41, 312.18
329.98, 1.61, 312.25
330.00, 1.80, 312.31
330.03, 1.98, 312.38
330.05, 2.17, 312.44
333.54, 0.14, 319.55
333.44, 0.14, 319.35
333.33, 0.14, 319.14
333.22, 0.14, 318.92
333.10, 0.14, 318.67
332.96, 0.14, 318.41
332.81, 0.14, 318.12
332.65, 0.14, 317.81
332.48, 0.14, 317.46
332.28, 0.14, 317.08
332.06, 0.14, 316.65
331.82, 0.14, 316.17
331.27, 0.00, 315.08
330.94, 0.00, 314.43
330.56, 0.00, 313.68
330.12, 0.00, 312.82
329.69, 0.03, 311.99
329.21, 0.07, 311.05
328.68, 0.13, 310.01
329.42, 0.55, 311.49
329.59, 0.79, 311.83
329.64, 1.00, 311.96
329.67, 1.20, 312.02
329.65, 1.39, 312.00
329.64, 1.58, 311.99
329.61, 1.77, 311.95
329.59, 1.96, 311.92
329.56, 2.16, 311.88
333.48, 0.14, 319.59
333.38, 0.14, 319.39
¯333.27, 0.14, 319.19
333.15, 0.14, 318.96
333.02, 0.14, 318.72
332.88, 0.14, 318.46
332.73, 0.14, 318.18
332.57, 0.14, 317.86
332.39, 0.14, 317.52
332.19, 0.14, 317.14
331.97, 0.14, 316.72
331.72, 0.14, 316.25
331.15, 0.00, 315.16
330.81, 0.00, 314.52
330.42, 0.00, 313.78
329.97, 0.00, 312.93
329.54, 0.03, 312.11
329.08, 0.08, 311.25
328.54, 0.14, 310.21
327.88, 0.19, 308.98
328.76, 0.64, 310.67
329.07, 0.92, 311.27
329.05, 1.12, 311.26
329.03, 1.32, 311.24
329.01, 1.53, 311.21
328.98, 1.73, 311.17
328.95, 1.94, 311.12
328.92, 2.14, 311.08
333.41, 0.14, 319.63
333.31, 0.14, 319.44
333.20, 0.14, 319.23
333.08, 0.14, 319.01
332.95, 0.14, 318.77
332.81, 0.14, 318.51
332.65, 0.14, 318.23
332.48, 0.14, 317.92
332.30, 0.14, 317.58
332.09, 0.14, 317.21
331.87, 0.14, 316.79
331.61, 0.14, 316.32
331.03, 0.00, 315.25
330.69, 0.00, 314.61
330.29, 0.00, 313.88
329.83, 0.00, 313.04
329.37, 0.03, 312.20
328.94, 0.09, 311.42
328.39, 0.14, 310.42
327.69, 0.19, 309.13
326.50, 0.17, 306.95
327.99, 0.74, 309.72
328.32, 1.02, 310.35
328.31, 1.24, 310.33
328.29, 1.46, 310.31
¯328.25, 1.68, 310.26
328.21, 1.90, 310.19
328.16, 2.13, 310.12
333.35, 0.14, 319.67
333.25, 0.14, 319.48
333.13, 0.14, 319.28
333.01, 0.14, 319.06
332.88, 0.14, 318.82
332.73, 0.14, 318.56
332.57, 0.14, 318.28
332.40, 0.14, 317.98
332.21, 0.14, 317.64
332.00, 0.14, 317.27
331.77, 0.14, 316.86
331.23, 0.00, 315.89
330.92, 0.00, 315.33
330.56, 0.00, 314.71
330.16, 0.00, 313.99
329.69, 0.00, 313.16
329.20, 0.02, 312.28
328.76, 0.08, 311.51
328.26, 0.15, 310.63
327.50, 0.19, 309.28
326.32, 0.17, 307.18
324.58, 0.12, 304.10
327.10, 0.85, 308.61
327.08, 1.10, 308.59
327.06, 1.35, 308.57
326.98, 1.60, 308.45
326.89, 1.85, 308.31
326.87, 2.10, 308.28
333.29, 0.14, 319.71
333.18, 0.14, 319.52
333.07, 0.14, 319.32
332.94, 0.14, 319.10
332.80, 0.14, 318.87
332.66, 0.14, 318.62
332.50, 0.14, 318.34
332.32, 0.14, 318.04
332.13, 0.14, 317.71
331.91, 0.14, 317.34
331.67, 0.14, 316.93
331.12, 0.00, 315.97
330.80, 0.00, 315.42
330.44, 0.00, 314.80
330.03, 0.00, 314.09
329.55, 0.00, 313.27
329.02, 0.01, 312.37
328.58, 0.08, 311.61
328.08, 0.15, 310.76
327.31, 0.19, 309.43
¯326.12, 0.18, 307.39
324.22, 0.10, 304.12
326.03, 0.71, 307.27
326.03, 0.99, 307.28
326.02, 1.26, 307.27
325.99, 1.53, 307.25
325.90, 1.81, 307.11
325.75, 2.08, 306.86
333.23, 0.14, 319.75
333.12, 0.14, 319.57
333.00, 0.14, 319.37
332.87, 0.14, 319.15
332.73, 0.14, 318.92
332.58, 0.14, 318.67
332.42, 0.14, 318.40
332.24, 0.14, 318.10
332.04, 0.14, 317.77
331.82, 0.14, 317.41
331.58, 0.14, 317.00
331.01, 0.00, 316.05
330.69, 0.00, 315.51
330.32, 0.00, 314.90
329.90, 0.00, 314.20
329.41, 0.00, 313.39
328.85, 0.00, 312.46
328.40, 0.07, 311.70
327.92, 0.15, 310.91
327.14, 0.19, 309.61
325.84, 0.16, 307.45
323.89, 0.08, 304.19
333.17, 0.14, 319.79
333.06, 0.14, 319.61
332.94, 0.14, 319.41
332.80, 0.14, 319.20
332.66, 0.14, 318.97
332.51, 0.14, 318.72
332.34, 0.14, 318.45
332.16, 0.14, 318.16
331.96, 0.14, 317.83
331.73, 0.14, 317.47
331.49, 0.14, 317.08
330.91, 0.00, 316.14
330.58, 0.00, 315.60
330.20, 0.00, 315.00
329.77, 0.00, 314.30
329.28, 0.00, 313.50
328.70, 0.00, 312.57
328.21, 0.06, 311.80
327.76, 0.15, 311.07
327.09, 0.22, 309.99
325.57, 0.14, 307.53
¯323.56, 0.06, 304.29
333.11, 0.14, 319.84
333.00, 0.14, 319.66
332.87, 0.14, 319.46
332.74, 0.14, 319.25
332.59, 0.14, 319.03
332.44, 0.14, 318.78
332.26, 0.14, 318.51
332.08, 0.14, 318.22
331.87, 0.14, 317.90
331.65, 0.14, 317.54
331.10, 0.00, 316.69
330.80, 0.00, 316.22
330.47, 0.00, 315.69
330.08, 0.00, 315.10
329.65, 0.00, 314.41
329.14, 0.00, 313.62
328.55, 0.00, 312.70
328.05, 0.06, 311.92
327.60, 0.15, 311.23
327.04, 0.24, 310.35
325.29, 0.13, 307.61
323.25, 0.05, 304.41
333.05, 0.14, 319.88
332.93, 0.14, 319.70
332.81, 0.14, 319.51
332.67, 0.14, 319.30
332.52, 0.14, 319.08
332.36, 0.14, 318.84
332.19, 0.14, 318.57
332.00, 0.14, 318.28
331.79, 0.14, 317.97
331.56, 0.14, 317.61
331.00, 0.00, 316.77
330.70, 0.00, 316.31
330.36, 0.00, 315.79
329.97, 0.00, 315.20
329.52, 0.00, 314.52
329.01, 0.00, 313.74
328.41, 0.00, 312.83
327.90, 0.06, 312.06
327.45, 0.15, 311.38
326.94, 0.26, 310.62
324.99, 0.10, 307.65
322.93, 0.03, 304.52
332.99, 0.14, 319.93
332.87, 0.14, 319.75
332.74, 0.14, 319.56
332.61, 0.14, 319.35
332.45, 0.14, 319.13
332.29, 0.14, 318.89
¯332.11, 0.14, 318.63
331.92, 0.14, 318.35
331.71, 0.14, 318.03
331.47, 0.14, 317.69
330.91, 0.00, 316.85
330.60, 0.00, 316.39
330.25, 0.00, 315.88
329.85, 0.00, 315.30
329.40, 0.00, 314.63
328.88, 0.00, 313.86
328.27, 0.00, 312.96
327.76, 0.06, 312.22
327.29, 0.15, 311.54
326.78, 0.26, 310.79
324.68, 0.08, 307.69
322.61, 0.01, 304.64
332.94, 0.14, 319.97
332.81, 0.14, 319.80
332.68, 0.14, 319.61
332.54, 0.14, 319.41
332.39, 0.14, 319.19
332.22, 0.14, 318.95
332.04, 0.14, 318.69
331.84, 0.14, 318.41
331.63, 0.14, 318.10
331.39, 0.14, 317.76
330.81, 0.00, 316.93
330.50, 0.00, 316.48
330.14, 0.00, 315.97
329.74, 0.00, 315.40
329.28, 0.00, 314.74
328.75, 0.00, 313.98
328.13, 0.00, 313.10
327.65, 0.07, 312.42
327.16, 0.16, 311.73
326.62, 0.26, 310.96
324.37, 0.06, 307.74
322.31, 0.00, 304.79
332.88, 0.14, 320.02
332.75, 0.14, 319.85
332.62, 0.14, 319.66
332.48, 0.14, 319.46
332.32, 0.14, 319.24
332.15, 0.14, 319.01
331.97, 0.14, 318.75
331.77, 0.14, 318.48
331.55, 0.14, 318.17
331.01, 0.00, 317.41
330.72, 0.00, 317.02
330.40, 0.00, 316.57
330.04, 0.00, 316.07
¯329.63, 0.00, 315.50
329.16, 0.00, 314.85
328.62, 0.00, 314.11
328.03, 0.01, 313.29
327.55, 0.08, 312.63
327.05, 0.17, 311.94
326.50, 0.27, 311.18
324.12, 0.05, 307.87
322.09, 0.00, 305.05
332.82, 0.14, 320.07
332.70, 0.14, 319.89
332.56, 0.14, 319.71
332.41, 0.14, 319.51
332.25, 0.14, 319.30
332.08, 0.14, 319.07
331.90, 0.14, 318.82
331.69, 0.14, 318.54
331.47, 0.14, 318.24
330.92, 0.00, 317.49
330.63, 0.00, 317.10
330.30, 0.00, 316.66
329.93, 0.00, 316.17
329.52, 0.00, 315.61
329.04, 0.00, 314.97
328.49, 0.00, 314.23
327.94, 0.03, 313.49
327.46, 0.09, 312.84
326.95, 0.18, 312.15
326.39, 0.27, 311.41
323.92, 0.04, 308.07
321.88, 0.00, 305.32
332.77, 0.14, 320.11
332.64, 0.14, 319.94
332.50, 0.14, 319.76
332.35, 0.14, 319.57
332.19, 0.14, 319.36
332.01, 0.14, 319.13
331.82, 0.14, 318.88
331.62, 0.14, 318.61
331.39, 0.14, 318.31
330.83, 0.00, 317.57
330.53, 0.00, 317.18
330.20, 0.00, 316.75
329.83, 0.00, 316.26
329.41, 0.00, 315.71
328.93, 0.00, 315.08
328.37, 0.00, 314.35
327.86, 0.04, 313.69
327.37, 0.11, 313.05
326.84, 0.18, 312.36
326.28, 0.28, 311.64
¯323.72, 0.04, 308.27
321.67, 0.00, 305.59
332.71, 0.14, 320.16
332.58, 0.14, 319.99
332.44, 0.14, 319.82
332.29, 0.14, 319.62
332.13, 0.14, 319.41
331.95, 0.14, 319.19
331.75, 0.14, 318.94
331.54, 0.14, 318.68
331.02, 0.00, 318.00
330.74, 0.00, 317.65
330.44, 0.00, 317.27
330.11, 0.00, 316.84
329.73, 0.00, 316.36
329.30, 0.00, 315.82
328.81, 0.00, 315.20
328.25, 0.00, 314.48
327.77, 0.05, 313.88
327.29, 0.12, 313.26
326.74, 0.19, 312.57
326.18, 0.29, 311.86
323.50, 0.03, 308.45
321.46, 0.00, 305.86
332.66, 0.14, 320.21
332.52, 0.14, 320.05
332.38, 0.14, 319.87
332.23, 0.14, 319.68
332.06, 0.14, 319.47
331.88, 0.14, 319.25
331.69, 0.14, 319.01
331.47, 0.14, 318.74
330.94, 0.00, 318.08
330.66, 0.00, 317.74
330.35, 0.00, 317.36
330.01, 0.00, 316.94
329.63, 0.00, 316.46
329.19, 0.00, 315.92
328.70, 0.00, 315.31
328.13, 0.00, 314.61
327.68, 0.06, 314.06
327.20, 0.13, 313.47
326.66, 0.21, 312.80
325.93, 0.27, 311.90
323.31, 0.03, 308.66
321.26, 0.00, 306.12
332.60, 0.14, 320.26
332.47, 0.14, 320.10
332.32, 0.14, 319.92
332.17, 0.14, 319.74
332.00, 0.14, 319.53
¯331.82, 0.14, 319.31
331.62, 0.14, 319.07
331.40, 0.14, 318.81
330.85, 0.00, 318.15
330.57, 0.00, 317.82
330.26, 0.00, 317.45
329.92, 0.00, 317.03
329.53, 0.00, 316.56
329.09, 0.00, 316.03
328.58, 0.00, 315.43
328.03, 0.01, 314.76
327.55, 0.06, 314.19
327.08, 0.13, 313.62
326.55, 0.21, 312.99
325.67, 0.25, 311.93
323.23, 0.05, 309.00
321.06, 0.00, 306.39
332.55, 0.14, 320.31
332.41, 0.14, 320.15
332.27, 0.14, 319.98
332.11, 0.14, 319.79
331.94, 0.14, 319.59
331.75, 0.14, 319.38
331.55, 0.14, 319.14
331.03, 0.00, 318.53
330.78, 0.00, 318.23
330.49, 0.00, 317.90
330.18, 0.00, 317.53
329.83, 0.00, 317.12
329.43, 0.00, 316.66
328.98, 0.00, 316.14
328.47, 0.00, 315.55
327.93, 0.01, 314.92
327.42, 0.06, 314.32
326.94, 0.13, 313.76
326.41, 0.21, 313.14
325.62, 0.27, 312.23
323.15, 0.07, 309.34
320.86, 0.00, 306.66
332.50, 0.14, 320.36
332.36, 0.14, 320.20
332.21, 0.14, 320.03
332.05, 0.14, 319.85
331.88, 0.14, 319.65
331.69, 0.14, 319.44
331.48, 0.14, 319.21
330.96, 0.00, 318.61
330.70, 0.00, 318.31
330.41, 0.00, 317.99
330.09, 0.00, 317.62
329.73, 0.00, 317.22
¯329.33, 0.00, 316.77
328.88, 0.00, 316.25
328.37, 0.00, 315.67
327.84, 0.02, 315.07
327.29, 0.05, 314.45
326.81, 0.13, 313.90
326.26, 0.21, 313.29
325.59, 0.29, 312.53
322.91, 0.05, 309.47
320.66, 0.00, 306.93
332.45, 0.14, 320.41
332.31, 0.14, 320.26
332.15, 0.14, 320.09
331.99, 0.14, 319.91
331.81, 0.14, 319.71
331.62, 0.14, 319.50
331.13, 0.00, 318.95
330.89, 0.00, 318.69
330.62, 0.00, 318.39
330.33, 0.00, 318.07
330.01, 0.00, 317.71
329.64, 0.00, 317.32
329.24, 0.00, 316.87
328.78, 0.00, 316.36
328.26, 0.00, 315.79
327.75, 0.02, 315.22
327.20, 0.06, 314.62
326.67, 0.13, 314.04
326.12, 0.21, 313.43
325.43, 0.28, 312.67
322.57, 0.03, 309.51
320.47, 0.00, 307.20
332.40, 0.14, 320.46
332.25, 0.14, 320.31
332.10, 0.14, 320.15
331.93, 0.14, 319.97
331.76, 0.14, 319.78
331.56, 0.14, 319.57
331.06, 0.00, 319.02
330.81, 0.00, 318.76
330.55, 0.00, 318.47
330.25, 0.00, 318.16
329.92, 0.00, 317.81
329.56, 0.00, 317.41
329.15, 0.00, 316.97
328.68, 0.00, 316.48
328.15, 0.00, 315.91
327.66, 0.03, 315.38
327.10, 0.07, 314.78
326.54, 0.12, 314.18
325.96, 0.20, 313.57
¯325.26, 0.28, 312.81
322.24, 0.00, 309.57
320.28, 0.00, 307.47
332.35, 0.14, 320.52
332.20, 0.14, 320.37
332.04, 0.14, 320.20
331.88, 0.14, 320.03
331.70, 0.14, 319.84
331.22, 0.00, 319.34
330.99, 0.00, 319.10
330.74, 0.00, 318.84
330.47, 0.00, 318.56
330.17, 0.00, 318.24
329.84, 0.00, 317.90
329.47, 0.00, 317.51
329.05, 0.00, 317.08
328.58, 0.00, 316.59
328.06, 0.00, 316.04
327.57, 0.04, 315.53
327.01, 0.07, 314.95
326.41, 0.12, 314.32
325.81, 0.20, 313.70
325.09, 0.27, 312.95
322.08, 0.00, 309.80
320.10, 0.00, 307.74
332.30, 0.14, 320.57
332.15, 0.14, 320.42
331.99, 0.14, 320.26
331.82, 0.14, 320.09
331.64, 0.14, 319.90
331.15, 0.00, 319.41
330.92, 0.00, 319.17
330.67, 0.00, 318.92
330.40, 0.00, 318.64
330.09, 0.00, 318.33
329.76, 0.00, 317.99
329.38, 0.00, 317.61
328.96, 0.00, 317.18
328.49, 0.00, 316.70
327.98, 0.01, 316.19
327.48, 0.04, 315.68
326.92, 0.08, 315.12
326.28, 0.12, 314.47
325.65, 0.19, 313.83
324.93, 0.26, 313.10
321.91, 0.00, 310.03
319.92, 0.00, 308.01
332.25, 0.14, 320.62
332.10, 0.14, 320.48
331.94, 0.14, 320.32
331.77, 0.14, 320.15
¯331.58, 0.14, 319.97
331.09, 0.00, 319.48
330.86, 0.00, 319.25
330.60, 0.00, 319.00
330.32, 0.00, 318.72
330.02, 0.00, 318.42
329.68, 0.00, 318.08
329.30, 0.00, 317.71
328.87, 0.00, 317.29
328.39, 0.00, 316.82
327.87, 0.01, 316.30
327.36, 0.04, 315.80
326.80, 0.08, 315.25
326.15, 0.12, 314.61
325.46, 0.18, 313.93
324.71, 0.25, 313.20
321.75, 0.00, 310.26
319.73, 0.00, 308.28
332.20, 0.14, 320.68
332.05, 0.14, 320.53
331.89, 0.14, 320.38
331.71, 0.14, 320.21
331.24, 0.00, 319.76
331.03, 0.00, 319.55
330.79, 0.00, 319.32
330.53, 0.00, 319.08
330.25, 0.00, 318.81
329.94, 0.00, 318.51
329.60, 0.00, 318.18
329.21, 0.00, 317.81
328.78, 0.00, 317.40
328.30, 0.00, 316.93
327.75, 0.00, 316.40
327.23, 0.03, 315.91
326.66, 0.07, 315.36
325.97, 0.10, 314.70
325.24, 0.16, 314.00
324.48, 0.23, 313.27
321.59, 0.00, 310.49
319.56, 0.00, 308.55
332.15, 0.14, 320.73
332.00, 0.14, 320.59
331.84, 0.14, 320.44
331.66, 0.14, 320.27
331.18, 0.00, 319.83
330.96, 0.00, 319.62
330.73, 0.00, 319.40
330.47, 0.00, 319.16
330.18, 0.00, 318.89
329.87, 0.00, 318.60
329.52, 0.00, 318.27
¯329.13, 0.00, 317.91
328.70, 0.00, 317.51
328.21, 0.00, 317.05
327.65, 0.00, 316.53
327.10, 0.03, 316.02
326.51, 0.06, 315.47
325.80, 0.09, 314.80
325.02, 0.14, 314.08
324.23, 0.21, 313.35
321.43, 0.00, 310.73
319.38, 0.00, 308.82
332.10, 0.14, 320.79
331.95, 0.14, 320.65
331.79, 0.14, 320.50
331.33, 0.00, 320.08
331.13, 0.00, 319.90
330.90, 0.00, 319.70
330.66, 0.00, 319.48
330.40, 0.00, 319.24
330.11, 0.00, 318.98
329.79, 0.00, 318.69
329.44, 0.00, 318.37
329.05, 0.00, 318.01
328.61, 0.00, 317.62
328.11, 0.00, 317.16
327.55, 0.00, 316.65
326.97, 0.02, 316.13
326.37, 0.05, 315.59
325.62, 0.08, 314.90
324.80, 0.12, 314.16
323.76, 0.15, 313.22
321.27, 0.00, 310.96
319.21, 0.00, 309.09
332.06, 0.14, 320.84
331.90, 0.14, 320.71
331.74, 0.14, 320.56
331.28, 0.00, 320.15
331.07, 0.00, 319.97
330.84, 0.00, 319.77
330.60, 0.00, 319.55
330.33, 0.00, 319.32
330.04, 0.00, 319.06
329.72, 0.00, 318.78
329.37, 0.00, 318.47
328.97, 0.00, 318.12
328.53, 0.00, 317.73
328.02, 0.00, 317.28
327.45, 0.00, 316.78
326.84, 0.01, 316.24
326.23, 0.05, 315.70
325.44, 0.06, 315.00
¯324.57, 0.10, 314.24
323.25, 0.09, 313.07
321.12, 0.00, 311.19
319.04, 0.00, 309.36
332.01, 0.14, 320.90
331.86, 0.14, 320.77
331.42, 0.00, 320.38
331.22, 0.00, 320.22
331.01, 0.00, 320.04
330.79, 0.00, 319.84
330.54, 0.00, 319.63
330.27, 0.00, 319.40
329.98, 0.00, 319.15
329.65, 0.00, 318.87
329.29, 0.00, 318.56
328.89, 0.00, 318.22
328.44, 0.00, 317.84
327.94, 0.00, 317.40
327.36, 0.00, 316.91
326.71, 0.00, 316.35
326.08, 0.04, 315.81
325.26, 0.05, 315.11
324.34, 0.08, 314.32
322.70, 0.02, 312.92
320.97, 0.00, 311.43
318.87, 0.00, 309.63
331.97, 0.14, 320.96
331.81, 0.14, 320.82
331.36, 0.00, 320.45
331.17, 0.00, 320.29
330.96, 0.00, 320.11
330.73, 0.00, 319.92
330.48, 0.00, 319.71
330.21, 0.00, 319.49
329.91, 0.00, 319.24
329.58, 0.00, 318.97
329.22, 0.00, 318.66
328.81, 0.00, 318.33
328.36, 0.00, 317.95
327.85, 0.00, 317.52
327.27, 0.00, 317.04
326.60, 0.00, 316.48
325.92, 0.02, 315.91
325.08, 0.04, 315.22
324.09, 0.05, 314.38
322.54, 0.01, 313.10
320.82, 0.00, 311.66
318.71, 0.00, 309.90
331.93, 0.14, 321.02
331.50, 0.00, 320.67
331.31, 0.00, 320.52
¯331.12, 0.00, 320.36
330.90, 0.00, 320.18
330.67, 0.00, 320.00
330.42, 0.00, 319.79
330.15, 0.00, 319.57
329.84, 0.00, 319.33
329.51, 0.00, 319.06
329.15, 0.00, 318.76
328.74, 0.00, 318.43
328.28, 0.00, 318.06
327.76, 0.00, 317.64
327.18, 0.00, 317.17
326.50, 0.00, 316.62
325.77, 0.01, 316.02
324.98, 0.04, 315.39
323.98, 0.05, 314.57
322.41, 0.01, 313.30
320.68, 0.00, 311.90
318.55, 0.00, 310.17
331.88, 0.14, 321.07
331.45, 0.00, 320.73
331.26, 0.00, 320.58
331.06, 0.00, 320.43
330.85, 0.00, 320.26
330.62, 0.00, 320.07
330.36, 0.00, 319.87
330.08, 0.00, 319.66
329.78, 0.00, 319.42
329.45, 0.00, 319.15
329.08, 0.00, 318.86
328.66, 0.00, 318.54
328.20, 0.00, 318.17
327.68, 0.00, 317.76
327.09, 0.00, 317.30
326.41, 0.00, 316.76
325.71, 0.02, 316.21
324.92, 0.05, 315.59
323.88, 0.06, 314.77
322.27, 0.01, 313.50
320.53, 0.00, 312.14
318.39, 0.00, 310.45
331.58, 0.00, 320.93
331.40, 0.00, 320.80
331.22, 0.00, 320.65
331.01, 0.00, 320.50
330.80, 0.00, 320.33
330.56, 0.00, 320.15
330.30, 0.00, 319.95
330.02, 0.00, 319.74
329.72, 0.00, 319.51
329.38, 0.00, 319.25
¯329.01, 0.00, 318.96
328.59, 0.00, 318.64
328.12, 0.00, 318.29
327.60, 0.00, 317.88
327.00, 0.00, 317.43
326.31, 0.00, 316.90
325.65, 0.03, 316.39
324.86, 0.06, 315.79
323.79, 0.06, 314.97
322.16, 0.01, 313.72
320.39, 0.00, 312.37
318.23, 0.00, 310.72
331.53, 0.00, 320.99
331.36, 0.00, 320.86
331.17, 0.00, 320.72
330.96, 0.00, 320.57
330.74, 0.00, 320.41
330.51, 0.00, 320.23
330.25, 0.00, 320.04
329.97, 0.00, 319.83
329.66, 0.00, 319.60
329.32, 0.00, 319.34
328.94, 0.00, 319.06
328.52, 0.00, 318.75
328.05, 0.00, 318.40
327.52, 0.00, 318.01
326.91, 0.00, 317.56
326.22, 0.00, 317.04
325.57, 0.03, 316.56
324.80, 0.07, 315.99
323.70, 0.07, 315.17
322.04, 0.01, 313.94
320.25, 0.00, 312.61
318.08, 0.00, 310.99
331.49, 0.00, 321.06
331.31, 0.00, 320.93
331.12, 0.00, 320.79
330.92, 0.00, 320.64
330.69, 0.00, 320.48
330.45, 0.00, 320.31
330.19, 0.00, 320.12
329.91, 0.00, 319.91
329.60, 0.00, 319.69
329.25, 0.00, 319.44
328.87, 0.00, 319.17
328.45, 0.00, 318.86
327.97, 0.00, 318.52
327.44, 0.00, 318.13
326.83, 0.00, 317.69
326.14, 0.00, 317.19
325.49, 0.04, 316.73
¯324.74, 0.07, 316.19
323.61, 0.07, 315.37
321.93, 0.02, 314.16
320.12, 0.00, 312.85
317.93, 0.00, 311.27
331.45, 0.00, 321.12
331.27, 0.00, 320.99
331.08, 0.00, 320.86
330.87, 0.00, 320.71
330.64, 0.00, 320.56
330.40, 0.00, 320.39
330.14, 0.00, 320.20
329.85, 0.00, 320.00
329.54, 0.00, 319.78
329.19, 0.00, 319.54
328.81, 0.00, 319.27
328.38, 0.00, 318.97
327.90, 0.00, 318.63
327.36, 0.00, 318.26
326.75, 0.00, 317.82
326.07, 0.01, 317.35
325.42, 0.04, 316.90
324.69, 0.08, 316.38
323.52, 0.07, 315.57
321.80, 0.01, 314.36
319.98, 0.00, 313.09
317.78, 0.00, 311.54
331.41, 0.00, 321.18
331.22, 0.00, 321.06
331.03, 0.00, 320.93
330.82, 0.00, 320.79
330.59, 0.00, 320.63
330.35, 0.00, 320.47
330.08, 0.00, 320.28
329.79, 0.00, 320.09
329.48, 0.00, 319.87
329.13, 0.00, 319.63
328.74, 0.00, 319.37
328.31, 0.00, 319.08
327.83, 0.00, 318.75
327.28, 0.00, 318.38
326.66, 0.00, 317.96
326.00, 0.01, 317.50
325.35, 0.05, 317.06
324.61, 0.09, 316.56
323.44, 0.08, 315.77
321.70, 0.02, 314.58
319.85, 0.00, 313.33
317.63, 0.00, 311.82
331.37, 0.00, 321.25
331.18, 0.00, 321.13
¯330.99, 0.00, 321.00
330.77, 0.00, 320.86
330.55, 0.00, 320.71
330.30, 0.00, 320.55
330.03, 0.00, 320.37
329.74, 0.00, 320.18
329.42, 0.00, 319.96
329.07, 0.00, 319.73
328.68, 0.00, 319.48
328.24, 0.00, 319.19
327.76, 0.00, 318.87
327.21, 0.00, 318.51
326.58, 0.00, 318.09
325.93, 0.01, 317.66
325.28, 0.05, 317.23
324.54, 0.09, 316.74
323.36, 0.08, 315.97
321.62, 0.02, 314.82
319.72, 0.00, 313.57
317.49, 0.00, 312.09
331.33, 0.00, 321.31
331.14, 0.00, 321.20
330.94, 0.00, 321.07
330.73, 0.00, 320.93
330.50, 0.00, 320.79
330.25, 0.00, 320.63
329.98, 0.00, 320.45
329.69, 0.00, 320.27
329.36, 0.00, 320.06
329.01, 0.00, 319.83
328.62, 0.00, 319.58
328.18, 0.00, 319.30
327.69, 0.00, 318.99
327.13, 0.00, 318.63
326.51, 0.00, 318.23
325.86, 0.02, 317.82
325.21, 0.05, 317.40
324.45, 0.09, 316.91
323.28, 0.09, 316.17
321.54, 0.03, 315.05
319.59, 0.00, 313.81
317.35, 0.00, 312.37
331.29, 0.00, 321.38
331.10, 0.00, 321.26
330.90, 0.00, 321.14
330.69, 0.00, 321.01
330.45, 0.00, 320.86
330.20, 0.00, 320.71
329.93, 0.00, 320.54
329.63, 0.00, 320.35
329.31, 0.00, 320.15
¯328.95, 0.00, 319.93
328.55, 0.00, 319.68
328.11, 0.00, 319.41
327.62, 0.00, 319.10
327.06, 0.00, 318.76
326.43, 0.00, 318.37
325.80, 0.02, 317.97
325.12, 0.05, 317.56
324.36, 0.09, 317.08
323.21, 0.09, 316.37
321.47, 0.03, 315.29
319.47, 0.00, 314.05
317.21, 0.00, 312.64
331.25, 0.00, 321.45
331.06, 0.00, 321.33
330.86, 0.00, 321.21
330.64, 0.00, 321.08
330.41, 0.00, 320.94
330.16, 0.00, 320.79
329.88, 0.00, 320.62
329.58, 0.00, 320.44
329.25, 0.00, 320.25
328.89, 0.00, 320.03
328.49, 0.00, 319.79
328.05, 0.00, 319.52
327.55, 0.00, 319.22
326.99, 0.00, 318.89
326.35, 0.00, 318.50
325.72, 0.02, 318.12
325.04, 0.05, 317.71
324.27, 0.09, 317.25
323.09, 0.09, 316.54
321.40, 0.04, 315.52
319.35, 0.00, 314.29
317.07, 0.00, 312.92
331.21, 0.00, 321.51
331.02, 0.00, 321.40
330.82, 0.00, 321.28
330.60, 0.00, 321.16
330.36, 0.00, 321.02
330.11, 0.00, 320.87
329.83, 0.00, 320.71
329.53, 0.00, 320.54
329.20, 0.00, 320.34
328.84, 0.00, 320.13
328.44, 0.00, 319.90
327.99, 0.00, 319.64
327.49, 0.00, 319.34
326.92, 0.00, 319.02
326.28, 0.00, 318.64
325.64, 0.02, 318.27
¯324.96, 0.05, 317.87
324.17, 0.09, 317.41
322.96, 0.08, 316.71
321.26, 0.04, 315.72
319.23, 0.00, 314.53
316.94, 0.00, 313.20
331.17, 0.00, 321.58
330.98, 0.00, 321.47
330.78, 0.00, 321.36
330.56, 0.00, 321.23
330.32, 0.00, 321.10
330.06, 0.00, 320.96
329.79, 0.00, 320.80
329.48, 0.00, 320.63
329.15, 0.00, 320.44
328.78, 0.00, 320.23
328.38, 0.00, 320.00
327.93, 0.00, 319.75
327.42, 0.00, 319.47
326.85, 0.00, 319.14
326.21, 0.00, 318.78
325.57, 0.02, 318.42
324.88, 0.05, 318.03
324.05, 0.09, 317.56
322.83, 0.08, 316.88
321.12, 0.03, 315.91
320.46, 0.18, 315.54
320.46, 0.43, 315.54
320.46, 0.68, 315.55
320.46, 0.93, 315.55
320.46, 1.18, 315.55
331.14, 0.00, 321.65
330.94, 0.00, 321.54
330.74, 0.00, 321.43
330.52, 0.00, 321.31
330.28, 0.00, 321.18
330.02, 0.00, 321.04
329.74, 0.00, 320.89
329.43, 0.00, 320.72
329.10, 0.00, 320.54
328.73, 0.00, 320.33
328.32, 0.00, 320.11
327.87, 0.00, 319.86
327.36, 0.00, 319.59
326.79, 0.00, 319.27
326.14, 0.00, 318.92
325.50, 0.03, 318.57
324.80, 0.05, 318.19
323.94, 0.08, 317.72
325.07, 0.46, 318.34
325.07, 0.64, 318.34
¯325.07, 0.81, 318.34
325.07, 0.98, 318.34
325.07, 1.16, 318.34
320.50, 0.94, 315.85
320.50, 1.19, 315.85
331.10, 0.00, 321.72
330.91, 0.00, 321.61
330.70, 0.00, 321.50
330.48, 0.00, 321.39
330.24, 0.00, 321.26
329.98, 0.00, 321.12
329.70, 0.00, 320.97
329.39, 0.00, 320.81
329.05, 0.00, 320.63
328.68, 0.00, 320.44
328.27, 0.00, 320.22
327.81, 0.00, 319.98
327.30, 0.00, 319.71
326.72, 0.00, 319.40
326.08, 0.00, 319.07
325.44, 0.03, 318.73
324.72, 0.05, 318.35
325.17, 0.32, 318.59
325.17, 0.49, 318.59
325.17, 0.66, 318.59
325.17, 0.83, 318.59
325.17, 1.01, 318.59
325.17, 1.18, 318.60
325.18, 1.35, 318.60
320.53, 1.20, 316.15
331.07, 0.00, 321.78
330.87, 0.00, 321.69
330.66, 0.00, 321.58
330.44, 0.00, 321.46
330.20, 0.00, 321.34
329.94, 0.00, 321.21
329.65, 0.00, 321.06
329.34, 0.00, 320.90
329.00, 0.00, 320.73
328.63, 0.00, 320.54
328.21, 0.00, 320.33
327.75, 0.00, 320.09
327.24, 0.00, 319.83
326.66, 0.00, 319.54
326.02, 0.01, 319.21
325.38, 0.03, 318.88
324.65, 0.06, 318.51
325.28, 0.35, 318.83
325.28, 0.52, 318.83
325.28, 0.69, 318.83
325.28, 0.86, 318.84
¯325.28, 1.03, 318.84
325.28, 1.19, 318.84
325.28, 1.36, 318.84
324.81, 1.49, 318.60
324.40, 1.65, 318.39
324.39, 1.83, 318.39
324.39, 2.01, 318.39
331.03, 0.00, 321.85
330.84, 0.00, 321.76
330.63, 0.00, 321.65
330.40, 0.00, 321.54
330.16, 0.00, 321.42
329.89, 0.00, 321.29
329.61, 0.00, 321.15
329.30, 0.00, 321.00
328.95, 0.00, 320.83
328.58, 0.00, 320.64
328.16, 0.00, 320.44
327.70, 0.00, 320.21
327.18, 0.00, 319.96
326.60, 0.00, 319.67
325.97, 0.01, 319.36
325.32, 0.03, 319.04
324.59, 0.06, 318.68
325.17, 0.34, 318.96
325.38, 0.55, 319.07
325.38, 0.71, 319.07
325.38, 0.88, 319.07
325.38, 1.04, 319.07
325.38, 1.21, 319.07
325.20, 1.36, 318.99
325.01, 1.51, 318.89
325.01, 1.68, 318.89
324.31, 1.83, 318.55
324.31, 2.00, 318.55
331.00, 0.00, 321.92
330.80, 0.00, 321.83
330.59, 0.00, 321.73
330.37, 0.00, 321.62
330.12, 0.00, 321.50
329.85, 0.00, 321.38
329.57, 0.00, 321.24
329.25, 0.00, 321.09
328.91, 0.00, 320.93
328.53, 0.00, 320.75
328.11, 0.00, 320.55
327.65, 0.00, 320.33
327.12, 0.00, 320.08
326.54, 0.00, 319.80
325.91, 0.01, 319.50
325.26, 0.03, 319.19
¯324.61, 0.08, 318.88
323.87, 0.13, 318.53
325.22, 0.53, 319.17
325.34, 0.72, 319.23
325.34, 0.88, 319.23
325.33, 1.05, 319.23
325.20, 1.20, 319.17
325.11, 1.36, 319.13
325.11, 1.52, 319.13
324.89, 1.68, 319.03
324.53, 1.84, 318.85
324.53, 2.01, 318.86
330.97, 0.00, 321.99
330.77, 0.00, 321.90
330.56, 0.00, 321.80
330.33, 0.00, 321.70
330.08, 0.00, 321.59
329.82, 0.00, 321.46
329.53, 0.00, 321.33
329.21, 0.00, 321.19
328.86, 0.00, 321.03
328.48, 0.00, 320.85
328.06, 0.00, 320.66
327.59, 0.00, 320.44
327.07, 0.00, 320.20
326.48, 0.00, 319.93
325.86, 0.01, 319.65
325.21, 0.04, 319.35
324.65, 0.10, 319.09
323.94, 0.15, 318.77
324.99, 0.51, 319.25
325.21, 0.71, 319.35
325.21, 0.87, 319.35
325.21, 1.04, 319.35
325.21, 1.20, 319.36
325.21, 1.37, 319.36
325.12, 1.53, 319.32
324.70, 1.67, 319.13
324.37, 1.83, 318.97
324.41, 2.01, 318.99
330.94, 0.00, 322.06
330.74, 0.00, 321.97
330.52, 0.00, 321.88
330.29, 0.00, 321.78
330.05, 0.00, 321.67
329.78, 0.00, 321.55
329.49, 0.00, 321.42
329.17, 0.00, 321.28
328.82, 0.00, 321.13
328.44, 0.00, 320.96
328.01, 0.00, 320.77
¯327.54, 0.00, 320.56
327.01, 0.00, 320.33
326.42, 0.00, 320.07
325.80, 0.01, 319.79
325.24, 0.06, 319.55
324.68, 0.12, 319.30
324.01, 0.18, 319.00
323.01, 0.20, 318.56
325.23, 0.72, 319.54
325.09, 0.87, 319.48
325.09, 1.03, 319.48
325.09, 1.20, 319.48
325.01, 1.36, 319.45
324.92, 1.52, 319.41
324.39, 1.66, 319.18
324.26, 1.83, 319.12
324.19, 2.00, 319.09
330.91, 0.00, 322.13
330.71, 0.00, 322.05
330.49, 0.00, 321.96
330.26, 0.00, 321.86
330.01, 0.00, 321.75
329.74, 0.00, 321.64
329.45, 0.00, 321.51
329.13, 0.00, 321.38
328.78, 0.00, 321.23
328.39, 0.00, 321.06
327.97, 0.00, 320.88
327.49, 0.00, 320.68
326.96, 0.00, 320.45
326.36, 0.00, 320.20
325.77, 0.02, 319.95
325.27, 0.08, 319.74
324.72, 0.14, 319.50
324.08, 0.20, 319.23
323.10, 0.23, 318.81
325.32, 0.74, 319.76
325.17, 0.89, 319.70
324.89, 1.02, 319.57
324.88, 1.18, 319.57
324.80, 1.35, 319.54
324.31, 1.48, 319.33
324.31, 1.66, 319.33
324.22, 1.83, 319.29
323.96, 2.00, 319.18
330.88, 0.00, 322.20
330.68, 0.00, 322.12
330.46, 0.00, 322.03
330.23, 0.00, 321.94
329.98, 0.00, 321.83
329.71, 0.00, 321.72
¯329.41, 0.00, 321.60
329.09, 0.00, 321.47
328.74, 0.00, 321.33
328.35, 0.00, 321.17
327.92, 0.00, 320.99
327.44, 0.00, 320.80
326.91, 0.00, 320.58
326.31, 0.00, 320.33
325.80, 0.04, 320.13
325.31, 0.10, 319.92
324.76, 0.16, 319.70
324.15, 0.22, 319.45
323.19, 0.25, 319.06
325.26, 0.74, 319.91
325.26, 0.90, 319.91
324.92, 1.03, 319.77
324.92, 1.19, 319.77
324.59, 1.33, 319.63
324.59, 1.50, 319.63
324.09, 1.65, 319.43
324.23, 1.83, 319.49
324.12, 2.01, 319.45
330.85, 0.00, 322.27
330.65, 0.00, 322.19
330.43, 0.00, 322.11
330.20, 0.00, 322.02
329.94, 0.00, 321.92
329.67, 0.00, 321.81
329.37, 0.00, 321.69
329.05, 0.00, 321.57
328.70, 0.00, 321.43
328.31, 0.00, 321.28
327.88, 0.00, 321.11
327.40, 0.00, 320.92
326.86, 0.00, 320.71
326.26, 0.00, 320.47
325.83, 0.06, 320.30
325.34, 0.11, 320.11
324.80, 0.18, 319.90
325.54, 0.47, 320.19
325.54, 0.63, 320.19
325.54, 0.79, 320.19
325.54, 0.95, 320.19
325.47, 1.10, 320.16
325.47, 1.25, 320.16
325.47, 1.41, 320.16
324.68, 1.51, 319.85
323.85, 1.64, 319.53
324.16, 1.83, 319.65
330.83, 0.00, 322.35
330.62, 0.00, 322.27
¯330.40, 0.00, 322.19
330.17, 0.00, 322.10
329.91, 0.00, 322.00
329.64, 0.00, 321.90
329.34, 0.00, 321.79
329.01, 0.00, 321.66
328.66, 0.00, 321.53
328.27, 0.00, 321.38
327.83, 0.00, 321.22
327.35, 0.00, 321.04
326.81, 0.00, 320.83
326.23, 0.01, 320.62
325.81, 0.07, 320.46
325.37, 0.13, 320.29
325.62, 0.34, 320.39
325.62, 0.50, 320.39
325.62, 0.65, 320.39
325.62, 0.81, 320.39
325.62, 0.96, 320.39
325.55, 1.11, 320.36
325.55, 1.27, 320.36
325.44, 1.41, 320.32
325.10, 1.55, 320.19
325.10, 1.71, 320.19
324.91, 1.86, 320.12
324.91, 2.02, 320.12
330.80, 0.00, 322.42
330.60, 0.00, 322.34
330.37, 0.00, 322.26
330.14, 0.00, 322.18
329.88, 0.00, 322.09
329.60, 0.00, 321.99
329.31, 0.00, 321.88
328.98, 0.00, 321.76
328.62, 0.00, 321.63
328.23, 0.00, 321.49
327.79, 0.00, 321.33
327.31, 0.00, 321.16
326.77, 0.00, 320.96
326.20, 0.01, 320.76
325.79, 0.07, 320.61
325.36, 0.14, 320.46
325.70, 0.37, 320.58
325.70, 0.52, 320.58
325.70, 0.67, 320.58
325.70, 0.83, 320.58
325.70, 0.98, 320.58
325.66, 1.13, 320.56
325.63, 1.28, 320.55
325.38, 1.41, 320.46
325.19, 1.56, 320.39
¯325.09, 1.71, 320.36
324.69, 1.86, 320.21
324.69, 2.02, 320.21
330.78, 0.00, 322.49
330.57, 0.00, 322.42
330.35, 0.00, 322.34
330.11, 0.00, 322.26
329.85, 0.00, 322.17
329.57, 0.00, 322.08
329.27, 0.00, 321.97
328.94, 0.00, 321.86
328.58, 0.00, 321.73
328.19, 0.00, 321.60
327.75, 0.00, 321.45
327.26, 0.00, 321.28
326.74, 0.01, 321.10
326.18, 0.02, 320.90
325.78, 0.08, 320.77
325.34, 0.15, 320.62
325.76, 0.39, 320.76
325.78, 0.54, 320.77
325.78, 0.69, 320.77
325.78, 0.85, 320.77
325.78, 1.00, 320.77
325.71, 1.14, 320.74
325.71, 1.29, 320.74
325.33, 1.41, 320.61
325.27, 1.56, 320.59
325.12, 1.71, 320.54
325.12, 1.87, 320.54
324.46, 2.02, 320.31
330.76, 0.01, 322.57
330.55, 0.00, 322.50
330.33, 0.00, 322.42
330.08, 0.00, 322.34
329.82, 0.00, 322.26
329.54, 0.00, 322.16
329.24, 0.00, 322.07
328.91, 0.00, 321.96
328.55, 0.00, 321.84
328.15, 0.00, 321.71
327.71, 0.00, 321.56
327.23, 0.00, 321.40
326.72, 0.01, 321.23
326.16, 0.02, 321.05
325.76, 0.09, 320.92
325.33, 0.16, 320.78
325.51, 0.35, 320.84
325.71, 0.54, 320.90
325.75, 0.70, 320.91
325.74, 0.85, 320.91
¯325.67, 0.99, 320.89
325.70, 1.14, 320.90
325.73, 1.30, 320.91
325.35, 1.42, 320.78
325.35, 1.57, 320.78
324.76, 1.70, 320.59
324.23, 1.84, 320.41
324.23, 2.01, 320.41
330.74, 0.01, 322.64
330.53, 0.01, 322.57
330.30, 0.00, 322.50
330.06, 0.00, 322.42
329.80, 0.00, 322.34
329.51, 0.00, 322.25
329.21, 0.00, 322.16
328.88, 0.00, 322.05
328.51, 0.00, 321.94
328.12, 0.00, 321.82
327.67, 0.00, 321.68
327.20, 0.01, 321.53
326.69, 0.02, 321.37
326.14, 0.03, 321.20
325.74, 0.09, 321.07
325.31, 0.16, 320.94
324.85, 0.24, 320.79
324.29, 0.31, 320.61
325.53, 0.67, 321.00
325.53, 0.83, 321.00
325.45, 0.97, 320.98
325.48, 1.13, 320.99
325.51, 1.28, 321.00
325.43, 1.43, 320.97
325.43, 1.58, 320.97
324.59, 1.69, 320.70
330.72, 0.01, 322.71
330.51, 0.01, 322.65
330.28, 0.00, 322.58
330.03, 0.00, 322.51
329.77, 0.00, 322.43
329.49, 0.00, 322.34
329.18, 0.00, 322.25
328.85, 0.00, 322.15
328.48, 0.00, 322.04
328.08, 0.00, 321.92
327.64, 0.00, 321.79
327.18, 0.01, 321.66
326.67, 0.02, 321.50
326.13, 0.04, 321.34
325.73, 0.10, 321.22
325.30, 0.17, 321.09
324.83, 0.24, 320.95
¯324.21, 0.30, 320.77
323.06, 0.30, 320.42
325.40, 0.81, 321.12
325.51, 0.98, 321.15
325.51, 1.13, 321.15
325.51, 1.29, 321.15
325.51, 1.44, 321.15
325.50, 1.59, 321.15
324.91, 1.71, 320.97
324.43, 1.85, 320.83
324.44, 2.02, 320.83
330.70, 0.01, 322.79
330.49, 0.01, 322.73
330.26, 0.01, 322.66
330.01, 0.00, 322.59
329.75, 0.00, 322.52
329.46, 0.00, 322.44
329.15, 0.00, 322.35
328.82, 0.00, 322.25
328.45, 0.00, 322.15
328.05, 0.00, 322.03
327.62, 0.00, 321.91
327.16, 0.01, 321.78
326.65, 0.02, 321.64
326.11, 0.04, 321.49
325.72, 0.11, 321.37
325.29, 0.18, 321.25
324.77, 0.24, 321.10
324.10, 0.29, 320.91
324.15, 0.48, 320.93
325.15, 0.78, 321.21
325.35, 0.97, 321.26
325.39, 1.13, 321.28
325.39, 1.28, 321.28
325.39, 1.43, 321.28
325.35, 1.58, 321.26
324.81, 1.71, 321.11
330.68, 0.01, 322.86
330.47, 0.01, 322.80
330.24, 0.01, 322.74
329.99, 0.00, 322.67
329.72, 0.00, 322.60
329.44, 0.00, 322.53
329.13, 0.00, 322.44
328.79, 0.00, 322.35
328.42, 0.00, 322.25
328.02, 0.00, 322.14
327.60, 0.01, 322.03
327.14, 0.02, 321.91
326.63, 0.03, 321.77
326.10, 0.05, 321.63
¯325.70, 0.11, 321.52
325.27, 0.18, 321.40
324.70, 0.24, 321.25
324.24, 0.32, 321.13
324.24, 0.50, 321.13
324.88, 0.75, 321.30
325.09, 0.94, 321.35
325.16, 1.11, 321.37
325.16, 1.26, 321.37
325.16, 1.42, 321.37
325.16, 1.57, 321.37
330.66, 0.01, 322.94
330.45, 0.01, 322.88
330.22, 0.01, 322.82
329.97, 0.00, 322.76
329.70, 0.00, 322.69
329.42, 0.00, 322.62
329.11, 0.00, 322.54
328.77, 0.00, 322.45
328.39, 0.00, 322.36
328.00, 0.00, 322.26
327.58, 0.01, 322.15
327.12, 0.02, 322.04
326.61, 0.03, 321.91
326.09, 0.06, 321.77
325.69, 0.12, 321.67
325.21, 0.18, 321.55
324.64, 0.23, 321.40
324.32, 0.35, 321.32
324.32, 0.52, 321.32
324.60, 0.72, 321.39
324.82, 0.91, 321.45
324.93, 1.09, 321.47
324.93, 1.25, 321.47
324.93, 1.40, 321.47
324.93, 1.56, 321.47
330.65, 0.01, 323.01
330.43, 0.01, 322.96
330.20, 0.01, 322.90
329.95, 0.01, 322.84
329.68, 0.00, 322.78
329.39, 0.00, 322.71
329.08, 0.00, 322.64
328.74, 0.00, 322.55
328.37, 0.00, 322.46
327.97, 0.00, 322.37
327.56, 0.02, 322.27
327.10, 0.03, 322.16
326.59, 0.04, 322.04
326.08, 0.06, 321.92
325.67, 0.12, 321.82
¯325.15, 0.17, 321.69
324.58, 0.23, 321.56
323.76, 0.26, 321.36
324.30, 0.52, 321.49
324.36, 0.70, 321.50
324.54, 0.89, 321.54
324.68, 1.07, 321.58
324.68, 1.23, 321.58
324.68, 1.39, 321.58
324.68, 1.55, 321.57
330.63, 0.01, 323.08
330.41, 0.01, 323.03
330.18, 0.01, 322.98
329.93, 0.01, 322.93
329.66, 0.01, 322.87
329.37, 0.01, 322.80
329.06, 0.00, 322.73
328.72, 0.00, 322.65
328.34, 0.00, 322.57
327.94, 0.01, 322.48
327.54, 0.02, 322.39
327.08, 0.03, 322.29
326.58, 0.04, 322.17
326.07, 0.07, 322.06
325.62, 0.12, 321.96
325.09, 0.17, 321.84
324.52, 0.23, 321.71
323.65, 0.25, 321.52
322.70, 0.29, 321.30
324.09, 0.67, 321.61
324.10, 0.84, 321.61
318.78, 0.45, 320.42
330.61, 0.01, 323.16
330.39, 0.01, 323.11
330.16, 0.01, 323.06
329.91, 0.01, 323.01
329.64, 0.01, 322.95
329.36, 0.01, 322.89
329.04, 0.01, 322.83
328.70, 0.00, 322.76
328.32, 0.00, 322.68
327.92, 0.01, 322.59
327.51, 0.02, 322.51
327.06, 0.03, 322.41
326.56, 0.04, 322.31
326.05, 0.07, 322.20
325.56, 0.12, 322.10
325.04, 0.17, 321.99
324.45, 0.22, 321.86
323.57, 0.25, 321.68
322.68, 0.29, 321.49
¯321.79, 0.36, 321.31
320.79, 0.45, 321.09
318.53, 0.43, 320.62
330.60, 0.01, 323.23
330.38, 0.01, 323.19
330.14, 0.01, 323.14
329.89, 0.01, 323.09
329.63, 0.01, 323.04
329.34, 0.01, 322.99
329.02, 0.01, 322.92
328.68, 0.01, 322.86
328.29, 0.00, 322.78
327.90, 0.01, 322.70
327.48, 0.02, 322.62
327.03, 0.03, 322.54
326.53, 0.04, 322.44
326.01, 0.07, 322.34
325.51, 0.11, 322.24
324.98, 0.16, 322.13
324.39, 0.22, 322.02
323.55, 0.25, 321.86
322.66, 0.30, 321.68
321.78, 0.37, 321.51
320.65, 0.44, 321.29
318.10, 0.39, 320.79
330.58, 0.01, 323.31
330.36, 0.01, 323.27
330.13, 0.01, 323.22
329.88, 0.01, 323.18
329.61, 0.01, 323.13
329.32, 0.01, 323.08
329.00, 0.01, 323.02
328.66, 0.00, 322.96
328.27, 0.00, 322.89
327.87, 0.01, 322.82
327.46, 0.02, 322.74
327.01, 0.03, 322.66
326.50, 0.05, 322.57
325.99, 0.07, 322.48
325.48, 0.11, 322.38
324.93, 0.16, 322.28
324.34, 0.21, 322.18
323.54, 0.25, 322.03
322.65, 0.30, 321.87
321.77, 0.38, 321.71
320.52, 0.43, 321.48
316.79, 0.26, 320.81
330.57, 0.02, 323.38
330.35, 0.01, 323.35
330.11, 0.01, 323.31
329.86, 0.01, 323.26
¯329.60, 0.01, 323.22
329.30, 0.01, 323.17
328.99, 0.01, 323.12
328.63, 0.00, 323.06
328.25, 0.00, 323.00
327.85, 0.01, 322.93
327.44, 0.02, 322.86
326.98, 0.03, 322.78
326.48, 0.05, 322.70
325.97, 0.07, 322.61
325.46, 0.11, 322.53
324.91, 0.16, 322.44
324.29, 0.21, 322.34
323.52, 0.26, 322.21
322.63, 0.31, 322.06
321.68, 0.37, 321.90
320.39, 0.42, 321.68
316.71, 0.26, 321.07
330.56, 0.02, 323.46
330.34, 0.01, 323.42
330.10, 0.01, 323.39
329.85, 0.01, 323.35
329.58, 0.01, 323.31
329.29, 0.01, 323.26
328.97, 0.01, 323.22
328.61, 0.00, 323.16
328.22, 0.00, 323.10
327.83, 0.01, 323.04
327.42, 0.02, 322.98
326.96, 0.03, 322.91
326.46, 0.05, 322.83
325.94, 0.07, 322.75
325.44, 0.12, 322.68
324.88, 0.16, 322.59
324.26, 0.21, 322.50
323.50, 0.26, 322.38
322.62, 0.31, 322.25
321.57, 0.36, 322.09
320.22, 0.41, 321.88
316.63, 0.26, 321.34
330.55, 0.02, 323.53
330.33, 0.01, 323.50
330.09, 0.01, 323.47
329.84, 0.01, 323.43
329.57, 0.01, 323.40
329.28, 0.01, 323.36
328.95, 0.01, 323.31
328.60, 0.00, 323.26
328.20, 0.00, 323.21
327.82, 0.01, 323.16
327.40, 0.02, 323.10
¯326.94, 0.03, 323.03
326.43, 0.05, 322.96
325.93, 0.08, 322.89
325.42, 0.12, 322.82
324.86, 0.17, 322.75
324.23, 0.22, 322.66
323.46, 0.26, 322.55
322.59, 0.31, 322.43
321.46, 0.35, 322.28
320.01, 0.39, 322.08
316.56, 0.26, 321.60
330.54, 0.02, 323.61
330.32, 0.01, 323.58
330.08, 0.01, 323.55
329.83, 0.01, 323.52
329.56, 0.01, 323.49
329.26, 0.01, 323.45
328.94, 0.01, 323.41
328.58, 0.00, 323.37
328.19, 0.00, 323.32
327.80, 0.01, 323.27
327.38, 0.02, 323.22
326.92, 0.03, 323.16
326.41, 0.05, 323.10
325.91, 0.08, 323.03
325.40, 0.12, 322.97
324.84, 0.17, 322.90
324.20, 0.22, 322.82
323.43, 0.26, 322.73
322.55, 0.31, 322.62
321.41, 0.35, 322.48
319.86, 0.38, 322.28
316.48, 0.26, 321.87
330.53, 0.02, 323.68
330.31, 0.02, 323.66
330.07, 0.01, 323.63
329.82, 0.01, 323.61
329.55, 0.01, 323.58
329.25, 0.01, 323.54
328.92, 0.01, 323.51
328.56, 0.00, 323.47
328.17, 0.00, 323.43
327.78, 0.01, 323.38
327.36, 0.02, 323.34
326.90, 0.03, 323.29
326.39, 0.05, 323.23
325.89, 0.08, 323.17
325.38, 0.12, 323.12
324.82, 0.17, 323.06
324.17, 0.22, 322.99
323.40, 0.26, 322.90
¯322.51, 0.31, 322.80
321.37, 0.35, 322.68
319.76, 0.37, 322.50
316.42, 0.26, 322.14
330.52, 0.02, 323.76
330.30, 0.02, 323.74
330.06, 0.01, 323.71
329.81, 0.01, 323.69
329.54, 0.01, 323.67
329.23, 0.01, 323.64
328.91, 0.01, 323.61
328.55, 0.00, 323.57
328.15, 0.00, 323.53
327.77, 0.01, 323.50
327.35, 0.02, 323.46
326.89, 0.03, 323.41
326.37, 0.05, 323.36
325.87, 0.08, 323.32
325.37, 0.12, 323.27
324.79, 0.17, 323.21
324.15, 0.22, 323.15
323.37, 0.26, 323.07
322.48, 0.31, 322.99
321.32, 0.35, 322.88
319.66, 0.36, 322.72
316.11, 0.23, 322.38
330.51, 0.02, 323.83
330.29, 0.02, 323.82
330.05, 0.01, 323.80
329.80, 0.01, 323.78
329.52, 0.01, 323.75
329.22, 0.01, 323.73
328.89, 0.01, 323.70
328.53, 0.00, 323.67
328.14, 0.00, 323.64
327.75, 0.01, 323.61
327.33, 0.02, 323.58
326.87, 0.04, 323.54
326.36, 0.05, 323.50
325.86, 0.08, 323.46
325.35, 0.12, 323.41
324.77, 0.17, 323.37
324.12, 0.22, 323.31
323.34, 0.26, 323.25
322.45, 0.31, 323.18
321.28, 0.35, 323.08
319.57, 0.36, 322.94
315.64, 0.19, 322.62
330.51, 0.02, 323.91
330.28, 0.02, 323.90
330.04, 0.02, 323.88
¯329.79, 0.01, 323.86
329.51, 0.01, 323.84
329.21, 0.01, 323.82
328.88, 0.01, 323.80
328.52, 0.00, 323.78
328.12, 0.00, 323.75
327.74, 0.01, 323.72
327.32, 0.02, 323.70
326.86, 0.04, 323.66
326.34, 0.05, 323.63
325.85, 0.08, 323.60
325.33, 0.12, 323.56
324.75, 0.17, 323.52
324.09, 0.22, 323.48
323.31, 0.26, 323.42
322.42, 0.31, 323.36
321.23, 0.35, 323.28
319.47, 0.35, 323.16
315.16, 0.15, 322.88
330.50, 0.02, 323.99
330.28, 0.02, 323.97
330.04, 0.02, 323.96
329.78, 0.02, 323.95
329.50, 0.01, 323.93
329.20, 0.01, 323.92
328.87, 0.01, 323.90
328.51, 0.00, 323.88
328.11, 0.00, 323.86
327.73, 0.01, 323.84
327.31, 0.02, 323.82
326.84, 0.04, 323.79
326.33, 0.05, 323.76
325.83, 0.08, 323.74
325.31, 0.12, 323.71
324.73, 0.17, 323.68
324.07, 0.22, 323.64
323.28, 0.26, 323.60
322.39, 0.31, 323.55
321.18, 0.35, 323.48
319.39, 0.35, 323.39
314.68, 0.10, 323.14
330.50, 0.02, 324.06
330.27, 0.02, 324.05
330.03, 0.02, 324.04
329.78, 0.02, 324.03
329.50, 0.01, 324.02
329.19, 0.01, 324.01
328.86, 0.01, 324.00
328.50, 0.00, 323.98
328.10, 0.00, 323.97
327.72, 0.01, 323.95
¯327.30, 0.02, 323.94
326.83, 0.04, 323.92
326.32, 0.05, 323.90
325.82, 0.08, 323.88
325.29, 0.12, 323.86
324.71, 0.17, 323.83
324.05, 0.21, 323.81
323.26, 0.26, 323.77
322.36, 0.31, 323.74
321.12, 0.34, 323.69
319.33, 0.34, 323.62
314.37, 0.08, 323.43
330.49, 0.02, 324.14
330.27, 0.02, 324.13
330.03, 0.02, 324.13
329.77, 0.02, 324.12
329.49, 0.01, 324.11
329.19, 0.01, 324.11
328.85, 0.01, 324.10
328.49, 0.00, 324.09
328.10, 0.00, 324.08
327.71, 0.01, 324.07
327.29, 0.02, 324.06
326.82, 0.04, 324.05
326.30, 0.05, 324.03
325.81, 0.08, 324.02
325.28, 0.12, 324.00
324.69, 0.17, 323.99
324.03, 0.21, 323.97
323.23, 0.26, 323.95
322.33, 0.31, 323.93
321.07, 0.34, 323.89
319.26, 0.34, 323.85
314.22, 0.07, 323.72
330.49, 0.02, 324.22
330.27, 0.02, 324.21
330.02, 0.02, 324.21
329.76, 0.02, 324.21
329.48, 0.01, 324.20
329.18, 0.01, 324.20
328.85, 0.01, 324.20
328.48, 0.00, 324.19
328.09, 0.00, 324.19
327.70, 0.01, 324.18
327.28, 0.02, 324.18
326.81, 0.04, 324.17
326.29, 0.05, 324.17
325.79, 0.08, 324.16
325.26, 0.12, 324.15
324.67, 0.17, 324.15
324.01, 0.21, 324.14
¯323.21, 0.26, 324.13
322.31, 0.31, 324.12
321.02, 0.34, 324.10
319.20, 0.34, 324.08
314.09, 0.06, 324.03
330.49, 0.02, 324.29
330.27, 0.02, 324.29
330.02, 0.02, 324.29
329.76, 0.02, 324.29
329.48, 0.01, 324.29
329.18, 0.01, 324.29
328.85, 0.01, 324.30
328.48, 0.00, 324.30
328.09, 0.00, 324.30
327.70, 0.01, 324.30
327.28, 0.03, 324.30
326.81, 0.04, 324.30
326.29, 0.05, 324.30
325.79, 0.09, 324.30
325.26, 0.13, 324.30
324.67, 0.17, 324.30
323.99, 0.21, 324.30
323.20, 0.26, 324.31
322.29, 0.31, 324.31
320.98, 0.34, 324.31
319.15, 0.34, 324.31
313.96, 0.05, 324.33
341.71, 0.06, 321.32
342.03, 0.07, 321.19
342.37, 0.07, 321.04
342.59, 0.12, 320.95
342.76, 0.19, 320.87
342.93, 0.26, 320.80
343.11, 0.34, 320.72
343.29, 0.41, 320.64
343.49, 0.50, 320.55
343.69, 0.58, 320.46
343.88, 0.68, 320.38
344.22, 0.75, 320.23
344.56, 0.84, 320.08
344.94, 0.93, 319.92
345.38, 1.02, 319.73
345.98, 1.11, 319.47
346.68, 1.21, 319.17
347.47, 1.32, 318.83
348.60, 1.43, 318.34
350.07, 1.57, 317.71
350.81, 1.77, 317.39
353.61, 1.96, 316.19
341.68, 0.06, 321.24
341.99, 0.06, 321.10
¯342.33, 0.06, 320.95
342.53, 0.12, 320.86
342.69, 0.19, 320.78
342.86, 0.26, 320.71
343.04, 0.34, 320.63
343.22, 0.42, 320.54
343.41, 0.50, 320.45
343.61, 0.59, 320.36
343.86, 0.67, 320.25
344.19, 0.75, 320.10
344.53, 0.83, 319.94
344.91, 0.92, 319.78
345.38, 1.01, 319.56
345.98, 1.10, 319.30
346.68, 1.19, 318.98
347.48, 1.31, 318.62
348.62, 1.42, 318.11
350.00, 1.56, 317.50
350.86, 1.75, 317.11
353.71, 1.94, 315.84
341.64, 0.06, 321.15
341.95, 0.06, 321.01
342.29, 0.06, 320.85
342.46, 0.12, 320.77
342.62, 0.19, 320.69
342.79, 0.26, 320.61
342.96, 0.34, 320.53
343.15, 0.42, 320.45
343.34, 0.50, 320.36
343.55, 0.58, 320.25
343.83, 0.66, 320.12
344.16, 0.74, 319.97
344.50, 0.82, 319.81
344.88, 0.91, 319.63
345.37, 1.00, 319.40
345.98, 1.08, 319.12
346.68, 1.18, 318.79
347.48, 1.29, 318.42
348.64, 1.41, 317.88
349.78, 1.56, 317.35
350.91, 1.74, 316.83
353.81, 1.93, 315.49
341.60, 0.05, 321.07
341.91, 0.06, 320.92
342.24, 0.06, 320.76
342.40, 0.12, 320.68
342.56, 0.19, 320.60
342.72, 0.27, 320.52
342.89, 0.34, 320.44
343.07, 0.42, 320.35
343.27, 0.50, 320.25
¯343.50, 0.58, 320.14
343.80, 0.65, 319.99
344.13, 0.73, 319.84
344.47, 0.81, 319.67
344.85, 0.90, 319.49
345.37, 0.98, 319.24
345.97, 1.07, 318.94
346.68, 1.17, 318.60
347.47, 1.28, 318.22
348.66, 1.39, 317.65
349.55, 1.56, 317.22
350.96, 1.73, 316.54
353.91, 1.92, 315.13
341.56, 0.05, 320.98
341.86, 0.05, 320.83
342.18, 0.06, 320.67
342.33, 0.13, 320.60
342.49, 0.20, 320.52
342.65, 0.27, 320.43
342.82, 0.34, 320.35
343.01, 0.42, 320.25
343.22, 0.50, 320.14
343.44, 0.58, 320.03
343.77, 0.64, 319.86
344.09, 0.72, 319.70
344.44, 0.80, 319.53
344.83, 0.89, 319.33
345.36, 0.97, 319.07
345.97, 1.06, 318.77
346.68, 1.16, 318.41
347.47, 1.27, 318.01
348.67, 1.38, 317.42
349.36, 1.55, 317.07
351.01, 1.72, 316.25
354.00, 1.90, 314.77
341.52, 0.05, 320.90
341.82, 0.05, 320.74
342.11, 0.06, 320.59
342.26, 0.13, 320.51
342.42, 0.20, 320.43
342.58, 0.27, 320.34
342.76, 0.34, 320.25
342.96, 0.41, 320.14
343.17, 0.49, 320.03
343.40, 0.57, 319.91
343.74, 0.63, 319.74
344.06, 0.71, 319.57
344.41, 0.79, 319.39
344.82, 0.88, 319.17
345.35, 0.96, 318.90
345.96, 1.05, 318.59
¯346.66, 1.15, 318.22
347.47, 1.26, 317.80
348.69, 1.37, 317.18
349.21, 1.55, 316.90
351.06, 1.70, 315.95
354.08, 1.89, 314.40
341.47, 0.04, 320.81
341.77, 0.05, 320.65
342.05, 0.06, 320.51
342.20, 0.13, 320.42
342.35, 0.20, 320.34
342.52, 0.27, 320.25
342.71, 0.34, 320.14
342.91, 0.41, 320.04
343.12, 0.49, 319.92
343.37, 0.56, 319.79
