žVERSION 0.7
FIELDS x y z
SIZE 8 8 8
TYPE F F F
COUNT 1 1 1
WIDTH 2271
HEIGHT 1
VIEWPOINT 327.48, 7.23, 328.74 1 335.21, 1.92, 310.38
POINTS 2271
DATA ascii
323.04, 0.13, 300.88
320.59, 0.01, 298.01
318.20, 0.00, 295.21
331.14, 0.01, 310.45
331.04, 0.02, 310.34
330.93, 0.03, 310.21
330.81, 0.04, 310.08
330.69, 0.05, 309.94
330.56, 0.06, 309.79
330.42, 0.07, 309.63
330.27, 0.08, 309.46
330.11, 0.10, 309.28
329.94, 0.11, 309.09
329.76, 0.13, 308.89
329.57, 0.15, 308.67
329.34, 0.17, 308.41
329.08, 0.18, 308.11
328.78, 0.19, 307.77
328.45, 0.20, 307.40
328.07, 0.22, 306.96
327.56, 0.21, 306.39
326.98, 0.20, 305.73
326.30, 0.20, 304.95
325.43, 0.19, 303.96
324.36, 0.17, 302.74
322.80, 0.12, 300.97
320.36, 0.00, 298.18
¯318.00, 0.00, 295.50
331.09, 0.00, 310.49
330.98, 0.01, 310.38
330.87, 0.02, 310.25
330.75, 0.03, 310.12
330.63, 0.04, 309.99
330.50, 0.05, 309.84
330.35, 0.06, 309.68
330.20, 0.08, 309.51
330.04, 0.09, 309.34
329.87, 0.11, 309.15
329.69, 0.13, 308.95
329.50, 0.15, 308.74
329.27, 0.17, 308.49
329.00, 0.18, 308.19
328.70, 0.19, 307.86
328.37, 0.20, 307.49
327.97, 0.21, 307.05
327.45, 0.20, 306.47
326.86, 0.20, 305.82
326.16, 0.19, 305.05
325.24, 0.17, 304.02
324.16, 0.16, 302.83
322.56, 0.10, 301.06
320.17, 0.00, 298.41
317.81, 0.00, 295.80
331.04, 0.00, 310.53
330.93, 0.01, 310.42
330.82, 0.02, 310.30
330.70, 0.03, 310.17
330.57, 0.04, 310.03
330.43, 0.05, 309.89
330.29, 0.06, 309.73
330.13, 0.07, 309.57
329.97, 0.09, 309.39
329.80, 0.11, 309.21
329.62, 0.13, 309.01
329.42, 0.15, 308.80
329.21, 0.17, 308.57
328.93, 0.18, 308.28
328.63, 0.19, 307.95
328.29, 0.21, 307.59
327.87, 0.21, 307.13
327.34, 0.20, 306.56
326.74, 0.19, 305.92
326.00, 0.18, 305.12
325.04, 0.16, 304.09
323.95, 0.14, 302.91
322.34, 0.09, 301.18
320.00, 0.00, 298.66
317.61, 0.00, 296.09
¯330.99, 0.00, 310.58
330.88, 0.01, 310.46
330.76, 0.02, 310.34
330.64, 0.02, 310.22
330.51, 0.03, 310.08
330.37, 0.05, 309.94
330.23, 0.06, 309.78
330.07, 0.07, 309.62
329.91, 0.09, 309.45
329.74, 0.11, 309.27
329.55, 0.13, 309.08
329.35, 0.15, 308.87
329.13, 0.17, 308.64
328.86, 0.18, 308.36
328.56, 0.19, 308.04
328.22, 0.21, 307.68
327.77, 0.20, 307.21
327.23, 0.19, 306.65
326.62, 0.19, 306.01
325.84, 0.17, 305.19
324.84, 0.14, 304.15
323.74, 0.13, 303.00
322.12, 0.08, 301.30
319.82, 0.00, 298.90
317.42, 0.00, 296.38
330.95, 0.00, 310.63
330.83, 0.00, 310.51
330.71, 0.01, 310.39
330.59, 0.02, 310.26
330.45, 0.03, 310.13
330.31, 0.04, 309.99
330.16, 0.05, 309.83
330.01, 0.07, 309.67
329.84, 0.08, 309.51
329.67, 0.10, 309.33
329.48, 0.12, 309.14
329.28, 0.14, 308.93
329.06, 0.17, 308.71
328.80, 0.18, 308.44
328.49, 0.20, 308.13
328.14, 0.21, 307.78
327.67, 0.20, 307.30
327.12, 0.19, 306.74
326.50, 0.18, 306.11
325.68, 0.16, 305.27
324.64, 0.12, 304.22
323.54, 0.12, 303.09
321.90, 0.07, 301.43
319.65, 0.00, 299.14
317.23, 0.00, 296.67
330.90, 0.00, 310.68
¯330.78, 0.00, 310.55
330.66, 0.01, 310.43
330.53, 0.02, 310.31
330.40, 0.03, 310.18
330.25, 0.04, 310.04
330.10, 0.05, 309.89
329.95, 0.06, 309.73
329.78, 0.08, 309.57
329.60, 0.10, 309.39
329.41, 0.12, 309.20
329.20, 0.14, 309.00
328.98, 0.16, 308.78
328.73, 0.19, 308.53
328.41, 0.20, 308.22
328.05, 0.21, 307.86
327.57, 0.20, 307.39
327.02, 0.19, 306.84
326.38, 0.18, 306.21
325.51, 0.15, 305.35
324.44, 0.11, 304.29
323.33, 0.10, 303.18
321.68, 0.06, 301.56
319.49, 0.00, 299.38
317.04, 0.00, 296.96
330.86, 0.00, 310.72
330.73, 0.00, 310.60
330.60, 0.01, 310.48
330.48, 0.01, 310.36
330.34, 0.02, 310.23
330.19, 0.03, 310.09
330.04, 0.05, 309.94
329.88, 0.06, 309.79
329.72, 0.08, 309.63
329.54, 0.10, 309.45
329.34, 0.12, 309.27
329.13, 0.14, 309.07
328.90, 0.16, 308.85
328.66, 0.19, 308.61
328.34, 0.20, 308.31
327.96, 0.20, 307.94
327.48, 0.19, 307.48
326.91, 0.18, 306.93
326.26, 0.17, 306.31
325.35, 0.13, 305.43
324.24, 0.09, 304.36
323.12, 0.09, 303.28
321.47, 0.05, 301.69
319.32, 0.00, 299.62
316.85, 0.00, 297.24
330.81, 0.00, 310.77
330.69, 0.00, 310.65
¯330.55, 0.00, 310.53
330.42, 0.01, 310.41
330.28, 0.02, 310.28
330.14, 0.03, 310.14
329.98, 0.04, 310.00
329.82, 0.06, 309.85
329.65, 0.08, 309.69
329.47, 0.09, 309.52
329.27, 0.11, 309.33
329.06, 0.13, 309.13
328.83, 0.16, 308.92
328.58, 0.18, 308.69
328.28, 0.20, 308.40
327.88, 0.20, 308.03
327.38, 0.19, 307.57
326.81, 0.18, 307.03
326.14, 0.17, 306.40
325.19, 0.12, 305.51
324.05, 0.08, 304.45
322.91, 0.07, 303.38
321.25, 0.04, 301.83
319.15, 0.00, 299.86
316.66, 0.00, 297.53
330.77, 0.00, 310.82
330.64, 0.00, 310.70
330.50, 0.00, 310.58
330.37, 0.01, 310.45
330.23, 0.02, 310.33
330.08, 0.03, 310.19
329.93, 0.04, 310.05
329.76, 0.06, 309.91
329.59, 0.07, 309.75
329.40, 0.09, 309.58
329.20, 0.11, 309.40
328.99, 0.13, 309.20
328.75, 0.15, 308.99
328.50, 0.18, 308.76
328.21, 0.20, 308.49
327.79, 0.20, 308.11
327.29, 0.19, 307.66
326.71, 0.18, 307.13
326.00, 0.16, 306.48
325.02, 0.11, 305.59
323.88, 0.07, 304.55
322.71, 0.06, 303.49
321.06, 0.03, 301.99
318.99, 0.00, 300.10
316.48, 0.00, 297.82
330.73, 0.00, 310.87
330.60, 0.00, 310.76
330.46, 0.00, 310.63
¯330.31, 0.00, 310.50
330.17, 0.01, 310.38
330.02, 0.02, 310.25
329.87, 0.04, 310.11
329.70, 0.05, 309.97
329.53, 0.07, 309.81
329.34, 0.09, 309.64
329.14, 0.11, 309.46
328.92, 0.13, 309.27
328.68, 0.15, 309.06
328.42, 0.18, 308.83
328.14, 0.20, 308.58
327.71, 0.19, 308.20
327.20, 0.19, 307.76
326.62, 0.18, 307.24
325.85, 0.15, 306.56
324.86, 0.10, 305.68
323.71, 0.06, 304.66
322.52, 0.05, 303.60
320.87, 0.02, 302.15
318.83, 0.00, 300.34
316.30, 0.00, 298.10
330.69, 0.00, 310.92
330.55, 0.00, 310.81
330.41, 0.00, 310.69
330.26, 0.00, 310.56
330.11, 0.01, 310.43
329.97, 0.02, 310.30
329.81, 0.04, 310.17
329.64, 0.05, 310.03
329.47, 0.07, 309.87
329.27, 0.09, 309.71
329.07, 0.10, 309.53
328.85, 0.13, 309.34
328.61, 0.15, 309.14
328.36, 0.18, 308.92
328.07, 0.20, 308.67
327.64, 0.20, 308.30
327.13, 0.19, 307.87
326.55, 0.18, 307.36
325.71, 0.13, 306.65
324.70, 0.08, 305.77
323.55, 0.05, 304.78
322.32, 0.04, 303.72
320.68, 0.01, 302.31
318.67, 0.00, 300.58
316.11, 0.00, 298.38
330.65, 0.00, 310.97
330.51, 0.00, 310.86
330.37, 0.00, 310.74
330.21, 0.00, 310.61
¯330.06, 0.01, 310.48
329.91, 0.02, 310.36
329.75, 0.03, 310.23
329.59, 0.05, 310.09
329.41, 0.07, 309.94
329.22, 0.09, 309.78
329.02, 0.11, 309.61
328.80, 0.13, 309.43
328.56, 0.15, 309.23
328.30, 0.18, 309.01
327.99, 0.20, 308.76
327.57, 0.20, 308.40
327.06, 0.19, 307.98
326.47, 0.18, 307.48
325.59, 0.13, 306.75
324.53, 0.07, 305.86
323.39, 0.04, 304.90
322.12, 0.03, 303.84
320.49, 0.01, 302.48
318.51, 0.00, 300.82
315.93, 0.00, 298.67
330.61, 0.00, 311.02
330.47, 0.00, 310.91
330.33, 0.00, 310.80
330.17, 0.00, 310.67
330.01, 0.01, 310.54
329.87, 0.02, 310.42
329.71, 0.04, 310.30
329.54, 0.05, 310.16
329.36, 0.07, 310.02
329.17, 0.09, 309.86
328.97, 0.11, 309.69
328.75, 0.13, 309.51
328.51, 0.16, 309.32
328.25, 0.18, 309.11
327.92, 0.20, 308.84
327.51, 0.20, 308.51
326.99, 0.19, 308.09
326.40, 0.18, 307.61
325.48, 0.12, 306.85
324.37, 0.06, 305.95
323.23, 0.03, 305.02
321.92, 0.01, 303.96
320.31, 0.00, 302.65
318.35, 0.00, 301.06
317.70, 0.21, 300.53
317.70, 0.51, 300.54
317.70, 0.81, 300.54
317.70, 1.11, 300.55
330.57, 0.00, 311.08
330.43, 0.00, 310.97
¯330.28, 0.00, 310.85
330.13, 0.00, 310.73
329.98, 0.01, 310.61
329.82, 0.02, 310.49
329.67, 0.04, 310.37
329.50, 0.05, 310.23
329.32, 0.07, 310.09
329.12, 0.09, 309.94
328.92, 0.11, 309.77
328.69, 0.13, 309.60
328.45, 0.16, 309.41
328.19, 0.18, 309.20
327.85, 0.20, 308.93
327.44, 0.20, 308.61
326.93, 0.19, 308.20
326.33, 0.19, 307.73
325.36, 0.12, 306.96
324.20, 0.05, 306.05
323.07, 0.02, 305.15
321.72, 0.00, 304.09
320.17, 0.00, 302.86
318.19, 0.00, 301.30
317.69, 0.23, 300.91
317.69, 0.53, 300.91
317.69, 0.82, 300.91
317.69, 1.11, 300.92
330.53, 0.00, 311.13
330.39, 0.00, 311.02
330.24, 0.00, 310.91
330.08, 0.00, 310.79
329.94, 0.01, 310.67
329.78, 0.02, 310.56
329.62, 0.04, 310.43
329.45, 0.06, 310.30
329.27, 0.08, 310.16
329.08, 0.09, 310.02
328.87, 0.11, 309.86
328.64, 0.14, 309.68
328.40, 0.16, 309.50
328.14, 0.19, 309.30
327.77, 0.19, 309.02
327.36, 0.20, 308.70
326.86, 0.20, 308.31
326.25, 0.19, 307.85
325.24, 0.11, 307.07
324.07, 0.04, 306.17
322.91, 0.01, 305.28
321.59, 0.00, 304.26
320.03, 0.00, 303.07
318.04, 0.00, 301.54
317.69, 0.25, 301.27
¯317.69, 0.54, 301.28
317.69, 0.83, 301.28
317.69, 1.12, 301.29
330.49, 0.00, 311.18
330.35, 0.00, 311.08
330.20, 0.00, 310.96
330.04, 0.00, 310.85
329.90, 0.02, 310.74
329.74, 0.03, 310.63
329.58, 0.04, 310.50
329.41, 0.06, 310.38
329.23, 0.08, 310.24
329.03, 0.10, 310.09
328.82, 0.12, 309.94
328.59, 0.14, 309.77
328.35, 0.16, 309.59
328.07, 0.19, 309.38
327.70, 0.19, 309.10
327.29, 0.20, 308.79
326.79, 0.20, 308.43
326.18, 0.19, 307.97
325.13, 0.11, 307.18
323.93, 0.03, 306.29
322.78, 0.01, 305.43
321.46, 0.00, 304.45
319.89, 0.00, 303.28
317.88, 0.00, 301.78
317.75, 0.27, 301.68
317.75, 0.56, 301.68
317.75, 0.84, 301.68
317.75, 1.13, 301.69
330.45, 0.00, 311.23
330.31, 0.00, 311.13
330.16, 0.00, 311.02
330.01, 0.01, 310.91
329.86, 0.02, 310.81
329.71, 0.03, 310.69
329.54, 0.05, 310.57
329.37, 0.06, 310.45
329.18, 0.08, 310.32
328.99, 0.10, 310.17
328.77, 0.12, 310.02
328.55, 0.14, 309.85
328.30, 0.17, 309.68
328.01, 0.19, 309.47
327.63, 0.19, 309.19
327.21, 0.20, 308.89
326.73, 0.20, 308.54
326.09, 0.19, 308.08
325.01, 0.10, 307.29
323.81, 0.03, 306.42
¯322.65, 0.01, 305.59
321.34, 0.00, 304.63
319.76, 0.00, 303.49
317.75, 0.00, 302.03
317.75, 0.29, 302.03
317.75, 0.57, 302.04
317.75, 0.85, 302.04
317.75, 1.14, 302.04
330.41, 0.00, 311.29
330.27, 0.00, 311.19
330.12, 0.00, 311.08
329.97, 0.01, 310.98
329.83, 0.02, 310.87
329.67, 0.03, 310.76
329.50, 0.05, 310.65
329.32, 0.06, 310.52
329.14, 0.08, 310.39
328.94, 0.10, 310.25
328.73, 0.12, 310.10
328.50, 0.14, 309.94
328.25, 0.17, 309.77
327.94, 0.18, 309.55
327.56, 0.19, 309.28
327.14, 0.19, 308.98
326.66, 0.20, 308.65
325.99, 0.18, 308.18
324.89, 0.09, 307.40
323.70, 0.03, 306.56
322.53, 0.00, 305.74
321.22, 0.00, 304.82
319.62, 0.00, 303.69
317.75, 0.02, 302.38
317.75, 0.30, 302.38
317.75, 0.58, 302.38
317.75, 0.86, 302.38
317.75, 1.14, 302.39
330.38, 0.00, 311.34
330.23, 0.00, 311.24
330.08, 0.00, 311.14
329.94, 0.01, 311.04
329.79, 0.02, 310.94
329.63, 0.04, 310.83
329.46, 0.05, 310.72
329.29, 0.07, 310.60
329.10, 0.08, 310.47
328.90, 0.10, 310.33
328.68, 0.12, 310.18
328.45, 0.15, 310.03
328.20, 0.17, 309.86
327.88, 0.18, 309.64
327.50, 0.19, 309.37
¯327.06, 0.19, 309.08
326.58, 0.20, 308.75
325.90, 0.18, 308.28
324.76, 0.09, 307.51
323.59, 0.03, 306.71
322.41, 0.00, 305.90
321.10, 0.00, 305.01
319.49, 0.00, 303.90
317.75, 0.04, 302.72
317.75, 0.32, 302.72
317.75, 0.60, 302.72
317.75, 0.87, 302.72
317.77, 1.15, 302.74
330.34, 0.00, 311.40
330.20, 0.00, 311.30
330.05, 0.00, 311.20
329.91, 0.01, 311.11
329.76, 0.03, 311.01
329.60, 0.04, 310.90
329.43, 0.05, 310.79
329.25, 0.07, 310.67
329.05, 0.09, 310.54
328.85, 0.11, 310.41
328.64, 0.13, 310.27
328.40, 0.15, 310.11
328.15, 0.17, 309.95
327.81, 0.18, 309.72
327.43, 0.19, 309.46
326.99, 0.19, 309.18
326.50, 0.20, 308.85
325.79, 0.17, 308.38
324.64, 0.08, 307.62
323.50, 0.03, 306.86
322.29, 0.00, 306.06
320.98, 0.00, 305.19
319.35, 0.00, 304.12
317.75, 0.06, 303.05
317.75, 0.33, 303.05
317.75, 0.61, 303.05
317.75, 0.88, 303.05
317.75, 1.16, 303.05
330.31, 0.00, 311.45
330.16, 0.00, 311.36
330.01, 0.01, 311.26
329.87, 0.02, 311.17
329.72, 0.03, 311.07
329.56, 0.04, 310.97
329.39, 0.06, 310.86
329.21, 0.07, 310.75
329.02, 0.09, 310.62
328.81, 0.11, 310.49
¯328.59, 0.13, 310.35
328.36, 0.15, 310.20
328.10, 0.17, 310.03
327.75, 0.18, 309.81
327.36, 0.18, 309.56
326.92, 0.19, 309.27
326.46, 0.20, 308.98
325.68, 0.16, 308.48
324.51, 0.07, 307.72
323.40, 0.02, 307.01
322.18, 0.00, 306.23
320.86, 0.00, 305.38
319.22, 0.00, 304.33
317.75, 0.07, 303.38
317.75, 0.35, 303.38
317.75, 0.62, 303.38
317.75, 0.89, 303.38
317.75, 1.17, 303.38
330.27, 0.00, 311.51
330.12, 0.00, 311.41
329.98, 0.01, 311.32
329.84, 0.02, 311.24
329.69, 0.03, 311.14
329.53, 0.05, 311.04
329.36, 0.06, 310.93
329.17, 0.08, 310.82
328.98, 0.09, 310.70
328.77, 0.11, 310.57
328.55, 0.13, 310.43
328.31, 0.15, 310.29
328.04, 0.17, 310.12
327.69, 0.18, 309.90
327.29, 0.18, 309.65
326.88, 0.19, 309.39
326.43, 0.21, 309.11
325.58, 0.16, 308.58
324.38, 0.06, 307.83
323.30, 0.02, 307.16
322.08, 0.00, 306.40
320.75, 0.00, 305.57
319.09, 0.00, 304.54
317.75, 0.09, 303.70
317.75, 0.36, 303.70
317.75, 0.63, 303.70
317.75, 0.90, 303.70
317.75, 1.17, 303.70
330.24, 0.00, 311.56
330.09, 0.00, 311.47
329.95, 0.01, 311.39
329.81, 0.02, 311.30
329.66, 0.04, 311.21
¯329.49, 0.05, 311.11
329.32, 0.06, 311.01
329.14, 0.08, 310.90
328.94, 0.10, 310.78
328.73, 0.11, 310.65
328.51, 0.13, 310.52
328.27, 0.16, 310.37
327.98, 0.17, 310.20
327.63, 0.18, 309.98
327.25, 0.19, 309.76
326.86, 0.20, 309.52
326.41, 0.22, 309.25
325.52, 0.16, 308.71
324.26, 0.05, 307.95
323.21, 0.02, 307.31
321.97, 0.00, 306.57
320.63, 0.00, 305.76
318.96, 0.00, 304.75
317.75, 0.11, 304.02
317.75, 0.38, 304.02
317.75, 0.65, 304.02
317.75, 0.91, 304.02
317.75, 1.18, 304.02
339.96, 0.30, 315.10
340.21, 0.32, 315.15
340.47, 0.35, 315.20
341.16, 0.27, 315.34
341.49, 0.30, 315.40
341.84, 0.34, 315.47
342.17, 0.38, 315.53
342.52, 0.44, 315.60
342.91, 0.49, 315.68
343.35, 0.55, 315.76
343.84, 0.61, 315.86
344.32, 0.69, 315.95
344.86, 0.78, 316.05
345.45, 0.87, 316.17
346.15, 0.97, 316.30
346.92, 1.09, 316.45
347.80, 1.22, 316.62
348.89, 1.37, 316.84
349.34, 1.57, 316.92
350.85, 1.76, 317.21
353.05, 1.99, 317.64
357.95, 2.33, 318.60
339.96, 0.30, 315.02
340.20, 0.33, 315.06
340.47, 0.35, 315.11
340.75, 0.38, 315.16
341.49, 0.30, 315.30
341.84, 0.34, 315.36
¯342.17, 0.39, 315.42
342.52, 0.44, 315.48
342.90, 0.49, 315.55
343.36, 0.55, 315.63
343.85, 0.61, 315.72
344.33, 0.69, 315.81
344.86, 0.78, 315.90
345.47, 0.87, 316.01
346.17, 0.97, 316.14
346.95, 1.09, 316.28
347.85, 1.22, 316.44
348.36, 1.39, 316.53
349.40, 1.56, 316.71
350.92, 1.75, 316.99
353.14, 1.99, 317.39
357.95, 2.32, 318.26
339.96, 0.31, 314.93
340.20, 0.33, 314.97
340.46, 0.35, 315.02
340.74, 0.38, 315.06
341.06, 0.40, 315.12
341.84, 0.34, 315.25
342.16, 0.39, 315.30
342.51, 0.44, 315.36
342.91, 0.49, 315.43
343.36, 0.55, 315.50
343.85, 0.61, 315.58
344.33, 0.69, 315.66
344.86, 0.78, 315.75
345.49, 0.87, 315.85
346.19, 0.97, 315.97
346.97, 1.08, 316.10
347.65, 1.23, 316.21
348.24, 1.39, 316.30
349.45, 1.55, 316.50
350.99, 1.75, 316.76
353.24, 1.98, 317.13
357.94, 2.31, 317.91
339.95, 0.31, 314.85
340.19, 0.33, 314.89
340.45, 0.36, 314.93
340.74, 0.38, 314.97
341.05, 0.41, 315.02
341.39, 0.44, 315.07
342.16, 0.39, 315.19
342.51, 0.44, 315.24
342.91, 0.49, 315.30
343.37, 0.55, 315.37
343.85, 0.61, 315.44
344.33, 0.69, 315.52
344.86, 0.77, 315.59
¯345.50, 0.86, 315.69
346.21, 0.96, 315.80
346.96, 1.08, 315.91
347.22, 1.25, 315.95
348.30, 1.38, 316.11
349.50, 1.55, 316.29
351.06, 1.74, 316.53
353.33, 1.97, 316.87
357.92, 2.30, 317.57
339.95, 0.31, 314.77
340.19, 0.34, 314.80
340.45, 0.36, 314.84
340.73, 0.38, 314.87
341.04, 0.41, 314.92
341.38, 0.44, 314.96
341.72, 0.48, 315.01
342.51, 0.44, 315.12
342.92, 0.49, 315.18
343.37, 0.55, 315.24
343.85, 0.61, 315.31
344.33, 0.69, 315.37
344.88, 0.77, 315.44
345.52, 0.86, 315.53
346.18, 0.96, 315.62
346.42, 1.12, 315.65
347.26, 1.24, 315.77
348.37, 1.38, 315.92
349.55, 1.54, 316.08
351.12, 1.73, 316.29
353.42, 1.96, 316.61
357.86, 2.29, 317.22
339.94, 0.32, 314.68
340.18, 0.34, 314.71
340.44, 0.36, 314.75
340.72, 0.39, 314.78
341.03, 0.41, 314.82
341.37, 0.44, 314.86
341.70, 0.48, 314.90
342.06, 0.52, 314.95
342.54, 0.56, 315.01
343.37, 0.55, 315.11
343.85, 0.61, 315.17
344.33, 0.69, 315.23
344.89, 0.77, 315.30
345.17, 0.89, 315.33
345.64, 1.01, 315.38
346.39, 1.12, 315.47
347.30, 1.23, 315.58
348.43, 1.37, 315.72
349.60, 1.53, 315.87
351.19, 1.72, 316.06
¯353.51, 1.96, 316.35
357.78, 2.27, 316.87
339.93, 0.32, 314.60
340.17, 0.34, 314.63
340.42, 0.37, 314.66
340.70, 0.39, 314.69
341.01, 0.42, 314.72
341.35, 0.45, 314.76
341.67, 0.49, 314.79
342.03, 0.53, 314.83
342.44, 0.57, 314.88
342.87, 0.62, 314.92
343.34, 0.68, 314.97
343.85, 0.75, 315.03
344.37, 0.83, 315.08
344.96, 0.91, 315.15
345.65, 1.00, 315.22
346.40, 1.11, 315.30
347.33, 1.23, 315.40
348.49, 1.36, 315.53
349.65, 1.53, 315.65
351.25, 1.72, 315.83
353.59, 1.95, 316.08
339.92, 0.32, 314.52
340.16, 0.34, 314.54
340.41, 0.37, 314.57
340.69, 0.39, 314.59
341.00, 0.42, 314.62
341.33, 0.45, 314.65
341.64, 0.49, 314.68
342.00, 0.53, 314.72
342.41, 0.58, 314.76
342.84, 0.63, 314.80
343.32, 0.68, 314.84
343.82, 0.75, 314.89
344.35, 0.83, 314.94
344.94, 0.91, 314.99
345.62, 1.00, 315.06
346.41, 1.11, 315.13
347.37, 1.22, 315.22
348.55, 1.35, 315.33
349.71, 1.52, 315.44
351.31, 1.71, 315.59
353.68, 1.94, 315.82
339.91, 0.32, 314.44
340.15, 0.35, 314.46
340.40, 0.37, 314.48
340.68, 0.40, 314.50
340.98, 0.42, 314.53
341.30, 0.45, 314.55
341.62, 0.49, 314.58
¯341.97, 0.54, 314.61
342.39, 0.58, 314.64
342.82, 0.63, 314.67
343.30, 0.68, 314.71
343.80, 0.75, 314.75
344.32, 0.82, 314.79
344.93, 0.91, 314.84
345.60, 1.00, 314.89
346.41, 1.10, 314.96
347.41, 1.21, 315.04
348.61, 1.34, 315.14
349.77, 1.51, 315.23
351.37, 1.70, 315.36
353.76, 1.93, 315.55
339.90, 0.33, 314.36
340.14, 0.35, 314.37
340.39, 0.37, 314.39
340.66, 0.40, 314.41
340.97, 0.42, 314.43
341.28, 0.46, 314.45
341.59, 0.50, 314.47
341.94, 0.54, 314.49
342.36, 0.58, 314.52
342.79, 0.63, 314.55
343.27, 0.68, 314.58
343.77, 0.75, 314.61
344.30, 0.82, 314.65
344.91, 0.91, 314.69
345.58, 1.00, 314.73
346.42, 1.10, 314.79
347.44, 1.21, 314.86
348.67, 1.34, 314.94
349.84, 1.50, 315.01
351.43, 1.69, 315.12
353.84, 1.92, 315.28
339.89, 0.33, 314.28
340.13, 0.35, 314.29
340.37, 0.38, 314.30
340.65, 0.40, 314.32
340.95, 0.43, 314.33
341.25, 0.46, 314.35
341.56, 0.50, 314.37
341.91, 0.54, 314.38
342.34, 0.58, 314.41
342.75, 0.63, 314.43
343.24, 0.69, 314.45
343.74, 0.75, 314.48
344.27, 0.82, 314.51
344.90, 0.90, 314.54
345.56, 1.00, 314.57
346.42, 1.09, 314.62
¯347.47, 1.20, 314.67
348.72, 1.33, 314.74
349.90, 1.49, 314.80
351.48, 1.68, 314.88
353.90, 1.91, 315.01
339.88, 0.33, 314.20
340.11, 0.35, 314.21
340.35, 0.38, 314.22
340.63, 0.40, 314.23
340.93, 0.43, 314.24
341.23, 0.46, 314.25
341.53, 0.51, 314.26
341.88, 0.55, 314.27
342.31, 0.58, 314.29
342.72, 0.64, 314.31
343.22, 0.69, 314.33
343.71, 0.75, 314.34
344.24, 0.82, 314.36
344.85, 0.90, 314.39
345.54, 0.99, 314.41
346.42, 1.09, 314.45
347.50, 1.19, 314.49
348.78, 1.32, 314.54
349.96, 1.48, 314.58
351.53, 1.67, 314.64
353.97, 1.90, 314.73
339.87, 0.33, 314.12
340.10, 0.35, 314.12
340.34, 0.38, 314.13
340.61, 0.41, 314.14
340.91, 0.43, 314.14
341.20, 0.47, 314.15
341.50, 0.51, 314.16
341.84, 0.55, 314.17
342.28, 0.59, 314.18
342.69, 0.64, 314.19
343.19, 0.69, 314.20
343.68, 0.75, 314.21
344.22, 0.82, 314.22
344.79, 0.90, 314.24
345.52, 0.99, 314.25
346.42, 1.08, 314.27
347.53, 1.18, 314.30
348.83, 1.31, 314.33
350.02, 1.47, 314.36
351.57, 1.66, 314.40
354.03, 1.89, 314.46
339.85, 0.33, 314.04
340.08, 0.36, 314.04
340.32, 0.38, 314.04
340.59, 0.41, 314.05
¯340.89, 0.43, 314.05
341.18, 0.47, 314.05
341.47, 0.51, 314.06
341.81, 0.55, 314.06
342.25, 0.59, 314.06
342.66, 0.64, 314.07
343.16, 0.69, 314.07
343.64, 0.75, 314.08
344.19, 0.82, 314.08
344.74, 0.91, 314.09
345.49, 0.99, 314.09
346.42, 1.07, 314.10
347.56, 1.18, 314.12
348.88, 1.30, 314.13
350.08, 1.46, 314.14
351.60, 1.65, 314.16
354.09, 1.88, 314.18
339.84, 0.33, 313.96
340.06, 0.36, 313.96
340.30, 0.38, 313.96
340.57, 0.41, 313.96
340.86, 0.44, 313.96
341.15, 0.47, 313.96
341.43, 0.52, 313.95
341.77, 0.56, 313.95
342.21, 0.59, 313.95
342.62, 0.64, 313.95
343.12, 0.69, 313.95
343.61, 0.75, 313.95
344.15, 0.82, 313.94
344.69, 0.90, 313.94
345.47, 0.98, 313.94
346.42, 1.07, 313.93
347.58, 1.17, 313.93
348.93, 1.29, 313.93
350.14, 1.45, 313.92
351.63, 1.64, 313.91
354.15, 1.87, 313.90
339.82, 0.34, 313.88
340.04, 0.36, 313.88
340.28, 0.39, 313.87
340.55, 0.41, 313.87
340.84, 0.44, 313.87
341.12, 0.47, 313.86
341.40, 0.52, 313.85
341.74, 0.56, 313.85
342.16, 0.59, 313.84
342.58, 0.64, 313.83
343.08, 0.69, 313.82
343.57, 0.75, 313.81
344.12, 0.82, 313.80
¯344.66, 0.90, 313.79
345.44, 0.98, 313.78
346.41, 1.06, 313.76
347.61, 1.16, 313.74
348.98, 1.28, 313.72
350.20, 1.44, 313.70
351.66, 1.63, 313.67
355.85, 1.84, 313.60
339.80, 0.34, 313.81
340.03, 0.36, 313.80
340.26, 0.39, 313.79
340.53, 0.41, 313.78
340.82, 0.44, 313.77
341.09, 0.48, 313.76
341.37, 0.52, 313.75
341.70, 0.56, 313.74
342.12, 0.60, 313.73
342.55, 0.64, 313.72
343.03, 0.69, 313.70
343.54, 0.75, 313.68
344.09, 0.82, 313.67
344.62, 0.90, 313.65
345.41, 0.98, 313.62
346.41, 1.06, 313.59
347.63, 1.15, 313.55
349.03, 1.27, 313.51
350.25, 1.43, 313.47
351.68, 1.62, 313.42
355.92, 1.83, 313.30
339.79, 0.34, 313.73
340.01, 0.36, 313.72
340.24, 0.39, 313.71
340.50, 0.41, 313.69
340.79, 0.44, 313.68
341.06, 0.48, 313.67
341.33, 0.52, 313.66
341.66, 0.57, 313.64
342.07, 0.60, 313.62
342.51, 0.64, 313.60
342.98, 0.69, 313.58
343.50, 0.75, 313.56
344.04, 0.82, 313.53
344.58, 0.90, 313.50
345.38, 0.97, 313.47
346.40, 1.05, 313.42
347.65, 1.14, 313.37
349.08, 1.26, 313.30
350.31, 1.42, 313.24
351.70, 1.61, 313.18
355.98, 1.82, 312.99
339.77, 0.34, 313.65
¯339.98, 0.36, 313.64
340.22, 0.39, 313.62
340.48, 0.42, 313.61
340.77, 0.44, 313.59
341.03, 0.48, 313.57
341.30, 0.53, 313.56
341.62, 0.57, 313.54
342.03, 0.60, 313.51
342.47, 0.64, 313.49
342.94, 0.69, 313.46
343.46, 0.75, 313.43
344.00, 0.81, 313.40
344.55, 0.90, 313.36
345.35, 0.97, 313.31
346.39, 1.04, 313.25
347.67, 1.13, 313.18
349.12, 1.25, 313.09
350.36, 1.41, 313.01
351.72, 1.60, 312.93
356.05, 1.81, 312.68
339.75, 0.34, 313.57
339.96, 0.37, 313.56
340.19, 0.39, 313.54
340.45, 0.42, 313.52
340.74, 0.44, 313.50
341.00, 0.48, 313.48
341.26, 0.53, 313.46
341.58, 0.57, 313.44
341.98, 0.61, 313.41
342.43, 0.64, 313.37
342.89, 0.70, 313.34
343.42, 0.75, 313.30
343.95, 0.81, 313.26
344.51, 0.89, 313.22
345.32, 0.96, 313.16
346.38, 1.04, 313.08
347.69, 1.12, 312.99
349.16, 1.23, 312.88
350.42, 1.40, 312.78
351.73, 1.59, 312.68
356.09, 1.79, 312.37
339.73, 0.34, 313.50
339.94, 0.37, 313.48
340.17, 0.39, 313.46
340.43, 0.42, 313.44
340.71, 0.44, 313.41
340.97, 0.48, 313.39
341.22, 0.53, 313.37
341.54, 0.57, 313.34
341.93, 0.61, 313.30
342.39, 0.65, 313.26
¯342.83, 0.70, 313.22
343.38, 0.75, 313.17
343.91, 0.81, 313.13
344.47, 0.89, 313.08
345.29, 0.96, 313.01
346.37, 1.03, 312.91
347.70, 1.11, 312.80
349.20, 1.22, 312.67
350.47, 1.38, 312.55
351.75, 1.58, 312.44
356.11, 1.78, 312.06
339.70, 0.34, 313.42
339.92, 0.37, 313.40
340.14, 0.39, 313.38
340.40, 0.42, 313.35
340.68, 0.45, 313.32
340.93, 0.49, 313.30
341.19, 0.53, 313.27
341.50, 0.57, 313.24
341.88, 0.61, 313.20
342.35, 0.65, 313.15
342.78, 0.70, 313.11
343.34, 0.74, 313.05
343.86, 0.81, 313.00
344.42, 0.89, 312.94
345.25, 0.95, 312.85
346.35, 1.02, 312.74
347.72, 1.10, 312.60
349.24, 1.21, 312.45
350.52, 1.37, 312.32
352.95, 1.54, 312.07
356.12, 1.77, 311.75
339.68, 0.35, 313.35
339.89, 0.37, 313.32
340.12, 0.40, 313.30
340.37, 0.42, 313.27
340.65, 0.45, 313.24
340.90, 0.49, 313.21
341.15, 0.53, 313.18
341.46, 0.58, 313.14
341.83, 0.61, 313.10
342.31, 0.65, 313.04
342.73, 0.70, 312.99
343.30, 0.74, 312.93
343.81, 0.81, 312.86
344.38, 0.88, 312.80
345.18, 0.95, 312.70
346.26, 1.02, 312.58
347.73, 1.09, 312.41
349.28, 1.20, 312.23
350.57, 1.36, 312.08
¯352.96, 1.53, 311.81
356.12, 1.75, 311.44
339.66, 0.35, 313.27
339.87, 0.37, 313.25
340.09, 0.40, 313.22
340.34, 0.42, 313.18
340.62, 0.45, 313.15
340.87, 0.49, 313.11
341.11, 0.53, 313.08
341.41, 0.58, 313.04
341.78, 0.62, 312.99
342.26, 0.65, 312.93
342.67, 0.70, 312.88
343.25, 0.74, 312.80
343.76, 0.81, 312.73
344.34, 0.88, 312.66
345.10, 0.95, 312.56
346.14, 1.02, 312.42
347.74, 1.08, 312.22
349.32, 1.18, 312.02
350.62, 1.34, 311.84
352.98, 1.51, 311.54
356.13, 1.74, 311.13
339.63, 0.35, 313.20
339.84, 0.37, 313.17
340.06, 0.40, 313.14
340.31, 0.42, 313.10
340.59, 0.45, 313.06
340.83, 0.49, 313.03
341.08, 0.53, 312.99
341.37, 0.58, 312.95
341.72, 0.62, 312.89
342.22, 0.65, 312.82
342.63, 0.70, 312.76
343.21, 0.74, 312.68
343.71, 0.81, 312.61
344.29, 0.88, 312.52
345.01, 0.95, 312.42
346.02, 1.02, 312.27
347.75, 1.07, 312.03
349.35, 1.17, 311.80
351.23, 1.31, 311.53
353.00, 1.50, 311.27
356.13, 1.72, 310.82
339.61, 0.35, 313.13
339.82, 0.37, 313.09
340.04, 0.40, 313.06
340.28, 0.42, 313.02
340.55, 0.45, 312.98
340.80, 0.49, 312.94
341.04, 0.54, 312.90
¯341.33, 0.58, 312.85
341.67, 0.62, 312.79
342.17, 0.64, 312.72
342.58, 0.70, 312.65
343.15, 0.74, 312.56
343.66, 0.80, 312.48
344.25, 0.87, 312.38
344.92, 0.95, 312.28
345.90, 1.02, 312.12
347.69, 1.06, 311.84
349.38, 1.16, 311.58
351.22, 1.29, 311.28
353.02, 1.49, 311.00
356.12, 1.71, 310.51
339.58, 0.35, 313.05
339.79, 0.37, 313.02
340.01, 0.40, 312.98
340.25, 0.42, 312.94
340.52, 0.45, 312.89
340.76, 0.49, 312.85
341.00, 0.54, 312.80
341.28, 0.58, 312.76
341.61, 0.62, 312.70
342.11, 0.65, 312.61
342.53, 0.70, 312.54
343.09, 0.74, 312.44
343.60, 0.80, 312.35
344.19, 0.87, 312.25
344.83, 0.95, 312.14
345.77, 1.02, 311.98
347.57, 1.06, 311.67
349.41, 1.14, 311.35
351.22, 1.28, 311.04
353.03, 1.47, 310.73
356.11, 1.69, 310.19
339.56, 0.35, 312.98
339.76, 0.37, 312.94
339.98, 0.40, 312.90
340.22, 0.42, 312.86
340.49, 0.45, 312.81
340.72, 0.49, 312.76
340.96, 0.54, 312.71
341.24, 0.58, 312.66
341.56, 0.63, 312.60
342.05, 0.65, 312.51
342.48, 0.70, 312.43
343.02, 0.74, 312.33
343.55, 0.80, 312.23
344.13, 0.87, 312.12
344.74, 0.95, 312.00
345.70, 1.02, 311.82
¯347.45, 1.06, 311.50
349.44, 1.13, 311.13
351.21, 1.27, 310.80
353.03, 1.46, 310.46
356.10, 1.68, 309.88
339.53, 0.35, 312.91
339.73, 0.37, 312.87
339.95, 0.40, 312.82
340.19, 0.42, 312.78
340.45, 0.45, 312.72
340.68, 0.49, 312.67
340.92, 0.54, 312.62
341.19, 0.58, 312.57
341.51, 0.63, 312.50
341.99, 0.65, 312.41
342.43, 0.70, 312.32
342.96, 0.74, 312.21
343.50, 0.80, 312.10
344.07, 0.86, 311.99
344.65, 0.95, 311.87
345.66, 1.01, 311.66
347.32, 1.05, 311.33
350.31, 1.06, 310.74
351.20, 1.26, 310.55
352.98, 1.44, 310.19
356.08, 1.66, 309.57
339.50, 0.35, 312.84
339.70, 0.37, 312.79
339.92, 0.40, 312.75
340.15, 0.42, 312.70
340.41, 0.45, 312.64
340.65, 0.49, 312.59
340.88, 0.54, 312.53
341.14, 0.58, 312.48
341.46, 0.63, 312.41
341.92, 0.65, 312.31
342.37, 0.69, 312.21
342.89, 0.74, 312.10
343.45, 0.79, 311.98
344.00, 0.86, 311.85
344.59, 0.94, 311.73
345.61, 1.00, 311.51
347.19, 1.05, 311.17
350.29, 1.05, 310.51
351.15, 1.24, 310.32
352.94, 1.43, 309.93
356.06, 1.64, 309.25
339.47, 0.35, 312.77
339.67, 0.37, 312.72
339.88, 0.40, 312.67
340.12, 0.42, 312.62
¯340.38, 0.45, 312.56
340.61, 0.49, 312.50
340.84, 0.54, 312.45
341.09, 0.58, 312.39
341.41, 0.63, 312.31
341.86, 0.65, 312.21
342.32, 0.69, 312.10
342.82, 0.74, 311.99
343.39, 0.79, 311.85
343.94, 0.86, 311.73
344.54, 0.94, 311.59
345.56, 1.00, 311.35
347.06, 1.05, 311.01
350.24, 1.04, 310.29
351.09, 1.23, 310.08
352.89, 1.42, 309.66
355.94, 1.63, 308.96
339.44, 0.35, 312.70
339.64, 0.37, 312.65
339.85, 0.40, 312.60
340.08, 0.43, 312.54
340.34, 0.45, 312.47
340.57, 0.49, 312.42
340.80, 0.53, 312.36
341.05, 0.58, 312.30
341.36, 0.63, 312.22
341.79, 0.66, 312.11
342.27, 0.69, 312.00
342.75, 0.74, 311.88
343.34, 0.79, 311.73
343.88, 0.86, 311.60
344.48, 0.93, 311.45
345.47, 0.99, 311.21
346.96, 1.04, 310.84
350.19, 1.03, 310.06
351.07, 1.22, 309.84
352.85, 1.40, 309.40
355.79, 1.62, 308.68
339.41, 0.35, 312.63
339.61, 0.37, 312.58
339.82, 0.40, 312.52
340.04, 0.43, 312.46
340.30, 0.45, 312.39
340.53, 0.49, 312.33
340.76, 0.53, 312.27
341.00, 0.58, 312.21
341.30, 0.63, 312.13
341.72, 0.66, 312.02
342.21, 0.69, 311.89
342.68, 0.74, 311.77
343.28, 0.78, 311.61
¯343.81, 0.85, 311.47
344.43, 0.93, 311.31
345.35, 0.99, 311.07
346.93, 1.03, 310.66
350.14, 1.02, 309.84
351.04, 1.20, 309.60
352.79, 1.39, 309.14
355.58, 1.60, 308.41
339.38, 0.35, 312.56
339.58, 0.37, 312.50
339.78, 0.40, 312.45
340.01, 0.42, 312.38
340.26, 0.45, 312.31
340.49, 0.49, 312.25
340.72, 0.53, 312.18
340.96, 0.58, 312.12
341.25, 0.63, 312.03
341.66, 0.66, 311.92
342.16, 0.69, 311.79
342.61, 0.74, 311.66
343.22, 0.78, 311.49
343.75, 0.85, 311.34
344.36, 0.92, 311.17
345.24, 0.99, 310.93
346.77, 1.03, 310.51
350.08, 1.00, 309.62
351.01, 1.19, 309.35
352.74, 1.37, 308.87
355.37, 1.59, 308.15
339.35, 0.35, 312.49
339.54, 0.37, 312.43
339.75, 0.40, 312.37
339.97, 0.42, 312.31
340.22, 0.45, 312.23
340.45, 0.49, 312.17
340.67, 0.53, 312.10
340.91, 0.58, 312.03
341.20, 0.63, 311.94
341.59, 0.66, 311.83
342.09, 0.69, 311.68
342.54, 0.74, 311.55
343.14, 0.78, 311.38
343.68, 0.84, 311.22
344.29, 0.92, 311.04
345.12, 0.99, 310.80
346.59, 1.03, 310.38
350.03, 0.99, 309.39
350.98, 1.17, 309.11
352.68, 1.36, 308.61
355.19, 1.57, 307.88
339.32, 0.35, 312.42
¯339.51, 0.37, 312.36
339.71, 0.40, 312.30
339.93, 0.42, 312.23
340.18, 0.45, 312.15
340.41, 0.49, 312.08
340.63, 0.53, 312.01
340.87, 0.58, 311.94
341.14, 0.63, 311.85
341.52, 0.66, 311.74
342.02, 0.69, 311.59
342.46, 0.74, 311.45
343.06, 0.78, 311.27
343.61, 0.84, 311.10
344.22, 0.91, 310.91
345.00, 0.99, 310.67
346.41, 1.03, 310.24
349.97, 0.98, 309.17
350.95, 1.16, 308.86
352.62, 1.34, 308.35
355.00, 1.56, 307.62
339.28, 0.35, 312.35
339.47, 0.37, 312.29
339.68, 0.40, 312.23
339.89, 0.42, 312.16
340.14, 0.45, 312.08
340.36, 0.49, 312.00
340.59, 0.53, 311.93
340.82, 0.58, 311.85
341.09, 0.63, 311.77
341.45, 0.66, 311.65
341.94, 0.69, 311.49
342.39, 0.74, 311.35
342.98, 0.78, 311.16
343.55, 0.84, 310.97
344.14, 0.91, 310.78
344.89, 0.99, 310.54
346.23, 1.03, 310.11
349.91, 0.97, 308.95
350.92, 1.14, 308.62
352.55, 1.33, 308.09
354.82, 1.55, 307.36
357.37, 1.83, 306.53
339.25, 0.35, 312.29
339.44, 0.37, 312.22
339.64, 0.40, 312.15
339.85, 0.42, 312.08
340.09, 0.45, 312.00
340.32, 0.48, 311.92
340.54, 0.53, 311.85
340.77, 0.58, 311.77
341.03, 0.63, 311.68
¯341.38, 0.66, 311.56
341.86, 0.69, 311.40
342.32, 0.74, 311.24
342.89, 0.78, 311.05
343.48, 0.83, 310.85
344.07, 0.91, 310.65
344.77, 0.98, 310.41
346.05, 1.03, 309.98
349.87, 0.95, 308.72
350.77, 1.13, 308.41
352.49, 1.31, 307.83
354.63, 1.53, 307.10
357.22, 1.81, 306.23
339.22, 0.35, 312.22
339.40, 0.37, 312.15
339.60, 0.40, 312.08
339.81, 0.42, 312.01
340.05, 0.45, 311.92
340.28, 0.48, 311.84
340.50, 0.53, 311.76
340.73, 0.57, 311.68
340.98, 0.62, 311.59
341.31, 0.67, 311.47
341.78, 0.69, 311.30
342.26, 0.73, 311.14
342.81, 0.78, 310.94
343.41, 0.83, 310.73
343.99, 0.90, 310.52
344.65, 0.98, 310.29
347.51, 0.90, 309.30
349.78, 0.94, 308.51
350.60, 1.13, 308.21
352.42, 1.30, 307.57
354.44, 1.52, 306.85
357.06, 1.79, 305.92
339.18, 0.35, 312.15
339.37, 0.37, 312.08
339.56, 0.39, 312.01
339.77, 0.42, 311.93
340.01, 0.45, 311.85
340.23, 0.48, 311.76
340.45, 0.53, 311.68
340.68, 0.57, 311.59
340.92, 0.62, 311.50
341.24, 0.67, 311.39
341.70, 0.69, 311.21
342.19, 0.73, 311.03
342.73, 0.77, 310.84
343.34, 0.82, 310.61
343.91, 0.90, 310.40
344.56, 0.98, 310.16
¯347.32, 0.90, 309.16
349.62, 0.93, 308.32
350.43, 1.12, 308.01
352.33, 1.28, 307.31
354.25, 1.50, 306.60
356.90, 1.77, 305.62
339.15, 0.35, 312.09
339.33, 0.37, 312.02
339.52, 0.39, 311.94
339.73, 0.42, 311.86
339.96, 0.45, 311.77
340.19, 0.48, 311.68
340.40, 0.52, 311.60
340.63, 0.57, 311.51
340.87, 0.62, 311.42
341.17, 0.67, 311.30
341.62, 0.69, 311.12
342.13, 0.73, 310.93
342.64, 0.77, 310.73
343.27, 0.82, 310.49
343.84, 0.89, 310.27
344.48, 0.97, 310.02
347.12, 0.90, 309.02
349.43, 0.93, 308.15
350.27, 1.11, 307.82
352.24, 1.27, 307.06
354.02, 1.49, 306.37
356.74, 1.75, 305.32
339.11, 0.34, 312.02
339.29, 0.37, 311.95
339.48, 0.39, 311.87
339.69, 0.42, 311.79
339.92, 0.45, 311.70
340.14, 0.48, 311.61
340.36, 0.52, 311.52
340.58, 0.57, 311.43
340.82, 0.62, 311.33
341.10, 0.67, 311.21
341.54, 0.69, 311.04
342.06, 0.72, 310.83
342.55, 0.77, 310.63
343.18, 0.82, 310.38
343.76, 0.89, 310.15
344.39, 0.97, 309.89
346.93, 0.90, 308.89
349.22, 0.92, 307.98
350.10, 1.10, 307.63
352.15, 1.25, 306.80
353.79, 1.47, 306.14
356.59, 1.73, 305.02
339.07, 0.34, 311.96
¯339.25, 0.37, 311.88
339.44, 0.39, 311.80
339.65, 0.42, 311.72
339.87, 0.44, 311.62
340.10, 0.48, 311.53
340.31, 0.52, 311.44
340.53, 0.57, 311.34
340.77, 0.62, 311.24
341.04, 0.66, 311.13
341.46, 0.70, 310.95
341.97, 0.72, 310.74
342.47, 0.77, 310.53
343.09, 0.81, 310.28
343.68, 0.88, 310.03
344.31, 0.96, 309.76
346.73, 0.90, 308.77
349.02, 0.92, 307.82
349.94, 1.09, 307.43
351.99, 1.24, 306.58
353.56, 1.46, 305.92
356.43, 1.71, 304.72
357.15, 2.05, 304.40
339.04, 0.34, 311.89
339.21, 0.37, 311.82
339.40, 0.39, 311.74
339.60, 0.42, 311.65
339.82, 0.44, 311.55
340.05, 0.47, 311.45
340.26, 0.52, 311.36
340.48, 0.56, 311.26
340.72, 0.61, 311.16
340.98, 0.66, 311.04
341.38, 0.70, 310.87
341.88, 0.72, 310.65
342.38, 0.77, 310.43
342.99, 0.81, 310.17
343.60, 0.87, 309.91
344.75, 0.90, 309.41
346.53, 0.90, 308.65
348.82, 0.91, 307.66
349.77, 1.08, 307.25
351.69, 1.23, 306.41
353.23, 1.45, 305.74
356.05, 1.70, 304.51
356.76, 2.03, 304.19
339.00, 0.34, 311.83
339.17, 0.36, 311.75
339.36, 0.39, 311.67
339.56, 0.41, 311.58
339.77, 0.44, 311.48
340.01, 0.47, 311.37
¯340.21, 0.51, 311.28
340.43, 0.56, 311.18
340.66, 0.61, 311.07
340.92, 0.66, 310.96
341.30, 0.70, 310.78
341.79, 0.73, 310.56
342.29, 0.77, 310.34
342.89, 0.81, 310.07
343.52, 0.87, 309.79
344.59, 0.90, 309.30
346.34, 0.90, 308.53
348.62, 0.91, 307.51
349.61, 1.07, 307.06
351.41, 1.22, 306.25
352.89, 1.44, 305.58
355.66, 1.68, 304.32
356.34, 2.01, 304.00
356.76, 2.36, 303.79
338.96, 0.34, 311.77
339.13, 0.36, 311.69
339.32, 0.39, 311.60
339.51, 0.41, 311.51
339.73, 0.44, 311.41
339.96, 0.47, 311.30
340.16, 0.51, 311.20
340.38, 0.56, 311.10
340.61, 0.61, 310.99
340.85, 0.66, 310.87
341.22, 0.70, 310.70
341.70, 0.73, 310.48
342.21, 0.77, 310.24
342.79, 0.81, 309.97
343.43, 0.86, 309.67
344.44, 0.90, 309.20
346.14, 0.90, 308.41
348.43, 0.90, 307.36
349.39, 1.06, 306.90
351.14, 1.21, 306.08
352.55, 1.43, 305.42
355.32, 1.67, 304.12
355.94, 1.99, 303.81
356.44, 2.33, 303.56
356.68, 2.68, 303.42
338.92, 0.34, 311.71
339.09, 0.36, 311.62
339.27, 0.39, 311.53
339.47, 0.41, 311.44
339.68, 0.44, 311.34
339.91, 0.47, 311.22
340.11, 0.51, 311.12
340.32, 0.55, 311.02
¯340.55, 0.60, 310.91
340.80, 0.66, 310.79
341.14, 0.70, 310.62
341.61, 0.73, 310.39
342.12, 0.76, 310.15
342.70, 0.81, 309.87
343.84, 0.80, 309.32
344.29, 0.90, 309.10
345.95, 0.90, 308.30
348.23, 0.90, 307.21
349.17, 1.06, 306.75
350.87, 1.21, 305.92
352.22, 1.42, 305.26
355.02, 1.65, 303.91
355.55, 1.97, 303.63
356.13, 2.31, 303.33
356.37, 2.66, 303.19
356.61, 3.01, 303.05
338.88, 0.34, 311.65
339.05, 0.36, 311.56
339.23, 0.38, 311.47
339.42, 0.41, 311.37
339.63, 0.44, 311.27
339.86, 0.46, 311.15
340.06, 0.51, 311.05
340.27, 0.55, 310.94
340.50, 0.60, 310.82
340.74, 0.65, 310.70
341.05, 0.70, 310.54
341.52, 0.73, 310.31
342.04, 0.76, 310.05
342.60, 0.80, 309.77
343.71, 0.80, 309.22
344.14, 0.90, 308.99
345.75, 0.90, 308.20
347.98, 0.90, 307.09
348.99, 1.05, 306.58
350.55, 1.20, 305.79
351.90, 1.41, 305.11
354.72, 1.63, 303.69
355.22, 1.95, 303.42
355.82, 2.29, 303.10
356.06, 2.63, 302.96
356.29, 2.98, 302.82
338.84, 0.33, 311.59
339.01, 0.36, 311.50
339.18, 0.38, 311.40
339.38, 0.41, 311.30
339.58, 0.43, 311.20
339.81, 0.46, 311.08
340.01, 0.50, 310.97
¯340.22, 0.55, 310.86
340.44, 0.60, 310.74
340.68, 0.65, 310.62
340.97, 0.70, 310.46
341.43, 0.73, 310.23
341.95, 0.76, 309.96
342.50, 0.80, 309.67
343.54, 0.80, 309.14
344.02, 0.89, 308.88
345.56, 0.90, 308.09
347.73, 0.90, 306.98
348.87, 1.03, 306.38
350.23, 1.20, 305.67
351.60, 1.40, 304.95
354.42, 1.62, 303.49
354.92, 1.93, 303.21
355.43, 2.26, 302.92
355.75, 2.61, 302.73
355.97, 2.96, 302.60
356.20, 3.31, 302.45
338.80, 0.33, 311.52
338.96, 0.36, 311.43
339.14, 0.38, 311.34
339.33, 0.41, 311.24
339.53, 0.43, 311.13
339.76, 0.46, 311.01
339.96, 0.50, 310.90
340.16, 0.55, 310.78
340.39, 0.59, 310.66
340.62, 0.64, 310.53
340.89, 0.70, 310.39
341.34, 0.73, 310.15
341.85, 0.76, 309.87
342.87, 0.73, 309.33
343.38, 0.80, 309.06
343.89, 0.89, 308.78
345.36, 0.90, 307.99
347.47, 0.90, 306.87
348.75, 1.02, 306.18
349.92, 1.19, 305.55
351.30, 1.39, 304.80
354.13, 1.60, 303.28
354.62, 1.91, 303.00
355.11, 2.24, 302.71
355.44, 2.58, 302.52
355.66, 2.93, 302.37
355.88, 3.28, 302.23
338.75, 0.33, 311.47
338.92, 0.35, 311.37
339.09, 0.38, 311.28
339.28, 0.40, 311.17
¯339.48, 0.43, 311.06
339.70, 0.46, 310.94
339.91, 0.50, 310.82
340.11, 0.54, 310.70
340.33, 0.59, 310.58
340.56, 0.64, 310.45
340.82, 0.69, 310.30
341.24, 0.73, 310.07
341.74, 0.76, 309.79
342.72, 0.73, 309.26
343.21, 0.81, 308.98
343.76, 0.89, 308.67
345.17, 0.90, 307.90
347.22, 0.90, 306.77
348.63, 1.01, 305.99
349.61, 1.18, 305.44
351.02, 1.38, 304.64
353.38, 1.59, 303.34
354.32, 1.89, 302.79
354.72, 2.22, 302.55
355.10, 2.56, 302.32
355.33, 2.90, 302.16
355.57, 3.25, 302.01
355.79, 3.61, 301.86
338.71, 0.33, 311.41
338.87, 0.35, 311.31
339.05, 0.38, 311.21
339.23, 0.40, 311.10
339.43, 0.43, 310.99
339.65, 0.46, 310.87
339.85, 0.49, 310.75
340.06, 0.54, 310.63
340.27, 0.59, 310.50
340.50, 0.64, 310.37
340.75, 0.69, 310.22
341.15, 0.73, 309.99
341.64, 0.76, 309.71
342.58, 0.74, 309.18
343.06, 0.81, 308.90
343.59, 0.89, 308.59
344.98, 0.90, 307.80
346.97, 0.90, 306.67
348.51, 0.99, 305.79
349.46, 1.17, 305.24
350.76, 1.36, 304.48
353.16, 1.57, 303.10
353.97, 1.87, 302.62
354.34, 2.20, 302.39
354.72, 2.53, 302.15
354.99, 2.87, 301.97
355.23, 3.22, 301.81
¯355.47, 3.58, 301.65
338.67, 0.33, 311.35
338.83, 0.35, 311.25
339.00, 0.37, 311.15
339.18, 0.40, 311.04
339.38, 0.43, 310.92
339.59, 0.45, 310.80
339.80, 0.49, 310.67
340.00, 0.53, 310.55
340.21, 0.58, 310.42
340.44, 0.63, 310.28
340.69, 0.69, 310.14
341.06, 0.73, 309.92
342.01, 0.68, 309.36
342.43, 0.74, 309.11
342.90, 0.81, 308.83
343.40, 0.89, 308.53
344.79, 0.90, 307.72
346.72, 0.90, 306.58
348.38, 0.98, 305.60
349.31, 1.16, 305.04
350.50, 1.35, 304.33
352.95, 1.56, 302.88
353.61, 1.86, 302.47
353.96, 2.17, 302.23
354.33, 2.50, 301.99
354.66, 2.84, 301.78
354.89, 3.19, 301.62
355.13, 3.55, 301.45
338.63, 0.33, 311.29
338.78, 0.35, 311.19
338.95, 0.37, 311.09
339.13, 0.40, 310.98
339.33, 0.42, 310.86
339.54, 0.45, 310.73
339.75, 0.49, 310.60
339.94, 0.53, 310.48
340.16, 0.58, 310.34
340.38, 0.63, 310.20
340.62, 0.68, 310.05
340.97, 0.73, 309.84
341.88, 0.68, 309.29
342.29, 0.74, 309.04
342.74, 0.81, 308.76
343.21, 0.90, 308.47
344.60, 0.90, 307.63
346.47, 0.90, 306.49
348.26, 0.96, 305.41
349.16, 1.14, 304.85
350.25, 1.34, 304.17
352.65, 1.54, 302.70
¯353.29, 1.84, 302.29
353.60, 2.15, 302.08
353.96, 2.48, 301.84
354.33, 2.82, 301.59
354.55, 3.16, 301.43
354.78, 3.51, 301.26
338.58, 0.32, 311.23
338.74, 0.35, 311.13
338.91, 0.37, 311.03
339.08, 0.39, 310.91
339.28, 0.42, 310.79
339.48, 0.45, 310.66
339.69, 0.48, 310.53
339.89, 0.53, 310.40
340.10, 0.57, 310.27
340.32, 0.62, 310.12
340.56, 0.68, 309.97
340.87, 0.72, 309.77
341.73, 0.69, 309.23
342.15, 0.75, 308.97
342.59, 0.82, 308.69
343.03, 0.90, 308.41
344.41, 0.90, 307.55
346.23, 0.90, 306.41
348.13, 0.95, 305.22
349.00, 1.13, 304.66
350.00, 1.33, 304.02
352.22, 1.53, 302.62
352.99, 1.82, 302.11
353.28, 2.13, 301.91
353.59, 2.45, 301.69
353.95, 2.79, 301.44
354.22, 3.13, 301.24
354.45, 3.48, 301.07
338.54, 0.32, 311.18
338.69, 0.34, 311.07
338.86, 0.37, 310.97
339.03, 0.39, 310.85
339.22, 0.42, 310.73
339.42, 0.45, 310.59
339.64, 0.48, 310.45
339.83, 0.52, 310.33
340.04, 0.57, 310.19
340.26, 0.62, 310.04
340.49, 0.67, 309.89
341.14, 0.65, 309.47
341.57, 0.69, 309.19
342.01, 0.75, 308.91
342.44, 0.82, 308.62
342.85, 0.91, 308.35
344.22, 0.90, 307.47
¯345.99, 0.90, 306.33
348.00, 0.94, 305.03
348.78, 1.12, 304.51
349.74, 1.32, 303.87
351.79, 1.52, 302.54
352.68, 1.80, 301.94
352.98, 2.11, 301.73
353.27, 2.43, 301.52
353.58, 2.76, 301.29
353.90, 3.10, 301.06
354.12, 3.45, 300.89
338.49, 0.32, 311.12
338.64, 0.34, 311.02
338.81, 0.36, 310.91
338.98, 0.39, 310.79
339.17, 0.41, 310.66
339.37, 0.44, 310.53
339.58, 0.47, 310.38
339.77, 0.52, 310.25
339.98, 0.56, 310.11
340.20, 0.61, 309.96
340.43, 0.67, 309.80
341.00, 0.66, 309.43
341.42, 0.70, 309.15
341.87, 0.75, 308.84
342.28, 0.82, 308.56
342.67, 0.91, 308.30
343.09, 1.00, 308.01
345.75, 0.90, 306.25
347.86, 0.92, 304.85
348.56, 1.11, 304.36
349.48, 1.31, 303.73
351.38, 1.51, 302.46
352.23, 1.78, 301.87
352.68, 2.09, 301.55
352.96, 2.40, 301.34
353.25, 2.73, 301.12
353.56, 3.07, 300.88
353.83, 3.42, 300.68
338.45, 0.32, 311.06
338.60, 0.34, 310.96
338.76, 0.36, 310.85
338.93, 0.39, 310.73
339.11, 0.41, 310.60
339.31, 0.44, 310.46
339.53, 0.47, 310.31
339.71, 0.51, 310.18
339.92, 0.56, 310.04
340.13, 0.61, 309.89
340.59, 0.61, 309.57
340.86, 0.67, 309.38
¯341.26, 0.71, 309.10
341.72, 0.76, 308.79
342.12, 0.83, 308.51
342.49, 0.91, 308.24
342.91, 1.01, 307.95
345.51, 0.90, 306.18
347.71, 0.91, 304.67
348.35, 1.10, 304.22
349.22, 1.29, 303.61
350.90, 1.50, 302.44
351.80, 1.77, 301.80
352.39, 2.07, 301.37
352.66, 2.38, 301.16
352.95, 2.71, 300.94
353.26, 3.04, 300.70
353.62, 3.39, 300.42
338.40, 0.31, 311.01
338.55, 0.34, 310.90
338.71, 0.36, 310.79
338.88, 0.38, 310.67
339.06, 0.41, 310.54
339.25, 0.44, 310.40
339.47, 0.47, 310.24
339.66, 0.51, 310.11
339.86, 0.55, 309.96
340.28, 0.55, 309.66
340.48, 0.62, 309.52
340.72, 0.68, 309.34
341.11, 0.72, 309.06
341.55, 0.76, 308.75
341.96, 0.83, 308.46
342.32, 0.91, 308.19
342.72, 1.01, 307.90
345.27, 0.90, 306.11
347.51, 0.90, 304.53
348.13, 1.09, 304.08
348.95, 1.28, 303.48
350.39, 1.49, 302.45
351.38, 1.75, 301.73
352.10, 2.05, 301.20
352.37, 2.36, 300.99
352.65, 2.68, 300.76
352.98, 3.02, 300.50
353.36, 3.37, 300.20
338.35, 0.31, 310.96
338.50, 0.33, 310.85
338.66, 0.36, 310.73
338.82, 0.38, 310.61
339.00, 0.41, 310.47
339.20, 0.43, 310.33
339.40, 0.46, 310.18
¯339.60, 0.50, 310.03
339.99, 0.50, 309.75
340.17, 0.56, 309.61
340.37, 0.62, 309.46
340.58, 0.69, 309.30
340.96, 0.73, 309.03
341.38, 0.77, 308.71
341.80, 0.83, 308.41
342.15, 0.92, 308.14
342.54, 1.01, 307.85
345.04, 0.90, 306.05
347.23, 0.90, 304.45
347.92, 1.08, 303.94
348.69, 1.27, 303.36
349.90, 1.48, 302.46
350.97, 1.73, 301.66
351.81, 2.03, 301.03
352.07, 2.33, 300.81
352.38, 2.66, 300.56
352.71, 2.99, 300.29
353.08, 3.34, 300.00
338.30, 0.31, 310.90
338.45, 0.33, 310.79
338.61, 0.35, 310.67
338.77, 0.38, 310.55
338.95, 0.40, 310.41
339.14, 0.43, 310.27
339.34, 0.46, 310.11
339.54, 0.50, 309.96
339.89, 0.50, 309.70
340.07, 0.56, 309.56
340.26, 0.62, 309.41
340.46, 0.69, 309.25
340.81, 0.73, 308.99
341.22, 0.78, 308.68
341.53, 0.85, 308.44
341.99, 0.92, 308.09
342.36, 1.01, 307.81
344.81, 0.90, 305.98
346.92, 0.90, 304.40
347.71, 1.06, 303.80
348.43, 1.26, 303.25
349.49, 1.47, 302.43
350.58, 1.72, 301.60
351.38, 2.01, 300.97
351.81, 2.31, 300.62
352.12, 2.63, 300.36
352.44, 2.96, 300.09
352.80, 3.31, 299.80
338.26, 0.31, 310.85
338.40, 0.33, 310.74
¯338.55, 0.35, 310.62
338.72, 0.37, 310.49
338.89, 0.40, 310.35
339.08, 0.43, 310.20
339.28, 0.46, 310.05
339.65, 0.44, 309.76
339.80, 0.50, 309.64
339.97, 0.56, 309.51
340.15, 0.63, 309.36
340.35, 0.69, 309.20
340.67, 0.74, 308.95
341.06, 0.79, 308.65
341.35, 0.86, 308.42
341.82, 0.92, 308.05
342.19, 1.01, 307.76
342.59, 1.11, 307.44
346.62, 0.90, 304.35
347.50, 1.05, 303.66
348.17, 1.25, 303.13
349.18, 1.46, 302.33
350.12, 1.71, 301.59
350.96, 1.99, 300.92
351.55, 2.29, 300.43
351.86, 2.61, 300.17
352.18, 2.94, 299.90
352.52, 3.28, 299.60
338.21, 0.30, 310.80
338.35, 0.32, 310.68
338.50, 0.35, 310.56
338.66, 0.37, 310.43
338.83, 0.40, 310.29
339.02, 0.42, 310.14
339.43, 0.39, 309.82
339.57, 0.44, 309.71
339.71, 0.50, 309.58
339.87, 0.57, 309.46
340.05, 0.63, 309.31
340.24, 0.69, 309.15
340.52, 0.75, 308.92
340.91, 0.79, 308.61
341.16, 0.87, 308.40
341.47, 0.95, 308.15
342.02, 1.01, 307.71
342.40, 1.11, 307.40
346.32, 0.90, 304.31
347.30, 1.04, 303.52
347.92, 1.24, 303.01
348.85, 1.45, 302.26
349.63, 1.69, 301.62
350.55, 1.97, 300.86
351.18, 2.27, 300.34
¯351.60, 2.59, 299.97
351.91, 2.91, 299.70
352.24, 3.25, 299.41
338.15, 0.30, 310.75
338.30, 0.32, 310.63
338.45, 0.34, 310.50
338.61, 0.37, 310.37
338.78, 0.39, 310.23
339.22, 0.33, 309.88
339.35, 0.39, 309.77
339.48, 0.44, 309.65
339.63, 0.50, 309.53
339.78, 0.57, 309.40
339.94, 0.63, 309.26
340.13, 0.70, 309.10
340.38, 0.75, 308.89
340.75, 0.80, 308.59
340.98, 0.88, 308.39
341.24, 0.97, 308.17
341.85, 1.02, 307.67
342.22, 1.11, 307.36
346.03, 0.90, 304.27
347.10, 1.03, 303.39
347.70, 1.23, 302.88
348.52, 1.44, 302.18
349.30, 1.68, 301.53
350.16, 1.95, 300.81
350.76, 2.24, 300.29
351.24, 2.56, 299.87
351.65, 2.89, 299.50
351.97, 3.23, 299.22
338.10, 0.30, 310.70
338.25, 0.32, 310.58
338.39, 0.34, 310.45
338.55, 0.36, 310.32
338.98, 0.30, 309.97
339.14, 0.33, 309.82
339.27, 0.39, 309.71
339.40, 0.44, 309.60
339.54, 0.50, 309.47
339.69, 0.57, 309.34
339.84, 0.63, 309.21
340.02, 0.70, 309.05
340.24, 0.76, 308.86
340.58, 0.81, 308.57
340.81, 0.89, 308.37
341.05, 0.97, 308.16
341.51, 1.04, 307.77
342.04, 1.11, 307.32
345.75, 0.90, 304.23
346.90, 1.02, 303.25
¯347.48, 1.21, 302.74
348.21, 1.43, 302.11
348.99, 1.66, 301.44
349.76, 1.93, 300.76
350.34, 2.22, 300.25
350.87, 2.53, 299.78
351.31, 2.86, 299.38
351.70, 3.20, 299.02
338.04, 0.30, 310.66
338.20, 0.31, 310.52
338.34, 0.34, 310.40
338.50, 0.36, 310.26
338.90, 0.30, 309.92
339.06, 0.34, 309.77
339.19, 0.39, 309.66
339.32, 0.45, 309.54
339.45, 0.50, 309.42
339.60, 0.57, 309.29
339.75, 0.63, 309.15
339.91, 0.70, 309.00
340.11, 0.77, 308.83
340.42, 0.82, 308.55
340.64, 0.90, 308.36
340.87, 0.98, 308.15
341.12, 1.07, 307.92
341.87, 1.11, 307.28
345.46, 0.90, 304.19
346.70, 1.01, 303.12
347.37, 1.19, 302.52
347.90, 1.41, 302.04
348.68, 1.65, 301.35
349.40, 1.91, 300.69
349.92, 2.20, 300.22
350.51, 2.51, 299.69
350.93, 2.83, 299.29
351.37, 3.17, 298.88
337.99, 0.30, 310.61
338.14, 0.31, 310.47
338.29, 0.33, 310.34
338.66, 0.27, 310.01
338.82, 0.30, 309.88
338.98, 0.34, 309.73
339.11, 0.39, 309.61
339.23, 0.45, 309.49
339.37, 0.50, 309.37
339.51, 0.57, 309.23
339.66, 0.63, 309.10
339.81, 0.70, 308.95
339.99, 0.77, 308.79
340.27, 0.82, 308.54
340.48, 0.90, 308.34
¯340.70, 0.99, 308.14
340.94, 1.08, 307.92
341.54, 1.13, 307.38
345.18, 0.90, 304.16
346.50, 0.99, 302.99
347.24, 1.18, 302.30
347.62, 1.40, 301.95
348.37, 1.63, 301.26
349.06, 1.89, 300.62
349.54, 2.18, 300.17
350.09, 2.48, 299.65
350.56, 2.80, 299.21
351.06, 3.14, 298.73
337.93, 0.30, 310.57
338.09, 0.31, 310.42
338.45, 0.24, 310.10
338.59, 0.27, 309.97
338.74, 0.30, 309.83
338.89, 0.34, 309.68
339.03, 0.39, 309.56
339.15, 0.44, 309.44
339.28, 0.50, 309.31
339.42, 0.57, 309.18
339.56, 0.63, 309.04
339.72, 0.70, 308.90
339.88, 0.77, 308.74
340.11, 0.83, 308.52
340.31, 0.91, 308.33
340.53, 0.99, 308.13
340.76, 1.08, 307.91
341.14, 1.16, 307.55
341.88, 1.21, 306.87
346.30, 0.98, 302.86
347.09, 1.16, 302.11
347.47, 1.38, 301.75
348.07, 1.62, 301.17
348.72, 1.87, 300.56
349.24, 2.15, 300.06
349.68, 2.45, 299.63
350.19, 2.77, 299.12
350.85, 3.12, 298.49
337.87, 0.30, 310.52
338.25, 0.21, 310.18
338.37, 0.24, 310.06
338.51, 0.27, 309.93
338.66, 0.31, 309.79
338.81, 0.34, 309.64
338.95, 0.39, 309.51
339.07, 0.44, 309.39
339.20, 0.50, 309.26
339.33, 0.56, 309.13
¯339.47, 0.63, 308.99
339.62, 0.70, 308.84
339.78, 0.77, 308.69
339.96, 0.84, 308.51
340.16, 0.92, 308.32
340.36, 1.00, 308.12
340.58, 1.08, 307.90
340.82, 1.18, 307.67
341.57, 1.23, 306.96
346.10, 0.97, 302.72
346.94, 1.14, 301.92
347.31, 1.37, 301.55
347.75, 1.60, 301.11
348.39, 1.86, 300.49
348.94, 2.13, 299.95
349.35, 2.43, 299.53
349.84, 2.74, 299.04
350.65, 3.10, 298.25
337.82, 0.30, 310.48
338.18, 0.21, 310.14
338.30, 0.24, 310.02
338.44, 0.28, 309.89
338.58, 0.31, 309.75
338.73, 0.34, 309.60
338.87, 0.39, 309.46
338.99, 0.44, 309.34
339.11, 0.50, 309.21
339.24, 0.56, 309.08
339.38, 0.63, 308.94
339.53, 0.69, 308.79
339.68, 0.77, 308.63
339.82, 0.84, 308.49
340.00, 0.92, 308.31
340.20, 1.00, 308.11
340.41, 1.09, 307.89
340.64, 1.18, 307.67
341.15, 1.25, 307.16
345.99, 0.95, 302.51
346.79, 1.12, 301.73
347.16, 1.35, 301.35
347.55, 1.59, 300.95
348.06, 1.84, 300.43
348.64, 2.11, 299.84
349.05, 2.40, 299.42
349.47, 2.71, 298.98
350.44, 3.08, 298.00
337.99, 0.19, 310.22
338.11, 0.22, 310.10
338.23, 0.25, 309.98
338.36, 0.28, 309.84
338.50, 0.31, 309.70
