žVERSION 0.7
FIELDS x y z
SIZE 8 8 8
TYPE F F F
COUNT 1 1 1
WIDTH 2271
HEIGHT 1
VIEWPOINT 327.44, 6.95, 329.39 1 335.14, 2.20, 310.87
POINTS 2271
DATA ascii
341.67, 0.47, 315.04
342.39, 0.42, 315.12
342.76, 0.47, 315.16
343.16, 0.52, 315.20
343.60, 0.58, 315.25
344.05, 0.64, 315.30
344.51, 0.72, 315.35
345.05, 0.79, 315.42
345.67, 0.88, 315.48
345.91, 1.02, 315.51
346.50, 1.13, 315.58
347.33, 1.25, 315.67
348.39, 1.37, 315.79
349.48, 1.52, 315.91
350.91, 1.69, 316.07
352.84, 1.90, 316.28
355.94, 2.15, 316.63
¯340.04, 0.32, 314.77
340.26, 0.34, 314.80
340.50, 0.37, 314.82
340.76, 0.39, 314.85
341.05, 0.41, 314.87
341.36, 0.44, 314.90
341.66, 0.48, 314.93
341.99, 0.51, 314.97
342.43, 0.54, 315.01
343.17, 0.52, 315.08
343.61, 0.58, 315.12
344.06, 0.64, 315.17
344.53, 0.72, 315.21
344.77, 0.83, 315.24
345.16, 0.94, 315.27
345.81, 1.03, 315.34
346.56, 1.13, 315.41
347.42, 1.24, 315.49
348.48, 1.37, 315.60
349.57, 1.52, 315.70
351.02, 1.69, 315.84
353.00, 1.90, 316.04
356.17, 2.15, 316.35
340.03, 0.32, 314.69
340.26, 0.35, 314.71
340.49, 0.37, 314.73
340.76, 0.39, 314.75
341.04, 0.42, 314.78
341.35, 0.44, 314.80
341.65, 0.48, 314.83
341.98, 0.52, 314.86
342.34, 0.56, 314.89
342.73, 0.61, 314.92
343.15, 0.66, 314.95
343.60, 0.72, 314.99
344.08, 0.78, 315.03
344.58, 0.86, 315.07
345.16, 0.94, 315.12
345.84, 1.03, 315.18
346.62, 1.12, 315.24
347.51, 1.24, 315.32
348.57, 1.36, 315.40
349.66, 1.52, 315.50
351.13, 1.69, 315.62
353.15, 1.89, 315.79
356.40, 2.15, 316.06
340.03, 0.33, 314.61
340.25, 0.35, 314.63
340.49, 0.37, 314.64
340.75, 0.40, 314.66
341.04, 0.42, 314.68
¯341.34, 0.45, 314.70
341.63, 0.49, 314.72
341.96, 0.53, 314.75
342.33, 0.56, 314.77
342.72, 0.61, 314.80
343.15, 0.66, 314.83
343.59, 0.72, 314.86
344.08, 0.78, 314.89
344.57, 0.86, 314.93
345.17, 0.94, 314.97
345.86, 1.03, 315.02
346.67, 1.12, 315.07
347.59, 1.23, 315.14
348.67, 1.36, 315.21
349.76, 1.51, 315.28
351.24, 1.69, 315.39
353.31, 1.89, 315.53
356.64, 2.16, 315.76
340.03, 0.33, 314.53
340.25, 0.35, 314.54
340.48, 0.38, 314.56
340.75, 0.40, 314.57
341.03, 0.42, 314.59
341.33, 0.45, 314.60
341.62, 0.49, 314.62
341.94, 0.53, 314.64
342.32, 0.57, 314.66
342.70, 0.61, 314.68
343.14, 0.66, 314.70
343.58, 0.72, 314.73
344.07, 0.79, 314.75
344.57, 0.86, 314.78
345.17, 0.94, 314.81
345.89, 1.02, 314.85
346.73, 1.12, 314.90
347.68, 1.23, 314.95
348.76, 1.35, 315.01
349.85, 1.51, 315.07
351.35, 1.68, 315.15
353.47, 1.89, 315.27
340.02, 0.33, 314.45
340.24, 0.35, 314.46
340.48, 0.38, 314.47
340.74, 0.40, 314.48
341.02, 0.43, 314.49
341.31, 0.46, 314.50
341.60, 0.50, 314.52
341.92, 0.54, 314.53
342.31, 0.57, 314.54
342.69, 0.62, 314.56
343.13, 0.67, 314.58
¯343.57, 0.72, 314.60
344.06, 0.79, 314.62
344.56, 0.87, 314.64
345.17, 0.94, 314.66
345.92, 1.02, 314.69
346.78, 1.11, 314.73
347.76, 1.22, 314.77
348.85, 1.35, 314.81
349.94, 1.51, 314.86
351.45, 1.68, 314.92
353.62, 1.89, 315.01
340.02, 0.34, 314.37
340.24, 0.36, 314.38
340.47, 0.38, 314.38
340.73, 0.41, 314.39
341.01, 0.43, 314.40
341.29, 0.46, 314.40
341.58, 0.50, 314.41
341.90, 0.54, 314.42
342.29, 0.58, 314.43
342.67, 0.62, 314.44
343.11, 0.67, 314.45
343.56, 0.73, 314.47
344.05, 0.79, 314.48
344.55, 0.87, 314.49
345.18, 0.94, 314.51
345.94, 1.02, 314.53
346.84, 1.11, 314.55
347.84, 1.22, 314.58
348.94, 1.34, 314.61
350.03, 1.50, 314.64
351.56, 1.68, 314.68
353.78, 1.89, 314.74
340.01, 0.34, 314.29
340.23, 0.36, 314.29
340.46, 0.39, 314.30
340.72, 0.41, 314.30
341.00, 0.43, 314.30
341.28, 0.47, 314.31
341.56, 0.51, 314.31
341.88, 0.55, 314.31
342.27, 0.58, 314.32
342.65, 0.63, 314.32
343.10, 0.67, 314.33
343.55, 0.73, 314.34
344.04, 0.79, 314.34
344.53, 0.87, 314.35
345.18, 0.94, 314.36
345.96, 1.02, 314.37
346.89, 1.11, 314.38
347.92, 1.21, 314.39
¯349.03, 1.34, 314.41
350.13, 1.50, 314.42
351.67, 1.68, 314.44
353.94, 1.88, 314.47
340.00, 0.34, 314.21
340.22, 0.36, 314.21
340.45, 0.39, 314.21
340.71, 0.41, 314.21
340.99, 0.44, 314.21
341.26, 0.47, 314.21
341.54, 0.51, 314.21
341.86, 0.55, 314.21
342.26, 0.58, 314.21
342.64, 0.63, 314.21
343.08, 0.68, 314.21
343.53, 0.73, 314.21
344.03, 0.79, 314.21
344.52, 0.87, 314.21
345.18, 0.94, 314.20
345.99, 1.02, 314.20
346.93, 1.10, 314.20
347.99, 1.20, 314.20
349.12, 1.33, 314.20
350.22, 1.49, 314.20
351.77, 1.67, 314.20
354.09, 1.88, 314.20
339.99, 0.34, 314.13
340.21, 0.37, 314.13
340.44, 0.39, 314.12
340.70, 0.41, 314.12
340.98, 0.44, 314.12
341.24, 0.48, 314.11
341.52, 0.52, 314.11
341.84, 0.55, 314.10
342.24, 0.59, 314.10
342.62, 0.63, 314.09
343.06, 0.68, 314.08
343.52, 0.73, 314.08
344.01, 0.80, 314.07
344.51, 0.87, 314.06
345.17, 0.94, 314.05
346.01, 1.01, 314.04
346.96, 1.10, 314.03
348.07, 1.20, 314.01
349.21, 1.33, 313.99
350.31, 1.49, 313.97
351.87, 1.67, 313.95
354.25, 1.88, 313.92
339.98, 0.35, 314.05
340.20, 0.37, 314.04
340.43, 0.39, 314.04
¯340.69, 0.42, 314.03
340.97, 0.44, 314.02
341.22, 0.48, 314.01
341.50, 0.52, 314.01
341.81, 0.56, 314.00
342.22, 0.59, 313.99
342.59, 0.64, 313.97
343.03, 0.68, 313.96
343.50, 0.74, 313.95
343.99, 0.80, 313.93
344.49, 0.87, 313.92
345.17, 0.94, 313.90
346.02, 1.01, 313.88
346.99, 1.10, 313.85
348.14, 1.19, 313.81
349.29, 1.32, 313.78
350.40, 1.48, 313.75
351.97, 1.66, 313.70
355.95, 1.85, 313.59
339.97, 0.35, 313.97
340.19, 0.37, 313.96
340.42, 0.40, 313.95
340.67, 0.42, 313.94
340.95, 0.44, 313.93
341.20, 0.48, 313.92
341.48, 0.52, 313.91
341.79, 0.56, 313.89
342.19, 0.59, 313.88
342.57, 0.64, 313.86
343.01, 0.68, 313.84
343.48, 0.74, 313.82
343.97, 0.80, 313.80
344.48, 0.87, 313.78
345.17, 0.94, 313.75
346.02, 1.01, 313.71
347.01, 1.09, 313.67
348.22, 1.19, 313.62
349.38, 1.32, 313.57
350.49, 1.48, 313.52
352.06, 1.66, 313.45
356.15, 1.85, 313.27
339.96, 0.35, 313.89
340.17, 0.37, 313.88
340.40, 0.40, 313.87
340.66, 0.42, 313.85
340.94, 0.45, 313.84
341.18, 0.49, 313.82
341.45, 0.53, 313.81
341.76, 0.57, 313.79
342.16, 0.60, 313.77
342.55, 0.64, 313.74
¯342.99, 0.69, 313.72
343.46, 0.74, 313.69
343.95, 0.80, 313.66
344.46, 0.88, 313.64
345.16, 0.94, 313.60
345.99, 1.01, 313.55
347.03, 1.09, 313.49
348.29, 1.18, 313.42
349.47, 1.31, 313.35
350.58, 1.47, 313.29
352.16, 1.66, 313.20
356.35, 1.84, 312.96
339.95, 0.35, 313.81
340.16, 0.38, 313.80
340.39, 0.40, 313.78
340.64, 0.42, 313.76
340.92, 0.45, 313.74
341.16, 0.49, 313.73
341.43, 0.53, 313.71
341.74, 0.57, 313.69
342.14, 0.60, 313.66
342.53, 0.64, 313.63
342.96, 0.69, 313.60
343.44, 0.74, 313.56
343.93, 0.80, 313.53
344.44, 0.88, 313.49
345.15, 0.94, 313.44
345.97, 1.01, 313.38
347.04, 1.09, 313.31
348.35, 1.17, 313.22
349.55, 1.30, 313.13
350.68, 1.47, 313.05
352.25, 1.65, 312.94
356.56, 1.84, 312.63
339.93, 0.35, 313.74
340.14, 0.38, 313.72
340.37, 0.40, 313.70
340.63, 0.43, 313.68
340.90, 0.45, 313.65
341.13, 0.49, 313.63
341.40, 0.54, 313.61
341.71, 0.58, 313.58
342.11, 0.61, 313.55
342.50, 0.65, 313.52
342.93, 0.69, 313.48
343.42, 0.74, 313.44
343.91, 0.80, 313.40
344.42, 0.88, 313.35
345.15, 0.94, 313.29
345.94, 1.01, 313.22
347.05, 1.08, 313.13
¯348.42, 1.17, 313.01
349.64, 1.30, 312.91
350.77, 1.46, 312.81
352.35, 1.65, 312.68
356.74, 1.83, 312.30
339.92, 0.36, 313.66
340.13, 0.38, 313.64
340.36, 0.40, 313.61
340.61, 0.43, 313.59
340.88, 0.46, 313.56
341.11, 0.50, 313.54
341.37, 0.54, 313.51
341.68, 0.58, 313.48
342.08, 0.61, 313.44
342.47, 0.65, 313.40
342.90, 0.70, 313.36
343.40, 0.74, 313.31
343.88, 0.81, 313.26
344.40, 0.88, 313.21
345.11, 0.94, 313.14
345.90, 1.02, 313.06
347.06, 1.08, 312.95
348.49, 1.16, 312.81
349.73, 1.29, 312.68
350.86, 1.46, 312.57
353.62, 1.61, 312.30
356.90, 1.83, 311.97
339.90, 0.36, 313.58
340.11, 0.38, 313.56
340.34, 0.41, 313.53
340.59, 0.43, 313.50
340.85, 0.46, 313.47
341.08, 0.50, 313.44
341.35, 0.54, 313.41
341.65, 0.58, 313.38
342.04, 0.61, 313.34
342.45, 0.65, 313.29
342.87, 0.70, 313.24
343.37, 0.74, 313.18
343.85, 0.81, 313.13
344.38, 0.88, 313.07
345.08, 0.94, 312.99
345.87, 1.02, 312.90
347.07, 1.08, 312.77
348.55, 1.15, 312.60
349.81, 1.28, 312.45
350.95, 1.45, 312.32
353.75, 1.60, 312.01
357.07, 1.82, 311.63
339.89, 0.36, 313.50
340.09, 0.38, 313.47
¯340.32, 0.41, 313.45
340.57, 0.43, 313.41
340.83, 0.46, 313.38
341.06, 0.50, 313.35
341.32, 0.55, 313.32
341.62, 0.59, 313.28
342.01, 0.62, 313.23
342.42, 0.65, 313.18
342.84, 0.70, 313.12
343.35, 0.74, 313.06
343.83, 0.81, 313.00
344.36, 0.88, 312.93
345.04, 0.94, 312.84
345.83, 1.02, 312.74
347.07, 1.07, 312.58
348.61, 1.14, 312.39
349.90, 1.27, 312.22
351.04, 1.44, 312.08
353.88, 1.59, 311.71
357.23, 1.82, 311.29
339.87, 0.36, 313.42
340.08, 0.39, 313.39
340.30, 0.41, 313.36
340.55, 0.43, 313.33
340.81, 0.46, 313.29
341.03, 0.51, 313.26
341.29, 0.55, 313.22
341.59, 0.59, 313.18
341.98, 0.62, 313.12
342.39, 0.65, 313.07
342.80, 0.70, 313.01
343.32, 0.74, 312.93
343.80, 0.81, 312.87
344.33, 0.88, 312.79
344.99, 0.94, 312.70
345.79, 1.02, 312.58
347.06, 1.07, 312.40
348.67, 1.14, 312.18
349.98, 1.26, 311.99
351.74, 1.41, 311.74
354.01, 1.59, 311.42
357.40, 1.81, 310.94
339.85, 0.36, 313.35
340.06, 0.39, 313.31
340.28, 0.41, 313.28
340.53, 0.44, 313.24
340.78, 0.47, 313.20
341.01, 0.51, 313.17
341.26, 0.55, 313.13
341.56, 0.59, 313.08
341.94, 0.62, 313.02
¯342.36, 0.66, 312.95
342.77, 0.70, 312.89
343.29, 0.75, 312.81
343.77, 0.81, 312.73
344.31, 0.88, 312.65
344.95, 0.95, 312.55
345.74, 1.02, 312.43
347.05, 1.07, 312.22
348.72, 1.13, 311.96
350.06, 1.26, 311.75
351.80, 1.40, 311.48
354.13, 1.58, 311.12
357.55, 1.81, 310.58
339.83, 0.37, 313.27
340.04, 0.39, 313.24
340.26, 0.41, 313.20
340.51, 0.44, 313.16
340.75, 0.47, 313.11
340.98, 0.51, 313.07
341.23, 0.55, 313.03
341.52, 0.59, 312.98
341.90, 0.63, 312.92
342.33, 0.66, 312.84
342.73, 0.71, 312.77
343.26, 0.75, 312.68
343.73, 0.81, 312.60
344.28, 0.87, 312.51
344.90, 0.95, 312.40
345.71, 1.02, 312.27
347.04, 1.07, 312.04
348.78, 1.12, 311.74
350.15, 1.25, 311.51
351.86, 1.40, 311.22
354.22, 1.57, 310.82
357.47, 1.80, 310.26
339.81, 0.37, 313.19
340.02, 0.39, 313.16
340.24, 0.41, 313.12
340.48, 0.44, 313.07
340.73, 0.47, 313.02
340.95, 0.51, 312.98
341.19, 0.56, 312.94
341.49, 0.60, 312.88
341.86, 0.63, 312.81
342.30, 0.66, 312.73
342.70, 0.71, 312.66
343.23, 0.75, 312.56
343.70, 0.81, 312.47
344.25, 0.87, 312.37
344.85, 0.95, 312.26
345.69, 1.02, 312.10
¯347.03, 1.06, 311.86
348.83, 1.11, 311.53
350.84, 1.20, 311.16
351.92, 1.39, 310.95
354.31, 1.57, 310.51
357.38, 1.80, 309.94
339.79, 0.37, 313.12
339.99, 0.39, 313.08
340.21, 0.42, 313.03
340.46, 0.44, 312.98
340.70, 0.47, 312.94
340.92, 0.51, 312.89
341.16, 0.56, 312.84
341.45, 0.60, 312.79
341.82, 0.63, 312.71
342.26, 0.66, 312.62
342.66, 0.71, 312.55
343.20, 0.75, 312.44
343.67, 0.81, 312.34
344.21, 0.87, 312.23
344.81, 0.95, 312.12
345.67, 1.01, 311.94
347.01, 1.06, 311.68
348.88, 1.10, 311.30
350.86, 1.20, 310.91
352.00, 1.38, 310.68
354.37, 1.56, 310.21
357.32, 1.80, 309.62
339.77, 0.37, 313.04
339.97, 0.39, 313.00
340.19, 0.42, 312.95
340.43, 0.44, 312.90
340.67, 0.47, 312.85
340.89, 0.52, 312.80
341.13, 0.56, 312.75
341.42, 0.60, 312.69
341.78, 0.63, 312.61
342.23, 0.66, 312.51
342.62, 0.71, 312.43
343.16, 0.75, 312.31
343.63, 0.81, 312.21
344.18, 0.87, 312.10
344.75, 0.95, 311.97
345.65, 1.01, 311.78
346.98, 1.06, 311.50
348.93, 1.10, 311.08
350.88, 1.19, 310.66
352.06, 1.37, 310.41
354.43, 1.55, 309.90
357.25, 1.79, 309.30
339.75, 0.37, 312.97
¯339.95, 0.39, 312.92
340.17, 0.42, 312.87
340.41, 0.44, 312.82
340.64, 0.48, 312.76
340.86, 0.52, 312.71
341.10, 0.56, 312.66
341.38, 0.60, 312.59
341.74, 0.64, 312.51
342.19, 0.66, 312.41
342.57, 0.71, 312.32
343.12, 0.75, 312.20
343.60, 0.81, 312.09
344.14, 0.87, 311.96
344.70, 0.95, 311.83
345.63, 1.01, 311.62
346.96, 1.05, 311.32
348.97, 1.09, 310.86
350.88, 1.18, 310.42
352.10, 1.37, 310.14
354.49, 1.55, 309.60
357.17, 1.79, 308.98
339.72, 0.37, 312.89
339.92, 0.40, 312.84
340.14, 0.42, 312.79
340.38, 0.44, 312.73
340.61, 0.48, 312.68
340.83, 0.52, 312.62
341.06, 0.56, 312.56
341.34, 0.61, 312.50
341.70, 0.64, 312.41
342.16, 0.66, 312.30
342.53, 0.71, 312.21
343.07, 0.75, 312.08
343.56, 0.81, 311.96
344.10, 0.87, 311.83
344.65, 0.95, 311.69
345.61, 1.00, 311.46
346.94, 1.05, 311.13
350.06, 1.00, 310.38
350.86, 1.18, 310.18
352.14, 1.36, 309.87
354.57, 1.54, 309.28
357.10, 1.79, 308.66
339.70, 0.37, 312.82
339.90, 0.40, 312.77
340.11, 0.42, 312.71
340.35, 0.44, 312.65
340.58, 0.48, 312.59
340.80, 0.52, 312.53
341.03, 0.57, 312.47
341.30, 0.61, 312.40
¯341.65, 0.64, 312.31
342.11, 0.67, 312.19
342.49, 0.71, 312.09
343.02, 0.75, 311.96
343.52, 0.81, 311.83
344.06, 0.87, 311.69
344.61, 0.95, 311.55
345.58, 1.00, 311.30
346.94, 1.04, 310.95
350.04, 0.99, 310.15
350.84, 1.17, 309.94
352.17, 1.35, 309.60
354.66, 1.53, 308.95
356.95, 1.79, 308.36
339.67, 0.37, 312.74
339.87, 0.40, 312.69
340.09, 0.42, 312.63
340.32, 0.45, 312.57
340.55, 0.48, 312.50
340.77, 0.52, 312.44
341.00, 0.57, 312.38
341.27, 0.61, 312.31
341.61, 0.64, 312.21
342.06, 0.67, 312.09
342.45, 0.72, 311.98
342.97, 0.75, 311.84
343.48, 0.81, 311.70
344.01, 0.87, 311.56
344.57, 0.95, 311.40
345.54, 1.00, 311.14
346.93, 1.04, 310.76
350.01, 0.99, 309.92
350.83, 1.17, 309.69
352.20, 1.34, 309.32
354.75, 1.52, 308.62
356.79, 1.78, 308.06
339.65, 0.37, 312.67
339.84, 0.40, 312.61
340.06, 0.42, 312.55
340.29, 0.45, 312.48
340.52, 0.48, 312.42
340.73, 0.52, 312.36
340.96, 0.57, 312.29
341.23, 0.61, 312.21
341.56, 0.65, 312.12
342.01, 0.67, 311.99
342.41, 0.72, 311.87
342.92, 0.75, 311.72
343.44, 0.81, 311.57
343.97, 0.87, 311.42
344.54, 0.95, 311.26
¯345.48, 1.00, 310.99
346.92, 1.03, 310.57
349.99, 0.98, 309.69
350.84, 1.16, 309.44
352.23, 1.34, 309.04
354.78, 1.52, 308.30
356.64, 1.78, 307.77
339.62, 0.37, 312.60
339.82, 0.40, 312.54
340.03, 0.42, 312.47
340.26, 0.45, 312.40
340.48, 0.48, 312.33
340.70, 0.52, 312.27
340.92, 0.57, 312.20
341.18, 0.61, 312.12
341.51, 0.65, 312.02
341.96, 0.67, 311.88
342.37, 0.72, 311.76
342.87, 0.76, 311.61
343.40, 0.80, 311.45
343.92, 0.87, 311.29
344.50, 0.94, 311.11
345.41, 1.00, 310.84
346.83, 1.03, 310.41
349.96, 0.98, 309.46
350.85, 1.15, 309.19
352.26, 1.33, 308.76
354.80, 1.51, 307.99
356.57, 1.78, 307.45
339.59, 0.37, 312.52
339.79, 0.40, 312.46
340.00, 0.42, 312.39
340.23, 0.45, 312.32
340.45, 0.48, 312.25
340.66, 0.52, 312.18
340.89, 0.57, 312.11
341.14, 0.61, 312.03
341.46, 0.65, 311.92
341.91, 0.68, 311.78
342.33, 0.72, 311.65
342.82, 0.76, 311.49
343.36, 0.80, 311.32
343.88, 0.87, 311.15
344.46, 0.94, 310.97
345.33, 1.00, 310.69
346.74, 1.03, 310.24
349.94, 0.97, 309.23
350.86, 1.14, 308.93
352.28, 1.32, 308.48
354.70, 1.50, 307.70
356.50, 1.77, 307.13
¯339.57, 0.37, 312.45
339.76, 0.40, 312.39
339.97, 0.42, 312.32
340.20, 0.45, 312.24
340.42, 0.48, 312.17
340.63, 0.52, 312.09
340.85, 0.57, 312.02
341.10, 0.62, 311.94
341.41, 0.65, 311.83
341.85, 0.68, 311.68
342.28, 0.72, 311.54
342.76, 0.76, 311.38
343.32, 0.80, 311.19
343.83, 0.87, 311.02
344.41, 0.94, 310.83
345.26, 1.00, 310.54
348.13, 0.90, 309.59
349.91, 0.96, 308.99
350.86, 1.14, 308.67
352.31, 1.31, 308.19
354.58, 1.50, 307.43
356.42, 1.77, 306.81
339.54, 0.37, 312.38
339.73, 0.40, 312.31
339.93, 0.42, 312.24
340.16, 0.45, 312.16
340.38, 0.48, 312.08
340.59, 0.53, 312.01
340.81, 0.57, 311.93
341.06, 0.62, 311.84
341.36, 0.66, 311.74
341.80, 0.68, 311.58
342.23, 0.72, 311.43
342.71, 0.76, 311.27
343.27, 0.80, 311.07
343.78, 0.87, 310.89
344.36, 0.94, 310.69
345.18, 1.00, 310.40
348.03, 0.90, 309.41
349.89, 0.96, 308.76
350.77, 1.13, 308.44
352.33, 1.30, 307.90
354.45, 1.50, 307.16
356.76, 1.75, 306.35
339.51, 0.37, 312.31
339.70, 0.40, 312.24
339.90, 0.42, 312.16
340.13, 0.45, 312.08
340.34, 0.48, 312.00
340.55, 0.53, 311.92
340.77, 0.57, 311.84
¯341.01, 0.62, 311.75
341.31, 0.66, 311.64
341.74, 0.68, 311.49
342.19, 0.71, 311.32
342.65, 0.76, 311.15
343.22, 0.80, 310.94
343.73, 0.86, 310.76
344.31, 0.94, 310.55
345.11, 1.00, 310.25
347.93, 0.90, 309.23
349.85, 0.95, 308.53
350.64, 1.13, 308.23
352.35, 1.29, 307.61
354.32, 1.49, 306.88
356.88, 1.74, 305.95
339.48, 0.37, 312.23
339.67, 0.40, 312.16
339.87, 0.42, 312.08
340.09, 0.45, 312.00
340.31, 0.48, 311.92
340.51, 0.53, 311.84
340.73, 0.57, 311.75
340.97, 0.62, 311.66
341.26, 0.66, 311.55
341.68, 0.68, 311.39
342.14, 0.71, 311.21
342.59, 0.76, 311.04
343.16, 0.80, 310.83
343.68, 0.86, 310.63
344.25, 0.93, 310.41
345.03, 1.00, 310.11
347.82, 0.90, 309.05
349.73, 0.95, 308.32
350.51, 1.13, 308.02
352.35, 1.28, 307.32
354.19, 1.49, 306.62
356.77, 1.74, 305.63
339.44, 0.37, 312.16
339.63, 0.40, 312.09
339.83, 0.42, 312.01
340.06, 0.45, 311.92
340.27, 0.48, 311.83
340.48, 0.52, 311.75
340.69, 0.57, 311.66
340.93, 0.62, 311.57
341.21, 0.66, 311.46
341.62, 0.69, 311.29
342.09, 0.71, 311.11
342.53, 0.76, 310.93
343.09, 0.80, 310.71
343.63, 0.86, 310.50
¯344.20, 0.93, 310.27
344.95, 1.00, 309.97
347.72, 0.90, 308.87
349.60, 0.95, 308.12
350.38, 1.13, 307.81
352.34, 1.27, 307.03
354.01, 1.49, 306.37
356.66, 1.73, 305.31
339.41, 0.37, 312.09
339.60, 0.40, 312.02
339.80, 0.42, 311.93
340.02, 0.45, 311.84
340.23, 0.48, 311.75
340.44, 0.52, 311.67
340.65, 0.57, 311.58
340.88, 0.62, 311.48
341.16, 0.66, 311.37
341.56, 0.69, 311.20
342.03, 0.71, 311.01
342.47, 0.76, 310.82
343.03, 0.80, 310.59
343.57, 0.86, 310.37
344.14, 0.93, 310.13
344.86, 1.00, 309.83
347.60, 0.90, 308.70
349.44, 0.95, 307.94
350.25, 1.13, 307.60
352.33, 1.27, 306.74
353.83, 1.49, 306.12
356.55, 1.73, 304.99
339.38, 0.37, 312.02
339.56, 0.40, 311.94
339.76, 0.42, 311.86
339.98, 0.45, 311.76
340.19, 0.48, 311.67
340.40, 0.52, 311.58
340.61, 0.57, 311.49
340.84, 0.62, 311.39
341.11, 0.66, 311.27
341.50, 0.69, 311.10
341.96, 0.72, 310.91
342.41, 0.76, 310.71
342.96, 0.80, 310.48
343.52, 0.86, 310.24
344.08, 0.93, 309.99
345.69, 0.90, 309.31
347.49, 0.90, 308.53
349.28, 0.95, 307.76
350.12, 1.13, 307.40
352.18, 1.26, 306.51
353.65, 1.48, 305.87
¯356.42, 1.72, 304.68
357.12, 2.05, 304.37
339.35, 0.37, 311.95
339.53, 0.40, 311.87
339.73, 0.42, 311.78
339.94, 0.45, 311.68
340.16, 0.48, 311.59
340.36, 0.52, 311.50
340.57, 0.57, 311.40
340.80, 0.62, 311.30
341.06, 0.66, 311.18
341.44, 0.69, 311.01
341.90, 0.72, 310.81
342.35, 0.76, 310.61
342.89, 0.80, 310.36
343.46, 0.85, 310.11
344.02, 0.92, 309.86
345.59, 0.90, 309.16
347.37, 0.90, 308.36
349.12, 0.96, 307.58
349.99, 1.13, 307.19
351.94, 1.27, 306.32
353.45, 1.48, 305.64
356.06, 1.72, 304.47
356.76, 2.05, 304.16
339.31, 0.37, 311.88
339.49, 0.40, 311.80
339.69, 0.42, 311.71
339.90, 0.45, 311.61
340.12, 0.48, 311.51
340.31, 0.52, 311.42
340.53, 0.57, 311.32
340.75, 0.61, 311.21
341.01, 0.66, 311.09
341.38, 0.69, 310.92
341.83, 0.72, 310.71
342.28, 0.76, 310.50
342.82, 0.80, 310.25
343.40, 0.85, 309.98
343.96, 0.92, 309.72
345.49, 0.90, 309.01
347.26, 0.90, 308.20
348.95, 0.96, 307.41
349.85, 1.12, 306.99
351.71, 1.27, 306.13
353.19, 1.48, 305.44
355.70, 1.72, 304.27
356.38, 2.04, 303.95
356.76, 2.39, 303.77
339.28, 0.37, 311.81
339.46, 0.40, 311.73
¯339.65, 0.42, 311.63
339.86, 0.45, 311.53
340.07, 0.48, 311.43
340.27, 0.52, 311.33
340.48, 0.57, 311.23
340.71, 0.61, 311.12
340.95, 0.66, 311.00
341.31, 0.69, 310.83
341.76, 0.72, 310.61
342.22, 0.76, 310.40
342.75, 0.80, 310.14
343.34, 0.85, 309.85
344.32, 0.86, 309.38
345.39, 0.90, 308.87
347.13, 0.90, 308.03
348.79, 0.96, 307.24
349.72, 1.12, 306.79
351.48, 1.27, 305.94
352.92, 1.48, 305.24
355.37, 1.72, 304.06
356.01, 2.04, 303.75
356.46, 2.38, 303.53
356.71, 2.73, 303.40
339.24, 0.37, 311.75
339.42, 0.40, 311.66
339.61, 0.42, 311.56
339.82, 0.45, 311.46
340.03, 0.48, 311.35
340.23, 0.52, 311.25
340.44, 0.56, 311.15
340.66, 0.61, 311.03
340.90, 0.66, 310.91
341.25, 0.70, 310.74
341.69, 0.72, 310.52
342.15, 0.76, 310.29
342.68, 0.80, 310.03
343.28, 0.84, 309.73
344.21, 0.86, 309.26
345.29, 0.90, 308.73
347.01, 0.90, 307.87
348.63, 0.96, 307.06
349.59, 1.12, 306.58
351.26, 1.27, 305.75
352.66, 1.48, 305.05
355.09, 1.71, 303.84
355.65, 2.03, 303.55
356.16, 2.37, 303.29
356.40, 2.72, 303.16
339.20, 0.37, 311.68
339.38, 0.39, 311.58
339.57, 0.42, 311.49
¯339.78, 0.45, 311.38
339.99, 0.48, 311.27
340.19, 0.52, 311.17
340.39, 0.56, 311.06
340.61, 0.61, 310.95
340.85, 0.66, 310.82
341.18, 0.70, 310.65
341.62, 0.72, 310.43
342.09, 0.76, 310.18
342.61, 0.80, 309.92
343.20, 0.84, 309.61
344.11, 0.87, 309.14
345.18, 0.90, 308.59
346.88, 0.90, 307.72
348.47, 0.96, 306.90
349.49, 1.11, 306.37
351.04, 1.27, 305.56
352.40, 1.48, 304.86
354.82, 1.71, 303.61
355.33, 2.03, 303.34
355.87, 2.36, 303.06
356.10, 2.71, 302.93
356.35, 3.06, 302.79
339.17, 0.37, 311.61
339.34, 0.39, 311.51
339.53, 0.42, 311.41
339.73, 0.45, 311.30
339.95, 0.48, 311.19
340.14, 0.52, 311.09
340.35, 0.56, 310.98
340.56, 0.61, 310.86
340.80, 0.66, 310.73
341.12, 0.70, 310.56
341.55, 0.73, 310.33
342.03, 0.76, 310.07
342.53, 0.80, 309.81
343.55, 0.78, 309.27
344.00, 0.87, 309.02
345.07, 0.90, 308.45
346.75, 0.90, 307.56
348.31, 0.96, 306.73
349.39, 1.11, 306.15
350.83, 1.27, 305.38
352.16, 1.48, 304.67
354.54, 1.71, 303.39
355.04, 2.02, 303.12
355.58, 2.36, 302.83
355.81, 2.70, 302.70
356.04, 3.05, 302.56
339.13, 0.37, 311.54
339.30, 0.39, 311.45
¯339.49, 0.42, 311.34
339.69, 0.44, 311.23
339.90, 0.47, 311.11
340.10, 0.52, 311.01
340.30, 0.56, 310.89
340.52, 0.61, 310.77
340.75, 0.66, 310.64
341.05, 0.70, 310.48
341.47, 0.73, 310.24
341.95, 0.76, 309.98
342.46, 0.80, 309.70
343.41, 0.79, 309.17
343.89, 0.87, 308.91
344.96, 0.90, 308.32
346.62, 0.90, 307.41
348.19, 0.96, 306.54
349.28, 1.10, 305.93
350.61, 1.27, 305.20
352.07, 1.47, 304.39
354.27, 1.70, 303.17
354.76, 2.02, 302.90
355.23, 2.35, 302.63
355.51, 2.69, 302.47
355.74, 3.04, 302.34
355.97, 3.40, 302.20
339.09, 0.37, 311.48
339.26, 0.39, 311.38
339.45, 0.42, 311.27
339.65, 0.44, 311.16
339.86, 0.47, 311.03
340.05, 0.51, 310.93
340.25, 0.56, 310.81
340.47, 0.61, 310.69
340.70, 0.66, 310.55
340.98, 0.70, 310.39
341.40, 0.73, 310.15
341.87, 0.76, 309.88
342.81, 0.72, 309.35
343.28, 0.79, 309.08
343.78, 0.87, 308.79
344.85, 0.90, 308.19
346.48, 0.90, 307.26
348.12, 0.95, 306.33
349.18, 1.10, 305.72
350.40, 1.27, 305.02
351.97, 1.46, 304.12
354.01, 1.70, 302.96
354.47, 2.01, 302.69
354.85, 2.34, 302.46
355.18, 2.68, 302.26
355.43, 3.03, 302.11
¯355.66, 3.38, 301.97
339.05, 0.37, 311.41
339.22, 0.39, 311.31
339.41, 0.42, 311.20
339.60, 0.44, 311.08
339.81, 0.47, 310.96
340.00, 0.51, 310.84
340.20, 0.56, 310.73
340.42, 0.60, 310.60
340.64, 0.65, 310.46
340.91, 0.70, 310.31
341.33, 0.73, 310.06
341.79, 0.76, 309.79
342.69, 0.73, 309.26
343.14, 0.80, 308.99
343.65, 0.88, 308.69
344.73, 0.90, 308.06
346.34, 0.90, 307.11
348.04, 0.94, 306.11
349.07, 1.09, 305.50
350.18, 1.27, 304.85
351.88, 1.45, 303.85
353.74, 1.69, 302.74
354.11, 2.01, 302.52
354.49, 2.33, 302.29
354.86, 2.67, 302.06
355.10, 3.01, 301.91
355.35, 3.37, 301.76
355.59, 3.73, 301.61
339.01, 0.36, 311.34
339.18, 0.39, 311.24
339.36, 0.41, 311.13
339.56, 0.44, 311.01
339.77, 0.47, 310.88
339.96, 0.51, 310.76
340.15, 0.55, 310.64
340.37, 0.60, 310.51
340.59, 0.65, 310.38
340.84, 0.70, 310.22
341.25, 0.73, 309.97
341.71, 0.76, 309.69
342.56, 0.74, 309.18
343.01, 0.81, 308.91
343.50, 0.88, 308.60
344.62, 0.90, 307.93
346.20, 0.90, 306.97
347.97, 0.93, 305.90
348.96, 1.08, 305.29
349.97, 1.27, 304.67
351.78, 1.45, 303.57
353.42, 1.69, 302.57
¯353.76, 2.00, 302.36
354.13, 2.32, 302.12
354.51, 2.66, 301.88
354.78, 3.00, 301.71
355.02, 3.35, 301.56
355.27, 3.71, 301.40
338.97, 0.36, 311.28
339.14, 0.39, 311.17
339.32, 0.41, 311.06
339.51, 0.44, 310.94
339.72, 0.47, 310.80
339.91, 0.51, 310.69
340.10, 0.55, 310.56
340.31, 0.60, 310.43
340.54, 0.65, 310.29
340.78, 0.70, 310.13
341.17, 0.73, 309.89
342.04, 0.68, 309.34
342.44, 0.74, 309.10
342.88, 0.81, 308.82
343.34, 0.89, 308.53
344.50, 0.90, 307.80
346.06, 0.90, 306.83
347.89, 0.92, 305.68
348.85, 1.08, 305.08
349.78, 1.26, 304.49
351.68, 1.44, 303.30
353.11, 1.69, 302.40
353.43, 2.00, 302.18
353.78, 2.31, 301.96
354.15, 2.65, 301.72
354.45, 2.99, 301.52
354.69, 3.33, 301.36
354.94, 3.69, 301.20
338.92, 0.36, 311.21
339.09, 0.39, 311.10
339.27, 0.41, 310.99
339.46, 0.44, 310.86
339.67, 0.46, 310.73
339.86, 0.51, 310.61
340.05, 0.55, 310.48
340.26, 0.60, 310.34
340.48, 0.65, 310.20
340.72, 0.70, 310.04
341.10, 0.73, 309.80
341.93, 0.69, 309.27
342.32, 0.75, 309.01
342.74, 0.82, 308.74
343.18, 0.90, 308.45
344.38, 0.90, 307.68
345.92, 0.90, 306.69
¯347.81, 0.91, 305.46
348.74, 1.07, 304.86
349.59, 1.26, 304.31
351.57, 1.43, 303.02
352.71, 1.69, 302.29
353.14, 1.99, 301.99
353.44, 2.31, 301.79
353.79, 2.63, 301.56
354.14, 2.97, 301.33
354.37, 3.32, 301.17
354.61, 3.67, 301.00
338.88, 0.36, 311.15
339.05, 0.38, 311.04
339.23, 0.41, 310.92
339.42, 0.44, 310.79
339.62, 0.46, 310.65
339.81, 0.50, 310.53
340.00, 0.55, 310.40
340.21, 0.59, 310.26
340.43, 0.64, 310.11
340.67, 0.70, 309.95
341.02, 0.73, 309.72
341.81, 0.69, 309.19
342.19, 0.76, 308.94
342.61, 0.82, 308.66
343.02, 0.91, 308.38
344.25, 0.90, 307.56
345.77, 0.90, 306.55
347.73, 0.91, 305.25
348.61, 1.06, 304.66
349.38, 1.26, 304.14
351.33, 1.43, 302.84
352.31, 1.69, 302.18
352.86, 1.98, 301.81
353.15, 2.30, 301.60
353.45, 2.62, 301.39
353.81, 2.96, 301.15
354.05, 3.30, 300.97
354.29, 3.65, 300.81
338.84, 0.36, 311.09
339.00, 0.38, 310.97
339.18, 0.41, 310.85
339.37, 0.43, 310.72
339.57, 0.46, 310.58
339.76, 0.50, 310.45
339.95, 0.54, 310.32
340.16, 0.59, 310.18
340.37, 0.64, 310.02
340.61, 0.69, 309.86
341.27, 0.66, 309.41
341.68, 0.70, 309.13
¯342.07, 0.76, 308.86
342.48, 0.83, 308.58
342.86, 0.92, 308.31
344.13, 0.90, 307.44
345.62, 0.90, 306.42
347.63, 0.90, 305.04
348.43, 1.06, 304.49
349.17, 1.26, 303.98
351.00, 1.43, 302.72
351.93, 1.68, 302.08
352.58, 1.98, 301.62
352.86, 2.29, 301.42
353.16, 2.61, 301.20
353.46, 2.95, 300.98
353.74, 3.29, 300.79
354.06, 3.64, 300.55
338.79, 0.36, 311.02
338.96, 0.38, 310.91
339.13, 0.40, 310.78
339.32, 0.43, 310.65
339.52, 0.46, 310.51
339.71, 0.50, 310.37
339.90, 0.54, 310.24
340.10, 0.59, 310.09
340.32, 0.64, 309.94
340.55, 0.69, 309.77
341.14, 0.67, 309.35
341.54, 0.71, 309.07
341.95, 0.77, 308.78
342.33, 0.84, 308.51
342.70, 0.92, 308.25
343.10, 1.02, 307.96
345.47, 0.90, 306.29
347.45, 0.90, 304.89
348.24, 1.06, 304.33
348.97, 1.25, 303.81
350.56, 1.43, 302.68
351.55, 1.68, 301.97
352.30, 1.97, 301.44
352.58, 2.28, 301.23
352.87, 2.60, 301.02
353.17, 2.93, 300.80
353.53, 3.28, 300.53
353.85, 3.63, 300.29
338.75, 0.35, 310.96
338.91, 0.38, 310.84
339.08, 0.40, 310.71
339.27, 0.43, 310.58
339.46, 0.46, 310.44
339.66, 0.49, 310.29
339.85, 0.54, 310.16
¯340.05, 0.58, 310.01
340.26, 0.63, 309.85
340.70, 0.64, 309.53
341.02, 0.68, 309.30
341.40, 0.72, 309.02
341.83, 0.77, 308.71
342.18, 0.85, 308.45
342.54, 0.93, 308.18
342.94, 1.02, 307.89
345.32, 0.90, 306.17
347.26, 0.90, 304.75
348.06, 1.06, 304.17
348.76, 1.25, 303.65
350.14, 1.44, 302.64
351.18, 1.68, 301.88
352.01, 1.96, 301.27
352.30, 2.27, 301.05
352.58, 2.59, 300.83
352.91, 2.92, 300.58
353.27, 3.27, 300.31
353.65, 3.63, 300.02
338.70, 0.35, 310.90
338.86, 0.38, 310.78
339.04, 0.40, 310.65
339.22, 0.43, 310.51
339.41, 0.46, 310.36
339.60, 0.49, 310.22
339.79, 0.53, 310.08
339.99, 0.58, 309.93
340.40, 0.58, 309.62
340.60, 0.64, 309.47
340.89, 0.69, 309.25
341.27, 0.73, 308.96
341.69, 0.78, 308.65
342.04, 0.85, 308.38
342.39, 0.94, 308.12
342.77, 1.03, 307.83
345.16, 0.90, 306.04
347.07, 0.90, 304.61
347.88, 1.06, 304.01
348.55, 1.25, 303.49
349.73, 1.44, 302.61
350.82, 1.68, 301.78
351.62, 1.96, 301.18
352.02, 2.27, 300.87
352.32, 2.58, 300.63
352.65, 2.91, 300.37
353.01, 3.25, 300.09
353.42, 3.61, 299.77
338.66, 0.35, 310.83
338.82, 0.37, 310.71
¯338.99, 0.40, 310.58
339.17, 0.42, 310.44
339.36, 0.45, 310.29
339.55, 0.49, 310.14
339.74, 0.53, 310.00
340.12, 0.52, 309.70
340.30, 0.59, 309.56
340.49, 0.65, 309.41
340.77, 0.70, 309.20
341.13, 0.74, 308.91
341.54, 0.79, 308.60
341.90, 0.86, 308.32
342.24, 0.94, 308.06
342.61, 1.04, 307.76
345.01, 0.90, 305.92
346.88, 0.90, 304.48
347.69, 1.05, 303.85
348.35, 1.25, 303.34
349.41, 1.44, 302.51
350.45, 1.68, 301.70
351.24, 1.95, 301.08
351.76, 2.26, 300.67
352.07, 2.57, 300.42
352.40, 2.90, 300.16
352.74, 3.24, 299.88
353.15, 3.60, 299.56
338.61, 0.35, 310.77
338.77, 0.37, 310.65
338.93, 0.40, 310.51
339.11, 0.42, 310.37
339.30, 0.45, 310.22
339.50, 0.48, 310.07
339.86, 0.47, 309.78
340.03, 0.53, 309.64
340.20, 0.59, 309.50
340.39, 0.65, 309.35
340.64, 0.71, 309.15
341.00, 0.75, 308.86
341.37, 0.80, 308.57
341.70, 0.88, 308.30
342.09, 0.95, 307.99
342.45, 1.04, 307.70
344.85, 0.90, 305.80
346.69, 0.90, 304.35
347.51, 1.05, 303.69
348.14, 1.24, 303.18
349.13, 1.44, 302.39
350.01, 1.68, 301.68
350.87, 1.95, 301.00
351.50, 2.25, 300.49
351.83, 2.56, 300.21
¯352.15, 2.89, 299.95
352.48, 3.23, 299.67
352.88, 3.59, 299.34
338.56, 0.35, 310.71
338.72, 0.37, 310.58
338.88, 0.39, 310.45
339.06, 0.42, 310.30
339.25, 0.45, 310.15
339.44, 0.48, 309.99
339.78, 0.48, 309.72
339.93, 0.54, 309.59
340.11, 0.60, 309.44
340.29, 0.66, 309.29
340.52, 0.72, 309.10
340.87, 0.76, 308.81
341.21, 0.82, 308.54
341.46, 0.90, 308.33
341.94, 0.96, 307.94
342.29, 1.05, 307.64
344.69, 0.90, 305.69
346.49, 0.90, 304.22
347.33, 1.05, 303.53
347.94, 1.24, 303.03
348.84, 1.44, 302.28
349.60, 1.68, 301.66
350.50, 1.94, 300.91
351.15, 2.24, 300.37
351.58, 2.55, 300.01
351.90, 2.88, 299.74
352.22, 3.22, 299.46
352.61, 3.57, 299.13
338.52, 0.34, 310.65
338.67, 0.37, 310.52
338.83, 0.39, 310.38
339.01, 0.42, 310.24
339.19, 0.44, 310.08
339.55, 0.42, 309.78
339.69, 0.48, 309.66
339.84, 0.54, 309.53
340.01, 0.60, 309.39
340.19, 0.66, 309.23
340.40, 0.73, 309.05
340.74, 0.77, 308.77
341.05, 0.83, 308.51
341.29, 0.91, 308.30
341.79, 0.96, 307.88
342.14, 1.05, 307.59
344.53, 0.90, 305.58
346.30, 0.90, 304.10
347.15, 1.04, 303.37
347.75, 1.24, 302.87
¯348.56, 1.44, 302.18
349.31, 1.68, 301.54
350.15, 1.94, 300.83
350.75, 2.23, 300.31
351.23, 2.54, 299.89
351.65, 2.87, 299.53
351.97, 3.21, 299.25
352.35, 3.56, 298.92
338.47, 0.34, 310.59
338.62, 0.36, 310.46
338.78, 0.39, 310.32
338.95, 0.41, 310.17
339.34, 0.37, 309.83
339.48, 0.42, 309.72
339.61, 0.48, 309.60
339.76, 0.54, 309.47
339.92, 0.61, 309.33
340.09, 0.67, 309.18
340.28, 0.74, 309.01
340.61, 0.78, 308.72
340.89, 0.84, 308.48
341.12, 0.92, 308.28
341.47, 1.00, 307.98
341.98, 1.06, 307.53
342.34, 1.16, 307.21
346.10, 0.90, 303.98
346.97, 1.04, 303.22
347.58, 1.23, 302.69
348.28, 1.44, 302.07
349.03, 1.67, 301.42
349.79, 1.93, 300.75
350.35, 2.22, 300.25
350.89, 2.53, 299.78
351.32, 2.86, 299.39
351.71, 3.20, 299.04
352.56, 3.59, 298.29
338.42, 0.34, 310.53
338.57, 0.36, 310.40
338.73, 0.38, 310.26
339.14, 0.32, 309.89
339.27, 0.37, 309.78
339.40, 0.43, 309.66
339.53, 0.49, 309.54
339.67, 0.55, 309.41
339.82, 0.61, 309.27
339.99, 0.67, 309.12
340.17, 0.74, 308.96
340.48, 0.79, 308.68
340.73, 0.85, 308.46
340.96, 0.94, 308.25
341.20, 1.02, 308.04
¯341.83, 1.06, 307.47
342.18, 1.16, 307.16
345.90, 0.90, 303.86
346.80, 1.03, 303.06
347.45, 1.22, 302.47
348.00, 1.44, 301.97
348.75, 1.67, 301.30
349.46, 1.93, 300.66
349.97, 2.21, 300.19
350.54, 2.52, 299.68
350.97, 2.84, 299.29
351.42, 3.18, 298.87
352.65, 3.60, 297.76
338.37, 0.34, 310.47
338.51, 0.36, 310.34
338.67, 0.38, 310.19
339.06, 0.32, 309.84
339.19, 0.37, 309.72
339.32, 0.43, 309.60
339.45, 0.49, 309.48
339.59, 0.55, 309.35
339.74, 0.61, 309.21
339.89, 0.68, 309.07
340.07, 0.75, 308.90
340.36, 0.79, 308.64
340.58, 0.87, 308.43
340.80, 0.95, 308.23
341.03, 1.03, 308.01
341.53, 1.09, 307.55
342.02, 1.16, 307.10
345.70, 0.90, 303.75
346.62, 1.03, 302.91
347.31, 1.21, 302.26
347.73, 1.44, 301.87
348.48, 1.67, 301.18
349.14, 1.92, 300.56
349.60, 2.21, 300.13
350.17, 2.51, 299.60
350.62, 2.83, 299.18
351.17, 3.17, 298.66
352.55, 3.60, 297.38
338.31, 0.33, 310.42
338.46, 0.35, 310.28
338.83, 0.29, 309.94
338.98, 0.33, 309.79
339.11, 0.38, 309.66
339.24, 0.43, 309.54
339.37, 0.49, 309.42
339.51, 0.55, 309.29
339.65, 0.61, 309.15
339.80, 0.68, 309.01
¯339.97, 0.75, 308.85
340.23, 0.80, 308.60
340.43, 0.88, 308.41
340.64, 0.96, 308.21
340.86, 1.04, 307.99
341.21, 1.12, 307.66
341.86, 1.17, 307.05
345.50, 0.90, 303.64
346.44, 1.02, 302.75
347.18, 1.20, 302.05
347.55, 1.43, 301.69
348.20, 1.66, 301.07
348.83, 1.92, 300.47
349.31, 2.20, 300.00
349.78, 2.50, 299.55
350.27, 2.81, 299.08
351.01, 3.17, 298.37
338.26, 0.33, 310.36
338.61, 0.26, 310.03
338.75, 0.30, 309.89
338.90, 0.33, 309.74
339.04, 0.38, 309.61
339.16, 0.43, 309.49
339.29, 0.49, 309.36
339.42, 0.55, 309.23
339.56, 0.62, 309.09
339.71, 0.68, 308.95
339.87, 0.75, 308.79
340.09, 0.81, 308.57
340.28, 0.89, 308.39
340.48, 0.97, 308.19
340.70, 1.05, 307.97
340.93, 1.14, 307.75
341.59, 1.19, 307.11
345.30, 0.90, 303.54
346.34, 1.01, 302.52
347.04, 1.19, 301.84
347.41, 1.42, 301.47
347.94, 1.66, 300.96
348.52, 1.91, 300.38
349.03, 2.19, 299.87
349.45, 2.49, 299.46
349.93, 2.80, 298.98
352.04, 3.23, 296.92
338.41, 0.24, 310.11
338.54, 0.27, 309.98
338.68, 0.30, 309.84
338.83, 0.33, 309.69
338.96, 0.38, 309.55
339.08, 0.43, 309.43
339.21, 0.49, 309.30
¯339.34, 0.55, 309.17
339.48, 0.62, 309.03
339.62, 0.68, 308.89
339.77, 0.75, 308.73
339.95, 0.82, 308.55
340.14, 0.90, 308.36
340.33, 0.98, 308.17
340.54, 1.06, 307.96
340.76, 1.15, 307.73
341.26, 1.21, 307.24
342.43, 1.21, 306.08
346.26, 1.00, 302.27
346.90, 1.18, 301.63
347.27, 1.41, 301.25
347.66, 1.65, 300.85
348.22, 1.91, 300.29
348.75, 2.18, 299.75
349.16, 2.47, 299.33
349.59, 2.79, 298.89
338.34, 0.24, 310.07
338.47, 0.27, 309.93
338.60, 0.30, 309.79
338.75, 0.34, 309.64
338.89, 0.38, 309.50
339.00, 0.44, 309.38
339.13, 0.49, 309.25
339.25, 0.55, 309.11
339.39, 0.62, 308.97
339.53, 0.68, 308.83
339.68, 0.75, 308.67
339.82, 0.83, 308.52
339.99, 0.91, 308.34
340.18, 0.99, 308.15
340.38, 1.07, 307.94
340.60, 1.16, 307.72
340.94, 1.24, 307.36
341.64, 1.29, 306.64
346.17, 0.98, 302.02
346.75, 1.17, 301.42
347.12, 1.40, 301.04
347.46, 1.64, 300.68
347.92, 1.90, 300.20
348.47, 2.17, 299.62
348.87, 2.46, 299.20
349.34, 2.78, 298.71
338.27, 0.24, 310.02
338.39, 0.27, 309.89
338.53, 0.31, 309.74
338.67, 0.34, 309.59
338.81, 0.38, 309.45
338.92, 0.44, 309.32
¯339.04, 0.49, 309.19
339.17, 0.56, 309.06
339.30, 0.62, 308.92
339.44, 0.69, 308.77
339.59, 0.76, 308.61
339.72, 0.84, 308.47
339.85, 0.92, 308.32
340.04, 1.00, 308.13
340.23, 1.08, 307.92
340.44, 1.17, 307.70
340.66, 1.26, 307.46
341.29, 1.32, 306.79
346.09, 0.97, 301.77
346.61, 1.16, 301.21
346.98, 1.39, 300.82
347.24, 1.64, 300.53
347.63, 1.89, 300.11
348.17, 2.16, 299.53
348.59, 2.45, 299.08
349.15, 2.77, 298.47
338.20, 0.24, 309.98
338.32, 0.28, 309.84
338.45, 0.31, 309.70
338.59, 0.34, 309.55
338.73, 0.38, 309.39
338.85, 0.44, 309.27
338.96, 0.50, 309.14
339.09, 0.56, 309.00
339.22, 0.62, 308.86
339.35, 0.69, 308.71
339.49, 0.76, 308.56
339.61, 0.84, 308.42
339.74, 0.92, 308.28
339.89, 1.00, 308.11
340.08, 1.09, 307.91
340.28, 1.18, 307.69
340.49, 1.27, 307.45
340.97, 1.34, 306.93
341.50, 1.42, 306.36
346.47, 1.15, 301.00
346.77, 1.38, 300.66
347.02, 1.63, 300.38
347.38, 1.89, 299.98
347.86, 2.16, 299.44
348.31, 2.44, 298.95
348.95, 2.76, 298.24
338.13, 0.25, 309.93
338.25, 0.28, 309.80
338.38, 0.31, 309.65
338.51, 0.35, 309.50
338.66, 0.38, 309.34
¯338.77, 0.44, 309.22
338.88, 0.50, 309.08
339.00, 0.56, 308.95
339.13, 0.62, 308.80
339.26, 0.69, 308.65
339.39, 0.76, 308.51
339.51, 0.84, 308.37
339.63, 0.92, 308.23
339.77, 1.01, 308.07
339.93, 1.10, 307.89
340.12, 1.18, 307.67
340.33, 1.28, 307.44
340.66, 1.36, 307.07
341.21, 1.44, 306.46
346.32, 1.14, 300.78
346.56, 1.38, 300.51
346.80, 1.62, 300.23
347.13, 1.88, 299.85
347.57, 2.15, 299.35
348.03, 2.43, 298.83
348.76, 2.75, 298.00
338.06, 0.25, 309.89
338.18, 0.28, 309.75
338.30, 0.31, 309.61
338.44, 0.35, 309.46
338.58, 0.38, 309.29
338.69, 0.44, 309.16
338.80, 0.50, 309.03
338.92, 0.56, 308.89
339.04, 0.62, 308.75
339.17, 0.69, 308.59
339.29, 0.76, 308.46
339.40, 0.84, 308.33
339.53, 0.93, 308.18
339.66, 1.01, 308.03
339.80, 1.10, 307.86
339.97, 1.19, 307.66
340.17, 1.28, 307.43
340.38, 1.38, 307.19
340.93, 1.45, 306.55
346.11, 1.13, 300.64
346.34, 1.37, 300.37
346.58, 1.62, 300.08
346.88, 1.87, 299.73
347.31, 2.14, 299.22
347.84, 2.43, 298.61
348.56, 2.74, 297.76
337.99, 0.25, 309.85
338.10, 0.28, 309.71
338.23, 0.32, 309.57
338.36, 0.35, 309.41
¯338.50, 0.39, 309.25
338.61, 0.44, 309.11
338.72, 0.50, 308.98
338.84, 0.56, 308.84
338.96, 0.62, 308.69
339.08, 0.69, 308.55
339.19, 0.77, 308.42
339.30, 0.84, 308.28
339.42, 0.93, 308.13
339.55, 1.01, 307.98
339.68, 1.10, 307.81
339.83, 1.20, 307.64
340.01, 1.29, 307.42
340.21, 1.39, 307.18
340.67, 1.47, 306.64
341.05, 1.57, 306.18
346.13, 1.36, 300.22
346.36, 1.61, 299.93
346.63, 1.86, 299.60
347.06, 2.13, 299.09
347.65, 2.42, 298.38
348.38, 2.74, 297.51
337.92, 0.25, 309.81
338.03, 0.29, 309.67
338.15, 0.32, 309.52
338.28, 0.35, 309.37
338.41, 0.39, 309.20
338.53, 0.44, 309.06
338.64, 0.50, 308.93
338.75, 0.56, 308.79
338.87, 0.62, 308.64
338.98, 0.69, 308.50
339.09, 0.77, 308.37
339.20, 0.85, 308.23
339.31, 0.93, 308.09
339.44, 1.01, 307.93
339.57, 1.10, 307.77
339.71, 1.20, 307.60
339.86, 1.29, 307.41
340.05, 1.39, 307.17
340.37, 1.48, 306.79
340.78, 1.58, 306.28
345.92, 1.36, 300.08
346.14, 1.60, 299.79
346.39, 1.86, 299.48
346.80, 2.12, 298.96
347.41, 2.41, 298.22
348.19, 2.73, 297.26
337.85, 0.26, 309.77
337.96, 0.29, 309.63
338.08, 0.32, 309.48
¯338.20, 0.35, 309.32
338.33, 0.39, 309.16
338.45, 0.44, 309.01
338.56, 0.50, 308.87
338.67, 0.56, 308.73
338.78, 0.62, 308.59
338.88, 0.69, 308.46
338.99, 0.77, 308.32
339.09, 0.85, 308.19
339.21, 0.93, 308.04
339.33, 1.02, 307.89
339.46, 1.10, 307.72
339.59, 1.20, 307.55
339.73, 1.29, 307.37
339.89, 1.40, 307.16
340.09, 1.50, 306.91
340.51, 1.59, 306.38
340.90, 1.70, 305.90
345.93, 1.59, 299.64
346.16, 1.85, 299.34
346.55, 2.11, 298.84
347.17, 2.40, 298.05
348.00, 2.72, 297.00
337.78, 0.26, 309.73
337.88, 0.29, 309.59
338.00, 0.32, 309.44
338.12, 0.36, 309.28
338.25, 0.39, 309.12
338.37, 0.44, 308.96
338.47, 0.50, 308.82
338.58, 0.56, 308.68
338.69, 0.62, 308.54
338.79, 0.69, 308.41
338.89, 0.77, 308.28
338.99, 0.85, 308.14
339.10, 0.93, 308.00
339.22, 1.02, 307.84
339.34, 1.10, 307.68
339.48, 1.20, 307.50
339.61, 1.29, 307.32
339.76, 1.40, 307.13
339.93, 1.50, 306.91
340.26, 1.60, 306.48
340.62, 1.71, 306.01
345.71, 1.59, 299.50
345.94, 1.84, 299.19
346.33, 2.10, 298.67
346.93, 2.39, 297.88
337.70, 0.26, 309.69
337.81, 0.29, 309.55
337.92, 0.32, 309.40
¯338.04, 0.36, 309.24
338.17, 0.39, 309.07
338.29, 0.44, 308.91
338.39, 0.50, 308.77
338.50, 0.56, 308.63
338.60, 0.62, 308.50
338.69, 0.70, 308.37
338.79, 0.77, 308.24
338.89, 0.85, 308.10
339.00, 0.93, 307.95
339.11, 1.02, 307.80
339.23, 1.10, 307.63
339.36, 1.20, 307.46
339.49, 1.29, 307.28
339.64, 1.40, 307.08
339.79, 1.50, 306.88
340.02, 1.61, 306.57
340.36, 1.72, 306.12
340.73, 1.84, 305.62
345.72, 1.83, 299.04
346.11, 2.09, 298.51
346.70, 2.38, 297.72
337.63, 0.26, 309.66
337.74, 0.29, 309.51
337.85, 0.33, 309.36
337.96, 0.36, 309.20
338.09, 0.40, 309.03
338.21, 0.44, 308.86
338.31, 0.50, 308.73
338.41, 0.56, 308.58
338.50, 0.63, 308.46
338.59, 0.70, 308.33
338.69, 0.77, 308.19
338.79, 0.85, 308.05
338.89, 0.93, 307.91
339.00, 1.02, 307.76
339.12, 1.11, 307.59
339.25, 1.20, 307.41
339.38, 1.29, 307.23
339.51, 1.39, 307.04
339.66, 1.50, 306.84
339.81, 1.61, 306.63
340.10, 1.72, 306.22
340.45, 1.84, 305.74
345.46, 1.82, 298.94
345.89, 2.09, 298.34
346.46, 2.37, 297.55
337.56, 0.26, 309.62
337.66, 0.29, 309.48
337.77, 0.33, 309.32
337.88, 0.36, 309.16
¯338.00, 0.40, 308.99
338.13, 0.44, 308.82
338.23, 0.49, 308.68
338.32, 0.56, 308.54
338.41, 0.63, 308.42
338.50, 0.70, 308.29
338.59, 0.77, 308.15
338.69, 0.85, 308.01
338.79, 0.93, 307.86
338.90, 1.02, 307.71
339.01, 1.11, 307.55
339.13, 1.20, 307.37
339.26, 1.29, 307.19
339.39, 1.39, 306.99
339.53, 1.50, 306.79
339.67, 1.61, 306.60
339.86, 1.73, 306.32
340.19, 1.84, 305.85
345.21, 1.82, 298.84
345.67, 2.08, 298.18
346.23, 2.36, 297.38
337.49, 0.26, 309.58
337.59, 0.30, 309.44
337.70, 0.33, 309.29
337.81, 0.36, 309.13
337.92, 0.40, 308.95
338.05, 0.44, 308.77
338.15, 0.49, 308.63
338.23, 0.56, 308.50
338.32, 0.63, 308.38
338.40, 0.70, 308.24
338.49, 0.77, 308.11
338.59, 0.85, 307.97
338.69, 0.93, 307.82
338.79, 1.02, 307.67
338.90, 1.11, 307.50
339.02, 1.20, 307.33
339.14, 1.29, 307.14
339.27, 1.39, 306.95
339.41, 1.50, 306.75
339.53, 1.61, 306.57
339.63, 1.73, 306.42
339.94, 1.85, 305.96
340.28, 1.98, 305.46
345.41, 2.07, 298.07
345.99, 2.35, 297.21
337.42, 0.27, 309.55
337.52, 0.30, 309.40
337.62, 0.33, 309.25
337.73, 0.36, 309.09
337.84, 0.40, 308.92
¯337.96, 0.44, 308.73
338.06, 0.49, 308.58
338.14, 0.56, 308.46
338.22, 0.63, 308.34
338.31, 0.70, 308.20
338.40, 0.77, 308.07
338.49, 0.85, 307.93
338.59, 0.93, 307.78
338.69, 1.02, 307.62
338.79, 1.11, 307.46
338.91, 1.20, 307.29
339.03, 1.29, 307.10
339.15, 1.39, 306.91
339.29, 1.50, 306.70
339.39, 1.61, 306.54
339.49, 1.73, 306.39
339.69, 1.85, 306.08
340.02, 1.98, 305.58
345.15, 2.06, 297.97
345.76, 2.34, 297.04
337.35, 0.27, 309.52
337.44, 0.30, 309.37
337.54, 0.33, 309.21
337.65, 0.36, 309.05
337.76, 0.40, 308.88
337.88, 0.44, 308.70
337.97, 0.49, 308.54
338.05, 0.56, 308.42
338.13, 0.63, 308.30
338.21, 0.70, 308.16
338.30, 0.78, 308.03
338.39, 0.85, 307.88
338.48, 0.93, 307.74
338.58, 1.02, 307.58
338.68, 1.10, 307.42
338.79, 1.20, 307.24
338.91, 1.29, 307.06
339.03, 1.39, 306.87
339.16, 1.49, 306.66
339.26, 1.61, 306.51
339.35, 1.73, 306.37
339.46, 1.85, 306.19
339.77, 1.98, 305.71
340.11, 2.11, 305.18
345.50, 2.33, 296.91
337.28, 0.27, 309.48
337.37, 0.30, 309.33
337.47, 0.33, 309.18
337.57, 0.37, 309.02
337.68, 0.40, 308.84
337.79, 0.44, 308.66
¯337.89, 0.49, 308.51
337.96, 0.56, 308.38
338.04, 0.63, 308.26
338.12, 0.70, 308.12
338.20, 0.78, 307.99
338.29, 0.85, 307.84
338.38, 0.93, 307.70
338.48, 1.02, 307.54
338.58, 1.10, 307.38
338.68, 1.19, 307.20
338.80, 1.29, 307.02
338.92, 1.39, 306.82
339.04, 1.49, 306.63
339.12, 1.61, 306.48
339.21, 1.73, 306.34
339.30, 1.85, 306.19
339.52, 1.98, 305.83
339.84, 2.11, 305.31
345.21, 2.32, 296.83
337.20, 0.27, 309.45
337.29, 0.30, 309.30
337.39, 0.33, 309.15
337.49, 0.37, 308.98
337.59, 0.40, 308.81
337.71, 0.44, 308.62
337.81, 0.49, 308.45
337.87, 0.56, 308.34
337.95, 0.63, 308.22
338.02, 0.70, 308.09
338.11, 0.77, 307.95
338.19, 0.85, 307.80
338.28, 0.93, 307.65
338.37, 1.02, 307.50
338.47, 1.10, 307.34
338.57, 1.19, 307.16
338.68, 1.29, 306.98
338.80, 1.39, 306.78
338.91, 1.49, 306.60
338.99, 1.61, 306.46
339.07, 1.73, 306.31
339.16, 1.85, 306.16
339.29, 1.98, 305.95
339.59, 2.11, 305.45
339.93, 2.25, 304.89
337.13, 0.27, 309.42
337.22, 0.30, 309.27
337.31, 0.33, 309.11
337.41, 0.37, 308.95
337.51, 0.40, 308.77
337.62, 0.44, 308.59
337.73, 0.49, 308.40
¯337.79, 0.56, 308.29
337.86, 0.63, 308.17
337.93, 0.70, 308.05
338.01, 0.77, 307.91
338.09, 0.85, 307.76
338.18, 0.93, 307.61
338.27, 1.01, 307.46
338.36, 1.10, 307.30
338.46, 1.19, 307.12
338.57, 1.29, 306.94
338.68, 1.38, 306.74
338.78, 1.49, 306.57
338.86, 1.61, 306.43
338.94, 1.72, 306.28
339.02, 1.85, 306.13
339.11, 1.97, 305.98
339.34, 2.10, 305.58
339.66, 2.25, 305.04
341.59, 2.47, 301.78
341.58, 2.67, 301.78
341.62, 2.88, 301.71
337.06, 0.27, 309.39
337.15, 0.30, 309.24
337.23, 0.33, 309.08
337.33, 0.37, 308.91
337.43, 0.40, 308.74
337.54, 0.44, 308.55
337.65, 0.48, 308.35
337.71, 0.55, 308.24
337.78, 0.62, 308.12
337.84, 0.70, 308.00
337.91, 0.77, 307.87
337.99, 0.85, 307.73
338.08, 0.93, 307.58
338.16, 1.01, 307.42
338.25, 1.10, 307.26
338.35, 1.19, 307.08
338.45, 1.28, 306.90
338.56, 1.38, 306.70
338.65, 1.49, 306.54
338.73, 1.60, 306.40
338.80, 1.72, 306.26
338.89, 1.84, 306.11
338.97, 1.97, 305.95
339.11, 2.10, 305.70
339.40, 2.24, 305.18
341.36, 2.46, 301.76
341.36, 2.66, 301.76
341.38, 2.86, 301.71
336.99, 0.27, 309.36
337.07, 0.30, 309.21
¯337.16, 0.33, 309.05
337.25, 0.37, 308.88
337.35, 0.40, 308.70
337.45, 0.44, 308.52
337.56, 0.48, 308.31
337.63, 0.55, 308.18
337.69, 0.62, 308.07
337.76, 0.69, 307.94
337.83, 0.77, 307.82
337.90, 0.85, 307.69
337.98, 0.93, 307.54
338.06, 1.01, 307.38
338.15, 1.10, 307.22
338.24, 1.19, 307.04
338.34, 1.28, 306.86
338.45, 1.38, 306.66
338.52, 1.49, 306.52
338.60, 1.60, 306.38
338.67, 1.72, 306.23
338.75, 1.84, 306.08
338.83, 1.97, 305.92
338.92, 2.10, 305.76
339.16, 2.24, 305.32
339.47, 2.39, 304.75
341.20, 2.65, 301.64
341.22, 2.86, 301.58
336.92, 0.27, 309.33
337.00, 0.30, 309.18
337.08, 0.33, 309.02
337.17, 0.37, 308.85
337.26, 0.40, 308.67
337.36, 0.44, 308.48
337.47, 0.48, 308.28
337.55, 0.54, 308.13
337.61, 0.61, 308.01
337.67, 0.69, 307.89
337.74, 0.76, 307.76
337.81, 0.84, 307.63
337.88, 0.93, 307.50
337.96, 1.01, 307.34
338.04, 1.10, 307.18
338.13, 1.19, 307.00
338.23, 1.28, 306.82
338.33, 1.38, 306.63
338.40, 1.49, 306.49
338.47, 1.60, 306.35
338.54, 1.72, 306.21
338.62, 1.84, 306.06
338.70, 1.96, 305.90
338.78, 2.09, 305.74
338.93, 2.23, 305.45
¯339.21, 2.38, 304.91
341.10, 2.65, 301.39
336.84, 0.27, 309.30
336.92, 0.30, 309.15
337.00, 0.33, 308.99
337.09, 0.37, 308.82
337.18, 0.40, 308.64
337.28, 0.44, 308.45
337.38, 0.48, 308.25
337.47, 0.54, 308.08
337.53, 0.61, 307.96
337.59, 0.68, 307.84
337.65, 0.76, 307.71
337.72, 0.84, 307.58
337.79, 0.92, 307.44
337.86, 1.01, 307.29
337.94, 1.09, 307.14
338.02, 1.18, 306.96
338.12, 1.28, 306.78
338.20, 1.38, 306.60
338.27, 1.49, 306.47
338.34, 1.60, 306.33
338.41, 1.71, 306.18
338.48, 1.84, 306.03
338.56, 1.96, 305.87
338.64, 2.09, 305.71
338.72, 2.22, 305.55
338.97, 2.37, 305.06
344.69, 2.90, 294.07
336.77, 0.27, 309.27
336.85, 0.30, 309.12
336.93, 0.33, 308.96
337.01, 0.37, 308.79
337.10, 0.40, 308.61
337.19, 0.44, 308.42
337.30, 0.48, 308.21
337.39, 0.53, 308.03
337.44, 0.60, 307.91
337.50, 0.68, 307.78
337.57, 0.75, 307.65
337.63, 0.83, 307.52
337.70, 0.92, 307.38
337.77, 1.00, 307.24
337.84, 1.09, 307.09
337.92, 1.18, 306.93
338.00, 1.28, 306.74
338.08, 1.38, 306.58
338.15, 1.48, 306.44
338.21, 1.60, 306.30
338.28, 1.71, 306.16
338.35, 1.83, 306.01
¯338.43, 1.96, 305.85
338.50, 2.08, 305.69
338.58, 2.22, 305.52
338.74, 2.36, 305.20
344.07, 2.86, 294.59
336.70, 0.27, 309.24
336.77, 0.30, 309.09
336.85, 0.33, 308.93
336.93, 0.37, 308.76
337.02, 0.40, 308.58
337.11, 0.44, 308.39
337.21, 0.48, 308.18
337.30, 0.52, 307.98
337.36, 0.60, 307.86
337.42, 0.67, 307.73
337.48, 0.75, 307.60
337.54, 0.83, 307.46
337.61, 0.91, 307.32
337.67, 1.00, 307.18
337.74, 1.08, 307.03
337.82, 1.18, 306.87
337.89, 1.27, 306.70
337.96, 1.37, 306.55
338.02, 1.48, 306.42
338.09, 1.59, 306.28
338.15, 1.71, 306.13
338.22, 1.83, 305.98
338.29, 1.95, 305.83
338.37, 2.08, 305.66
338.44, 2.21, 305.50
338.52, 2.35, 305.32
338.78, 2.51, 304.78
344.07, 3.19, 293.85
336.63, 0.27, 309.22
336.70, 0.30, 309.06
336.77, 0.33, 308.90
336.85, 0.37, 308.73
336.93, 0.40, 308.55
337.02, 0.44, 308.36
337.12, 0.48, 308.15
337.22, 0.52, 307.93
337.28, 0.59, 307.80
337.33, 0.67, 307.68
337.39, 0.74, 307.54
337.45, 0.82, 307.41
337.52, 0.90, 307.26
337.58, 0.99, 307.12
337.65, 1.08, 306.97
337.72, 1.17, 306.81
337.79, 1.27, 306.64
337.85, 1.37, 306.51
¯337.90, 1.48, 306.39
337.96, 1.59, 306.25
338.03, 1.71, 306.11
338.09, 1.83, 305.96
338.16, 1.95, 305.80
338.23, 2.08, 305.64
338.30, 2.21, 305.47
338.38, 2.35, 305.30
338.55, 2.50, 304.93
343.61, 3.16, 294.10
336.55, 0.27, 309.19
336.62, 0.30, 309.04
336.69, 0.33, 308.87
336.77, 0.37, 308.70
336.85, 0.40, 308.52
336.94, 0.44, 308.33
337.03, 0.48, 308.12
337.13, 0.52, 307.90
337.19, 0.58, 307.75
337.25, 0.66, 307.62
337.30, 0.74, 307.49
337.36, 0.82, 307.35
337.42, 0.90, 307.21
337.49, 0.98, 307.06
337.55, 1.07, 306.90
337.62, 1.16, 306.74
337.69, 1.26, 306.59
337.75, 1.37, 306.45
337.80, 1.48, 306.33
337.85, 1.59, 306.21
337.90, 1.70, 306.08
337.96, 1.82, 305.93
338.03, 1.94, 305.78
338.10, 2.07, 305.62
338.17, 2.20, 305.45
338.24, 2.34, 305.28
338.33, 2.48, 305.07
343.31, 3.15, 294.01
336.48, 0.27, 309.17
336.55, 0.30, 309.01
336.61, 0.33, 308.85
336.69, 0.37, 308.68
336.77, 0.40, 308.49
336.85, 0.44, 308.30
336.94, 0.48, 308.09
337.03, 0.52, 307.87
337.10, 0.58, 307.70
337.16, 0.65, 307.57
337.21, 0.73, 307.43
337.27, 0.81, 307.30
337.33, 0.89, 307.15
¯337.39, 0.98, 307.00
337.46, 1.07, 306.84
337.52, 1.16, 306.68
337.59, 1.26, 306.53
337.64, 1.36, 306.39
337.69, 1.47, 306.27
337.74, 1.58, 306.15
337.79, 1.70, 306.02
337.84, 1.82, 305.89
337.90, 1.94, 305.76
