 VERSION 0.7
FIELDS x y z
SIZE 8 8 8
TYPE F F F
COUNT 1 1 1
WIDTH 2266
HEIGHT 1
VIEWPOINT 442.27, 13.96, 271.92 1 441.34, 10.19, 251.67
POINTS 2266
DATA ascii
460.45, 8.08, 243.84
447.17, 7.72, 250.39
447.54, 7.73, 250.20
447.86, 7.76, 250.04
448.07, 7.83, 249.93
448.26, 7.91, 249.83
448.45, 7.99, 249.73
448.66, 8.08, 249.63
448.83, 8.18, 249.54
448.96, 8.29, 249.48
449.09, 8.41, 249.41
449.22, 8.53, 249.34
449.41, 8.64, 249.25
449.61, 8.76, 249.14
449.82, 8.89, 249.04
450.04, 9.02, 248.93
447.12, 7.73, 250.30
447.48, 7.73, 250.11
¯447.74, 7.78, 249.97
447.92, 7.86, 249.88
448.10, 7.94, 249.78
448.29, 8.02, 249.68
448.48, 8.11, 249.58
448.69, 8.20, 249.47
448.81, 8.31, 249.40
448.94, 8.43, 249.34
449.07, 8.54, 249.27
449.20, 8.67, 249.20
449.38, 8.78, 249.11
449.58, 8.91, 249.00
449.79, 9.04, 248.89
447.08, 7.73, 250.21
447.43, 7.74, 250.01
447.60, 7.81, 249.92
447.77, 7.88, 249.83
447.94, 7.96, 249.73
448.12, 8.05, 249.63
448.31, 8.13, 249.53
448.51, 8.22, 249.42
448.66, 8.33, 249.33
448.79, 8.44, 249.27
448.91, 8.56, 249.20
449.04, 8.68, 249.13
449.17, 8.80, 249.06
449.35, 8.93, 248.97
449.54, 9.05, 248.86
449.75, 9.19, 248.75
447.03, 7.73, 250.11
447.30, 7.76, 249.96
447.46, 7.83, 249.87
447.62, 7.91, 249.78
447.79, 7.99, 249.68
447.96, 8.07, 249.58
448.15, 8.16, 249.48
448.34, 8.25, 249.37
448.52, 8.35, 249.27
448.64, 8.46, 249.20
448.76, 8.58, 249.13
448.89, 8.70, 249.06
449.02, 8.82, 248.99
449.15, 8.94, 248.92
449.31, 9.07, 248.83
449.51, 9.20, 248.72
449.71, 9.34, 248.60
446.97, 7.73, 250.02
447.21, 7.77, 249.89
447.32, 7.86, 249.82
447.47, 7.94, 249.73
447.64, 8.01, 249.64
¯447.81, 8.10, 249.54
447.98, 8.18, 249.43
448.17, 8.27, 249.32
448.36, 8.37, 249.21
448.50, 8.48, 249.13
448.61, 8.59, 249.07
448.74, 8.71, 249.00
448.86, 8.83, 248.93
448.99, 8.96, 248.85
449.12, 9.09, 248.78
449.27, 9.22, 248.69
449.47, 9.35, 248.58
446.90, 7.74, 249.95
447.12, 7.78, 249.81
447.21, 7.87, 249.76
447.33, 7.96, 249.69
447.49, 8.04, 249.59
447.65, 8.12, 249.49
447.83, 8.21, 249.39
448.00, 8.30, 249.28
448.19, 8.39, 249.17
448.35, 8.49, 249.07
448.47, 8.61, 249.00
448.59, 8.72, 248.93
448.71, 8.84, 248.86
448.83, 8.97, 248.79
448.96, 9.10, 248.71
449.09, 9.23, 248.63
449.23, 9.36, 248.55
449.43, 9.50, 248.43
446.82, 7.75, 249.87
447.04, 7.79, 249.73
447.13, 7.88, 249.68
447.22, 7.98, 249.62
447.35, 8.06, 249.55
447.51, 8.14, 249.45
447.67, 8.23, 249.35
447.84, 8.32, 249.24
448.02, 8.41, 249.13
448.21, 8.51, 249.01
448.33, 8.62, 248.94
448.44, 8.74, 248.87
448.56, 8.86, 248.79
448.68, 8.98, 248.72
448.80, 9.11, 248.64
448.93, 9.24, 248.57
449.06, 9.37, 248.49
449.20, 9.51, 248.40
449.38, 9.65, 248.29
446.74, 7.76, 249.80
446.96, 7.80, 249.66
¯447.05, 7.89, 249.60
447.14, 7.98, 249.55
447.23, 8.08, 249.49
447.36, 8.17, 249.41
447.52, 8.25, 249.30
447.69, 8.34, 249.20
447.86, 8.43, 249.08
448.04, 8.53, 248.97
448.19, 8.63, 248.87
448.30, 8.75, 248.80
448.41, 8.87, 248.73
448.53, 8.99, 248.66
448.65, 9.11, 248.58
448.77, 9.24, 248.50
448.90, 9.38, 248.42
449.03, 9.51, 248.34
449.17, 9.65, 248.25
446.66, 7.77, 249.73
446.88, 7.81, 249.58
446.97, 7.90, 249.53
447.06, 7.99, 249.47
447.15, 8.09, 249.41
447.24, 8.18, 249.35
447.37, 8.27, 249.26
447.53, 8.36, 249.16
447.70, 8.45, 249.05
447.87, 8.54, 248.93
448.05, 8.64, 248.81
448.16, 8.76, 248.74
448.27, 8.88, 248.67
448.38, 9.00, 248.59
448.50, 9.12, 248.52
448.62, 9.25, 248.44
448.74, 9.38, 248.36
448.87, 9.52, 248.27
449.00, 9.66, 248.19
449.13, 9.80, 248.10
446.57, 7.78, 249.67
446.81, 7.82, 249.51
446.89, 7.91, 249.45
446.97, 8.00, 249.39
447.06, 8.09, 249.33
447.15, 8.19, 249.27
447.24, 8.29, 249.21
447.38, 8.38, 249.12
447.54, 8.47, 249.01
447.71, 8.56, 248.89
447.89, 8.66, 248.77
448.02, 8.77, 248.68
448.12, 8.89, 248.61
448.24, 9.01, 248.53
¯448.35, 9.13, 248.46
448.47, 9.26, 248.38
448.59, 9.39, 248.30
448.71, 9.52, 248.21
448.84, 9.66, 248.13
448.98, 9.80, 248.03
446.49, 7.79, 249.60
446.73, 7.82, 249.43
446.81, 7.91, 249.38
446.89, 8.01, 249.32
446.98, 8.10, 249.26
447.06, 8.20, 249.20
447.15, 8.29, 249.13
447.24, 8.40, 249.07
447.39, 8.49, 248.97
447.55, 8.58, 248.86
447.72, 8.68, 248.74
447.88, 8.78, 248.62
447.98, 8.90, 248.55
448.09, 9.02, 248.47
448.20, 9.14, 248.40
448.32, 9.27, 248.32
448.43, 9.40, 248.24
448.55, 9.53, 248.15
448.68, 9.66, 248.07
448.88, 9.80, 247.92
449.16, 9.95, 247.73
446.41, 7.80, 249.54
446.65, 7.83, 249.36
446.73, 7.92, 249.30
446.81, 8.01, 249.24
446.89, 8.11, 249.18
446.98, 8.20, 249.12
447.07, 8.30, 249.06
447.16, 8.40, 248.99
447.25, 8.50, 248.93
447.39, 8.60, 248.82
447.56, 8.69, 248.70
447.73, 8.79, 248.58
447.85, 8.91, 248.49
447.95, 9.03, 248.42
448.06, 9.15, 248.34
448.17, 9.27, 248.26
448.28, 9.40, 248.18
448.40, 9.53, 248.09
448.56, 9.67, 247.97
448.79, 9.81, 247.81
449.06, 9.95, 247.61
446.32, 7.81, 249.47
446.57, 7.84, 249.29
446.65, 7.93, 249.23
°446.73, 8.02, 249.17
446.81, 8.11, 249.11
446.89, 8.21, 249.04
446.98, 8.31, 248.98
447.07, 8.41, 248.91
447.16, 8.51, 248.85
447.25, 8.61, 248.78
447.40, 8.71, 248.67
447.56, 8.81, 248.54
447.71, 8.92, 248.43
447.81, 9.03, 248.36
447.92, 9.16, 248.28
448.02, 9.28, 248.20
448.13, 9.41, 248.12
448.26, 9.54, 248.02
448.47, 9.67, 247.87
448.70, 9.81, 247.70
448.97, 9.95, 247.49
446.24, 7.81, 249.41
446.49, 7.84, 249.21
446.57, 7.93, 249.15
446.65, 8.02, 249.09
446.73, 8.12, 249.03
446.81, 8.21, 248.97
446.89, 8.31, 248.90
446.98, 8.41, 248.84
447.07, 8.51, 248.77
447.16, 8.62, 248.70
447.25, 8.72, 248.63
447.40, 8.82, 248.51
447.57, 8.93, 248.38
447.68, 9.04, 248.30
447.78, 9.16, 248.22
447.88, 9.29, 248.14
447.99, 9.41, 248.06
448.17, 9.54, 247.92
448.38, 9.67, 247.76
448.60, 9.81, 247.59
448.88, 9.96, 247.38
449.19, 10.11, 247.13
446.15, 7.82, 249.35
446.41, 7.85, 249.14
446.49, 7.94, 249.08
446.56, 8.03, 249.02
446.64, 8.12, 248.96
446.73, 8.22, 248.89
446.81, 8.32, 248.83
446.89, 8.42, 248.76
446.98, 8.52, 248.69
447.07, 8.62, 248.62
447.16, 8.73, 248.55
±447.25, 8.84, 248.47
447.40, 8.94, 248.35
447.54, 9.05, 248.25
447.64, 9.17, 248.17
447.74, 9.29, 248.09
447.89, 9.41, 247.97
448.08, 9.54, 247.82
448.29, 9.67, 247.65
448.51, 9.81, 247.48
448.78, 9.96, 247.26
449.10, 10.11, 247.01
446.07, 7.83, 249.29
446.32, 7.86, 249.08
446.40, 7.94, 249.01
446.48, 8.03, 248.95
446.56, 8.13, 248.88
446.64, 8.22, 248.82
446.72, 8.32, 248.75
446.81, 8.42, 248.68
446.89, 8.52, 248.61
446.98, 8.62, 248.54
447.07, 8.73, 248.47
447.16, 8.84, 248.39
447.25, 8.95, 248.32
447.41, 9.06, 248.19
447.50, 9.17, 248.11
447.62, 9.29, 248.02
447.80, 9.41, 247.87
447.99, 9.54, 247.71
448.20, 9.67, 247.54
448.41, 9.81, 247.37
448.69, 9.96, 247.14
449.00, 10.12, 246.89
445.98, 7.84, 249.23
446.23, 7.87, 249.02
446.32, 7.95, 248.94
446.40, 8.04, 248.88
446.48, 8.13, 248.81
446.56, 8.23, 248.74
446.64, 8.32, 248.68
446.72, 8.42, 248.61
446.80, 8.52, 248.54
446.89, 8.63, 248.46
446.98, 8.73, 248.39
447.07, 8.84, 248.32
447.16, 8.95, 248.24
447.25, 9.07, 248.16
447.37, 9.18, 248.06
447.53, 9.30, 247.92
447.71, 9.41, 247.77
447.91, 9.54, 247.61
´448.11, 9.67, 247.44
448.32, 9.81, 247.26
448.59, 9.96, 247.03
448.90, 10.12, 246.77
445.89, 7.85, 249.17
446.13, 7.87, 248.96
446.24, 7.95, 248.87
446.32, 8.04, 248.80
446.39, 8.14, 248.74
446.47, 8.23, 248.67
446.55, 8.33, 248.60
446.63, 8.43, 248.53
446.71, 8.53, 248.46
446.80, 8.63, 248.39
446.88, 8.74, 248.31
446.97, 8.84, 248.24
447.06, 8.96, 248.16
447.16, 9.07, 248.08
447.27, 9.18, 247.98
447.45, 9.30, 247.83
447.63, 9.42, 247.67
447.82, 9.54, 247.50
448.02, 9.67, 247.33
448.23, 9.81, 247.15
448.50, 9.96, 246.91
448.80, 10.12, 246.65
449.13, 10.29, 246.36
445.81, 7.86, 249.12
446.04, 7.88, 248.91
446.16, 7.95, 248.80
446.24, 8.05, 248.73
446.31, 8.14, 248.67
446.39, 8.23, 248.60
446.47, 8.33, 248.53
446.54, 8.43, 248.46
446.63, 8.53, 248.39
446.71, 8.63, 248.31
446.79, 8.74, 248.24
446.88, 8.85, 248.16
446.97, 8.96, 248.08
447.06, 9.07, 248.00
447.17, 9.19, 247.90
447.36, 9.30, 247.73
447.54, 9.42, 247.57
447.73, 9.54, 247.40
447.92, 9.67, 247.23
448.13, 9.81, 247.04
448.40, 9.96, 246.80
448.70, 10.12, 246.53
449.02, 10.29, 246.24
445.72, 7.86, 249.06
²445.95, 7.89, 248.85
446.08, 7.96, 248.73
446.15, 8.05, 248.66
446.23, 8.14, 248.60
446.30, 8.24, 248.53
446.38, 8.33, 248.46
446.46, 8.43, 248.38
446.54, 8.53, 248.31
446.62, 8.64, 248.24
446.70, 8.74, 248.16
446.79, 8.85, 248.08
446.87, 8.96, 248.00
446.96, 9.07, 247.92
447.06, 9.19, 247.83
447.28, 9.30, 247.63
447.45, 9.42, 247.47
447.64, 9.54, 247.30
447.83, 9.67, 247.12
448.04, 9.81, 246.93
448.30, 9.96, 246.68
448.60, 10.12, 246.41
448.92, 10.29, 246.12
445.63, 7.87, 249.01
445.86, 7.90, 248.80
446.00, 7.96, 248.66
446.07, 8.05, 248.59
446.15, 8.14, 248.52
446.22, 8.24, 248.45
446.29, 8.34, 248.38
446.37, 8.43, 248.31
446.45, 8.54, 248.24
446.53, 8.64, 248.16
446.61, 8.74, 248.08
446.69, 8.85, 248.00
446.78, 8.96, 247.92
446.87, 9.07, 247.84
446.96, 9.19, 247.75
447.16, 9.30, 247.56
447.36, 9.42, 247.37
447.55, 9.54, 247.20
447.74, 9.67, 247.01
447.94, 9.81, 246.82
448.21, 9.96, 246.57
448.50, 10.12, 246.29
445.54, 7.88, 248.96
445.77, 7.91, 248.74
445.92, 7.96, 248.59
445.99, 8.05, 248.52
446.06, 8.15, 248.45
446.13, 8.24, 248.38
446.21, 8.34, 248.31
±446.28, 8.44, 248.24
446.36, 8.54, 248.16
446.44, 8.64, 248.09
446.52, 8.74, 248.01
446.60, 8.85, 247.93
446.69, 8.96, 247.85
446.77, 9.08, 247.76
446.86, 9.19, 247.68
447.05, 9.30, 247.49
447.28, 9.41, 247.27
447.46, 9.54, 247.09
447.65, 9.67, 246.91
447.85, 9.81, 246.71
448.11, 9.96, 246.45
448.40, 10.12, 246.17
445.46, 7.89, 248.91
445.67, 7.91, 248.69
445.84, 7.97, 248.52
445.91, 8.06, 248.45
445.98, 8.15, 248.38
446.05, 8.24, 248.31
446.12, 8.34, 248.24
446.20, 8.44, 248.16
446.27, 8.54, 248.09
446.35, 8.64, 248.01
446.43, 8.75, 247.93
446.51, 8.85, 247.85
446.59, 8.96, 247.77
446.68, 9.08, 247.68
446.76, 9.19, 247.60
446.94, 9.30, 247.42
447.16, 9.42, 247.20
447.36, 9.54, 246.99
447.55, 9.67, 246.80
447.75, 9.81, 246.60
448.01, 9.96, 246.34
448.37, 10.12, 245.98
445.37, 7.90, 248.86
445.58, 7.92, 248.64
445.76, 7.97, 248.46
445.83, 8.06, 248.39
445.90, 8.15, 248.31
445.97, 8.25, 248.24
446.04, 8.34, 248.17
446.11, 8.44, 248.09
446.18, 8.54, 248.02
446.26, 8.64, 247.94
446.34, 8.75, 247.86
446.42, 8.85, 247.78
446.50, 8.96, 247.69
446.58, 9.08, 247.61
°446.66, 9.19, 247.52
446.82, 9.30, 247.35
447.04, 9.42, 247.13
447.27, 9.54, 246.89
447.46, 9.67, 246.70
447.65, 9.81, 246.50
447.91, 9.96, 246.23
448.49, 10.13, 245.63
445.29, 7.90, 248.81
445.49, 7.93, 248.59
445.68, 7.97, 248.39
445.75, 8.06, 248.32
445.81, 8.15, 248.25
445.88, 8.25, 248.17
445.95, 8.34, 248.10
446.02, 8.44, 248.02
446.10, 8.54, 247.94
446.17, 8.64, 247.86
446.25, 8.75, 247.78
446.32, 8.86, 247.70
446.40, 8.96, 247.62
446.48, 9.08, 247.53
446.57, 9.19, 247.44
446.71, 9.31, 247.29
446.92, 9.42, 247.06
447.15, 9.54, 246.82
447.36, 9.67, 246.59
447.56, 9.81, 246.39
447.82, 9.96, 246.11
445.21, 7.90, 248.74
445.39, 7.94, 248.55
445.60, 7.97, 248.32
445.66, 8.06, 248.25
445.73, 8.15, 248.18
445.80, 8.25, 248.10
445.87, 8.34, 248.03
445.94, 8.44, 247.95
446.01, 8.54, 247.87
446.08, 8.64, 247.79
446.15, 8.75, 247.71
446.23, 8.86, 247.63
446.31, 8.97, 247.54
446.39, 9.08, 247.45
446.47, 9.19, 247.36
446.60, 9.31, 247.22
446.81, 9.42, 246.99
447.03, 9.54, 246.75
447.27, 9.67, 246.49
447.46, 9.81, 246.28
447.88, 9.96, 245.82
445.14, 7.90, 248.68
¯445.30, 7.94, 248.50
445.51, 7.97, 248.26
445.58, 8.06, 248.18
445.65, 8.15, 248.11
445.71, 8.25, 248.03
445.78, 8.34, 247.96
445.85, 8.44, 247.88
445.92, 8.54, 247.80
445.99, 8.64, 247.72
446.06, 8.75, 247.64
446.14, 8.86, 247.55
446.21, 8.97, 247.46
446.29, 9.08, 247.38
446.37, 9.19, 247.28
446.48, 9.31, 247.16
446.69, 9.42, 246.93
446.91, 9.54, 246.68
447.14, 9.67, 246.42
447.36, 9.81, 246.17
447.98, 9.96, 245.47
445.07, 7.90, 248.62
445.23, 7.94, 248.43
445.41, 7.98, 248.21
445.50, 8.06, 248.12
445.56, 8.15, 248.04
445.63, 8.25, 247.97
445.69, 8.34, 247.89
445.76, 8.44, 247.81
445.83, 8.54, 247.73
445.90, 8.64, 247.65
445.97, 8.75, 247.56
446.04, 8.86, 247.48
446.12, 8.97, 247.39
446.20, 9.08, 247.30
446.27, 9.19, 247.21
446.37, 9.31, 247.10
446.57, 9.42, 246.86
446.79, 9.54, 246.61
447.02, 9.67, 246.35
447.32, 9.81, 245.99
448.09, 9.96, 245.11
444.99, 7.90, 248.55
445.15, 7.94, 248.37
445.31, 7.99, 248.17
445.42, 8.06, 248.05
445.48, 8.15, 247.97
445.54, 8.25, 247.90
445.61, 8.34, 247.82
445.67, 8.44, 247.74
445.74, 8.54, 247.66
445.81, 8.64, 247.58
¯445.88, 8.75, 247.49
445.95, 8.86, 247.40
446.02, 8.96, 247.32
446.10, 9.08, 247.22
446.18, 9.19, 247.13
446.26, 9.31, 247.03
446.45, 9.42, 246.80
446.66, 9.54, 246.55
446.89, 9.67, 246.28
447.40, 9.80, 245.67
444.92, 7.90, 248.49
445.07, 7.94, 248.31
445.23, 7.99, 248.11
445.33, 8.06, 247.98
445.39, 8.15, 247.91
445.46, 8.25, 247.83
445.52, 8.34, 247.75
445.58, 8.44, 247.67
445.65, 8.54, 247.59
445.72, 8.64, 247.50
445.79, 8.75, 247.42
445.86, 8.85, 247.33
445.93, 8.96, 247.24
446.00, 9.08, 247.15
446.08, 9.19, 247.05
446.16, 9.31, 246.96
446.34, 9.42, 246.74
446.54, 9.54, 246.48
446.76, 9.67, 246.21
447.48, 9.80, 245.33
444.84, 7.90, 248.43
444.99, 7.94, 248.24
445.15, 7.99, 248.04
445.24, 8.06, 247.92
445.31, 8.15, 247.84
445.37, 8.25, 247.76
445.43, 8.34, 247.68
445.50, 8.44, 247.60
445.56, 8.54, 247.52
445.63, 8.64, 247.43
445.69, 8.75, 247.35
445.76, 8.85, 247.26
445.83, 8.96, 247.17
445.91, 9.07, 247.07
445.98, 9.19, 246.98
446.06, 9.31, 246.88
446.22, 9.42, 246.67
446.42, 9.54, 246.42
446.64, 9.67, 246.15
447.57, 9.79, 244.98
444.76, 7.90, 248.37
¯444.91, 7.94, 248.18
445.05, 7.99, 248.00
445.16, 8.06, 247.87
445.22, 8.15, 247.78
445.28, 8.25, 247.70
445.34, 8.34, 247.61
445.41, 8.44, 247.53
445.47, 8.54, 247.45
445.54, 8.64, 247.36
445.60, 8.75, 247.27
445.67, 8.85, 247.18
445.74, 8.96, 247.09
445.81, 9.07, 247.00
445.88, 9.19, 246.90
445.96, 9.31, 246.80
446.11, 9.42, 246.61
446.30, 9.54, 246.36
446.53, 9.66, 246.07
447.66, 9.79, 244.60
444.69, 7.90, 248.32
444.83, 7.94, 248.12
444.95, 8.00, 247.96
445.06, 8.06, 247.81
445.13, 8.15, 247.72
445.19, 8.25, 247.64
445.25, 8.34, 247.55
445.32, 8.44, 247.46
445.38, 8.54, 247.38
445.44, 8.64, 247.29
445.51, 8.74, 247.20
445.58, 8.85, 247.11
445.64, 8.96, 247.02
445.71, 9.07, 246.92
445.79, 9.19, 246.83
445.86, 9.30, 246.73
445.99, 9.42, 246.55
446.18, 9.54, 246.29
446.50, 9.66, 245.87
444.61, 7.90, 248.26
444.75, 7.94, 248.06
444.86, 8.00, 247.92
444.96, 8.07, 247.77
445.04, 8.15, 247.67
445.10, 8.25, 247.58
445.16, 8.34, 247.49
445.22, 8.44, 247.40
445.29, 8.54, 247.31
445.35, 8.64, 247.22
445.42, 8.74, 247.13
445.48, 8.85, 247.04
445.55, 8.96, 246.95
¯445.62, 9.07, 246.85
445.69, 9.18, 246.75
445.76, 9.30, 246.65
445.87, 9.42, 246.49
446.06, 9.54, 246.23
446.47, 9.65, 245.67
444.53, 7.89, 248.20
444.66, 7.94, 248.02
444.76, 8.01, 247.88
444.86, 8.07, 247.73
444.95, 8.15, 247.61
445.01, 8.25, 247.52
445.07, 8.34, 247.43
445.13, 8.44, 247.34
445.19, 8.54, 247.25
445.26, 8.64, 247.16
445.32, 8.74, 247.06
445.39, 8.85, 246.97
445.45, 8.96, 246.87
445.52, 9.07, 246.78
445.59, 9.18, 246.68
445.66, 9.30, 246.57
445.76, 9.42, 246.43
445.94, 9.54, 246.17
446.44, 9.65, 245.47
444.45, 7.89, 248.15
444.57, 7.94, 247.98
444.66, 8.01, 247.84
444.76, 8.08, 247.69
444.85, 8.15, 247.55
444.91, 8.25, 247.47
444.97, 8.34, 247.38
445.03, 8.44, 247.28
445.10, 8.53, 247.19
445.16, 8.64, 247.10
445.23, 8.74, 247.00
445.29, 8.84, 246.90
445.36, 8.95, 246.80
445.42, 9.07, 246.70
445.49, 9.18, 246.60
445.56, 9.30, 246.50
445.64, 9.42, 246.37
445.82, 9.53, 246.11
446.40, 9.64, 245.26
444.37, 7.89, 248.09
444.47, 7.95, 247.94
444.57, 8.01, 247.80
444.66, 8.08, 247.65
444.76, 8.15, 247.50
444.82, 8.24, 247.41
444.88, 8.34, 247.32
¯444.94, 8.44, 247.23
445.00, 8.53, 247.13
445.06, 8.63, 247.04
445.13, 8.74, 246.94
445.19, 8.84, 246.84
445.26, 8.95, 246.73
445.33, 9.06, 246.63
445.39, 9.18, 246.52
445.46, 9.29, 246.42
445.53, 9.42, 246.31
445.76, 9.53, 245.96
444.29, 7.89, 248.04
444.38, 7.95, 247.90
444.47, 8.02, 247.76
444.56, 8.09, 247.61
444.66, 8.16, 247.46
444.73, 8.24, 247.35
444.79, 8.34, 247.26
444.84, 8.43, 247.17
444.90, 8.53, 247.07
444.96, 8.63, 246.98
445.03, 8.74, 246.88
445.09, 8.84, 246.77
445.16, 8.95, 246.67
445.22, 9.06, 246.56
445.29, 9.17, 246.45
445.36, 9.29, 246.34
445.43, 9.41, 246.23
445.72, 9.52, 245.78
444.20, 7.89, 248.01
444.28, 7.96, 247.87
444.37, 8.02, 247.72
444.46, 8.09, 247.57
444.56, 8.16, 247.42
444.64, 8.24, 247.29
444.69, 8.34, 247.20
444.75, 8.43, 247.11
444.81, 8.53, 247.01
444.87, 8.63, 246.92
444.93, 8.73, 246.81
444.99, 8.84, 246.71
445.05, 8.95, 246.61
445.12, 9.06, 246.50
445.19, 9.17, 246.39
445.26, 9.29, 246.27
445.33, 9.41, 246.16
445.68, 9.51, 245.60
444.11, 7.90, 247.97
444.19, 7.96, 247.83
444.28, 8.02, 247.69
444.36, 8.09, 247.54
¯444.46, 8.16, 247.38
444.54, 8.24, 247.24
444.60, 8.33, 247.15
444.65, 8.43, 247.05
444.71, 8.53, 246.95
444.77, 8.63, 246.86
444.83, 8.73, 246.75
444.89, 8.84, 246.65
444.95, 8.95, 246.54
445.01, 9.06, 246.44
445.08, 9.17, 246.32
445.15, 9.29, 246.21
445.22, 9.41, 246.09
445.63, 9.51, 245.41
444.01, 7.90, 247.94
444.10, 7.96, 247.80
444.18, 8.03, 247.65
444.27, 8.09, 247.50
444.36, 8.16, 247.35
444.45, 8.24, 247.18
444.50, 8.33, 247.09
444.56, 8.43, 246.99
444.61, 8.53, 246.90
444.67, 8.63, 246.80
444.73, 8.73, 246.69
444.79, 8.83, 246.59
444.85, 8.94, 246.48
444.91, 9.05, 246.37
444.97, 9.17, 246.26
445.04, 9.28, 246.14
445.13, 9.40, 245.99
445.58, 9.50, 245.21
443.92, 7.90, 247.90
444.00, 7.96, 247.76
444.08, 8.03, 247.62
444.17, 8.10, 247.47
444.26, 8.17, 247.31
444.35, 8.24, 247.15
444.41, 8.33, 247.03
444.46, 8.43, 246.94
444.52, 8.52, 246.84
444.57, 8.62, 246.74
444.63, 8.73, 246.63
444.68, 8.83, 246.53
444.74, 8.94, 246.42
444.80, 9.05, 246.31
444.87, 9.16, 246.20
444.94, 9.28, 246.07
445.04, 9.40, 245.88
445.53, 9.49, 245.01
443.83, 7.90, 247.87
¯443.91, 7.97, 247.73
443.99, 8.03, 247.58
444.07, 8.10, 247.43
444.15, 8.17, 247.27
444.24, 8.24, 247.11
444.31, 8.33, 246.98
444.37, 8.42, 246.88
444.42, 8.52, 246.78
444.47, 8.62, 246.68
444.53, 8.72, 246.58
444.58, 8.83, 246.47
444.64, 8.94, 246.36
444.70, 9.05, 246.25
444.76, 9.16, 246.13
444.85, 9.27, 245.97
444.95, 9.39, 245.78
445.48, 9.48, 244.81
443.74, 7.91, 247.84
443.81, 7.97, 247.70
443.89, 8.03, 247.55
443.97, 8.10, 247.40
444.05, 8.17, 247.24
444.14, 8.24, 247.08
444.22, 8.32, 246.92
444.27, 8.42, 246.82
444.32, 8.52, 246.72
444.37, 8.62, 246.62
444.43, 8.72, 246.52
444.48, 8.83, 246.41
444.54, 8.93, 246.30
444.59, 9.04, 246.19
444.66, 9.16, 246.06
444.76, 9.27, 245.87
444.86, 9.39, 245.68
445.43, 9.47, 244.61
443.65, 7.91, 247.81
443.72, 7.97, 247.66
443.79, 8.03, 247.52
443.87, 8.10, 247.37
443.95, 8.17, 247.21
444.03, 8.24, 247.04
444.12, 8.32, 246.87
444.17, 8.42, 246.77
444.22, 8.51, 246.67
444.27, 8.61, 246.56
444.32, 8.72, 246.46
444.38, 8.82, 246.35
444.43, 8.93, 246.24
444.49, 9.04, 246.12
444.57, 9.15, 245.96
444.66, 9.26, 245.77
¯444.76, 9.38, 245.58
445.37, 9.46, 244.40
443.56, 7.91, 247.77
443.63, 7.97, 247.63
443.70, 8.04, 247.49
443.77, 8.10, 247.33
443.85, 8.17, 247.18
443.93, 8.25, 247.01
444.02, 8.32, 246.84
444.08, 8.41, 246.71
444.12, 8.51, 246.61
444.17, 8.61, 246.51
444.22, 8.71, 246.40
444.28, 8.82, 246.29
444.33, 8.93, 246.18
444.39, 9.03, 246.04
444.48, 9.14, 245.86
444.57, 9.26, 245.67
444.67, 9.37, 245.47
445.31, 9.45, 244.18
443.47, 7.91, 247.74
443.53, 7.97, 247.60
443.60, 8.04, 247.46
443.68, 8.10, 247.30
443.75, 8.17, 247.14
443.83, 8.25, 246.98
443.91, 8.32, 246.81
443.98, 8.41, 246.66
444.03, 8.51, 246.55
444.07, 8.61, 246.45
444.12, 8.71, 246.34
444.17, 8.81, 246.23
444.22, 8.92, 246.12
444.30, 9.03, 245.95
444.39, 9.14, 245.76
444.48, 9.25, 245.57
444.57, 9.37, 245.37
443.38, 7.91, 247.72
443.44, 7.97, 247.57
443.51, 8.04, 247.43
443.58, 8.10, 247.27
443.65, 8.17, 247.11
443.72, 8.25, 246.95
443.80, 8.32, 246.77
443.88, 8.40, 246.60
443.93, 8.50, 246.50
443.97, 8.60, 246.39
444.02, 8.70, 246.28
444.07, 8.81, 246.17
444.13, 8.91, 246.04
444.21, 9.02, 245.85
¯444.29, 9.13, 245.67
444.38, 9.24, 245.47
444.48, 9.36, 245.26
443.30, 7.91, 247.67
443.35, 7.97, 247.54
443.41, 8.04, 247.40
443.48, 8.10, 247.24
443.55, 8.17, 247.08
443.62, 8.25, 246.92
443.70, 8.32, 246.74
443.78, 8.40, 246.56
443.83, 8.50, 246.44
443.87, 8.60, 246.33
443.92, 8.70, 246.22
443.97, 8.80, 246.11
444.04, 8.91, 245.94
444.12, 9.01, 245.76
444.20, 9.12, 245.57
444.29, 9.23, 245.36
444.38, 9.35, 245.14
443.22, 7.90, 247.61
443.27, 7.96, 247.48
443.32, 8.03, 247.35
443.38, 8.11, 247.21
443.45, 8.17, 247.05
443.52, 8.25, 246.89
443.59, 8.32, 246.71
443.67, 8.40, 246.53
443.73, 8.49, 246.38
443.77, 8.59, 246.28
443.82, 8.69, 246.17
443.87, 8.80, 246.03
443.95, 8.90, 245.85
444.02, 9.00, 245.66
444.10, 9.11, 245.47
444.19, 9.23, 245.26
444.30, 9.34, 245.00
443.14, 7.89, 247.55
443.19, 7.96, 247.43
443.24, 8.03, 247.30
443.29, 8.10, 247.16
443.35, 8.17, 247.02
443.42, 8.25, 246.86
443.49, 8.32, 246.68
443.56, 8.40, 246.50
443.63, 8.48, 246.33
443.67, 8.59, 246.22
443.71, 8.69, 246.11
443.78, 8.79, 245.94
443.85, 8.89, 245.76
443.93, 8.99, 245.56
¯444.01, 9.10, 245.37
444.09, 9.22, 245.16
444.21, 9.33, 244.87
443.06, 7.88, 247.50
443.11, 7.95, 247.37
443.16, 8.02, 247.24
443.21, 8.09, 247.10
443.26, 8.16, 246.96
443.32, 8.24, 246.81
443.38, 8.32, 246.65
443.45, 8.40, 246.47
443.52, 8.48, 246.28
443.57, 8.58, 246.16
443.62, 8.68, 246.03
443.69, 8.78, 245.85
443.76, 8.88, 245.66
443.83, 8.98, 245.47
443.91, 9.09, 245.26
443.99, 9.21, 245.05
444.11, 9.33, 244.73
442.98, 7.87, 247.44
443.02, 7.94, 247.31
443.07, 8.01, 247.18
443.12, 8.08, 247.04
443.18, 8.16, 246.90
443.23, 8.23, 246.75
443.29, 8.31, 246.60
443.34, 8.40, 246.44
443.41, 8.48, 246.25
443.46, 8.57, 246.11
443.53, 8.67, 245.94
443.59, 8.77, 245.76
443.66, 8.87, 245.57
443.73, 8.97, 245.37
443.81, 9.09, 245.16
443.89, 9.20, 244.95
444.02, 9.32, 244.60
442.89, 7.86, 247.39
442.94, 7.93, 247.26
442.99, 8.00, 247.12
443.04, 8.07, 246.98
443.09, 8.15, 246.84
443.14, 8.22, 246.69
443.19, 8.30, 246.53
443.25, 8.39, 246.37
443.31, 8.47, 246.20
443.37, 8.56, 246.03
443.43, 8.66, 245.85
443.50, 8.76, 245.66
443.56, 8.86, 245.47
443.63, 8.96, 245.27
¯443.71, 9.08, 245.06
443.79, 9.19, 244.84
443.92, 9.31, 244.46
442.81, 7.85, 247.34
442.86, 7.92, 247.20
442.90, 7.99, 247.07
442.95, 8.06, 246.92
443.00, 8.14, 246.78
443.05, 8.21, 246.62
443.10, 8.29, 246.47
443.16, 8.38, 246.30
443.21, 8.46, 246.13
443.29, 8.55, 245.91
443.34, 8.64, 245.75
443.40, 8.74, 245.57
443.47, 8.85, 245.37
443.53, 8.95, 245.17
443.61, 9.07, 244.95
443.68, 9.18, 244.73
443.82, 9.29, 244.32
442.73, 7.84, 247.28
442.77, 7.91, 247.15
442.82, 7.98, 247.01
442.86, 8.05, 246.86
442.91, 8.13, 246.72
442.96, 8.20, 246.56
443.01, 8.28, 246.40
443.06, 8.37, 246.24
443.13, 8.45, 246.03
443.20, 8.53, 245.79
443.26, 8.63, 245.63
443.31, 8.73, 245.46
443.37, 8.83, 245.28
443.43, 8.94, 245.07
443.50, 9.05, 244.85
443.57, 9.17, 244.62
443.72, 9.28, 244.19
442.64, 7.83, 247.23
442.69, 7.90, 247.09
442.73, 7.97, 246.95
442.77, 8.04, 246.80
442.82, 8.11, 246.65
442.87, 8.19, 246.50
442.91, 8.27, 246.34
442.96, 8.36, 246.17
443.06, 8.42, 245.87
443.12, 8.51, 245.67
443.17, 8.61, 245.50
443.22, 8.71, 245.33
443.28, 8.82, 245.14
443.33, 8.93, 244.95
¯443.40, 9.04, 244.74
443.47, 9.16, 244.51
442.56, 7.82, 247.17
442.60, 7.89, 247.04
442.64, 7.96, 246.89
442.68, 8.03, 246.75
442.73, 8.10, 246.59
442.77, 8.18, 246.44
442.82, 8.26, 246.27
442.87, 8.35, 246.10
442.98, 8.39, 245.71
443.03, 8.49, 245.55
443.08, 8.59, 245.37
443.13, 8.69, 245.19
443.18, 8.80, 245.01
443.24, 8.91, 244.81
443.30, 9.03, 244.61
443.36, 9.15, 244.40
442.47, 7.81, 247.12
442.51, 7.87, 246.98
442.55, 7.94, 246.84
442.59, 8.02, 246.69
442.63, 8.09, 246.53
442.68, 8.17, 246.37
442.72, 8.25, 246.21
442.79, 8.32, 245.96
442.90, 8.37, 245.59
442.94, 8.47, 245.42
442.99, 8.57, 245.24
443.04, 8.68, 245.06
443.09, 8.78, 244.86
443.14, 8.90, 244.66
443.20, 9.01, 244.46
443.26, 9.14, 244.24
442.39, 7.79, 247.07
442.42, 7.86, 246.93
442.46, 7.93, 246.78
442.50, 8.01, 246.63
442.54, 8.08, 246.47
442.58, 8.16, 246.31
442.63, 8.24, 246.14
442.72, 8.29, 245.81
442.81, 8.35, 245.47
442.85, 8.45, 245.29
442.90, 8.55, 245.11
442.95, 8.66, 244.92
443.00, 8.77, 244.72
443.05, 8.88, 244.51
443.10, 9.00, 244.30
443.17, 9.12, 244.04
442.29, 7.79, 247.05
¯442.34, 7.85, 246.87
442.37, 7.92, 246.72
442.41, 7.99, 246.57
442.45, 8.07, 246.41
442.49, 8.15, 246.25
442.53, 8.22, 246.06
442.64, 8.26, 245.65
442.71, 8.33, 245.34
442.76, 8.43, 245.16
442.80, 8.53, 244.97
442.85, 8.64, 244.78
442.90, 8.75, 244.57
442.95, 8.86, 244.36
443.00, 8.98, 244.14
442.19, 7.79, 247.04
442.25, 7.84, 246.82
442.28, 7.91, 246.67
442.31, 7.98, 246.51
442.35, 8.06, 246.35
442.39, 8.13, 246.19
442.45, 8.19, 245.91
442.56, 8.23, 245.49
442.62, 8.31, 245.21
442.66, 8.41, 245.03
442.70, 8.51, 244.83
442.75, 8.62, 244.63
442.80, 8.73, 244.42
442.85, 8.84, 244.21
442.92, 8.95, 243.87
442.10, 7.79, 247.03
442.16, 7.82, 246.76
442.19, 7.89, 246.61
442.22, 7.97, 246.45
442.25, 8.04, 246.29
442.29, 8.12, 246.12
442.37, 8.16, 245.76
442.47, 8.20, 245.33
442.52, 8.28, 245.08
442.56, 8.38, 244.89
442.60, 8.49, 244.69
442.65, 8.59, 244.49
442.69, 8.71, 244.27
442.75, 8.82, 243.98
442.00, 7.79, 247.02
442.06, 7.81, 246.71
442.09, 7.88, 246.56
442.12, 7.95, 246.40
442.16, 8.03, 246.23
442.20, 8.10, 246.02
442.29, 8.13, 245.61
442.38, 8.17, 245.16
²442.42, 8.26, 244.95
442.46, 8.36, 244.75
442.50, 8.46, 244.55
442.54, 8.57, 244.33
442.59, 8.68, 244.10
442.67, 8.78, 243.71
441.90, 7.79, 247.01
441.97, 7.80, 246.65
442.00, 7.87, 246.50
442.03, 7.94, 246.34
442.06, 8.02, 246.17
442.12, 8.07, 245.88
442.20, 8.10, 245.46
442.29, 8.14, 245.01
442.32, 8.23, 244.81
442.36, 8.33, 244.61
442.40, 8.44, 244.40
442.44, 8.55, 244.18
442.50, 8.65, 243.83
442.58, 8.75, 243.43
444.45, 8.05, 234.33
444.43, 8.33, 234.36
444.41, 8.62, 234.39
444.39, 8.90, 234.42
444.38, 9.18, 234.44
444.36, 9.46, 234.47
444.34, 9.73, 234.49
444.33, 10.01, 234.50
444.31, 10.29, 234.51
441.80, 7.79, 247.01
441.87, 7.80, 246.65
441.90, 7.85, 246.44
441.93, 7.93, 246.28
441.96, 8.00, 246.11
442.03, 8.03, 245.74
442.11, 8.06, 245.30
442.19, 8.11, 244.87
442.22, 8.21, 244.67
442.25, 8.31, 244.47
442.29, 8.41, 244.25
442.34, 8.51, 243.95
442.41, 8.61, 243.55
444.12, 7.80, 234.67
443.40, 8.42, 238.31
443.39, 8.64, 238.31
443.38, 8.86, 238.31
443.56, 9.04, 237.32
444.05, 9.18, 234.69
444.03, 9.45, 234.70
444.02, 9.72, 234.70
444.01, 10.00, 234.71
²443.99, 10.27, 234.71
441.70, 7.79, 247.01
441.76, 7.80, 246.64
441.81, 7.84, 246.39
441.83, 7.91, 246.22
441.87, 7.97, 246.00
441.94, 8.00, 245.59
442.02, 8.03, 245.13
442.08, 8.08, 244.74
442.11, 8.18, 244.53
442.14, 8.28, 244.32
442.18, 8.38, 244.07
442.25, 8.47, 243.68
442.31, 8.57, 243.26
443.20, 8.18, 238.27
443.62, 8.18, 235.83
443.80, 8.35, 234.77
443.78, 8.62, 234.77
443.16, 9.08, 238.26
443.15, 9.30, 238.26
443.74, 9.44, 234.77
443.73, 9.71, 234.77
443.72, 9.98, 234.77
443.71, 10.26, 234.77
441.60, 7.79, 247.01
441.66, 7.80, 246.64
441.71, 7.82, 246.33
441.73, 7.90, 246.17
441.78, 7.94, 245.86
441.84, 7.97, 245.44
441.92, 7.99, 244.97
441.97, 8.05, 244.60
442.00, 8.15, 244.39
442.03, 8.25, 244.17
442.09, 8.34, 243.81
442.15, 8.43, 243.40
442.99, 7.95, 238.23
443.25, 7.99, 236.60
443.53, 8.07, 234.77
443.52, 8.34, 234.77
443.51, 8.61, 234.76
443.50, 8.89, 234.76
442.93, 9.29, 238.22
443.16, 9.48, 236.73
443.46, 9.70, 234.75
443.45, 9.97, 234.75
443.44, 10.24, 234.74
441.51, 7.79, 247.01
441.56, 7.80, 246.65
441.61, 7.81, 246.28
441.63, 7.88, 246.11
±441.69, 7.91, 245.72
441.75, 7.93, 245.29
441.82, 7.95, 244.80
441.86, 8.02, 244.46
441.89, 8.12, 244.24
441.93, 8.21, 243.93
441.98, 8.30, 243.53
442.04, 8.39, 243.10
442.79, 7.92, 238.08
443.12, 7.90, 235.84
443.27, 8.05, 234.69
443.26, 8.32, 234.69
443.25, 8.60, 234.68
443.24, 8.87, 234.67
443.23, 9.14, 234.66
442.70, 9.50, 238.17
443.20, 9.69, 234.65
443.19, 9.96, 234.64
443.18, 10.23, 234.63
441.41, 7.79, 247.01
441.46, 7.80, 246.65
441.51, 7.80, 246.25
441.54, 7.85, 246.00
441.59, 7.87, 245.58
441.65, 7.89, 245.13
441.71, 7.92, 244.63
441.75, 7.99, 244.31
441.78, 8.09, 244.06
441.83, 8.16, 243.67
441.88, 8.25, 243.25
441.93, 8.34, 242.80
442.59, 7.90, 237.93
442.83, 7.92, 236.04
443.02, 8.02, 234.52
443.01, 8.30, 234.50
443.00, 8.57, 234.49
442.99, 8.85, 234.48
442.98, 9.12, 234.46
442.48, 9.49, 238.13
442.96, 9.67, 234.43
442.94, 9.95, 234.42
442.93, 10.22, 234.40
441.31, 7.79, 247.01
441.35, 7.80, 246.65
441.40, 7.80, 246.26
441.44, 7.81, 245.87
441.49, 7.83, 245.44
441.55, 7.85, 244.97
441.60, 7.88, 244.45
441.63, 7.96, 244.17
441.67, 8.04, 243.80
²441.72, 8.11, 243.39
441.76, 8.20, 242.95
442.11, 7.96, 240.10
442.34, 7.91, 238.10
442.49, 7.99, 236.81
442.80, 7.98, 234.14
442.79, 8.26, 234.11
442.78, 8.53, 234.08
442.77, 8.81, 234.06
442.27, 9.26, 238.09
442.76, 9.37, 233.90
442.75, 9.65, 233.82
442.06, 9.92, 239.61
442.05, 10.12, 239.70
441.21, 7.79, 247.02
441.25, 7.80, 246.66
441.29, 7.80, 246.27
441.34, 7.80, 245.82
441.39, 7.80, 245.32
441.44, 7.81, 244.81
441.49, 7.83, 244.27
441.52, 7.91, 243.94
441.56, 7.98, 243.53
441.60, 8.06, 243.10
441.64, 8.15, 242.64
441.92, 7.94, 240.02
441.92, 8.13, 239.91
441.91, 8.33, 239.93
441.90, 8.53, 239.96
441.88, 8.73, 239.98
441.87, 8.93, 240.01
441.86, 9.13, 240.04
441.85, 9.33, 240.06
441.83, 9.52, 240.08
441.82, 9.72, 240.10
441.81, 9.91, 240.11
441.80, 10.10, 240.12
441.79, 10.30, 240.13
441.12, 7.79, 247.02
441.15, 7.80, 246.67
441.18, 7.80, 246.28
441.22, 7.80, 245.83
441.27, 7.80, 245.33
441.31, 7.80, 244.77
441.37, 7.80, 244.13
441.41, 7.85, 243.68
441.44, 7.93, 243.26
441.48, 8.00, 242.80
441.52, 8.09, 242.31
441.71, 7.95, 240.15
441.70, 8.15, 240.16
³441.69, 8.35, 240.18
441.68, 8.55, 240.19
441.67, 8.74, 240.20
441.66, 8.94, 240.21
441.65, 9.13, 240.23
441.64, 9.32, 240.24
441.62, 9.52, 240.25
441.61, 9.71, 240.26
441.60, 9.90, 240.27
441.59, 10.09, 240.28
441.58, 10.28, 240.28
441.02, 7.79, 247.03
441.05, 7.80, 246.68
441.07, 7.80, 246.29
441.11, 7.80, 245.85
441.14, 7.80, 245.35
441.19, 7.80, 244.79
441.23, 7.80, 244.16
441.27, 7.84, 243.64
441.30, 7.90, 243.15
441.34, 7.97, 242.61
441.41, 7.98, 241.65
441.51, 7.96, 240.28
441.50, 8.16, 240.29
441.49, 8.35, 240.29
441.48, 8.55, 240.30
441.47, 8.74, 240.31
441.46, 8.93, 240.31
441.45, 9.13, 240.32
441.44, 9.32, 240.33
441.43, 9.51, 240.33
441.42, 9.70, 240.34
441.41, 9.89, 240.34
441.39, 10.08, 240.35
441.38, 10.27, 240.36
440.92, 7.79, 247.04
440.94, 7.80, 246.69
440.97, 7.80, 246.30
440.99, 7.80, 245.86
441.02, 7.80, 245.37
441.06, 7.80, 244.81
441.09, 7.80, 244.18
441.13, 7.83, 243.61
441.15, 7.89, 243.12
441.18, 7.95, 242.58
441.21, 8.03, 242.02
441.32, 7.97, 240.35
441.30, 8.16, 240.36
441.29, 8.35, 240.36
441.28, 8.55, 240.36
441.27, 8.74, 240.36
³441.26, 8.93, 240.36
441.25, 9.12, 240.37
441.24, 9.31, 240.37
441.23, 9.50, 240.37
441.22, 9.69, 240.37
441.21, 9.88, 240.37
441.20, 10.07, 240.38
441.19, 10.26, 240.38
440.83, 7.79, 247.05
440.84, 7.80, 246.70
440.86, 7.80, 246.31
440.88, 7.80, 245.88
440.90, 7.80, 245.38
440.93, 7.80, 244.83
440.96, 7.80, 244.21
440.99, 7.82, 243.59
441.01, 7.88, 243.09
441.03, 7.94, 242.54
441.05, 8.02, 241.99
441.13, 7.96, 240.36
441.12, 8.15, 240.36
441.11, 8.35, 240.37
441.09, 8.54, 240.37
441.08, 8.73, 240.37
441.07, 8.92, 240.37
441.06, 9.11, 240.37
441.05, 9.30, 240.38
441.04, 9.49, 240.38
441.03, 9.68, 240.37
441.02, 9.87, 240.37
441.01, 10.06, 240.37
441.00, 10.25, 240.37
440.73, 7.79, 247.07
440.74, 7.79, 246.72
440.76, 7.80, 246.33
440.77, 7.80, 245.90
440.78, 7.80, 245.41
440.80, 7.80, 244.86
440.82, 7.80, 244.23
440.84, 7.81, 243.56
440.86, 7.87, 243.06
440.87, 7.93, 242.51
440.88, 8.01, 241.96
440.93, 7.96, 240.43
440.93, 8.14, 240.34
440.92, 8.33, 240.34
440.91, 8.52, 240.34
440.90, 8.72, 240.33
440.89, 8.91, 240.33
440.88, 9.10, 240.33
440.87, 9.29, 240.33
µ440.86, 9.48, 240.32
440.85, 9.67, 240.32
440.84, 9.86, 240.32
440.83, 10.05, 240.32
440.82, 10.24, 240.32
440.96, 10.65, 234.93
440.64, 7.79, 247.08
440.64, 7.79, 246.73
440.65, 7.80, 246.35
440.66, 7.80, 245.92
440.67, 7.80, 245.43
440.68, 7.80, 244.88
440.69, 7.80, 244.26
440.70, 7.81, 243.59
440.71, 7.85, 243.03
440.71, 7.92, 242.48
440.72, 7.99, 241.94
440.73, 8.03, 241.02
440.74, 8.12, 240.29
440.73, 8.32, 240.28
440.72, 8.51, 240.27
440.71, 8.70, 240.26
440.70, 8.89, 240.26
440.69, 9.08, 240.25
440.68, 9.28, 240.24
440.67, 9.47, 240.23
440.66, 9.66, 240.23
440.65, 9.85, 240.22
440.64, 10.04, 240.21
440.63, 10.23, 240.20
440.67, 10.55, 236.91
440.54, 7.79, 247.10
440.54, 7.79, 246.75
440.54, 7.80, 246.37
440.55, 7.80, 245.94
440.55, 7.80, 245.45
440.55, 7.80, 244.91
440.55, 7.80, 244.30
440.56, 7.81, 243.62
440.56, 7.84, 243.01
440.55, 7.90, 242.46
440.55, 7.98, 241.91
440.55, 8.08, 241.38
440.55, 8.10, 240.16
440.54, 8.29, 240.15
440.53, 8.49, 240.15
440.52, 8.68, 240.14
440.51, 8.87, 240.12
440.50, 9.07, 240.11
440.49, 9.26, 240.09
440.48, 9.45, 240.08
µ440.47, 9.65, 240.06
440.46, 9.84, 240.05
440.45, 10.03, 240.03
440.44, 10.23, 240.01
440.43, 10.53, 237.29
440.45, 7.79, 247.11
440.44, 7.79, 246.77
440.44, 7.80, 246.39
440.44, 7.80, 245.96
440.43, 7.80, 245.48
440.43, 7.80, 244.94
440.42, 7.80, 244.33
440.41, 7.81, 243.66
440.40, 7.83, 242.99
440.40, 7.89, 242.43
440.39, 7.97, 241.89
440.38, 8.06, 241.35
440.36, 8.06, 239.95
440.35, 8.26, 239.93
440.34, 8.45, 239.92
440.33, 8.65, 239.89
440.32, 8.84, 239.85
440.30, 9.04, 239.81
440.29, 9.23, 239.78
440.28, 9.43, 239.74
440.27, 9.63, 239.70
440.26, 9.83, 239.66
440.25, 10.03, 239.41
440.17, 10.58, 235.45
440.18, 10.75, 237.24
440.35, 7.79, 247.14
440.35, 7.79, 246.79
440.34, 7.80, 246.41
440.33, 7.80, 245.99
440.31, 7.80, 245.51
440.30, 7.80, 244.97
440.29, 7.80, 244.37
440.27, 7.80, 243.70
440.25, 7.81, 242.96
440.24, 7.88, 242.41
440.22, 7.95, 241.87
440.20, 8.05, 241.33
440.17, 8.04, 239.86
440.12, 8.00, 237.83
440.10, 8.21, 237.65
440.09, 8.44, 237.65
440.08, 8.66, 237.65
440.06, 8.89, 237.65
440.04, 9.10, 237.21
439.99, 9.27, 235.41
439.94, 9.51, 234.13
·439.93, 9.79, 234.12
439.91, 10.06, 234.11
439.91, 10.33, 234.63
439.93, 10.55, 236.03
439.95, 10.74, 237.19
440.26, 7.79, 247.16
440.25, 7.79, 246.81
440.23, 7.80, 246.43
440.22, 7.80, 246.02
440.20, 7.80, 245.54
440.18, 7.80, 245.01
440.16, 7.80, 244.41
440.13, 7.80, 243.74
440.10, 7.81, 243.00
440.08, 7.86, 242.38
440.05, 7.94, 241.85
440.03, 8.03, 241.31
439.99, 8.10, 240.47
439.90, 8.02, 238.10
439.85, 8.11, 236.82
439.86, 8.40, 237.41
439.85, 8.65, 237.57
439.83, 8.87, 237.48
439.81, 9.08, 237.16
439.76, 9.29, 236.36
439.72, 9.52, 235.42
439.69, 9.78, 235.07
439.68, 10.04, 235.15
439.68, 10.29, 235.65
439.71, 10.51, 236.75
439.71, 10.73, 237.14
440.17, 7.79, 247.18
440.15, 7.79, 246.83
440.13, 7.80, 246.46
440.11, 7.80, 246.05
440.08, 7.80, 245.57
440.06, 7.80, 245.04
440.03, 7.80, 244.45
439.99, 7.80, 243.79
439.95, 7.81, 243.05
439.91, 7.85, 242.36
439.88, 7.93, 241.83
439.85, 8.02, 241.29
439.81, 8.12, 240.69
439.79, 8.29, 240.50
439.78, 8.48, 240.49
439.77, 8.66, 240.47
439.76, 8.86, 240.52
439.75, 9.05, 240.58
439.74, 9.24, 240.61
439.57, 9.31, 237.27
µ439.51, 9.53, 236.44
439.48, 9.77, 236.13
439.47, 10.02, 236.18
439.47, 10.26, 236.59
439.49, 10.48, 237.10
440.08, 7.79, 247.21
440.05, 7.80, 246.86
440.03, 7.80, 246.49
440.00, 7.80, 246.08
439.97, 7.80, 245.61
439.94, 7.80, 245.08
439.90, 7.80, 244.49
439.85, 7.80, 243.83
439.80, 7.81, 243.10
439.75, 7.83, 242.34
439.71, 7.91, 241.81
439.67, 8.01, 241.27
439.63, 8.11, 240.67
439.60, 8.27, 240.49
439.59, 8.46, 240.41
439.58, 8.64, 240.38
439.57, 8.84, 240.42
439.56, 9.04, 240.54
439.57, 9.24, 240.83
439.57, 9.43, 240.99
439.30, 9.52, 237.06
439.29, 9.76, 237.06
439.28, 10.00, 237.06
439.26, 10.23, 237.05
439.13, 10.53, 235.36
439.99, 7.80, 247.24
439.96, 7.80, 246.89
439.93, 7.80, 246.51
439.89, 7.80, 246.11
439.86, 7.80, 245.64
439.82, 7.80, 245.12
439.77, 7.80, 244.54
439.72, 7.80, 243.88
439.66, 7.81, 243.16
439.59, 7.82, 242.33
439.54, 7.90, 241.80
439.49, 7.99, 241.25
439.44, 8.09, 240.65
439.41, 8.25, 240.41
439.39, 8.43, 240.32
439.38, 8.62, 240.29
439.37, 8.82, 240.32
439.37, 9.02, 240.43
439.38, 9.22, 240.71
439.42, 9.43, 241.33
439.07, 9.51, 237.14
µ439.05, 9.75, 236.99
439.03, 9.98, 236.99
439.02, 10.22, 236.96
438.96, 10.48, 236.47
439.89, 7.80, 247.27
439.86, 7.80, 246.92
439.83, 7.80, 246.55
439.79, 7.80, 246.14
439.75, 7.80, 245.68
439.70, 7.80, 245.16
439.64, 7.80, 244.58
439.58, 7.80, 243.93
439.51, 7.81, 243.21
439.43, 7.82, 242.39
439.37, 7.88, 241.78
439.34, 8.02, 241.50
439.25, 8.08, 240.64
439.22, 8.23, 240.34
439.20, 8.41, 240.24
439.18, 8.60, 240.20
439.17, 8.80, 240.23
439.29, 9.08, 241.62
439.28, 9.26, 241.64
439.25, 9.42, 241.44
438.91, 9.51, 237.89
438.76, 10.45, 236.93
438.68, 10.72, 236.28
439.80, 7.80, 247.30
439.77, 7.80, 246.95
439.73, 7.80, 246.58
439.68, 7.80, 246.17
439.63, 7.80, 245.72
439.58, 7.80, 245.21
439.52, 7.80, 244.63
439.45, 7.80, 243.98
439.37, 7.81, 243.27
439.28, 7.82, 242.45
439.20, 7.87, 241.78
439.19, 8.05, 241.79
439.19, 8.23, 241.84
439.18, 8.40, 241.85
439.17, 8.58, 241.87
439.16, 8.75, 241.89
439.15, 8.92, 241.91
439.13, 9.08, 241.81
439.11, 9.25, 241.65
439.07, 9.41, 241.39
438.26, 10.51, 234.60
438.50, 10.67, 236.88
439.72, 7.80, 247.33
439.67, 7.80, 246.99
µ439.63, 7.80, 246.62
439.58, 7.80, 246.21
439.52, 7.80, 245.76
439.46, 7.80, 245.25
439.39, 7.80, 244.68
439.31, 7.80, 244.03
439.23, 7.81, 243.32
439.13, 7.81, 242.51
439.03, 7.86, 241.78
439.01, 8.02, 241.67
439.01, 8.21, 241.81
439.01, 8.39, 241.88
439.00, 8.57, 241.90
438.99, 8.74, 241.88
438.98, 8.90, 241.84
438.95, 9.07, 241.74
438.92, 9.23, 241.58
438.88, 9.40, 241.33
438.07, 9.41, 234.73
438.00, 9.67, 234.24
437.98, 9.95, 234.21
438.00, 10.22, 234.51
438.07, 10.47, 235.22
438.25, 10.66, 236.83
439.63, 7.80, 247.36
439.58, 7.80, 247.02
439.53, 7.80, 246.66
439.48, 7.80, 246.25
439.41, 7.80, 245.80
439.35, 7.80, 245.30
439.27, 7.80, 244.73
439.18, 7.80, 244.09
439.08, 7.80, 243.38
438.97, 7.81, 242.57
438.87, 7.85, 241.83
438.82, 7.98, 241.55
438.83, 8.18, 241.71
438.83, 8.37, 241.79
438.82, 8.54, 241.82
438.81, 8.72, 241.80
438.80, 8.88, 241.77
438.77, 9.05, 241.66
438.74, 9.22, 241.52
438.70, 9.38, 241.28
437.91, 9.41, 235.53
437.83, 9.66, 235.09
437.81, 9.93, 235.03
437.83, 10.19, 235.29
437.90, 10.44, 235.90
438.00, 10.65, 236.78
439.54, 7.80, 247.39
µ439.49, 7.80, 247.06
439.43, 7.80, 246.70
439.37, 7.80, 246.29
439.31, 7.80, 245.85
439.23, 7.80, 245.35
439.15, 7.80, 244.79
439.05, 7.80, 244.15
438.94, 7.80, 243.44
438.82, 7.81, 242.64
438.70, 7.84, 241.88
438.63, 7.95, 241.43
438.64, 8.15, 241.61
438.65, 8.34, 241.70
438.64, 8.52, 241.73
438.63, 8.69, 241.72
438.61, 8.86, 241.69
438.59, 9.03, 241.59
438.55, 9.20, 241.45
438.51, 9.37, 241.23
437.76, 9.41, 236.28
437.68, 9.66, 235.87
437.66, 9.91, 235.79
437.67, 10.16, 236.01
437.74, 10.40, 236.53
437.75, 10.64, 236.73
439.45, 7.80, 247.43
439.40, 7.80, 247.10
439.34, 7.80, 246.73
439.27, 7.80, 246.33
439.20, 7.80, 245.89
439.12, 7.80, 245.40
439.03, 7.80, 244.84
438.92, 7.80, 244.21
438.80, 7.80, 243.50
438.67, 7.81, 242.71
438.54, 7.84, 241.93
438.43, 7.91, 241.30
438.45, 8.13, 241.51
438.46, 8.32, 241.62
438.45, 8.50, 241.64
438.44, 8.67, 241.64
438.42, 8.84, 241.61
438.40, 9.01, 241.52
438.37, 9.18, 241.38
438.32, 9.35, 241.17
438.21, 9.52, 240.59
437.54, 9.65, 236.58
437.51, 9.90, 236.50
437.53, 10.14, 236.67
437.51, 10.38, 236.68
437.12, 10.72, 234.47
´439.37, 7.80, 247.46
439.31, 7.80, 247.13
439.24, 7.80, 246.77
439.17, 7.80, 246.38
439.09, 7.80, 245.94
439.00, 7.80, 245.45
438.91, 7.80, 244.90
438.79, 7.80, 244.28
438.67, 7.80, 243.57
438.52, 7.80, 242.78
438.38, 7.83, 241.98
438.25, 7.90, 241.31
438.26, 8.09, 241.40
438.27, 8.29, 241.51
438.26, 8.47, 241.55
438.25, 8.65, 241.56
438.23, 8.82, 241.52
438.21, 9.00, 241.44
438.17, 9.17, 241.32
438.13, 9.34, 241.11
438.02, 9.50, 240.59
437.20, 9.63, 236.04
437.29, 9.88, 236.64
437.16, 10.13, 236.03
437.14, 10.39, 236.03
437.03, 10.66, 235.52
439.28, 7.80, 247.49
439.22, 7.80, 247.17
439.15, 7.80, 246.81
439.07, 7.80, 246.42
438.99, 7.80, 245.98
438.89, 7.80, 245.50
438.79, 7.80, 244.96
438.67, 7.80, 244.34
438.53, 7.80, 243.64
438.38, 7.80, 242.85
438.22, 7.82, 242.03
438.08, 7.89, 241.36
438.06, 8.06, 241.29
438.07, 8.26, 241.41
438.07, 8.45, 241.46
438.06, 8.63, 241.48
438.04, 8.80, 241.44
438.01, 8.98, 241.36
437.98, 9.15, 241.25
437.93, 9.32, 241.04
437.83, 9.49, 240.59
436.43, 10.43, 233.69
436.86, 10.63, 235.97
439.19, 7.80, 247.53
439.13, 7.80, 247.21
µ439.05, 7.80, 246.85
438.97, 7.80, 246.47
438.88, 7.80, 246.03
438.78, 7.80, 245.55
438.67, 7.80, 245.02
438.54, 7.80, 244.41
438.40, 7.80, 243.72
438.23, 7.80, 242.92
438.06, 7.82, 242.09
437.92, 7.88, 241.42
437.85, 8.03, 241.17
437.87, 8.23, 241.30
437.87, 8.42, 241.37
437.86, 8.60, 241.39
437.84, 8.78, 241.35
437.82, 8.96, 241.28
437.78, 9.13, 241.17
437.73, 9.30, 240.96
437.64, 9.48, 240.60
436.23, 9.55, 233.86
436.17, 9.84, 233.69
436.18, 10.13, 233.82
436.27, 10.40, 234.33
436.58, 10.62, 235.92
439.11, 7.80, 247.57
439.04, 7.80, 247.25
438.96, 7.80, 246.90
438.88, 7.80, 246.51
438.78, 7.80, 246.09
438.67, 7.80, 245.61
438.55, 7.80, 245.08
438.42, 7.80, 244.48
438.27, 7.80, 243.79
438.09, 7.80, 243.01
437.90, 7.81, 242.14
437.75, 7.88, 241.48
437.64, 7.99, 241.03
437.66, 8.20, 241.19
437.67, 8.39, 241.27
437.66, 8.58, 241.30
437.64, 8.76, 241.27
437.61, 8.94, 241.21
437.58, 9.11, 241.09
437.52, 9.29, 240.89
437.43, 9.46, 240.54
436.09, 9.55, 234.57
436.03, 9.82, 234.40
436.04, 10.10, 234.50
436.12, 10.37, 234.92
436.31, 10.60, 235.86
439.03, 7.80, 247.61
µ438.95, 7.80, 247.29
438.87, 7.80, 246.94
438.78, 7.80, 246.56
438.68, 7.80, 246.14
438.57, 7.80, 245.67
438.44, 7.80, 245.14
438.30, 7.80, 244.55
438.14, 7.80, 243.87
437.95, 7.80, 243.09
437.74, 7.80, 242.21
437.58, 7.87, 241.55
437.42, 7.95, 240.88
437.45, 8.17, 241.08
437.46, 8.36, 241.17
437.45, 8.55, 241.20
437.43, 8.73, 241.18
437.41, 8.91, 241.12
437.37, 9.09, 241.01
437.31, 9.27, 240.82
437.22, 9.45, 240.48
435.96, 9.54, 235.23
435.91, 9.81, 235.06
435.91, 10.08, 235.14
435.97, 10.34, 235.49
436.03, 10.59, 235.81
438.94, 7.80, 247.65
438.86, 7.80, 247.33
438.78, 7.80, 246.99
438.68, 7.80, 246.61
438.58, 7.80, 246.19
438.46, 7.80, 245.73
438.33, 7.80, 245.21
438.18, 7.80, 244.62
438.01, 7.80, 243.95
437.82, 7.80, 243.18
437.59, 7.80, 242.30
437.41, 7.86, 241.60
437.22, 7.93, 240.86
437.23, 8.13, 240.96
437.25, 8.34, 241.07
437.24, 8.53, 241.10
437.22, 8.71, 241.09
437.20, 8.89, 241.04
437.16, 9.07, 240.92
437.10, 9.25, 240.74
437.00, 9.43, 240.41
435.82, 9.53, 235.77
435.78, 9.79, 235.68
435.78, 10.05, 235.75
435.77, 10.32, 235.75
435.45, 10.62, 234.59
´438.86, 7.80, 247.69
438.78, 7.80, 247.37
438.69, 7.80, 247.03
438.59, 7.80, 246.66
438.48, 7.80, 246.25
438.35, 7.80, 245.79
438.22, 7.80, 245.27
438.06, 7.80, 244.69
437.88, 7.80, 244.03
437.68, 7.80, 243.28
437.45, 7.80, 242.40
437.24, 7.85, 241.65
437.04, 7.92, 240.91
437.01, 8.10, 240.84
437.03, 8.30, 240.96
437.02, 8.50, 241.00
437.01, 8.68, 241.00
436.99, 8.87, 240.95
436.94, 9.05, 240.84
436.88, 9.23, 240.66
435.73, 9.27, 236.37
435.60, 9.52, 235.94
435.36, 10.31, 235.25
435.34, 10.58, 235.25
438.78, 7.80, 247.73
438.69, 7.80, 247.42
438.60, 7.80, 247.08
438.49, 7.80, 246.71
438.38, 7.80, 246.30
438.25, 7.80, 245.85
438.11, 7.80, 245.34
437.94, 7.80, 244.77
437.76, 7.80, 244.11
437.55, 7.80, 243.37
437.30, 7.80, 242.49
437.07, 7.84, 241.70
436.86, 7.90, 240.96
436.61, 7.97, 240.08
436.80, 8.27, 240.84
436.80, 8.47, 240.89
436.79, 8.66, 240.90
435.10, 8.36, 234.84
435.07, 8.64, 234.80
435.11, 8.93, 235.02
435.29, 9.23, 235.72
435.43, 9.51, 236.31
434.49, 9.74, 233.03
434.48, 10.04, 233.07
434.55, 10.34, 233.40
435.04, 10.57, 235.19
438.70, 7.80, 247.77
´438.61, 7.80, 247.47
438.51, 7.80, 247.13
438.40, 7.80, 246.77
438.28, 7.80, 246.36
438.15, 7.80, 245.91
438.00, 7.80, 245.41
437.83, 7.80, 244.84
437.64, 7.80, 244.20
437.42, 7.80, 243.46
437.16, 7.80, 242.59
436.91, 7.83, 241.77
436.68, 7.89, 241.01
436.42, 7.96, 240.17
436.00, 7.99, 238.74
435.36, 7.98, 236.61
435.07, 8.14, 235.67
434.98, 8.39, 235.40
434.95, 8.66, 235.39
435.00, 8.94, 235.61
435.17, 9.23, 236.25
434.48, 9.43, 233.99
434.36, 9.72, 233.67
434.35, 10.02, 233.70
434.41, 10.30, 233.97
434.62, 10.57, 234.74
438.62, 7.80, 247.81
438.53, 7.80, 247.51
438.42, 7.80, 247.18
438.31, 7.80, 246.82
438.18, 7.80, 246.42
438.05, 7.80, 245.97
437.89, 7.80, 245.48
437.71, 7.80, 244.92
437.52, 7.80, 244.28
437.29, 7.80, 243.55
437.02, 7.80, 242.69
436.75, 7.82, 241.85
436.50, 7.88, 241.07
436.24, 7.95, 240.25
435.80, 7.98, 238.84
435.20, 7.99, 236.94
434.95, 8.16, 236.17
434.86, 8.41, 235.95
434.84, 8.67, 235.95
434.89, 8.94, 236.16
434.88, 9.21, 236.20
434.37, 9.43, 234.61
434.25, 9.71, 234.28
434.23, 9.99, 234.29
434.28, 10.28, 234.54
434.43, 10.54, 235.07
²438.54, 7.80, 247.86
438.44, 7.80, 247.56
438.34, 7.80, 247.23
438.22, 7.80, 246.87
438.09, 7.80, 246.48
437.95, 7.80, 246.04
437.78, 7.80, 245.55
437.60, 7.80, 245.00
437.40, 7.80, 244.37
437.16, 7.80, 243.64
436.88, 7.79, 242.80
436.59, 7.81, 241.93
436.33, 7.87, 241.14
436.05, 7.94, 240.31
435.60, 7.97, 238.94
435.04, 8.00, 237.25
434.53, 8.09, 235.72
434.65, 8.40, 236.15
434.63, 8.66, 236.15
434.48, 8.90, 235.73
434.46, 9.17, 235.72
434.26, 9.42, 235.20
434.13, 9.69, 234.86
434.11, 9.97, 234.86
434.14, 10.25, 235.01
433.78, 10.56, 233.99
438.47, 7.80, 247.90
438.36, 7.80, 247.61
438.25, 7.80, 247.29
438.13, 7.80, 246.93
438.00, 7.80, 246.54
437.85, 7.80, 246.11
437.68, 7.80, 245.62
437.49, 7.80, 245.08
437.28, 7.80, 244.46
437.03, 7.80, 243.73
436.74, 7.79, 242.90
436.44, 7.80, 242.01
436.16, 7.86, 241.23
435.86, 7.93, 240.38
435.38, 7.95, 238.98
434.89, 8.01, 237.57
434.24, 8.06, 235.68
433.57, 8.17, 233.76
433.48, 8.45, 233.56
433.47, 8.76, 233.61
433.57, 9.07, 233.96
434.13, 9.41, 235.66
433.86, 9.67, 234.94
433.87, 9.95, 235.03
433.83, 10.23, 234.95
²433.69, 10.52, 234.63
438.39, 7.80, 247.95
438.28, 7.80, 247.66
438.17, 7.80, 247.34
438.04, 7.80, 246.99
437.90, 7.80, 246.60
437.75, 7.80, 246.17
437.58, 7.80, 245.70
437.38, 7.80, 245.16
437.16, 7.80, 244.55
436.91, 7.80, 243.84
436.61, 7.79, 243.01
436.28, 7.80, 242.09
436.00, 7.85, 241.32
435.68, 7.91, 240.45
435.15, 7.92, 238.98
434.65, 7.99, 237.61
433.71, 7.96, 234.98
433.45, 8.19, 234.30
433.37, 8.47, 234.13
433.36, 8.76, 234.18
433.46, 9.07, 234.52
433.82, 9.39, 235.60
433.63, 9.65, 235.13
432.71, 9.94, 232.61
433.59, 10.21, 235.12
433.57, 10.49, 235.11
438.31, 7.80, 248.00
438.20, 7.80, 247.71
438.09, 7.80, 247.39
437.96, 7.80, 247.05
437.81, 7.80, 246.67
437.65, 7.80, 246.24
437.48, 7.80, 245.77
437.28, 7.80, 245.24
437.05, 7.80, 244.64
436.79, 7.80, 243.95
436.48, 7.79, 243.11
436.13, 7.79, 242.18
435.84, 7.84, 241.42
435.50, 7.90, 240.54
434.92, 7.90, 239.00
434.40, 7.96, 237.61
433.70, 8.02, 235.77
433.33, 8.20, 234.83
433.26, 8.48, 234.68
433.25, 8.77, 234.73
433.35, 9.07, 235.05
433.51, 9.36, 235.54
432.64, 9.61, 233.26
432.59, 9.91, 233.19
µ432.64, 10.22, 233.38
432.82, 10.51, 233.93
433.22, 10.76, 235.04
438.24, 7.80, 248.05
438.13, 7.80, 247.76
438.00, 7.80, 247.45
437.87, 7.80, 247.11
437.72, 7.80, 246.73
437.56, 7.80, 246.31
437.37, 7.80, 245.85
437.17, 7.80, 245.32
436.94, 7.80, 244.73
436.67, 7.80, 244.05
436.35, 7.79, 243.24
435.98, 7.79, 242.29
435.67, 7.83, 241.51
435.31, 7.89, 240.59
434.69, 7.88, 239.01
434.14, 7.93, 237.61
433.94, 8.13, 237.16
433.87, 8.37, 237.02
433.84, 8.62, 236.98
433.84, 8.88, 237.05
433.90, 9.14, 237.24
434.00, 9.40, 237.54
432.53, 9.59, 233.84
432.47, 9.89, 233.74
432.52, 10.19, 233.91
432.67, 10.48, 234.36
432.89, 10.75, 234.98
438.16, 7.80, 248.10
438.05, 7.80, 247.81
437.92, 7.80, 247.51
437.78, 7.80, 247.17
437.63, 7.80, 246.80
437.46, 7.80, 246.38
437.28, 7.80, 245.92
437.07, 7.80, 245.41
436.83, 7.80, 244.82
436.56, 7.80, 244.16
436.23, 7.79, 243.36
435.85, 7.79, 242.42
435.51, 7.82, 241.60
435.12, 7.87, 240.65
434.46, 7.85, 239.03
434.05, 7.96, 238.05
433.69, 8.11, 237.20
433.61, 8.35, 237.05
433.58, 8.60, 237.01
434.08, 8.93, 238.30
434.08, 9.17, 238.36
³433.97, 9.40, 238.12
432.43, 9.58, 234.39
432.37, 9.87, 234.29
432.40, 10.17, 234.42
