žVERSION 0.7
FIELDS x y z
SIZE 8 8 8
TYPE F F F
COUNT 1 1 1
WIDTH 2271
HEIGHT 1
VIEWPOINT 393.87, 7.01, 357.13 1 413.42, 2.32, 361.69
POINTS 2271
DATA ascii
427.54, 3.37, 355.47
428.43, 3.63, 355.11
417.56, 1.42, 359.47
¯417.69, 1.45, 359.41
417.81, 1.48, 359.36
417.94, 1.51, 359.31
418.07, 1.54, 359.25
418.21, 1.58, 359.19
418.36, 1.62, 359.13
418.51, 1.66, 359.06
418.68, 1.71, 358.99
418.85, 1.75, 358.92
419.04, 1.80, 358.84
419.24, 1.86, 358.75
419.46, 1.91, 358.66
419.71, 1.97, 358.55
419.98, 2.04, 358.44
420.29, 2.11, 358.31
420.62, 2.18, 358.17
421.06, 2.27, 357.98
421.57, 2.36, 357.77
422.15, 2.46, 357.52
422.78, 2.58, 357.26
423.52, 2.72, 356.94
424.71, 2.89, 356.44
425.71, 3.09, 356.02
427.18, 3.35, 355.40
428.30, 3.63, 354.92
417.54, 1.42, 359.41
417.66, 1.45, 359.36
417.77, 1.48, 359.31
417.90, 1.51, 359.25
418.03, 1.54, 359.19
418.17, 1.58, 359.13
418.32, 1.62, 359.07
418.47, 1.66, 359.00
418.63, 1.71, 358.93
418.80, 1.75, 358.85
418.99, 1.80, 358.77
419.19, 1.86, 358.69
419.41, 1.91, 358.59
419.65, 1.97, 358.48
419.92, 2.04, 358.36
420.22, 2.11, 358.23
420.54, 2.18, 358.09
420.98, 2.26, 357.90
421.48, 2.35, 357.68
422.05, 2.46, 357.42
422.64, 2.58, 357.17
423.34, 2.72, 356.86
424.54, 2.89, 356.33
425.53, 3.09, 355.90
426.83, 3.33, 355.33
428.38, 3.63, 354.64
¯417.51, 1.42, 359.36
417.62, 1.45, 359.31
417.73, 1.48, 359.26
417.86, 1.51, 359.20
418.00, 1.55, 359.14
418.13, 1.58, 359.08
418.27, 1.62, 359.01
418.42, 1.66, 358.94
418.58, 1.71, 358.87
418.76, 1.75, 358.79
418.94, 1.80, 358.71
419.13, 1.86, 358.62
419.35, 1.91, 358.52
419.59, 1.97, 358.41
419.86, 2.04, 358.29
420.15, 2.11, 358.15
420.47, 2.18, 358.01
420.90, 2.26, 357.81
421.39, 2.35, 357.58
421.93, 2.46, 357.34
422.51, 2.58, 357.08
423.17, 2.71, 356.77
424.36, 2.88, 356.23
425.34, 3.08, 355.78
426.49, 3.31, 355.26
428.48, 3.64, 354.35
417.48, 1.42, 359.31
417.58, 1.45, 359.26
417.69, 1.48, 359.21
417.82, 1.52, 359.15
417.96, 1.55, 359.09
418.09, 1.58, 359.02
418.23, 1.62, 358.96
418.38, 1.67, 358.88
418.54, 1.71, 358.81
418.71, 1.76, 358.73
418.89, 1.81, 358.64
419.08, 1.86, 358.55
419.30, 1.91, 358.45
419.54, 1.97, 358.33
419.79, 2.04, 358.21
420.08, 2.11, 358.08
420.40, 2.18, 357.93
420.82, 2.26, 357.72
421.30, 2.35, 357.50
421.79, 2.46, 357.26
422.37, 2.57, 356.99
423.02, 2.71, 356.68
424.19, 2.88, 356.13
425.16, 3.07, 355.67
426.17, 3.30, 355.19
¯427.97, 3.60, 354.34
417.44, 1.42, 359.27
417.54, 1.45, 359.22
417.65, 1.49, 359.16
417.78, 1.52, 359.10
417.91, 1.55, 359.03
418.05, 1.59, 358.97
418.19, 1.63, 358.90
418.33, 1.67, 358.83
418.49, 1.71, 358.75
418.66, 1.76, 358.67
418.83, 1.81, 358.58
419.02, 1.86, 358.49
419.24, 1.91, 358.38
419.48, 1.97, 358.26
419.73, 2.04, 358.14
420.01, 2.11, 358.00
420.32, 2.18, 357.85
420.74, 2.26, 357.64
421.21, 2.35, 357.41
421.64, 2.46, 357.20
422.24, 2.57, 356.90
422.87, 2.71, 356.59
424.03, 2.87, 356.03
424.99, 3.06, 355.55
425.85, 3.28, 355.13
427.29, 3.56, 354.42
417.40, 1.43, 359.22
417.50, 1.46, 359.17
417.61, 1.49, 359.11
417.73, 1.52, 359.05
417.87, 1.55, 358.98
418.01, 1.59, 358.91
418.14, 1.63, 358.84
418.29, 1.67, 358.77
418.44, 1.71, 358.69
418.61, 1.76, 358.60
418.78, 1.81, 358.52
418.97, 1.86, 358.42
419.18, 1.91, 358.31
419.42, 1.97, 358.19
419.67, 2.04, 358.06
419.94, 2.11, 357.92
420.25, 2.18, 357.77
420.66, 2.26, 357.56
421.09, 2.35, 357.34
421.51, 2.45, 357.12
422.12, 2.57, 356.82
422.73, 2.70, 356.50
423.86, 2.86, 355.93
424.80, 3.05, 355.45
¯425.54, 3.26, 355.07
426.66, 3.52, 354.50
428.72, 3.89, 353.46
417.36, 1.43, 359.18
417.47, 1.46, 359.12
417.57, 1.49, 359.06
417.69, 1.52, 359.00
417.82, 1.55, 358.93
417.96, 1.59, 358.86
418.10, 1.63, 358.79
418.24, 1.67, 358.71
418.40, 1.71, 358.63
418.56, 1.76, 358.54
418.73, 1.81, 358.45
418.92, 1.86, 358.35
419.13, 1.91, 358.24
419.36, 1.97, 358.12
419.60, 2.04, 357.99
419.87, 2.11, 357.85
420.17, 2.18, 357.69
420.58, 2.26, 357.48
420.97, 2.35, 357.27
421.38, 2.45, 357.05
421.99, 2.57, 356.73
422.59, 2.70, 356.42
423.67, 2.86, 355.85
424.57, 3.04, 355.38
425.25, 3.25, 355.01
426.32, 3.50, 354.45
428.73, 3.89, 353.18
417.32, 1.43, 359.13
417.43, 1.46, 359.08
417.53, 1.49, 359.02
417.65, 1.52, 358.95
417.78, 1.56, 358.88
417.92, 1.59, 358.81
418.06, 1.63, 358.73
418.20, 1.67, 358.65
418.35, 1.71, 358.57
418.51, 1.76, 358.48
418.68, 1.81, 358.39
418.86, 1.86, 358.29
419.07, 1.91, 358.18
419.30, 1.97, 358.05
419.54, 2.04, 357.92
419.81, 2.11, 357.77
420.10, 2.18, 357.61
420.49, 2.26, 357.40
420.85, 2.35, 357.20
421.25, 2.45, 356.98
421.86, 2.56, 356.65
¯422.45, 2.69, 356.33
423.47, 2.85, 355.78
424.34, 3.03, 355.30
425.00, 3.24, 354.94
426.00, 3.48, 354.40
428.74, 3.90, 352.91
417.29, 1.43, 359.09
417.39, 1.46, 359.03
417.49, 1.50, 358.97
417.61, 1.53, 358.91
417.74, 1.56, 358.83
417.87, 1.59, 358.76
418.01, 1.63, 358.68
418.15, 1.67, 358.60
418.30, 1.71, 358.51
418.46, 1.76, 358.42
418.63, 1.81, 358.33
418.81, 1.86, 358.23
419.01, 1.91, 358.11
419.24, 1.97, 357.98
419.48, 2.04, 357.85
419.74, 2.10, 357.70
420.03, 2.18, 357.54
420.38, 2.26, 357.34
420.74, 2.35, 357.14
421.13, 2.45, 356.92
421.70, 2.56, 356.60
422.31, 2.69, 356.25
423.28, 2.84, 355.71
424.12, 3.02, 355.23
424.76, 3.22, 354.87
425.68, 3.46, 354.35
428.77, 3.90, 352.62
417.25, 1.43, 359.04
417.35, 1.47, 358.99
417.45, 1.50, 358.92
417.56, 1.53, 358.86
417.69, 1.56, 358.78
417.83, 1.59, 358.71
417.97, 1.63, 358.62
418.11, 1.67, 358.54
418.25, 1.71, 358.46
418.41, 1.76, 358.36
418.57, 1.81, 358.27
418.75, 1.86, 358.16
418.96, 1.91, 358.04
419.18, 1.97, 357.92
419.41, 2.04, 357.78
419.67, 2.10, 357.63
419.95, 2.18, 357.46
420.28, 2.26, 357.27
¯420.62, 2.35, 357.07
421.00, 2.45, 356.85
421.54, 2.56, 356.54
422.17, 2.69, 356.17
423.09, 2.84, 355.64
423.91, 3.02, 355.16
424.52, 3.21, 354.80
425.36, 3.44, 354.31
428.19, 3.86, 352.67
417.21, 1.44, 359.00
417.31, 1.47, 358.94
417.41, 1.50, 358.88
417.52, 1.53, 358.81
417.65, 1.56, 358.74
417.78, 1.59, 358.66
417.92, 1.63, 358.57
418.06, 1.67, 358.49
418.21, 1.71, 358.40
418.36, 1.76, 358.31
418.52, 1.81, 358.21
418.70, 1.86, 358.10
418.90, 1.91, 357.98
419.12, 1.97, 357.85
419.35, 2.03, 357.71
419.60, 2.10, 357.55
419.88, 2.18, 357.39
420.17, 2.26, 357.21
420.51, 2.35, 357.01
420.88, 2.45, 356.78
421.38, 2.56, 356.48
422.04, 2.68, 356.09
422.90, 2.83, 355.57
423.69, 3.01, 355.09
424.29, 3.20, 354.73
425.05, 3.42, 354.27
426.55, 3.73, 353.37
417.17, 1.44, 358.96
417.27, 1.47, 358.90
417.37, 1.50, 358.83
417.48, 1.53, 358.76
417.60, 1.56, 358.69
417.73, 1.60, 358.61
417.87, 1.63, 358.52
418.01, 1.67, 358.43
418.16, 1.71, 358.34
418.31, 1.76, 358.25
418.47, 1.81, 358.15
418.64, 1.86, 358.04
418.84, 1.91, 357.91
419.05, 1.97, 357.78
419.29, 2.03, 357.64
¯419.54, 2.10, 357.48
419.82, 2.17, 357.31
420.07, 2.26, 357.15
420.40, 2.35, 356.95
420.76, 2.45, 356.72
421.23, 2.55, 356.43
421.90, 2.68, 356.01
422.72, 2.82, 355.50
423.48, 3.00, 355.03
424.07, 3.19, 354.67
424.75, 3.40, 354.24
425.82, 3.67, 353.57
417.13, 1.44, 358.91
417.23, 1.47, 358.85
417.32, 1.50, 358.79
417.44, 1.53, 358.72
417.56, 1.56, 358.64
417.69, 1.60, 358.56
417.82, 1.63, 358.47
417.97, 1.67, 358.38
418.11, 1.71, 358.29
418.26, 1.76, 358.19
418.42, 1.81, 358.09
418.59, 1.86, 357.98
418.78, 1.91, 357.85
418.99, 1.97, 357.72
419.22, 2.03, 357.57
419.47, 2.10, 357.41
419.75, 2.17, 357.23
419.96, 2.26, 357.09
420.28, 2.35, 356.89
420.64, 2.44, 356.66
421.08, 2.55, 356.38
421.74, 2.67, 355.95
422.53, 2.82, 355.45
423.26, 2.99, 354.98
423.85, 3.17, 354.60
424.48, 3.38, 354.20
425.49, 3.65, 353.55
417.09, 1.44, 358.87
417.18, 1.47, 358.81
417.28, 1.50, 358.75
417.39, 1.53, 358.67
417.51, 1.56, 358.59
417.64, 1.60, 358.51
417.77, 1.63, 358.42
417.92, 1.67, 358.33
418.06, 1.71, 358.23
418.21, 1.76, 358.13
418.36, 1.81, 358.03
418.53, 1.86, 357.92
¯418.73, 1.91, 357.79
418.93, 1.97, 357.65
419.16, 2.03, 357.50
419.41, 2.10, 357.34
419.68, 2.17, 357.16
419.88, 2.26, 357.02
420.17, 2.35, 356.83
420.52, 2.44, 356.60
420.93, 2.55, 356.33
421.57, 2.67, 355.90
422.31, 2.81, 355.41
423.02, 2.98, 354.95
423.63, 3.16, 354.54
424.24, 3.37, 354.14
425.17, 3.62, 353.52
428.82, 4.17, 351.12
417.05, 1.44, 358.83
417.14, 1.47, 358.77
417.24, 1.50, 358.70
417.35, 1.53, 358.63
417.47, 1.57, 358.55
417.59, 1.60, 358.46
417.72, 1.63, 358.37
417.86, 1.67, 358.28
418.01, 1.71, 358.18
418.16, 1.76, 358.08
418.31, 1.81, 357.97
418.48, 1.86, 357.86
418.67, 1.91, 357.73
418.87, 1.97, 357.59
419.09, 2.03, 357.44
419.34, 2.10, 357.26
419.61, 2.17, 357.08
419.81, 2.25, 356.94
420.07, 2.35, 356.77
420.40, 2.44, 356.54
420.79, 2.55, 356.28
421.41, 2.66, 355.86
422.11, 2.80, 355.38
422.78, 2.97, 354.92
423.41, 3.15, 354.49
424.01, 3.35, 354.08
424.86, 3.60, 353.50
428.78, 4.17, 350.84
417.01, 1.44, 358.79
417.10, 1.47, 358.73
417.20, 1.50, 358.66
417.30, 1.54, 358.58
417.42, 1.57, 358.50
417.54, 1.60, 358.42
417.67, 1.63, 358.32
¯417.81, 1.67, 358.23
417.96, 1.71, 358.12
418.10, 1.76, 358.02
418.26, 1.80, 357.91
418.42, 1.86, 357.80
418.61, 1.91, 357.66
418.81, 1.97, 357.52
419.03, 2.03, 357.37
419.28, 2.09, 357.19
419.54, 2.17, 357.01
419.74, 2.25, 356.87
419.96, 2.34, 356.71
420.29, 2.44, 356.48
420.65, 2.54, 356.22
421.25, 2.66, 355.81
421.91, 2.80, 355.34
422.56, 2.96, 354.89
423.20, 3.14, 354.43
423.79, 3.34, 354.02
424.56, 3.58, 353.48
428.74, 4.17, 350.56
416.97, 1.44, 358.75
417.06, 1.47, 358.68
417.15, 1.51, 358.62
417.26, 1.54, 358.54
417.37, 1.57, 358.46
417.49, 1.60, 358.37
417.62, 1.64, 358.28
417.76, 1.67, 358.18
417.90, 1.71, 358.07
418.05, 1.76, 357.97
418.20, 1.80, 357.86
418.37, 1.85, 357.74
418.55, 1.91, 357.60
418.75, 1.96, 357.46
418.97, 2.02, 357.30
419.22, 2.09, 357.12
419.47, 2.16, 356.93
419.67, 2.25, 356.79
419.87, 2.34, 356.64
420.17, 2.44, 356.42
420.53, 2.54, 356.17
421.09, 2.66, 355.76
421.79, 2.79, 355.25
422.34, 2.95, 354.86
423.00, 3.13, 354.38
423.56, 3.33, 353.97
424.26, 3.55, 353.46
426.02, 3.91, 352.19
416.93, 1.44, 358.71
417.02, 1.47, 358.64
¯417.11, 1.51, 358.57
417.21, 1.54, 358.50
417.33, 1.57, 358.41
417.45, 1.60, 358.32
417.57, 1.64, 358.23
417.71, 1.67, 358.13
417.85, 1.71, 358.02
418.00, 1.75, 357.91
418.15, 1.80, 357.80
418.31, 1.85, 357.68
418.49, 1.91, 357.54
418.69, 1.96, 357.40
418.91, 2.02, 357.23
419.15, 2.09, 357.05
419.41, 2.16, 356.86
419.60, 2.25, 356.72
419.80, 2.34, 356.56
420.06, 2.43, 356.37
420.41, 2.54, 356.11
420.93, 2.65, 355.72
421.69, 2.79, 355.16
422.12, 2.94, 354.83
422.80, 3.12, 354.33
423.34, 3.31, 353.92
423.98, 3.53, 353.44
424.86, 3.80, 352.78
416.89, 1.45, 358.67
416.98, 1.48, 358.60
417.07, 1.51, 358.53
417.17, 1.54, 358.45
417.28, 1.57, 358.37
417.40, 1.60, 358.28
417.52, 1.64, 358.18
417.65, 1.67, 358.08
417.80, 1.71, 357.97
417.95, 1.75, 357.86
418.09, 1.80, 357.74
418.25, 1.85, 357.62
418.43, 1.90, 357.48
418.63, 1.96, 357.33
418.85, 2.02, 357.16
419.09, 2.09, 356.98
419.34, 2.16, 356.79
419.53, 2.24, 356.64
419.73, 2.33, 356.49
419.95, 2.43, 356.31
420.29, 2.53, 356.05
420.78, 2.65, 355.68
421.59, 2.78, 355.06
421.92, 2.93, 354.80
422.59, 3.11, 354.28
¯423.13, 3.30, 353.87
423.68, 3.51, 353.44
424.55, 3.77, 352.77
416.85, 1.45, 358.63
416.94, 1.48, 358.56
417.03, 1.51, 358.49
417.13, 1.54, 358.41
417.23, 1.57, 358.33
417.35, 1.60, 358.23
417.47, 1.64, 358.14
417.60, 1.67, 358.03
417.74, 1.71, 357.93
417.89, 1.75, 357.81
418.04, 1.80, 357.69
418.20, 1.85, 357.56
418.37, 1.90, 357.42
418.57, 1.96, 357.27
418.79, 2.02, 357.09
419.03, 2.08, 356.91
419.27, 2.15, 356.71
419.45, 2.24, 356.57
419.65, 2.33, 356.41
419.86, 2.43, 356.24
420.17, 2.53, 356.00
420.63, 2.64, 355.63
421.49, 2.78, 354.96
421.79, 2.92, 354.72
422.36, 3.10, 354.26
422.92, 3.29, 353.82
423.44, 3.49, 353.41
424.25, 3.75, 352.76
416.81, 1.45, 358.59
416.89, 1.48, 358.52
416.98, 1.51, 358.45
417.08, 1.54, 358.37
417.19, 1.57, 358.28
417.30, 1.60, 358.19
417.42, 1.64, 358.09
417.55, 1.67, 357.99
417.69, 1.71, 357.88
417.83, 1.75, 357.76
417.98, 1.80, 357.63
418.14, 1.85, 357.51
418.32, 1.90, 357.36
418.51, 1.96, 357.20
418.73, 2.01, 357.03
418.96, 2.08, 356.84
419.20, 2.15, 356.64
419.38, 2.24, 356.49
419.58, 2.33, 356.33
419.79, 2.42, 356.16
¯420.05, 2.53, 355.94
420.48, 2.64, 355.59
421.39, 2.77, 354.86
421.69, 2.92, 354.61
422.14, 3.08, 354.24
422.71, 3.27, 353.78
423.20, 3.48, 353.37
423.96, 3.72, 352.75
416.77, 1.45, 358.55
416.85, 1.48, 358.48
416.94, 1.51, 358.41
417.03, 1.54, 358.33
417.14, 1.57, 358.24
417.25, 1.60, 358.15
417.37, 1.64, 358.05
417.50, 1.67, 357.94
417.63, 1.71, 357.83
417.77, 1.75, 357.71
417.93, 1.80, 357.58
418.08, 1.85, 357.45
418.26, 1.90, 357.30
418.45, 1.95, 357.14
418.67, 2.01, 356.96
418.90, 2.08, 356.77
419.13, 2.15, 356.57
419.31, 2.23, 356.42
419.50, 2.32, 356.26
419.71, 2.42, 356.08
419.93, 2.52, 355.89
420.34, 2.64, 355.55
421.29, 2.77, 354.77
421.58, 2.91, 354.51
421.92, 3.07, 354.22
422.51, 3.26, 353.73
422.97, 3.46, 353.34
423.54, 3.69, 352.86
416.73, 1.45, 358.52
416.81, 1.48, 358.44
416.89, 1.51, 358.37
416.99, 1.54, 358.29
417.09, 1.57, 358.20
417.20, 1.60, 358.10
417.32, 1.64, 358.00
417.44, 1.67, 357.90
417.57, 1.71, 357.78
417.72, 1.75, 357.66
417.87, 1.80, 357.53
418.03, 1.84, 357.39
418.20, 1.90, 357.24
418.40, 1.95, 357.08
418.60, 2.01, 356.90
¯418.83, 2.07, 356.70
419.06, 2.14, 356.50
419.24, 2.23, 356.35
419.43, 2.32, 356.18
419.63, 2.42, 356.00
419.85, 2.52, 355.81
420.19, 2.63, 355.52
421.19, 2.76, 354.67
421.48, 2.91, 354.41
421.79, 3.06, 354.14
422.31, 3.25, 353.69
422.74, 3.44, 353.31
423.16, 3.65, 352.95
416.69, 1.45, 358.48
416.77, 1.48, 358.41
416.85, 1.51, 358.33
416.94, 1.54, 358.25
417.05, 1.57, 358.16
417.15, 1.60, 358.06
417.27, 1.64, 357.96
417.39, 1.67, 357.85
417.52, 1.71, 357.74
417.66, 1.75, 357.62
417.80, 1.80, 357.48
417.97, 1.84, 357.34
418.15, 1.89, 357.18
418.34, 1.95, 357.01
418.54, 2.01, 356.83
418.77, 2.07, 356.63
418.99, 2.14, 356.43
419.17, 2.23, 356.27
419.36, 2.32, 356.10
419.55, 2.41, 355.93
419.77, 2.52, 355.73
420.05, 2.63, 355.48
421.09, 2.75, 354.57
421.37, 2.90, 354.32
421.68, 3.06, 354.04
422.12, 3.24, 353.64
422.52, 3.43, 353.28
422.92, 3.63, 352.92
416.64, 1.45, 358.44
416.72, 1.48, 358.37
416.81, 1.51, 358.29
416.90, 1.54, 358.21
417.00, 1.57, 358.12
417.10, 1.60, 358.02
417.22, 1.63, 357.92
417.34, 1.67, 357.81
417.46, 1.71, 357.69
417.60, 1.75, 357.57
¯417.74, 1.80, 357.44
417.93, 1.84, 357.27
418.09, 1.89, 357.12
418.28, 1.94, 356.95
418.48, 2.00, 356.77
418.70, 2.07, 356.56
418.92, 2.14, 356.36
419.10, 2.22, 356.20
419.28, 2.31, 356.03
419.48, 2.41, 355.85
419.69, 2.51, 355.65
419.95, 2.62, 355.41
420.99, 2.75, 354.48
421.27, 2.89, 354.22
421.57, 3.05, 353.93
421.93, 3.22, 353.61
422.31, 3.41, 353.25
422.69, 3.61, 352.90
416.60, 1.45, 358.40
416.68, 1.48, 358.33
416.76, 1.51, 358.25
416.85, 1.54, 358.17
416.95, 1.57, 358.08
417.05, 1.60, 357.98
417.16, 1.63, 357.88
417.28, 1.67, 357.76
417.41, 1.71, 357.65
417.54, 1.75, 357.52
417.72, 1.79, 357.36
417.89, 1.83, 357.19
418.03, 1.89, 357.06
418.22, 1.94, 356.89
418.42, 2.00, 356.70
418.63, 2.06, 356.50
418.85, 2.13, 356.29
419.02, 2.22, 356.13
419.21, 2.31, 355.95
419.40, 2.40, 355.77
419.61, 2.51, 355.57
419.90, 2.62, 355.29
420.89, 2.74, 354.38
421.16, 2.89, 354.12
421.46, 3.04, 353.83
421.79, 3.21, 353.52
422.10, 3.40, 353.22
422.47, 3.60, 352.87
416.56, 1.45, 358.37
416.64, 1.47, 358.29
416.72, 1.51, 358.22
416.80, 1.54, 358.13
416.90, 1.57, 358.04
¯417.00, 1.60, 357.94
417.11, 1.63, 357.83
417.23, 1.67, 357.72
417.35, 1.71, 357.60
417.48, 1.75, 357.48
417.71, 1.77, 357.26
417.85, 1.82, 357.12
417.97, 1.88, 357.00
418.15, 1.94, 356.83
418.35, 2.00, 356.64
418.57, 2.06, 356.43
418.78, 2.13, 356.22
418.95, 2.21, 356.06
419.13, 2.30, 355.88
419.32, 2.40, 355.69
419.53, 2.50, 355.49
419.88, 2.61, 355.15
420.79, 2.74, 354.29
421.06, 2.88, 354.02
421.35, 3.04, 353.73
421.63, 3.20, 353.46
421.90, 3.38, 353.20
422.25, 3.58, 352.85
416.52, 1.44, 358.33
416.59, 1.47, 358.26
416.67, 1.50, 358.18
416.76, 1.54, 358.09
416.85, 1.57, 358.00
416.95, 1.60, 357.90
417.06, 1.63, 357.79
417.17, 1.67, 357.68
417.30, 1.71, 357.56
417.42, 1.75, 357.43
417.69, 1.76, 357.17
417.81, 1.82, 357.05
417.93, 1.88, 356.93
418.09, 1.93, 356.77
418.29, 1.99, 356.57
418.50, 2.05, 356.36
418.71, 2.13, 356.15
418.88, 2.21, 355.98
419.06, 2.30, 355.81
419.24, 2.39, 355.62
419.52, 2.50, 355.35
419.85, 2.60, 355.01
420.69, 2.73, 354.19
420.95, 2.87, 353.92
421.25, 3.03, 353.63
421.47, 3.19, 353.40
421.69, 3.37, 353.18
422.04, 3.56, 352.82
¯416.48, 1.44, 358.30
416.55, 1.47, 358.22
416.63, 1.50, 358.14
416.71, 1.54, 358.06
416.80, 1.57, 357.96
416.90, 1.60, 357.86
417.01, 1.63, 357.75
417.12, 1.67, 357.64
417.24, 1.71, 357.52
417.40, 1.74, 357.35
417.66, 1.75, 357.09
417.77, 1.81, 356.98
417.89, 1.87, 356.85
418.03, 1.93, 356.71
418.22, 1.99, 356.51
418.43, 2.05, 356.30
418.64, 2.12, 356.08
418.81, 2.21, 355.91
418.98, 2.29, 355.73
419.17, 2.39, 355.54
419.53, 2.49, 355.17
419.83, 2.60, 354.87
420.59, 2.72, 354.10
420.85, 2.87, 353.82
421.14, 3.02, 353.53
421.31, 3.18, 353.34
421.49, 3.35, 353.15
421.83, 3.54, 352.80
416.43, 1.44, 358.26
416.51, 1.47, 358.19
416.58, 1.50, 358.11
416.66, 1.53, 358.02
416.76, 1.56, 357.92
416.85, 1.60, 357.82
416.96, 1.63, 357.71
417.07, 1.67, 357.60
417.18, 1.70, 357.47
417.38, 1.73, 357.27
417.62, 1.75, 357.02
417.73, 1.80, 356.90
417.85, 1.86, 356.78
417.97, 1.93, 356.65
418.16, 1.98, 356.45
418.36, 2.05, 356.23
418.57, 2.12, 356.01
418.73, 2.20, 355.84
418.91, 2.29, 355.66
419.09, 2.38, 355.46
419.52, 2.48, 355.01
419.80, 2.59, 354.72
420.48, 2.72, 354.00
¯420.75, 2.86, 353.72
420.99, 3.02, 353.46
421.16, 3.17, 353.28
421.33, 3.34, 353.09
421.62, 3.53, 352.78
416.39, 1.44, 358.23
416.46, 1.47, 358.15
416.54, 1.50, 358.07
416.62, 1.53, 357.98
416.71, 1.56, 357.89
416.80, 1.60, 357.78
416.90, 1.63, 357.67
417.01, 1.66, 357.56
417.13, 1.70, 357.43
417.36, 1.71, 357.18
417.58, 1.74, 356.95
417.69, 1.80, 356.83
417.80, 1.86, 356.70
417.93, 1.92, 356.57
418.09, 1.98, 356.39
418.30, 2.04, 356.17
418.50, 2.11, 355.94
418.66, 2.20, 355.77
418.83, 2.29, 355.59
419.10, 2.37, 355.29
419.49, 2.47, 354.87
419.77, 2.59, 354.57
420.38, 2.71, 353.91
420.64, 2.86, 353.63
420.84, 3.01, 353.41
421.00, 3.17, 353.22
421.17, 3.33, 353.03
421.41, 3.51, 352.77
416.35, 1.44, 358.19
416.42, 1.47, 358.12
416.49, 1.50, 358.03
416.57, 1.53, 357.95
416.66, 1.56, 357.85
416.75, 1.59, 357.74
416.85, 1.63, 357.63
416.96, 1.66, 357.52
417.10, 1.69, 357.36
417.34, 1.70, 357.09
417.54, 1.73, 356.88
417.64, 1.79, 356.76
417.76, 1.85, 356.63
417.88, 1.91, 356.49
418.03, 1.98, 356.33
418.23, 2.04, 356.10
418.43, 2.11, 355.88
418.59, 2.19, 355.70
¯418.75, 2.28, 355.51
419.11, 2.36, 355.12
419.46, 2.46, 354.73
419.74, 2.58, 354.42
420.28, 2.71, 353.82
420.54, 2.85, 353.53
420.69, 3.00, 353.35
420.85, 3.16, 353.17
421.02, 3.32, 352.98
421.21, 3.49, 352.75
416.30, 1.44, 358.16
416.37, 1.47, 358.08
416.44, 1.50, 358.00
416.52, 1.53, 357.91
416.61, 1.56, 357.81
416.70, 1.59, 357.71
416.80, 1.63, 357.59
416.90, 1.66, 357.48
417.08, 1.68, 357.28
417.32, 1.69, 357.00
417.49, 1.72, 356.81
417.60, 1.78, 356.68
417.72, 1.84, 356.55
417.84, 1.90, 356.41
417.96, 1.97, 356.26
418.16, 2.03, 356.04
418.36, 2.10, 355.81
418.51, 2.19, 355.63
418.71, 2.27, 355.41
419.12, 2.35, 354.94
419.43, 2.46, 354.58
419.71, 2.57, 354.26
420.18, 2.70, 353.72
420.40, 2.84, 353.47
420.55, 2.99, 353.29
420.70, 3.15, 353.11
420.86, 3.31, 352.92
421.03, 3.48, 352.72
416.26, 1.44, 358.13
416.33, 1.47, 358.05
416.40, 1.50, 357.96
416.47, 1.53, 357.88
416.56, 1.56, 357.78
416.65, 1.59, 357.67
416.74, 1.62, 357.56
416.85, 1.66, 357.44
417.05, 1.67, 357.20
417.30, 1.67, 356.91
417.45, 1.72, 356.74
417.56, 1.77, 356.61
417.67, 1.83, 356.47
¯417.79, 1.90, 356.33
417.92, 1.96, 356.18
418.09, 2.03, 355.98
418.29, 2.10, 355.74
418.44, 2.18, 355.56
418.71, 2.26, 355.24
419.13, 2.34, 354.75
419.40, 2.45, 354.43
419.68, 2.56, 354.10
420.08, 2.69, 353.63
420.26, 2.83, 353.41
420.40, 2.98, 353.24
420.55, 3.14, 353.06
420.71, 3.30, 352.86
420.87, 3.47, 352.66
416.22, 1.44, 358.09
416.28, 1.47, 358.01
416.35, 1.50, 357.93
416.42, 1.53, 357.84
416.51, 1.56, 357.74
416.60, 1.59, 357.63
416.69, 1.62, 357.52
416.81, 1.65, 357.37
417.03, 1.66, 357.11
417.28, 1.66, 356.82
417.41, 1.71, 356.66
417.51, 1.76, 356.53
417.62, 1.82, 356.40
417.74, 1.89, 356.25
417.87, 1.95, 356.09
418.02, 2.02, 355.91
418.22, 2.09, 355.67
418.37, 2.18, 355.49
418.71, 2.25, 355.08
419.11, 2.33, 354.59
419.37, 2.44, 354.28
419.65, 2.56, 353.94
419.98, 2.69, 353.53
420.12, 2.83, 353.36
420.26, 2.97, 353.18
420.40, 3.13, 353.00
420.56, 3.29, 352.81
420.71, 3.46, 352.61
416.17, 1.44, 358.06
416.24, 1.46, 357.98
416.31, 1.49, 357.90
416.38, 1.53, 357.81
416.46, 1.56, 357.71
416.54, 1.59, 357.60
416.64, 1.62, 357.48
416.79, 1.64, 357.30
¯417.00, 1.64, 357.03
417.25, 1.65, 356.73
417.36, 1.70, 356.59
417.47, 1.76, 356.46
417.58, 1.82, 356.32
417.70, 1.88, 356.17
417.82, 1.95, 356.01
417.95, 2.02, 355.84
418.14, 2.09, 355.61
418.34, 2.17, 355.36
418.71, 2.24, 354.90
419.08, 2.32, 354.45
419.33, 2.43, 354.13
419.62, 2.55, 353.78
419.89, 2.68, 353.43
419.98, 2.82, 353.31
420.12, 2.97, 353.13
420.26, 3.12, 352.95
420.41, 3.28, 352.75
420.56, 3.45, 352.55
416.13, 1.43, 358.03
416.19, 1.46, 357.95
416.26, 1.49, 357.86
416.33, 1.52, 357.77
416.41, 1.55, 357.67
416.49, 1.59, 357.56
416.58, 1.62, 357.45
416.76, 1.63, 357.22
416.98, 1.63, 356.95
417.22, 1.64, 356.65
417.32, 1.69, 356.52
417.42, 1.75, 356.38
417.53, 1.81, 356.24
417.65, 1.87, 356.09
417.77, 1.94, 355.93
417.91, 2.01, 355.75
418.07, 2.08, 355.54
418.33, 2.15, 355.21
418.71, 2.22, 354.73
419.04, 2.31, 354.30
419.30, 2.42, 353.97
419.58, 2.54, 353.61
419.82, 2.67, 353.30
419.88, 2.81, 353.21
419.98, 2.96, 353.08
420.11, 3.11, 352.89
420.26, 3.27, 352.70
420.41, 3.43, 352.50
416.08, 1.43, 358.00
416.15, 1.46, 357.92
416.21, 1.49, 357.83
¯416.28, 1.52, 357.74
416.36, 1.55, 357.64
416.44, 1.58, 357.53
416.54, 1.61, 357.40
416.73, 1.61, 357.15
416.95, 1.62, 356.86
417.17, 1.63, 356.58
417.27, 1.68, 356.45
417.37, 1.74, 356.31
417.48, 1.80, 356.16
417.60, 1.86, 356.01
417.72, 1.93, 355.84
417.85, 2.00, 355.66
418.00, 2.08, 355.47
418.33, 2.14, 355.04
418.71, 2.21, 354.54
419.00, 2.30, 354.16
419.26, 2.41, 353.81
419.68, 2.53, 353.26
419.75, 2.67, 353.17
419.81, 2.81, 353.07
419.88, 2.95, 352.97
419.97, 3.10, 352.84
420.11, 3.26, 352.65
420.26, 3.42, 352.44
416.04, 1.43, 357.97
416.10, 1.46, 357.88
416.16, 1.49, 357.80
416.23, 1.52, 357.71
416.31, 1.55, 357.60
416.39, 1.58, 357.49
416.51, 1.60, 357.33
416.70, 1.60, 357.07
416.92, 1.60, 356.78
417.12, 1.62, 356.51
417.22, 1.67, 356.37
417.33, 1.73, 356.23
417.43, 1.79, 356.08
417.55, 1.85, 355.92
417.67, 1.92, 355.75
417.80, 1.99, 355.57
417.98, 2.06, 355.33
418.32, 2.12, 354.88
418.71, 2.19, 354.35
418.96, 2.29, 354.00
419.22, 2.40, 353.65
419.61, 2.52, 353.13
419.67, 2.66, 353.03
419.74, 2.80, 352.93
419.81, 2.95, 352.83
419.87, 3.09, 352.73
¯419.96, 3.25, 352.59
420.11, 3.41, 352.39
416.00, 1.43, 357.93
416.05, 1.46, 357.85
416.12, 1.49, 357.76
416.18, 1.52, 357.67
416.25, 1.55, 357.57
416.34, 1.58, 357.46
416.48, 1.59, 357.26
416.67, 1.59, 356.99
416.89, 1.59, 356.69
417.08, 1.61, 356.44
417.17, 1.66, 356.30
417.28, 1.72, 356.16
417.38, 1.78, 356.00
417.50, 1.84, 355.84
417.62, 1.91, 355.67
417.75, 1.98, 355.48
417.97, 2.05, 355.18
418.31, 2.11, 354.71
418.69, 2.18, 354.18
418.92, 2.28, 353.85
419.29, 2.39, 353.35
419.54, 2.51, 352.99
419.60, 2.65, 352.89
419.66, 2.79, 352.79
419.73, 2.94, 352.69
419.80, 3.09, 352.58
419.87, 3.24, 352.47
419.96, 3.40, 352.34
415.96, 1.42, 357.90
416.01, 1.45, 357.82
416.07, 1.48, 357.73
416.13, 1.52, 357.64
416.20, 1.55, 357.54
416.28, 1.58, 357.42
416.45, 1.58, 357.19
416.64, 1.58, 356.92
416.86, 1.57, 356.61
417.03, 1.60, 356.37
417.13, 1.65, 356.23
417.23, 1.71, 356.08
417.33, 1.77, 355.92
417.45, 1.83, 355.76
417.57, 1.90, 355.58
417.74, 1.97, 355.34
417.96, 2.03, 355.02
418.30, 2.09, 354.53
418.65, 2.17, 354.04
418.88, 2.27, 353.69
419.40, 2.37, 352.95
¯419.46, 2.50, 352.85
419.53, 2.64, 352.75
419.59, 2.79, 352.65
419.66, 2.93, 352.54
419.72, 3.08, 352.43
419.79, 3.24, 352.32
419.86, 3.40, 352.21
415.92, 1.42, 357.86
415.97, 1.45, 357.78
416.02, 1.48, 357.70
416.08, 1.51, 357.61
416.15, 1.54, 357.51
416.25, 1.57, 357.36
416.42, 1.56, 357.12
416.61, 1.56, 356.84
416.83, 1.56, 356.52
416.98, 1.59, 356.30
417.08, 1.64, 356.15
417.18, 1.70, 356.00
417.28, 1.76, 355.84
417.40, 1.82, 355.67
417.52, 1.89, 355.49
417.73, 1.95, 355.18
417.95, 2.01, 354.85
418.29, 2.08, 354.35
418.60, 2.16, 353.89
418.84, 2.26, 353.53
419.33, 2.36, 352.82
419.39, 2.49, 352.72
419.45, 2.64, 352.61
419.51, 2.78, 352.51
419.58, 2.93, 352.40
419.65, 3.08, 352.29
419.72, 3.24, 352.17
419.79, 3.40, 352.05
415.88, 1.41, 357.82
415.93, 1.44, 357.74
415.98, 1.48, 357.66
416.04, 1.51, 357.58
416.10, 1.54, 357.47
416.22, 1.55, 357.30
416.39, 1.55, 357.05
416.58, 1.55, 356.76
416.80, 1.54, 356.43
416.93, 1.58, 356.23
417.03, 1.63, 356.08
417.13, 1.69, 355.92
417.23, 1.75, 355.76
417.34, 1.81, 355.59
417.49, 1.88, 355.36
417.71, 1.93, 355.02
¯417.94, 2.00, 354.68
418.28, 2.06, 354.16
418.56, 2.14, 353.74
419.19, 2.21, 352.78
419.25, 2.35, 352.68
419.31, 2.49, 352.57
419.37, 2.63, 352.47
419.44, 2.77, 352.36
419.50, 2.92, 352.25
419.57, 3.08, 352.13
419.64, 3.23, 352.02
419.71, 3.39, 351.90
415.84, 1.40, 357.78
415.89, 1.44, 357.70
415.94, 1.47, 357.62
415.99, 1.51, 357.54
416.05, 1.54, 357.44
416.18, 1.54, 357.23
416.35, 1.54, 356.97
416.54, 1.53, 356.68
416.76, 1.53, 356.35
416.88, 1.57, 356.15
416.98, 1.62, 356.00
417.07, 1.68, 355.85
417.18, 1.74, 355.68
417.29, 1.80, 355.50
417.48, 1.85, 355.20
417.70, 1.91, 354.86
417.92, 1.98, 354.50
418.27, 2.04, 353.97
418.51, 2.13, 353.58
419.12, 2.20, 352.64
419.17, 2.34, 352.54
419.23, 2.48, 352.43
419.30, 2.62, 352.32
419.36, 2.77, 352.21
419.42, 2.92, 352.10
419.49, 3.07, 351.98
419.56, 3.23, 351.86
419.63, 3.39, 351.74
415.80, 1.40, 357.74
415.85, 1.43, 357.66
415.90, 1.46, 357.58
415.95, 1.50, 357.50
416.00, 1.53, 357.40
416.15, 1.53, 357.17
416.32, 1.53, 356.90
416.51, 1.52, 356.60
416.72, 1.51, 356.26
416.83, 1.56, 356.08
416.92, 1.61, 355.93
¯417.02, 1.67, 355.77
417.12, 1.73, 355.60
417.26, 1.79, 355.38
417.47, 1.83, 355.03
417.68, 1.89, 354.69
417.91, 1.96, 354.32
418.25, 2.02, 353.78
418.72, 2.09, 353.02
419.04, 2.19, 352.50
419.10, 2.33, 352.40
419.16, 2.47, 352.29
419.22, 2.61, 352.18
419.28, 2.76, 352.06
419.34, 2.91, 351.94
419.41, 3.07, 351.82
419.48, 3.22, 351.70
419.55, 3.39, 351.57
415.76, 1.39, 357.70
415.80, 1.42, 357.62
415.85, 1.46, 357.54
415.90, 1.49, 357.45
415.97, 1.52, 357.34
416.11, 1.52, 357.10
416.28, 1.51, 356.83
416.47, 1.51, 356.52
416.69, 1.50, 356.17
416.78, 1.55, 356.01
416.87, 1.60, 355.85
416.97, 1.66, 355.69
417.07, 1.72, 355.51
417.24, 1.77, 355.22
417.46, 1.81, 354.87
417.66, 1.87, 354.52
417.90, 1.94, 354.13
418.20, 2.01, 353.63
418.90, 2.04, 352.47
418.96, 2.18, 352.36
419.02, 2.32, 352.25
419.08, 2.46, 352.14
419.14, 2.60, 352.03
419.20, 2.75, 351.91
419.26, 2.90, 351.79
419.33, 3.06, 351.66
419.40, 3.22, 351.53
419.49, 3.39, 351.37
415.72, 1.38, 357.67
415.76, 1.42, 357.59
415.81, 1.45, 357.50
415.86, 1.48, 357.41
415.94, 1.51, 357.27
416.08, 1.50, 357.04
¯416.24, 1.50, 356.76
416.43, 1.49, 356.44
416.64, 1.48, 356.09
416.73, 1.53, 355.94
416.82, 1.59, 355.78
416.91, 1.65, 355.61
417.03, 1.70, 355.40
417.23, 1.74, 355.06
417.43, 1.79, 354.71
417.65, 1.85, 354.34
417.88, 1.92, 353.94
418.25, 1.98, 353.31
418.82, 2.03, 352.33
418.88, 2.17, 352.22
418.94, 2.31, 352.10
419.00, 2.45, 351.99
419.06, 2.59, 351.87
419.12, 2.74, 351.75
419.18, 2.90, 351.63
419.25, 3.06, 351.49
419.34, 3.22, 351.32
419.43, 3.39, 351.16
415.67, 1.38, 357.63
415.72, 1.41, 357.55
415.77, 1.44, 357.46
415.82, 1.47, 357.36
415.91, 1.49, 357.20
416.04, 1.49, 356.97
416.20, 1.48, 356.69
416.39, 1.48, 356.36
416.59, 1.47, 356.02
416.67, 1.52, 355.86
416.76, 1.58, 355.70
416.86, 1.63, 355.53
417.01, 1.68, 355.26
417.21, 1.72, 354.90
417.41, 1.77, 354.54
417.63, 1.83, 354.16
417.86, 1.90, 353.73
418.62, 1.89, 352.41
418.74, 2.02, 352.18
418.80, 2.15, 352.07
418.86, 2.29, 351.96
418.91, 2.44, 351.84
418.97, 2.58, 351.72
419.03, 2.74, 351.59
419.11, 2.89, 351.44
419.19, 3.05, 351.28
419.28, 3.22, 351.11
419.38, 3.39, 350.91
415.63, 1.37, 357.59
¯415.68, 1.40, 357.51
415.72, 1.44, 357.42
415.79, 1.46, 357.30
415.88, 1.48, 357.14
416.00, 1.48, 356.91
416.16, 1.47, 356.62
416.35, 1.46, 356.28
416.54, 1.46, 355.95
416.62, 1.51, 355.79
416.71, 1.57, 355.62
416.81, 1.62, 355.43
416.99, 1.65, 355.10
417.19, 1.69, 354.73
417.39, 1.75, 354.37
417.60, 1.81, 353.97
417.85, 1.87, 353.52
418.61, 1.87, 352.15
418.66, 2.00, 352.04
418.72, 2.14, 351.92
418.77, 2.28, 351.80
418.83, 2.43, 351.68
418.89, 2.58, 351.56
418.97, 2.73, 351.40
419.05, 2.89, 351.24
419.13, 3.05, 351.07
419.22, 3.22, 350.89
419.35, 3.40, 350.64
415.59, 1.36, 357.55
415.63, 1.40, 357.47
415.68, 1.42, 357.37
415.75, 1.45, 357.24
415.84, 1.46, 357.07
415.97, 1.46, 356.83
416.12, 1.46, 356.55
416.31, 1.44, 356.20
416.48, 1.45, 355.87
416.56, 1.50, 355.72
416.65, 1.55, 355.55
416.78, 1.60, 355.29
416.97, 1.63, 354.94
417.17, 1.67, 354.57
417.36, 1.72, 354.19
417.58, 1.78, 353.77
418.11, 1.79, 352.78
418.52, 1.85, 352.00
418.58, 1.99, 351.89
418.63, 2.13, 351.77
418.69, 2.27, 351.65
418.75, 2.42, 351.52
418.82, 2.57, 351.36
418.90, 2.72, 351.19
¯418.98, 2.88, 351.02
419.07, 3.04, 350.85
419.17, 3.22, 350.63
419.31, 3.40, 350.35
415.55, 1.36, 357.52
415.59, 1.39, 357.43
415.65, 1.41, 357.31
415.71, 1.44, 357.19
415.81, 1.45, 357.00
415.93, 1.45, 356.76
416.08, 1.44, 356.47
416.26, 1.43, 356.12
416.43, 1.44, 355.80
416.51, 1.49, 355.64
416.59, 1.54, 355.47
416.76, 1.57, 355.14
416.94, 1.60, 354.78
417.14, 1.65, 354.40
417.34, 1.70, 354.01
417.56, 1.76, 353.57
418.39, 1.70, 351.97
418.44, 1.84, 351.86
418.49, 1.97, 351.74
418.55, 2.11, 351.62
418.61, 2.26, 351.48
418.68, 2.40, 351.32
418.76, 2.56, 351.15
418.84, 2.71, 350.98
418.92, 2.87, 350.81
419.00, 3.04, 350.62
419.14, 3.22, 350.34
419.28, 3.41, 350.04
415.50, 1.35, 357.48
415.55, 1.38, 357.38
415.61, 1.40, 357.26
415.67, 1.42, 357.13
415.77, 1.43, 356.93
415.89, 1.43, 356.68
416.04, 1.43, 356.40
416.22, 1.41, 356.04
416.37, 1.42, 355.73
416.45, 1.47, 355.57
416.56, 1.52, 355.33
416.73, 1.54, 354.99
416.92, 1.58, 354.61
417.11, 1.62, 354.23
417.31, 1.67, 353.82
417.52, 1.74, 353.39
418.30, 1.69, 351.82
418.35, 1.82, 351.70
418.41, 1.96, 351.58
¯418.47, 2.10, 351.43
418.54, 2.24, 351.27
418.61, 2.39, 351.11
418.69, 2.54, 350.94
418.77, 2.70, 350.76
418.85, 2.87, 350.58
418.96, 3.04, 350.33
419.10, 3.22, 350.04
419.24, 3.41, 349.73
415.46, 1.34, 357.44
415.51, 1.36, 357.33
415.57, 1.39, 357.21
415.63, 1.41, 357.08
415.73, 1.41, 356.86
415.86, 1.41, 356.61
415.99, 1.41, 356.32
416.17, 1.40, 355.96
416.31, 1.41, 355.66
416.39, 1.46, 355.49
416.53, 1.49, 355.19
416.70, 1.52, 354.83
416.89, 1.55, 354.44
417.08, 1.59, 354.05
417.28, 1.65, 353.62
417.47, 1.71, 353.22
418.22, 1.67, 351.67
418.27, 1.80, 351.55
418.33, 1.94, 351.39
418.40, 2.08, 351.23
418.47, 2.23, 351.07
418.55, 2.38, 350.90
418.62, 2.53, 350.72
418.70, 2.69, 350.54
418.79, 2.86, 350.33
418.92, 3.03, 350.03
419.06, 3.22, 349.73
419.19, 3.41, 349.42
415.42, 1.33, 357.40
415.47, 1.35, 357.28
415.53, 1.37, 357.15
415.59, 1.40, 357.02
415.69, 1.40, 356.79
415.82, 1.39, 356.53
415.95, 1.39, 356.24
416.12, 1.38, 355.88
416.25, 1.40, 355.59
416.35, 1.44, 355.37
416.50, 1.46, 355.04
416.67, 1.49, 354.67
416.86, 1.52, 354.27
417.04, 1.57, 353.87
¯417.24, 1.62, 353.44
417.42, 1.69, 353.04
418.13, 1.65, 351.51
418.20, 1.78, 351.35
418.26, 1.92, 351.19
418.33, 2.06, 351.03
418.40, 2.21, 350.86
418.47, 2.36, 350.68
418.55, 2.52, 350.50
418.63, 2.68, 350.31
418.74, 2.85, 350.03
418.87, 3.03, 349.72
419.00, 3.22, 349.42
419.14, 3.42, 349.11
415.38, 1.32, 357.35
415.43, 1.34, 357.23
415.49, 1.36, 357.10
415.55, 1.38, 356.96
415.65, 1.38, 356.72
415.77, 1.38, 356.45
415.91, 1.37, 356.15
416.07, 1.36, 355.80
416.20, 1.38, 355.51
416.32, 1.41, 355.24
416.47, 1.43, 354.89
416.64, 1.46, 354.50
416.82, 1.49, 354.10
417.01, 1.54, 353.68
417.18, 1.60, 353.27
418.00, 1.49, 351.47
418.06, 1.63, 351.32
418.12, 1.76, 351.15
418.19, 1.90, 350.99
418.26, 2.05, 350.81
418.33, 2.20, 350.64
418.40, 2.35, 350.45
418.47, 2.51, 350.26
418.57, 2.67, 350.02
418.70, 2.85, 349.72
418.82, 3.03, 349.42
418.95, 3.22, 349.11
419.08, 3.42, 348.79
415.34, 1.30, 357.30
415.39, 1.33, 357.18
415.44, 1.35, 357.04
415.51, 1.37, 356.90
415.61, 1.36, 356.65
415.73, 1.36, 356.38
415.87, 1.35, 356.07
416.02, 1.35, 355.72
416.14, 1.36, 355.42
¯416.28, 1.38, 355.09
416.44, 1.40, 354.73
416.61, 1.43, 354.33
416.78, 1.46, 353.92
416.97, 1.51, 353.49
417.13, 1.57, 353.10
417.90, 1.48, 351.34
417.98, 1.60, 351.12
418.05, 1.74, 350.95
418.11, 1.88, 350.77
418.18, 2.03, 350.60
418.25, 2.18, 350.41
418.32, 2.33, 350.22
418.40, 2.50, 350.02
418.52, 2.66, 349.72
418.64, 2.84, 349.42
418.76, 3.03, 349.11
418.88, 3.22, 348.79
419.03, 3.43, 348.42
415.30, 1.29, 357.25
415.35, 1.31, 357.12
415.40, 1.33, 356.99
415.46, 1.35, 356.84
415.57, 1.35, 356.58
415.69, 1.34, 356.30
415.82, 1.33, 355.98
415.97, 1.33, 355.62
416.11, 1.33, 355.29
416.25, 1.35, 354.95
416.40, 1.37, 354.57
416.57, 1.40, 354.15
416.74, 1.43, 353.74
416.91, 1.48, 353.33
417.07, 1.55, 352.92
417.78, 1.46, 351.23
417.87, 1.59, 350.99
417.97, 1.72, 350.74
418.03, 1.86, 350.56
418.10, 2.01, 350.37
418.17, 2.16, 350.18
418.24, 2.32, 349.98
418.34, 2.48, 349.71
418.46, 2.65, 349.42
418.57, 2.83, 349.11
418.69, 3.02, 348.79
418.82, 3.22, 348.45
418.98, 3.43, 348.04
415.25, 1.28, 357.20
415.30, 1.30, 357.07
415.36, 1.32, 356.93
415.42, 1.34, 356.77
¯415.53, 1.33, 356.51
415.64, 1.32, 356.22
415.77, 1.31, 355.89
415.92, 1.30, 355.52
416.07, 1.31, 355.15
416.21, 1.32, 354.80
416.36, 1.34, 354.41
416.53, 1.37, 353.97
416.70, 1.40, 353.55
416.85, 1.46, 353.16
417.01, 1.52, 352.74
417.66, 1.45, 351.13
417.75, 1.57, 350.88
417.85, 1.70, 350.62
417.95, 1.84, 350.35
418.02, 1.99, 350.14
418.09, 2.14, 349.94
418.17, 2.30, 349.71
418.28, 2.47, 349.41
418.39, 2.64, 349.11
418.50, 2.82, 348.79
418.63, 3.02, 348.46
418.77, 3.22, 348.07
418.92, 3.44, 347.65
415.21, 1.26, 357.15
415.26, 1.28, 357.02
415.31, 1.30, 356.88
415.38, 1.32, 356.71
415.48, 1.31, 356.44
415.59, 1.30, 356.14
415.72, 1.29, 355.81
415.86, 1.29, 355.44
416.03, 1.28, 355.01
416.17, 1.29, 354.65
416.32, 1.31, 354.24
416.49, 1.33, 353.80
416.64, 1.37, 353.38
416.79, 1.43, 352.99
416.95, 1.49, 352.56
417.54, 1.43, 351.02
417.63, 1.56, 350.77
417.72, 1.69, 350.51
417.82, 1.82, 350.23
417.92, 1.97, 349.94
418.01, 2.12, 349.69
418.10, 2.28, 349.41
418.21, 2.45, 349.11
418.32, 2.63, 348.80
418.43, 2.82, 348.46
418.56, 3.01, 348.10
418.71, 3.22, 347.67
¯418.84, 3.44, 347.30
415.17, 1.25, 357.10
415.22, 1.27, 356.97
415.27, 1.29, 356.82
415.33, 1.30, 356.64
415.43, 1.29, 356.37
415.55, 1.28, 356.06
415.67, 1.27, 355.72
415.80, 1.27, 355.38
415.96, 1.26, 354.93
416.12, 1.26, 354.49
416.28, 1.27, 354.06
416.44, 1.30, 353.62
416.58, 1.35, 353.23
416.73, 1.40, 352.82
417.26, 1.33, 351.37
417.42, 1.42, 350.92
417.51, 1.54, 350.66
417.60, 1.67, 350.40
417.69, 1.81, 350.12
417.79, 1.95, 349.82
417.91, 2.10, 349.45
418.03, 2.27, 349.11
418.13, 2.44, 348.80
418.24, 2.62, 348.47
418.36, 2.81, 348.11
418.50, 3.01, 347.70
418.62, 3.22, 347.33
418.75, 3.45, 346.94
415.12, 1.24, 357.05
415.17, 1.25, 356.91
415.22, 1.27, 356.77
415.29, 1.29, 356.58
415.39, 1.28, 356.30
415.50, 1.26, 355.98
415.62, 1.25, 355.63
415.73, 1.26, 355.32
415.89, 1.25, 354.87
416.08, 1.22, 354.33
416.23, 1.24, 353.88
416.38, 1.27, 353.45
416.52, 1.32, 353.06
416.66, 1.38, 352.64
417.14, 1.31, 351.28
417.30, 1.40, 350.81
417.38, 1.53, 350.55
417.47, 1.66, 350.28
417.56, 1.80, 350.00
417.66, 1.94, 349.70
417.81, 2.09, 349.24
417.94, 2.25, 348.82
¯418.06, 2.42, 348.47
418.17, 2.60, 348.12
418.29, 2.80, 347.73
418.41, 3.00, 347.36
418.53, 3.22, 346.97
418.66, 3.45, 346.57
415.08, 1.22, 357.00
415.12, 1.24, 356.86
415.17, 1.26, 356.71
415.24, 1.27, 356.51
415.34, 1.26, 356.23
415.44, 1.24, 355.90
415.57, 1.23, 355.54
415.66, 1.25, 355.26
415.81, 1.23, 354.81
416.03, 1.19, 354.16
416.19, 1.20, 353.69
416.32, 1.24, 353.29
416.45, 1.29, 352.89
416.59, 1.35, 352.45
417.02, 1.30, 351.20
417.18, 1.38, 350.70
417.26, 1.51, 350.44
417.34, 1.64, 350.17
417.43, 1.78, 349.88
417.54, 1.92, 349.53
417.70, 2.07, 349.01
417.83, 2.23, 348.58
417.97, 2.40, 348.13
418.09, 2.59, 347.76
418.20, 2.79, 347.38
418.31, 3.00, 347.00
418.43, 3.22, 346.60
418.57, 3.46, 346.14
415.03, 1.21, 356.95
415.08, 1.22, 356.81
415.12, 1.24, 356.65
415.19, 1.25, 356.45
415.28, 1.24, 356.15
415.39, 1.22, 355.82
415.51, 1.21, 355.46
415.59, 1.23, 355.20
415.73, 1.22, 354.75
415.96, 1.17, 354.06
416.13, 1.17, 353.51
416.25, 1.21, 353.13
416.38, 1.26, 352.72
416.52, 1.31, 352.26
416.89, 1.28, 351.12
417.05, 1.37, 350.60
417.13, 1.49, 350.33
¯417.21, 1.63, 350.05
417.29, 1.76, 349.75
417.45, 1.90, 349.25
417.59, 2.05, 348.78
417.72, 2.21, 348.34
417.86, 2.39, 347.86
417.99, 2.58, 347.41
418.10, 2.78, 347.03
418.21, 2.99, 346.63
418.33, 3.22, 346.21
418.50, 3.46, 345.64
414.98, 1.19, 356.90
415.03, 1.21, 356.75
415.08, 1.23, 356.60
415.14, 1.23, 356.38
415.23, 1.22, 356.08
415.34, 1.20, 355.74
415.44, 1.20, 355.40
415.52, 1.22, 355.14
415.66, 1.21, 354.69
415.87, 1.15, 353.99
416.06, 1.14, 353.36
416.18, 1.18, 352.97
416.31, 1.23, 352.54
416.45, 1.28, 352.07
416.76, 1.27, 351.03
416.92, 1.35, 350.49
417.00, 1.48, 350.22
417.08, 1.61, 349.93
417.16, 1.75, 349.63
417.35, 1.87, 348.97
417.47, 2.03, 348.55
417.60, 2.19, 348.09
417.74, 2.37, 347.59
417.87, 2.56, 347.12
418.00, 2.77, 346.67
418.11, 2.99, 346.25
418.24, 3.22, 345.75
418.39, 3.47, 345.24
415.76, 1.12, 366.43
415.78, 1.12, 366.67
415.80, 1.12, 366.92
415.82, 1.12, 367.21
415.84, 1.12, 367.51
415.86, 1.12, 367.85
415.89, 1.12, 368.22
415.92, 1.12, 368.63
415.95, 1.12, 369.09
416.05, 0.98, 370.24
416.10, 0.98, 370.88
416.15, 0.98, 371.62
¯416.22, 0.97, 372.47
416.26, 1.02, 373.18
416.27, 1.16, 373.40
416.27, 1.31, 373.57
416.26, 1.46, 373.74
416.26, 1.62, 373.92
416.26, 1.78, 374.10
416.26, 1.95, 374.29
416.26, 2.12, 374.48
416.25, 2.30, 374.67
416.25, 2.48, 374.88
416.25, 2.66, 375.11
416.27, 2.85, 375.66
416.31, 3.05, 376.47
415.83, 1.13, 366.42
415.85, 1.13, 366.66
415.87, 1.13, 366.92
415.90, 1.13, 367.20
415.93, 1.13, 367.50
415.96, 1.13, 367.84
415.99, 1.13, 368.21
416.02, 1.13, 368.62
416.13, 0.99, 369.67
416.18, 0.99, 370.23
416.23, 0.99, 370.88
416.30, 0.99, 371.61
416.37, 0.99, 372.47
416.43, 1.03, 373.18
416.45, 1.16, 373.50
416.45, 1.31, 373.67
416.45, 1.47, 373.84
416.45, 1.62, 374.02
416.45, 1.79, 374.21
416.45, 1.96, 374.39
416.45, 2.13, 374.59
416.45, 2.31, 374.79
416.45, 2.49, 374.99
416.46, 2.67, 375.27
416.48, 2.87, 375.76
416.54, 3.07, 376.59
415.90, 1.13, 366.42
415.93, 1.13, 366.65
415.95, 1.13, 366.91
415.98, 1.13, 367.19
416.01, 1.14, 367.50
416.05, 1.14, 367.83
416.08, 1.14, 368.20
416.13, 1.14, 368.61
416.25, 1.00, 369.66
416.30, 1.00, 370.23
416.37, 1.00, 370.87
¯416.44, 1.00, 371.61
416.53, 1.00, 372.46
416.60, 1.05, 373.17
416.62, 1.17, 373.51
416.63, 1.31, 373.76
416.64, 1.47, 373.94
416.64, 1.63, 374.12
416.64, 1.79, 374.31
416.65, 1.96, 374.50
416.65, 2.14, 374.70
416.65, 2.32, 374.90
416.66, 2.50, 375.15
416.67, 2.69, 375.44
416.70, 2.88, 375.86
416.76, 3.10, 376.70
415.98, 1.14, 366.41
416.00, 1.14, 366.64
416.03, 1.14, 366.90
416.07, 1.14, 367.18
416.10, 1.14, 367.49
416.14, 1.15, 367.82
416.18, 1.15, 368.19
416.23, 1.15, 368.60
416.36, 1.01, 369.65
416.43, 1.01, 370.22
416.50, 1.01, 370.86
416.59, 1.01, 371.60
416.69, 1.01, 372.45
416.77, 1.06, 373.17
416.79, 1.18, 373.51
416.82, 1.31, 373.86
416.83, 1.47, 374.04
416.84, 1.63, 374.23
416.84, 1.80, 374.42
416.85, 1.97, 374.61
416.85, 2.15, 374.81
416.86, 2.33, 375.03
416.88, 2.51, 375.31
416.89, 2.70, 375.61
416.92, 2.90, 375.97
417.00, 3.12, 376.82
416.05, 1.15, 366.40
416.08, 1.15, 366.63
416.11, 1.15, 366.89
416.15, 1.15, 367.17
416.19, 1.15, 367.48
416.23, 1.15, 367.81
416.28, 1.16, 368.18
416.33, 1.16, 368.59
416.48, 1.02, 369.64
416.56, 1.02, 370.21
¯416.64, 1.03, 370.85
416.73, 1.03, 371.59
416.85, 1.03, 372.44
416.94, 1.07, 373.17
416.97, 1.20, 373.51
417.00, 1.33, 373.86
417.02, 1.47, 374.14
417.03, 1.64, 374.33
417.04, 1.81, 374.52
417.05, 1.98, 374.72
417.06, 2.16, 374.93
417.08, 2.34, 375.19
417.10, 2.52, 375.48
417.12, 2.72, 375.79
417.14, 2.92, 376.11
417.23, 3.14, 376.94
416.12, 1.16, 366.38
416.15, 1.16, 366.62
416.19, 1.16, 366.88
416.23, 1.16, 367.16
416.27, 1.16, 367.46
416.32, 1.16, 367.80
416.38, 1.17, 368.17
416.43, 1.17, 368.58
416.60, 1.03, 369.63
416.68, 1.04, 370.20
416.77, 1.04, 370.84
416.88, 1.04, 371.57
417.00, 1.04, 372.43
417.10, 1.09, 373.16
417.14, 1.21, 373.50
417.18, 1.34, 373.86
417.22, 1.48, 374.23
417.24, 1.64, 374.44
417.25, 1.81, 374.63
417.26, 1.99, 374.84
417.28, 2.17, 375.06
417.30, 2.35, 375.35
417.33, 2.54, 375.65
417.35, 2.73, 375.97
417.38, 2.94, 376.30
416.19, 1.16, 366.37
416.23, 1.16, 366.60
416.27, 1.17, 366.86
416.31, 1.17, 367.14
416.36, 1.17, 367.45
416.41, 1.17, 367.78
416.47, 1.18, 368.15
416.54, 1.18, 368.56
416.72, 1.05, 369.61
416.81, 1.05, 370.18
¯416.91, 1.05, 370.82
417.02, 1.05, 371.56
417.16, 1.05, 372.41
417.27, 1.10, 373.16
417.32, 1.22, 373.50
417.36, 1.35, 373.85
417.41, 1.49, 374.23
417.44, 1.64, 374.55
417.46, 1.82, 374.75
417.47, 1.99, 374.95
417.50, 2.17, 375.22
417.53, 2.36, 375.52
417.56, 2.55, 375.83
417.59, 2.75, 376.15
417.63, 2.96, 376.49
416.26, 1.17, 366.35
416.30, 1.17, 366.59
416.35, 1.18, 366.84
416.39, 1.18, 367.12
416.45, 1.18, 367.43
416.50, 1.18, 367.77
416.57, 1.18, 368.14
416.64, 1.19, 368.54
416.83, 1.06, 369.59
416.93, 1.06, 370.17
417.04, 1.06, 370.81
417.17, 1.06, 371.54
417.32, 1.07, 372.39
417.44, 1.11, 373.15
417.49, 1.24, 373.49
417.54, 1.37, 373.85
417.59, 1.50, 374.22
417.65, 1.65, 374.62
417.67, 1.82, 374.86
417.70, 2.00, 375.10
417.73, 2.18, 375.39
417.77, 2.37, 375.70
417.80, 2.56, 376.01
417.84, 2.77, 376.35
417.88, 2.98, 376.69
416.33, 1.18, 366.33
416.38, 1.18, 366.57
416.42, 1.18, 366.83
416.47, 1.19, 367.10
416.53, 1.19, 367.41
416.59, 1.19, 367.74
416.66, 1.20, 368.11
416.74, 1.20, 368.52
416.95, 1.07, 369.57
417.06, 1.07, 370.15
417.18, 1.07, 370.79
¯417.31, 1.08, 371.52
417.47, 1.08, 372.37
417.61, 1.12, 373.15
417.67, 1.25, 373.49
417.72, 1.38, 373.84
417.78, 1.52, 374.22
417.84, 1.67, 374.62
417.89, 1.83, 374.98
417.93, 2.00, 375.26
417.97, 2.19, 375.56
418.01, 2.38, 375.88
418.05, 2.58, 376.21
418.10, 2.78, 376.55
418.14, 3.00, 376.91
416.40, 1.19, 366.32
416.45, 1.19, 366.55
416.50, 1.19, 366.81
416.56, 1.20, 367.08
416.62, 1.20, 367.39
416.68, 1.20, 367.72
416.76, 1.21, 368.09
416.84, 1.21, 368.50
417.06, 1.08, 369.54
417.18, 1.08, 370.12
417.31, 1.08, 370.77
417.46, 1.09, 371.50
417.63, 1.09, 372.35
417.79, 1.13, 373.14
417.84, 1.26, 373.48
417.90, 1.39, 373.84
417.97, 1.53, 374.21
418.04, 1.68, 374.63
418.12, 1.83, 375.11
418.17, 2.01, 375.44
418.21, 2.19, 375.75
418.26, 2.39, 376.08
418.31, 2.59, 376.42
418.36, 2.80, 376.77
416.47, 1.19, 366.30
416.52, 1.20, 366.54
416.58, 1.20, 366.79
416.64, 1.20, 367.07
416.70, 1.21, 367.37
416.77, 1.21, 367.70
416.85, 1.21, 368.07
416.94, 1.22, 368.48
417.18, 1.09, 369.52
417.30, 1.09, 370.09
417.44, 1.09, 370.74
417.60, 1.10, 371.48
417.79, 1.11, 372.32
¯417.96, 1.15, 373.13
418.02, 1.27, 373.48
418.09, 1.40, 373.86
418.16, 1.54, 374.26
418.24, 1.69, 374.68
418.34, 1.84, 375.19
418.42, 2.01, 375.62
418.47, 2.20, 375.95
418.52, 2.40, 376.28
418.58, 2.60, 376.63
416.54, 1.20, 366.29
416.60, 1.20, 366.52
416.65, 1.21, 366.77
416.72, 1.21, 367.05
416.79, 1.22, 367.35
416.86, 1.22, 367.68
416.95, 1.22, 368.04
417.04, 1.23, 368.45
417.29, 1.10, 369.49
417.43, 1.10, 370.06
417.58, 1.11, 370.72
417.75, 1.11, 371.45
417.94, 1.12, 372.30
418.14, 1.15, 373.14
418.21, 1.28, 373.52
418.29, 1.41, 373.90
418.37, 1.55, 374.30
418.45, 1.70, 374.73
418.56, 1.85, 375.27
418.67, 2.01, 375.82
418.73, 2.21, 376.15
418.79, 2.41, 376.49
418.86, 2.62, 376.86
416.61, 1.21, 366.27
416.67, 1.21, 366.50
416.73, 1.22, 366.75
416.80, 1.22, 367.03
416.87, 1.22, 367.33
416.95, 1.23, 367.66
417.04, 1.23, 368.02
417.14, 1.24, 368.43
417.41, 1.11, 369.46
417.55, 1.12, 370.03
417.71, 1.12, 370.69
417.89, 1.13, 371.42
418.10, 1.14, 372.27
418.31, 1.17, 373.13
418.40, 1.28, 373.56
418.48, 1.42, 373.94
418.57, 1.56, 374.34
418.66, 1.71, 374.77
¯418.79, 1.86, 375.34
418.94, 2.02, 376.01
419.00, 2.21, 376.36
419.07, 2.42, 376.71
416.68, 1.22, 366.25
416.74, 1.22, 366.48
416.81, 1.22, 366.73
416.88, 1.23, 367.00
416.96, 1.23, 367.30
417.04, 1.24, 367.63
417.14, 1.24, 368.00
417.24, 1.25, 368.40
417.52, 1.12, 369.43
417.67, 1.13, 370.00
417.84, 1.13, 370.65
418.03, 1.14, 371.39
418.25, 1.15, 372.23
418.48, 1.18, 373.12
418.59, 1.29, 373.57
418.68, 1.42, 373.98
418.78, 1.56, 374.39
418.88, 1.71, 374.82
419.02, 1.86, 375.42
419.20, 2.02, 376.18
419.29, 2.22, 376.57
419.36, 2.43, 376.94
416.75, 1.22, 366.23
416.82, 1.23, 366.46
416.88, 1.23, 366.71
416.96, 1.24, 366.98
417.04, 1.24, 367.28
417.13, 1.25, 367.61
417.23, 1.25, 367.97
417.34, 1.26, 368.37
417.64, 1.14, 369.40
417.79, 1.14, 369.96
417.97, 1.14, 370.61
418.18, 1.15, 371.36
418.41, 1.16, 372.20
418.66, 1.19, 373.10
418.77, 1.30, 373.55
418.88, 1.43, 374.02
418.99, 1.57, 374.43
419.09, 1.72, 374.87
419.25, 1.87, 375.50
419.45, 2.03, 376.27
419.58, 2.22, 376.80
416.82, 1.23, 366.21
416.89, 1.23, 366.44
416.96, 1.24, 366.69
417.04, 1.24, 366.96
¯417.12, 1.25, 367.25
417.22, 1.25, 367.58
417.32, 1.26, 367.94
417.44, 1.27, 368.34
417.57, 1.28, 368.79
417.91, 1.15, 369.93
418.10, 1.16, 370.57
418.32, 1.16, 371.32
418.56, 1.18, 372.16
418.83, 1.20, 373.09
418.95, 1.31, 373.54
419.08, 1.44, 374.02
419.20, 1.58, 374.47
419.31, 1.73, 374.92
419.49, 1.88, 375.58
419.70, 2.04, 376.36
416.89, 1.24, 366.19
416.96, 1.24, 366.42
417.04, 1.25, 366.66
417.12, 1.25, 366.93
417.21, 1.26, 367.23
417.31, 1.26, 367.55
417.42, 1.27, 367.91
417.54, 1.28, 368.31
417.67, 1.29, 368.75
418.03, 1.16, 369.89
418.23, 1.17, 370.53
418.46, 1.18, 371.27
418.72, 1.19, 372.12
419.00, 1.21, 373.07
419.13, 1.33, 373.52
419.27, 1.45, 374.00
419.41, 1.59, 374.51
419.53, 1.74, 374.96
419.74, 1.89, 375.66
419.97, 2.05, 376.47
416.96, 1.25, 366.16
417.03, 1.25, 366.39
417.11, 1.25, 366.63
417.20, 1.26, 366.90
417.29, 1.27, 367.20
417.39, 1.27, 367.52
417.51, 1.28, 367.88
417.64, 1.29, 368.28
417.78, 1.30, 368.72
418.15, 1.18, 369.85
418.36, 1.18, 370.49
418.59, 1.19, 371.23
418.87, 1.20, 372.08
419.18, 1.22, 373.05
419.31, 1.34, 373.50
¯419.46, 1.46, 373.99
419.61, 1.60, 374.51
419.76, 1.75, 375.01
419.99, 1.90, 375.76
420.26, 2.06, 376.65
417.02, 1.25, 366.13
417.10, 1.26, 366.35
417.18, 1.26, 366.60
417.27, 1.27, 366.87
417.37, 1.28, 367.16
417.48, 1.28, 367.49
417.60, 1.29, 367.84
417.73, 1.30, 368.24
417.88, 1.31, 368.68
418.27, 1.19, 369.81
418.49, 1.20, 370.44
418.73, 1.21, 371.18
419.02, 1.22, 372.03
419.35, 1.23, 373.01
419.50, 1.35, 373.48
419.65, 1.47, 373.97
419.81, 1.61, 374.49
420.01, 1.75, 375.11
420.27, 1.90, 375.92
420.56, 2.06, 376.83
417.09, 1.26, 366.10
417.17, 1.27, 366.32
417.25, 1.27, 366.57
417.35, 1.28, 366.83
417.45, 1.29, 367.12
417.56, 1.29, 367.44
417.69, 1.30, 367.80
417.83, 1.31, 368.20
417.98, 1.32, 368.64
418.39, 1.20, 369.76
418.61, 1.21, 370.40
418.87, 1.22, 371.13
419.17, 1.23, 371.98
419.52, 1.25, 372.96
419.68, 1.36, 373.46
419.84, 1.49, 373.95
420.02, 1.62, 374.49
420.25, 1.76, 375.18
420.56, 1.90, 376.08
417.15, 1.27, 366.07
417.24, 1.28, 366.29
417.32, 1.28, 366.53
417.42, 1.29, 366.80
417.53, 1.30, 367.09
417.65, 1.30, 367.41
417.78, 1.31, 367.76
¯417.92, 1.32, 368.16
418.08, 1.33, 368.60
418.51, 1.21, 369.72
418.74, 1.22, 370.35
419.01, 1.23, 371.07
419.32, 1.25, 371.92
419.68, 1.26, 372.91
419.87, 1.37, 373.44
420.05, 1.49, 373.96
420.24, 1.63, 374.53
420.50, 1.77, 375.25
420.85, 1.90, 376.24
417.22, 1.28, 366.03
417.30, 1.29, 366.26
417.40, 1.29, 366.50
417.50, 1.30, 366.76
417.61, 1.31, 367.05
417.73, 1.31, 367.37
417.87, 1.32, 367.73
418.02, 1.33, 368.12
418.19, 1.34, 368.56
418.62, 1.22, 369.67
418.86, 1.23, 370.29
419.14, 1.25, 371.02
