ŸVERSION 0.7
FIELDS x y z
SIZE 8 8 8
TYPE F F F
COUNT 1 1 1
WIDTH 2271
HEIGHT 1
VIEWPOINT 383.07, 11.04, 322.15 1 363.78, 3.77, 322.48
POINTS 2271
DATA ascii
363.86, 2.42, 318.70
363.72, 2.42, 318.54
363.56, 2.42, 318.38
363.38, 2.41, 318.19
363.18, 2.40, 317.97
362.94, 2.39, 317.71
362.67, 2.37, 317.43
362.37, 2.35, 317.10
362.02, 2.32, 316.73
361.62, 2.30, 316.30
361.12, 2.25, 315.77
360.50, 2.19, 315.10
359.72, 2.12, 314.26
358.64, 1.99, 313.11
357.17, 1.82, 311.53
355.03, 1.57, 309.24
352.33, 1.30, 306.34
350.83, 1.35, 304.74
364.75, 2.42, 319.72
364.67, 2.42, 319.64
364.59, 2.42, 319.55
364.50, 2.42, 319.46
364.40, 2.42, 319.36
364.30, 2.42, 319.25
364.19, 2.42, 319.14
364.07, 2.42, 319.02
363.95, 2.42, 318.89
363.81, 2.42, 318.75
363.67, 2.42, 318.60
363.51, 2.42, 318.43
¯363.34, 2.41, 318.25
363.12, 2.40, 318.03
362.88, 2.39, 317.78
362.61, 2.37, 317.49
362.30, 2.35, 317.18
361.95, 2.32, 316.81
361.55, 2.30, 316.39
361.04, 2.25, 315.86
360.41, 2.19, 315.20
359.63, 2.12, 314.39
358.53, 1.99, 313.25
357.04, 1.82, 311.69
354.87, 1.57, 309.43
351.94, 1.26, 306.38
350.37, 1.30, 304.74
364.72, 2.42, 319.76
364.64, 2.42, 319.68
364.55, 2.42, 319.59
364.46, 2.42, 319.50
364.36, 2.42, 319.40
364.26, 2.42, 319.29
364.15, 2.42, 319.18
364.03, 2.42, 319.06
363.90, 2.42, 318.94
363.77, 2.42, 318.80
363.62, 2.42, 318.65
363.46, 2.42, 318.49
363.29, 2.42, 318.31
363.07, 2.40, 318.09
362.82, 2.39, 317.84
362.55, 2.37, 317.56
362.24, 2.35, 317.25
361.89, 2.32, 316.89
361.48, 2.30, 316.48
360.96, 2.25, 315.96
360.32, 2.19, 315.31
359.53, 2.12, 314.51
358.42, 1.99, 313.38
356.92, 1.82, 311.86
354.71, 1.57, 309.62
351.55, 1.22, 306.41
349.89, 1.25, 304.74
364.69, 2.42, 319.80
364.60, 2.42, 319.71
364.52, 2.42, 319.63
364.42, 2.42, 319.54
364.33, 2.42, 319.44
364.22, 2.42, 319.34
364.11, 2.42, 319.23
363.99, 2.42, 319.11
363.86, 2.42, 318.99
¯363.72, 2.42, 318.85
363.58, 2.42, 318.70
363.42, 2.42, 318.55
363.24, 2.42, 318.37
363.02, 2.40, 318.16
362.77, 2.39, 317.91
362.49, 2.37, 317.64
362.18, 2.35, 317.33
361.82, 2.32, 316.98
361.41, 2.30, 316.57
360.88, 2.25, 316.05
360.24, 2.19, 315.42
359.44, 2.12, 314.63
358.33, 1.99, 313.53
356.79, 1.82, 312.02
354.53, 1.56, 309.79
351.20, 1.18, 306.50
364.66, 2.42, 319.83
364.57, 2.42, 319.75
364.48, 2.42, 319.67
364.39, 2.42, 319.58
364.29, 2.42, 319.48
364.18, 2.42, 319.38
364.07, 2.42, 319.27
363.95, 2.42, 319.16
363.82, 2.42, 319.04
363.68, 2.42, 318.90
363.53, 2.42, 318.76
363.37, 2.42, 318.61
363.19, 2.42, 318.43
362.97, 2.40, 318.22
362.72, 2.39, 317.98
362.44, 2.37, 317.71
362.12, 2.35, 317.41
361.76, 2.33, 317.06
361.34, 2.30, 316.67
360.81, 2.25, 316.16
360.16, 2.19, 315.53
359.36, 2.12, 314.76
358.24, 2.00, 313.69
356.67, 1.82, 312.19
354.33, 1.55, 309.94
350.93, 1.17, 306.68
364.62, 2.42, 319.87
364.54, 2.42, 319.79
364.45, 2.42, 319.71
364.35, 2.42, 319.62
364.25, 2.42, 319.53
364.15, 2.42, 319.43
364.03, 2.42, 319.32
363.91, 2.42, 319.21
¯363.78, 2.42, 319.09
363.64, 2.42, 318.96
363.49, 2.42, 318.82
363.33, 2.42, 318.66
363.14, 2.41, 318.49
362.92, 2.40, 318.29
362.67, 2.39, 318.05
362.38, 2.37, 317.79
362.06, 2.35, 317.49
361.70, 2.33, 317.15
361.27, 2.30, 316.76
360.74, 2.25, 316.26
360.08, 2.19, 315.64
359.27, 2.12, 314.89
358.15, 2.00, 313.84
356.55, 1.82, 312.35
354.13, 1.54, 310.10
350.78, 1.17, 306.97
364.59, 2.42, 319.91
364.51, 2.42, 319.83
364.42, 2.42, 319.75
364.32, 2.42, 319.66
364.22, 2.42, 319.57
364.11, 2.42, 319.47
364.00, 2.42, 319.37
363.87, 2.42, 319.26
363.74, 2.42, 319.14
363.60, 2.42, 319.01
363.45, 2.42, 318.87
363.28, 2.42, 318.72
363.09, 2.41, 318.55
362.87, 2.41, 318.35
362.61, 2.39, 318.12
362.33, 2.37, 317.86
362.00, 2.35, 317.57
361.64, 2.33, 317.24
361.21, 2.30, 316.84
360.67, 2.26, 316.36
360.01, 2.20, 315.76
359.18, 2.12, 315.01
358.06, 2.01, 313.99
356.43, 1.82, 312.52
353.93, 1.53, 310.25
350.63, 1.18, 307.26
364.56, 2.42, 319.95
364.48, 2.42, 319.87
364.38, 2.42, 319.79
364.29, 2.42, 319.71
364.18, 2.42, 319.62
364.08, 2.42, 319.52
363.96, 2.42, 319.42
¯363.83, 2.42, 319.31
363.70, 2.42, 319.19
363.56, 2.42, 319.07
363.40, 2.42, 318.93
363.23, 2.42, 318.78
363.03, 2.41, 318.61
362.82, 2.40, 318.41
362.56, 2.39, 318.19
362.27, 2.37, 317.94
361.95, 2.35, 317.65
361.58, 2.33, 317.32
361.14, 2.30, 316.93
360.60, 2.26, 316.46
359.93, 2.20, 315.87
359.10, 2.12, 315.14
357.97, 2.01, 314.15
356.33, 1.83, 312.70
353.73, 1.51, 310.41
350.43, 1.17, 307.50
364.53, 2.42, 319.99
364.44, 2.42, 319.91
364.35, 2.42, 319.83
364.25, 2.42, 319.75
364.15, 2.42, 319.66
364.04, 2.42, 319.57
363.92, 2.42, 319.47
363.80, 2.42, 319.36
363.66, 2.42, 319.24
363.52, 2.42, 319.12
363.36, 2.42, 318.99
363.19, 2.42, 318.84
362.99, 2.41, 318.66
362.77, 2.40, 318.48
362.51, 2.39, 318.26
362.22, 2.37, 318.01
361.89, 2.35, 317.73
361.52, 2.33, 317.41
361.07, 2.30, 317.03
360.53, 2.26, 316.56
359.86, 2.20, 315.99
359.01, 2.12, 315.26
357.89, 2.01, 314.30
356.23, 1.83, 312.87
353.54, 1.50, 310.57
349.57, 1.05, 307.17
364.50, 2.42, 320.03
364.41, 2.42, 319.95
364.32, 2.42, 319.87
364.22, 2.42, 319.79
364.12, 2.42, 319.71
364.01, 2.42, 319.61
¯363.89, 2.42, 319.51
363.76, 2.42, 319.41
363.62, 2.42, 319.30
363.48, 2.42, 319.17
363.32, 2.42, 319.04
363.14, 2.42, 318.89
362.94, 2.41, 318.72
362.71, 2.40, 318.54
362.47, 2.39, 318.33
362.17, 2.38, 318.09
361.84, 2.36, 317.81
361.46, 2.33, 317.50
361.00, 2.30, 317.12
360.45, 2.26, 316.66
359.79, 2.20, 316.10
358.93, 2.12, 315.39
357.81, 2.02, 314.45
356.12, 1.83, 313.05
353.39, 1.50, 310.77
349.06, 1.00, 307.17
364.47, 2.42, 320.07
364.38, 2.42, 319.99
364.29, 2.42, 319.92
364.19, 2.42, 319.84
364.08, 2.42, 319.75
363.97, 2.42, 319.66
363.85, 2.42, 319.56
363.72, 2.42, 319.46
363.59, 2.42, 319.35
363.44, 2.42, 319.23
363.28, 2.42, 319.10
363.09, 2.42, 318.95
362.89, 2.41, 318.78
362.66, 2.40, 318.60
362.41, 2.39, 318.40
362.12, 2.38, 318.16
361.79, 2.36, 317.89
361.40, 2.34, 317.58
360.94, 2.30, 317.21
360.38, 2.26, 316.76
359.71, 2.20, 316.22
358.84, 2.13, 315.51
357.71, 2.02, 314.60
356.02, 1.84, 313.23
353.24, 1.50, 310.97
348.54, 0.94, 307.17
364.44, 2.42, 320.11
364.35, 2.42, 320.03
364.26, 2.42, 319.96
364.16, 2.42, 319.88
364.05, 2.42, 319.80
¯363.94, 2.42, 319.71
363.82, 2.42, 319.61
363.69, 2.42, 319.51
363.55, 2.42, 319.40
363.40, 2.42, 319.28
363.24, 2.42, 319.16
363.05, 2.42, 319.01
362.84, 2.41, 318.84
362.61, 2.40, 318.67
362.36, 2.39, 318.47
362.07, 2.38, 318.24
361.73, 2.36, 317.97
361.35, 2.34, 317.67
360.87, 2.30, 317.30
360.31, 2.26, 316.86
359.64, 2.21, 316.33
358.76, 2.13, 315.64
357.63, 2.02, 314.75
355.93, 1.84, 313.41
353.09, 1.50, 311.17
348.12, 0.90, 307.26
364.42, 2.42, 320.14
364.32, 2.42, 320.08
364.23, 2.42, 320.00
364.13, 2.42, 319.92
364.02, 2.42, 319.84
363.90, 2.42, 319.75
363.78, 2.42, 319.66
363.65, 2.42, 319.56
363.51, 2.43, 319.45
363.36, 2.43, 319.34
363.19, 2.42, 319.21
363.00, 2.42, 319.06
362.79, 2.41, 318.90
362.56, 2.40, 318.73
362.31, 2.39, 318.53
362.02, 2.38, 318.32
361.68, 2.36, 318.06
361.29, 2.34, 317.76
360.81, 2.30, 317.39
360.24, 2.26, 316.96
359.57, 2.21, 316.44
358.68, 2.13, 315.77
357.56, 2.03, 314.90
355.83, 1.84, 313.58
352.94, 1.50, 311.37
347.92, 0.90, 307.54
364.39, 2.42, 320.19
364.30, 2.42, 320.12
364.20, 2.42, 320.04
364.10, 2.42, 319.97
¯363.99, 2.42, 319.89
363.87, 2.43, 319.80
363.75, 2.43, 319.71
363.62, 2.43, 319.61
363.48, 2.43, 319.51
363.32, 2.43, 319.40
363.15, 2.42, 319.27
362.96, 2.42, 319.12
362.74, 2.41, 318.97
362.51, 2.40, 318.79
362.25, 2.39, 318.60
361.97, 2.38, 318.39
361.63, 2.36, 318.14
361.23, 2.34, 317.84
360.75, 2.30, 317.48
360.18, 2.26, 317.06
359.50, 2.21, 316.56
358.62, 2.13, 315.90
357.48, 2.03, 315.06
355.73, 1.85, 313.76
352.79, 1.50, 311.57
347.73, 0.90, 307.82
364.36, 2.42, 320.23
364.27, 2.42, 320.16
364.17, 2.43, 320.09
364.07, 2.43, 320.01
363.96, 2.43, 319.93
363.84, 2.43, 319.85
363.71, 2.43, 319.76
363.58, 2.43, 319.66
363.44, 2.43, 319.56
363.29, 2.43, 319.45
363.11, 2.42, 319.32
362.91, 2.41, 319.18
362.70, 2.41, 319.03
362.46, 2.40, 318.86
362.20, 2.39, 318.67
361.91, 2.38, 318.46
361.58, 2.36, 318.22
361.17, 2.34, 317.93
360.68, 2.30, 317.58
360.11, 2.26, 317.16
359.43, 2.21, 316.68
358.55, 2.14, 316.04
357.41, 2.04, 315.22
355.64, 1.85, 313.94
352.61, 1.49, 311.76
347.54, 0.90, 308.10
364.33, 2.43, 320.27
364.24, 2.43, 320.20
364.14, 2.43, 320.13
¯364.04, 2.43, 320.06
363.93, 2.43, 319.98
363.81, 2.43, 319.90
363.68, 2.43, 319.81
363.55, 2.43, 319.72
363.40, 2.43, 319.62
363.25, 2.43, 319.51
363.07, 2.42, 319.38
362.87, 2.41, 319.24
362.65, 2.41, 319.09
362.41, 2.40, 318.92
362.15, 2.39, 318.74
361.86, 2.38, 318.54
361.53, 2.37, 318.30
361.12, 2.34, 318.02
360.62, 2.30, 317.67
360.05, 2.26, 317.27
359.37, 2.22, 316.79
358.49, 2.14, 316.17
357.33, 2.04, 315.36
355.54, 1.85, 314.12
352.41, 1.48, 311.92
347.35, 0.90, 308.38
364.31, 2.43, 320.31
364.21, 2.43, 320.24
364.11, 2.43, 320.18
364.01, 2.43, 320.10
363.90, 2.43, 320.03
363.78, 2.43, 319.95
363.65, 2.43, 319.86
363.51, 2.43, 319.77
363.37, 2.43, 319.67
363.21, 2.43, 319.56
363.02, 2.42, 319.44
362.82, 2.41, 319.30
362.61, 2.41, 319.15
362.37, 2.40, 318.99
362.10, 2.39, 318.81
361.81, 2.38, 318.61
361.48, 2.37, 318.38
361.06, 2.34, 318.10
360.57, 2.31, 317.77
359.99, 2.27, 317.38
359.30, 2.22, 316.91
358.42, 2.15, 316.31
357.25, 2.04, 315.51
355.45, 1.86, 314.29
352.20, 1.47, 312.08
347.16, 0.90, 308.66
364.28, 2.43, 320.35
364.19, 2.43, 320.29
¯364.08, 2.43, 320.22
363.98, 2.43, 320.15
363.87, 2.43, 320.07
363.75, 2.43, 320.00
363.62, 2.43, 319.91
363.48, 2.43, 319.82
363.34, 2.43, 319.73
363.17, 2.43, 319.62
362.98, 2.42, 319.49
362.78, 2.41, 319.36
362.56, 2.40, 319.22
362.32, 2.40, 319.06
362.05, 2.39, 318.88
361.75, 2.38, 318.68
361.42, 2.37, 318.46
361.01, 2.34, 318.19
360.52, 2.31, 317.87
359.94, 2.27, 317.48
359.24, 2.22, 317.03
358.36, 2.15, 316.44
357.17, 2.05, 315.66
355.33, 1.86, 314.45
353.80, 1.78, 313.44
346.97, 0.90, 308.94
364.45, 2.55, 320.51
364.16, 2.43, 320.33
364.06, 2.43, 320.26
363.95, 2.43, 320.19
363.84, 2.43, 320.12
363.72, 2.43, 320.04
363.59, 2.43, 319.96
363.45, 2.43, 319.87
363.30, 2.43, 319.78
363.13, 2.43, 319.67
362.94, 2.42, 319.55
362.74, 2.41, 319.42
362.52, 2.40, 319.28
362.27, 2.40, 319.12
362.00, 2.39, 318.95
361.70, 2.38, 318.76
361.37, 2.37, 318.55
360.96, 2.34, 318.28
360.46, 2.31, 317.97
359.88, 2.27, 317.59
359.18, 2.22, 317.14
358.29, 2.15, 316.57
357.09, 2.05, 315.81
356.16, 2.04, 315.22
354.23, 1.88, 313.98
346.78, 0.90, 309.22
364.42, 2.55, 320.55
¯364.33, 2.55, 320.49
364.19, 2.52, 320.41
363.92, 2.43, 320.24
363.81, 2.43, 320.17
363.69, 2.43, 320.09
363.56, 2.43, 320.01
363.42, 2.43, 319.93
363.27, 2.43, 319.83
363.09, 2.42, 319.73
362.90, 2.42, 319.61
362.70, 2.41, 319.48
362.47, 2.40, 319.34
362.23, 2.40, 319.19
361.95, 2.39, 319.02
361.66, 2.38, 318.84
361.33, 2.37, 318.63
360.91, 2.35, 318.37
360.41, 2.31, 318.06
359.82, 2.27, 317.70
359.11, 2.23, 317.26
358.22, 2.16, 316.70
357.08, 2.07, 316.00
356.66, 2.16, 315.74
354.11, 1.88, 314.16
346.59, 0.90, 309.50
364.40, 2.55, 320.59
364.31, 2.55, 320.53
364.21, 2.54, 320.47
364.10, 2.54, 320.41
363.89, 2.49, 320.28
363.66, 2.43, 320.14
363.53, 2.43, 320.06
363.39, 2.43, 319.98
363.23, 2.43, 319.89
363.06, 2.42, 319.78
362.86, 2.42, 319.67
362.66, 2.41, 319.54
362.43, 2.40, 319.41
362.18, 2.40, 319.26
361.91, 2.39, 319.10
361.61, 2.38, 318.92
361.28, 2.37, 318.71
360.86, 2.35, 318.46
360.36, 2.32, 318.16
359.77, 2.28, 317.81
359.05, 2.23, 317.38
358.15, 2.16, 316.84
357.72, 2.22, 316.58
356.58, 2.16, 315.89
354.00, 1.88, 314.34
347.27, 1.04, 310.31
¯364.37, 2.55, 320.63
364.28, 2.55, 320.57
364.18, 2.54, 320.51
364.07, 2.54, 320.45
363.96, 2.54, 320.39
363.83, 2.53, 320.31
363.50, 2.43, 320.12
363.35, 2.43, 320.03
363.20, 2.43, 319.94
363.02, 2.42, 319.84
362.83, 2.42, 319.73
362.62, 2.41, 319.60
362.39, 2.40, 319.47
362.14, 2.40, 319.33
361.87, 2.39, 319.17
361.57, 2.38, 319.00
361.23, 2.37, 318.79
360.80, 2.35, 318.55
360.31, 2.32, 318.26
359.72, 2.28, 317.92
358.99, 2.23, 317.49
358.41, 2.24, 317.16
357.96, 2.29, 316.89
356.50, 2.16, 316.04
353.88, 1.88, 314.52
347.12, 1.04, 310.60
364.35, 2.55, 320.67
364.26, 2.55, 320.61
364.16, 2.54, 320.56
364.05, 2.54, 320.50
363.94, 2.54, 320.43
363.81, 2.54, 320.36
363.68, 2.54, 320.29
363.47, 2.50, 320.17
363.16, 2.43, 320.00
362.98, 2.42, 319.90
362.79, 2.42, 319.79
362.58, 2.41, 319.67
362.35, 2.41, 319.54
362.10, 2.40, 319.40
361.83, 2.39, 319.25
361.53, 2.38, 319.08
361.18, 2.37, 318.88
360.75, 2.35, 318.64
360.26, 2.32, 318.36
359.66, 2.28, 318.02
359.10, 2.27, 317.71
358.81, 2.34, 317.54
357.85, 2.28, 317.00
356.42, 2.16, 316.20
353.77, 1.88, 314.71
¯346.97, 1.05, 310.88
364.33, 2.55, 320.71
364.23, 2.55, 320.65
364.13, 2.55, 320.60
364.02, 2.54, 320.54
363.91, 2.54, 320.48
363.79, 2.54, 320.41
363.66, 2.54, 320.34
363.52, 2.54, 320.26
363.37, 2.53, 320.18
363.11, 2.49, 320.04
362.75, 2.42, 319.85
362.55, 2.41, 319.73
362.32, 2.41, 319.61
362.07, 2.40, 319.47
361.79, 2.39, 319.32
361.49, 2.39, 319.16
361.13, 2.37, 318.96
360.70, 2.35, 318.73
360.20, 2.32, 318.46
359.79, 2.33, 318.23
359.52, 2.39, 318.08
358.80, 2.35, 317.69
357.75, 2.28, 317.12
356.34, 2.17, 316.35
353.66, 1.89, 314.89
346.67, 1.03, 311.09
364.31, 2.55, 320.74
364.21, 2.55, 320.69
364.11, 2.55, 320.64
364.00, 2.54, 320.58
363.88, 2.54, 320.52
363.76, 2.54, 320.46
363.63, 2.54, 320.39
363.49, 2.54, 320.31
363.34, 2.53, 320.23
363.17, 2.53, 320.15
362.99, 2.53, 320.05
362.79, 2.52, 319.95
362.49, 2.49, 319.79
362.03, 2.40, 319.55
361.75, 2.40, 319.40
361.45, 2.39, 319.24
361.08, 2.37, 319.04
360.86, 2.41, 318.93
360.54, 2.43, 318.76
360.12, 2.43, 318.54
359.50, 2.40, 318.21
358.71, 2.35, 317.79
357.67, 2.28, 317.24
356.26, 2.17, 316.50
¯353.54, 1.89, 315.07
346.47, 1.03, 311.35
364.28, 2.55, 320.78
364.19, 2.55, 320.74
364.08, 2.55, 320.68
363.97, 2.54, 320.63
363.86, 2.54, 320.57
363.73, 2.54, 320.50
363.60, 2.54, 320.44
363.46, 2.54, 320.36
363.31, 2.53, 320.29
363.14, 2.53, 320.20
362.96, 2.53, 320.11
362.76, 2.52, 320.01
362.54, 2.52, 319.90
362.31, 2.51, 319.78
362.05, 2.51, 319.64
361.75, 2.50, 319.49
361.41, 2.49, 319.32
361.03, 2.47, 319.13
360.59, 2.45, 318.90
360.07, 2.43, 318.63
359.43, 2.40, 318.31
358.62, 2.35, 317.90
357.59, 2.28, 317.37
356.18, 2.17, 316.65
353.43, 1.89, 315.26
346.27, 1.02, 311.62
364.26, 2.55, 320.82
364.16, 2.55, 320.78
364.06, 2.55, 320.73
363.95, 2.54, 320.67
363.83, 2.54, 320.61
363.71, 2.54, 320.55
363.57, 2.54, 320.49
363.43, 2.54, 320.41
363.28, 2.53, 320.34
363.11, 2.53, 320.26
362.93, 2.53, 320.17
362.73, 2.52, 320.07
362.51, 2.52, 319.96
362.27, 2.51, 319.84
362.01, 2.51, 319.71
361.71, 2.50, 319.56
361.37, 2.49, 319.40
360.99, 2.47, 319.21
360.53, 2.45, 318.99
360.01, 2.43, 318.73
359.36, 2.40, 318.41
358.53, 2.34, 318.00
357.51, 2.28, 317.50
¯356.10, 2.17, 316.81
353.32, 1.89, 315.44
346.07, 1.02, 311.89
364.24, 2.55, 320.86
364.14, 2.55, 320.82
364.04, 2.55, 320.77
363.93, 2.54, 320.72
363.81, 2.54, 320.66
363.68, 2.54, 320.60
363.55, 2.54, 320.54
363.40, 2.54, 320.47
363.25, 2.53, 320.39
363.08, 2.53, 320.31
362.90, 2.53, 320.23
362.70, 2.52, 320.13
362.48, 2.52, 320.03
362.23, 2.51, 319.91
361.97, 2.51, 319.78
361.66, 2.50, 319.64
361.32, 2.49, 319.48
360.94, 2.47, 319.29
360.48, 2.46, 319.08
359.95, 2.43, 318.83
359.29, 2.40, 318.51
358.43, 2.34, 318.11
357.43, 2.28, 317.63
356.02, 2.18, 316.96
353.21, 1.89, 315.63
345.87, 1.02, 312.15
364.22, 2.55, 320.91
364.12, 2.55, 320.86
364.02, 2.55, 320.81
363.90, 2.54, 320.76
363.79, 2.54, 320.71
363.66, 2.54, 320.65
363.52, 2.54, 320.59
363.38, 2.54, 320.52
363.22, 2.54, 320.45
363.05, 2.53, 320.37
362.87, 2.53, 320.28
362.66, 2.52, 320.19
362.44, 2.52, 320.09
362.20, 2.51, 319.98
361.93, 2.51, 319.86
361.62, 2.50, 319.71
361.28, 2.49, 319.56
360.89, 2.48, 319.38
360.43, 2.46, 319.17
359.90, 2.43, 318.92
359.22, 2.39, 318.61
358.34, 2.33, 318.21
¯357.35, 2.28, 317.76
355.94, 2.18, 317.11
353.10, 1.89, 315.81
345.31, 0.97, 312.26
364.20, 2.55, 320.95
364.10, 2.55, 320.90
363.99, 2.55, 320.86
363.88, 2.54, 320.81
363.76, 2.54, 320.75
363.63, 2.54, 320.70
363.50, 2.54, 320.64
363.35, 2.54, 320.57
363.19, 2.54, 320.50
363.02, 2.53, 320.43
362.84, 2.53, 320.34
362.63, 2.53, 320.25
362.41, 2.52, 320.15
362.16, 2.52, 320.05
361.89, 2.51, 319.93
361.58, 2.50, 319.79
361.24, 2.49, 319.64
360.85, 2.48, 319.46
360.38, 2.46, 319.26
359.84, 2.43, 319.02
359.15, 2.39, 318.72
358.25, 2.33, 318.32
357.27, 2.28, 317.89
355.87, 2.18, 317.27
352.99, 1.89, 316.00
345.00, 0.95, 312.49
364.18, 2.55, 320.99
364.08, 2.55, 320.94
363.97, 2.55, 320.90
363.86, 2.54, 320.85
363.74, 2.54, 320.80
363.61, 2.54, 320.74
363.47, 2.54, 320.69
363.32, 2.54, 320.62
363.16, 2.54, 320.56
362.99, 2.53, 320.48
362.81, 2.53, 320.40
362.60, 2.53, 320.32
362.38, 2.52, 320.22
362.13, 2.52, 320.11
361.86, 2.51, 320.00
361.55, 2.50, 319.87
361.20, 2.49, 319.72
360.80, 2.48, 319.55
360.33, 2.46, 319.35
359.78, 2.43, 319.12
359.09, 2.39, 318.82
¯358.18, 2.33, 318.44
357.20, 2.28, 318.02
355.79, 2.19, 317.42
352.88, 1.90, 316.19
344.69, 0.93, 312.73
364.16, 2.55, 321.03
364.06, 2.55, 320.99
363.95, 2.55, 320.94
363.84, 2.54, 320.90
363.72, 2.54, 320.85
363.59, 2.54, 320.79
363.45, 2.54, 320.74
363.30, 2.54, 320.68
363.14, 2.54, 320.61
362.97, 2.53, 320.54
362.78, 2.53, 320.46
362.57, 2.53, 320.38
362.34, 2.52, 320.29
362.10, 2.52, 320.18
361.82, 2.51, 320.07
361.51, 2.50, 319.94
361.16, 2.49, 319.80
360.76, 2.48, 319.64
360.28, 2.46, 319.44
359.72, 2.43, 319.21
359.02, 2.39, 318.93
358.11, 2.33, 318.56
357.12, 2.28, 318.15
355.72, 2.19, 317.58
352.77, 1.90, 316.38
364.14, 2.55, 321.07
364.04, 2.55, 321.03
363.93, 2.55, 320.99
363.82, 2.54, 320.94
363.69, 2.54, 320.89
363.56, 2.54, 320.84
363.42, 2.54, 320.79
363.27, 2.54, 320.73
363.11, 2.54, 320.67
362.94, 2.53, 320.60
362.75, 2.53, 320.52
362.54, 2.53, 320.44
362.31, 2.52, 320.35
362.06, 2.52, 320.25
361.79, 2.51, 320.14
361.47, 2.50, 320.02
361.11, 2.49, 319.88
360.71, 2.48, 319.72
360.23, 2.46, 319.53
359.66, 2.43, 319.31
358.94, 2.39, 319.03
¯358.05, 2.33, 318.68
357.05, 2.28, 318.28
355.64, 2.19, 317.73
352.66, 1.90, 316.57
364.12, 2.55, 321.11
364.02, 2.55, 321.07
363.91, 2.55, 321.03
363.79, 2.54, 320.99
363.67, 2.54, 320.94
363.54, 2.54, 320.89
363.40, 2.54, 320.84
363.25, 2.54, 320.78
363.09, 2.54, 320.72
362.91, 2.53, 320.65
362.72, 2.53, 320.58
362.51, 2.53, 320.50
362.28, 2.52, 320.42
362.03, 2.52, 320.32
361.75, 2.51, 320.22
361.43, 2.50, 320.10
361.07, 2.49, 319.96
360.67, 2.48, 319.81
360.18, 2.46, 319.63
359.60, 2.43, 319.41
358.86, 2.38, 319.13
357.98, 2.33, 318.80
356.97, 2.28, 318.42
355.57, 2.20, 317.89
352.55, 1.90, 316.76
364.10, 2.55, 321.15
364.00, 2.55, 321.12
363.89, 2.55, 321.08
363.77, 2.54, 321.03
363.65, 2.54, 320.99
363.52, 2.54, 320.94
363.38, 2.54, 320.89
363.22, 2.54, 320.84
363.06, 2.54, 320.78
362.88, 2.53, 320.71
362.69, 2.53, 320.64
362.48, 2.53, 320.57
362.25, 2.52, 320.48
362.00, 2.52, 320.39
361.72, 2.51, 320.29
361.39, 2.50, 320.17
361.03, 2.49, 320.04
360.62, 2.48, 319.90
360.13, 2.46, 319.72
359.54, 2.43, 319.51
358.78, 2.38, 319.23
357.91, 2.33, 318.92
¯356.89, 2.28, 318.55
355.49, 2.20, 318.05
352.44, 1.90, 316.95
364.08, 2.55, 321.20
363.98, 2.55, 321.16
363.87, 2.55, 321.12
363.75, 2.54, 321.08
363.63, 2.54, 321.04
363.50, 2.54, 320.99
363.35, 2.54, 320.94
363.20, 2.54, 320.89
363.04, 2.54, 320.83
362.86, 2.54, 320.77
362.67, 2.53, 320.70
362.45, 2.53, 320.63
362.22, 2.52, 320.55
361.96, 2.52, 320.46
361.68, 2.51, 320.36
361.36, 2.50, 320.25
361.00, 2.49, 320.13
360.58, 2.48, 319.98
360.09, 2.46, 319.81
359.49, 2.43, 319.61
358.70, 2.38, 319.34
357.85, 2.33, 319.04
356.82, 2.28, 318.69
355.42, 2.20, 318.21
352.33, 1.90, 317.15
364.07, 2.55, 321.24
363.96, 2.55, 321.20
363.85, 2.55, 321.17
363.73, 2.54, 321.13
363.61, 2.54, 321.09
363.48, 2.54, 321.04
363.33, 2.54, 320.99
363.18, 2.54, 320.94
363.01, 2.54, 320.89
362.83, 2.54, 320.83
362.64, 2.53, 320.77
362.43, 2.53, 320.70
362.19, 2.52, 320.62
361.93, 2.52, 320.53
361.65, 2.51, 320.44
361.32, 2.50, 320.33
360.96, 2.49, 320.21
360.54, 2.48, 320.07
360.04, 2.46, 319.91
359.43, 2.43, 319.71
358.64, 2.38, 319.45
357.78, 2.33, 319.17
356.74, 2.29, 318.82
¯355.35, 2.21, 318.36
352.22, 1.91, 317.34
364.05, 2.55, 321.28
363.94, 2.55, 321.25
363.83, 2.55, 321.21
363.71, 2.54, 321.17
363.59, 2.54, 321.14
363.45, 2.54, 321.09
363.31, 2.54, 321.05
363.15, 2.54, 321.00
362.99, 2.54, 320.95
362.81, 2.54, 320.89
362.61, 2.53, 320.83
362.40, 2.53, 320.76
362.16, 2.53, 320.69
361.90, 2.52, 320.60
361.62, 2.51, 320.51
361.29, 2.51, 320.41
360.92, 2.49, 320.29
360.49, 2.48, 320.16
359.99, 2.46, 320.00
359.37, 2.43, 319.81
358.58, 2.38, 319.56
357.72, 2.34, 319.29
356.67, 2.29, 318.96
355.28, 2.21, 318.52
352.11, 1.91, 317.54
364.03, 2.55, 321.32
363.93, 2.55, 321.29
363.81, 2.55, 321.26
363.69, 2.55, 321.22
363.57, 2.54, 321.18
363.43, 2.54, 321.14
363.29, 2.54, 321.10
363.13, 2.54, 321.05
362.96, 2.54, 321.00
362.78, 2.54, 320.95
362.59, 2.53, 320.89
362.37, 2.53, 320.83
362.13, 2.53, 320.75
361.87, 2.52, 320.68
361.58, 2.51, 320.59
361.25, 2.51, 320.49
360.88, 2.50, 320.38
360.45, 2.48, 320.25
359.95, 2.46, 320.10
359.32, 2.43, 319.91
358.52, 2.38, 319.67
357.65, 2.34, 319.42
356.59, 2.29, 319.10
355.21, 2.21, 318.68
¯352.00, 1.91, 317.73
364.01, 2.55, 321.37
363.91, 2.55, 321.34
363.80, 2.55, 321.30
363.68, 2.55, 321.27
363.55, 2.54, 321.23
363.41, 2.54, 321.19
363.27, 2.54, 321.15
363.11, 2.54, 321.11
362.94, 2.54, 321.06
362.76, 2.54, 321.01
362.56, 2.53, 320.95
362.34, 2.53, 320.89
362.10, 2.53, 320.82
361.84, 2.52, 320.75
361.55, 2.52, 320.66
361.22, 2.51, 320.57
360.85, 2.50, 320.46
360.41, 2.48, 320.34
359.90, 2.46, 320.20
359.25, 2.42, 320.01
358.47, 2.38, 319.79
357.59, 2.34, 319.54
356.52, 2.29, 319.24
355.14, 2.22, 318.85
351.90, 1.91, 317.93
364.00, 2.55, 321.41
363.89, 2.55, 321.38
363.78, 2.55, 321.35
363.66, 2.55, 321.32
363.53, 2.54, 321.28
363.39, 2.54, 321.25
363.25, 2.54, 321.21
363.09, 2.54, 321.16
362.92, 2.54, 321.12
362.73, 2.54, 321.07
362.54, 2.53, 321.01
362.32, 2.53, 320.96
362.08, 2.53, 320.89
361.81, 2.52, 320.82
361.52, 2.52, 320.74
361.19, 2.51, 320.65
360.81, 2.50, 320.55
360.37, 2.48, 320.43
359.85, 2.46, 320.29
359.19, 2.42, 320.11
358.41, 2.38, 319.91
357.53, 2.34, 319.67
356.45, 2.29, 319.38
355.07, 2.22, 319.01
351.79, 1.92, 318.14
¯363.98, 2.55, 321.45
363.88, 2.55, 321.43
363.76, 2.55, 321.40
363.64, 2.55, 321.37
363.51, 2.54, 321.33
363.37, 2.54, 321.30
363.23, 2.54, 321.26
363.07, 2.54, 321.22
362.90, 2.54, 321.18
362.71, 2.54, 321.13
362.51, 2.53, 321.08
362.29, 2.53, 321.02
362.05, 2.53, 320.96
361.78, 2.52, 320.89
361.49, 2.52, 320.82
361.15, 2.51, 320.73
360.77, 2.50, 320.63
360.33, 2.48, 320.52
359.80, 2.46, 320.39
359.12, 2.42, 320.22
358.36, 2.38, 320.02
357.46, 2.34, 319.80
356.37, 2.29, 319.52
355.00, 2.23, 319.17
351.69, 1.92, 318.34
363.97, 2.55, 321.50
363.86, 2.55, 321.47
363.74, 2.55, 321.44
363.62, 2.55, 321.41
363.49, 2.54, 321.38
363.35, 2.54, 321.35
363.21, 2.54, 321.31
363.05, 2.54, 321.28
362.88, 2.54, 321.23
362.69, 2.54, 321.19
362.49, 2.54, 321.14
362.27, 2.53, 321.09
362.02, 2.53, 321.03
361.76, 2.52, 320.97
361.46, 2.52, 320.89
361.12, 2.51, 320.81
360.74, 2.50, 320.72
360.29, 2.48, 320.61
359.75, 2.46, 320.49
359.06, 2.42, 320.32
358.30, 2.38, 320.14
357.40, 2.34, 319.92
356.30, 2.29, 319.66
354.92, 2.23, 319.33
363.95, 2.55, 321.54
363.84, 2.55, 321.52
¯363.73, 2.55, 321.49
363.61, 2.55, 321.46
363.47, 2.54, 321.43
363.34, 2.54, 321.40
363.19, 2.54, 321.37
363.03, 2.54, 321.33
362.85, 2.54, 321.29
362.67, 2.54, 321.25
362.46, 2.54, 321.20
362.24, 2.53, 321.15
362.00, 2.53, 321.10
361.73, 2.52, 321.04
361.43, 2.52, 320.97
361.09, 2.51, 320.89
360.70, 2.50, 320.81
360.25, 2.48, 320.71
359.71, 2.46, 320.58
359.00, 2.42, 320.43
358.25, 2.38, 320.26
357.34, 2.34, 320.05
356.23, 2.29, 319.80
354.83, 2.23, 319.49
363.94, 2.55, 321.59
363.83, 2.55, 321.56
363.71, 2.55, 321.54
363.59, 2.55, 321.51
363.46, 2.54, 321.48
363.32, 2.54, 321.45
363.17, 2.54, 321.42
363.01, 2.54, 321.39
362.83, 2.54, 321.35
362.65, 2.54, 321.31
362.44, 2.54, 321.27
362.22, 2.53, 321.22
361.97, 2.53, 321.17
361.70, 2.53, 321.11
361.40, 2.52, 321.05
361.06, 2.51, 320.98
360.67, 2.50, 320.90
360.21, 2.48, 320.80
359.66, 2.46, 320.68
358.96, 2.42, 320.54
358.19, 2.38, 320.38
357.28, 2.34, 320.18
356.15, 2.29, 319.95
354.74, 2.23, 319.65
363.92, 2.55, 321.63
363.81, 2.55, 321.61
363.70, 2.55, 321.59
363.57, 2.55, 321.56
363.44, 2.54, 321.54
¯363.30, 2.54, 321.51
363.15, 2.54, 321.48
362.99, 2.54, 321.45
362.81, 2.54, 321.41
362.62, 2.54, 321.37
362.42, 2.54, 321.33
362.19, 2.53, 321.29
361.95, 2.53, 321.24
361.67, 2.53, 321.19
361.37, 2.52, 321.13
361.03, 2.51, 321.06
360.64, 2.50, 320.98
360.17, 2.49, 320.89
359.61, 2.46, 320.78
358.91, 2.42, 320.65
358.14, 2.38, 320.50
357.21, 2.34, 320.32
356.08, 2.29, 320.09
354.65, 2.23, 319.82
363.91, 2.55, 321.67
363.80, 2.55, 321.65
363.68, 2.55, 321.63
363.56, 2.55, 321.61
363.42, 2.54, 321.59
363.28, 2.54, 321.56
363.13, 2.54, 321.53
362.97, 2.54, 321.50
362.79, 2.54, 321.47
362.60, 2.54, 321.44
362.40, 2.54, 321.40
362.17, 2.53, 321.36
361.92, 2.53, 321.31
361.65, 2.53, 321.26
361.34, 2.52, 321.21
361.00, 2.51, 321.14
360.60, 2.50, 321.07
360.14, 2.49, 320.99
359.57, 2.46, 320.88
358.87, 2.42, 320.76
358.09, 2.39, 320.62
357.15, 2.35, 320.45
356.01, 2.30, 320.24
354.57, 2.23, 319.98
363.90, 2.55, 321.72
363.78, 2.55, 321.70
363.67, 2.55, 321.68
363.54, 2.55, 321.66
363.41, 2.54, 321.64
363.27, 2.54, 321.61
363.11, 2.54, 321.59
362.95, 2.54, 321.56
¯362.77, 2.54, 321.53
362.58, 2.54, 321.50
362.38, 2.54, 321.46
362.15, 2.53, 321.43
361.90, 2.53, 321.38
361.62, 2.53, 321.34
361.32, 2.52, 321.29
360.97, 2.51, 321.23
360.57, 2.50, 321.16
360.10, 2.49, 321.08
359.52, 2.46, 320.99
358.82, 2.42, 320.87
358.04, 2.39, 320.74
357.09, 2.35, 320.58
355.93, 2.30, 320.39
354.48, 2.23, 320.15
363.88, 2.55, 321.77
363.77, 2.55, 321.75
363.65, 2.55, 321.73
363.53, 2.55, 321.71
363.39, 2.54, 321.69
363.25, 2.54, 321.67
363.10, 2.54, 321.64
362.93, 2.54, 321.62
362.76, 2.54, 321.59
362.56, 2.54, 321.56
362.35, 2.54, 321.53
362.13, 2.54, 321.49
361.88, 2.53, 321.46
361.60, 2.53, 321.41
361.29, 2.52, 321.37
360.94, 2.52, 321.31
360.54, 2.50, 321.25
360.06, 2.49, 321.18
359.46, 2.46, 321.09
358.78, 2.42, 320.98
357.98, 2.39, 320.86
357.03, 2.35, 320.72
355.86, 2.30, 320.54
354.39, 2.24, 320.32
363.87, 2.55, 321.81
363.76, 2.55, 321.79
363.64, 2.54, 321.78
363.51, 2.54, 321.76
363.38, 2.54, 321.74
363.23, 2.54, 321.72
363.08, 2.54, 321.70
362.91, 2.54, 321.68
362.74, 2.54, 321.65
362.54, 2.54, 321.62
362.33, 2.54, 321.60
¯362.10, 2.54, 321.56
361.85, 2.53, 321.53
361.57, 2.53, 321.49
361.26, 2.52, 321.45
360.91, 2.52, 321.40
360.51, 2.51, 321.34
360.03, 2.49, 321.27
359.41, 2.45, 321.19
358.73, 2.42, 321.10
357.93, 2.39, 320.99
356.97, 2.35, 320.85
355.79, 2.30, 320.69
354.30, 2.24, 320.49
363.86, 2.55, 321.86
363.74, 2.54, 321.84
363.62, 2.54, 321.83
363.50, 2.54, 321.81
363.36, 2.54, 321.79
363.22, 2.54, 321.78
363.06, 2.54, 321.76
362.90, 2.54, 321.74
362.72, 2.54, 321.71
362.53, 2.54, 321.69
362.31, 2.54, 321.66
362.08, 2.54, 321.63
361.83, 2.53, 321.60
361.55, 2.53, 321.57
361.24, 2.52, 321.53
360.88, 2.52, 321.48
360.48, 2.51, 321.43
359.99, 2.49, 321.37
359.37, 2.45, 321.29
358.69, 2.43, 321.21
357.88, 2.39, 321.11
356.91, 2.35, 320.99
355.72, 2.30, 320.84
354.25, 2.24, 320.66
363.85, 2.54, 321.90
363.73, 2.54, 321.89
363.61, 2.54, 321.88
363.48, 2.54, 321.86
363.35, 2.54, 321.85
363.20, 2.54, 321.83
363.05, 2.54, 321.81
362.88, 2.54, 321.79
362.70, 2.54, 321.77
362.51, 2.54, 321.75
362.29, 2.54, 321.73
362.06, 2.54, 321.70
361.81, 2.53, 321.67
361.53, 2.53, 321.64
¯361.21, 2.53, 321.61
360.86, 2.52, 321.57
360.45, 2.51, 321.52
359.96, 2.49, 321.47
359.33, 2.46, 321.40
358.64, 2.43, 321.33
357.83, 2.39, 321.24
356.85, 2.35, 321.13
355.65, 2.30, 321.00
352.49, 2.00, 320.66
363.83, 2.54, 321.95
363.72, 2.54, 321.94
363.60, 2.54, 321.93
363.47, 2.54, 321.91
363.33, 2.54, 321.90
363.19, 2.54, 321.89
363.03, 2.54, 321.87
362.86, 2.54, 321.85
362.68, 2.54, 321.84
362.49, 2.54, 321.82
362.28, 2.54, 321.80
362.04, 2.54, 321.77
361.79, 2.53, 321.75
361.50, 2.53, 321.72
361.19, 2.53, 321.69
360.83, 2.52, 321.66
360.42, 2.51, 321.62
359.92, 2.49, 321.57
359.29, 2.46, 321.51
358.60, 2.43, 321.44
357.78, 2.39, 321.36
356.79, 2.35, 321.27
355.57, 2.30, 321.15
352.45, 2.01, 320.87
363.82, 2.54, 321.99
363.71, 2.54, 321.99
363.59, 2.54, 321.97
363.46, 2.54, 321.96
363.32, 2.54, 321.95
363.17, 2.54, 321.94
363.02, 2.54, 321.93
362.85, 2.54, 321.91
362.67, 2.54, 321.90
362.47, 2.54, 321.88
362.26, 2.54, 321.86
362.02, 2.54, 321.84
361.76, 2.54, 321.82
361.48, 2.53, 321.80
361.16, 2.53, 321.77
360.80, 2.52, 321.74
360.39, 2.51, 321.71
¯359.88, 2.49, 321.67
359.26, 2.46, 321.62
358.56, 2.43, 321.56
357.73, 2.40, 321.49
356.73, 2.36, 321.41
355.58, 2.32, 321.32
352.40, 2.02, 321.07
363.81, 2.54, 322.04
363.70, 2.54, 322.03
363.58, 2.54, 322.02
363.45, 2.54, 322.02
363.31, 2.54, 322.01
363.16, 2.54, 322.00
363.00, 2.54, 321.98
362.83, 2.54, 321.97
362.65, 2.54, 321.96
362.45, 2.54, 321.95
362.24, 2.54, 321.93
362.00, 2.54, 321.91
361.74, 2.54, 321.90
361.46, 2.53, 321.88
361.14, 2.53, 321.85
360.78, 2.52, 321.83
360.36, 2.51, 321.80
359.85, 2.49, 321.77
359.22, 2.46, 321.73
358.52, 2.43, 321.68
357.69, 2.40, 321.62
356.68, 2.36, 321.55
355.59, 2.33, 321.48
352.36, 2.03, 321.27
363.80, 2.54, 322.09
363.69, 2.54, 322.08
363.56, 2.54, 322.07
363.43, 2.54, 322.07
363.29, 2.54, 322.06
363.15, 2.54, 322.05
362.99, 2.54, 322.04
362.82, 2.54, 322.03
362.63, 2.54, 322.02
362.44, 2.54, 322.01
362.22, 2.54, 322.00
361.98, 2.54, 321.99
361.72, 2.54, 321.97
361.44, 2.53, 321.96
361.12, 2.53, 321.94
360.75, 2.52, 321.92
360.33, 2.51, 321.90
359.81, 2.49, 321.87
359.18, 2.46, 321.83
358.48, 2.43, 321.80
¯357.64, 2.40, 321.75
356.66, 2.37, 321.70
355.60, 2.35, 321.64
352.32, 2.04, 321.48
363.79, 2.54, 322.14
363.68, 2.54, 322.13
363.55, 2.54, 322.13
363.42, 2.54, 322.12
363.28, 2.54, 322.11
363.13, 2.54, 322.11
362.97, 2.54, 322.10
362.80, 2.54, 322.09
362.62, 2.54, 322.09
362.42, 2.54, 322.08
362.20, 2.54, 322.07
361.96, 2.54, 322.06
361.70, 2.54, 322.05
361.42, 2.53, 322.04
361.09, 2.53, 322.02
360.73, 2.52, 322.01
360.30, 2.51, 321.99
359.77, 2.49, 321.97
359.15, 2.46, 321.95
358.44, 2.44, 321.92
357.59, 2.40, 321.88
356.66, 2.38, 321.85
355.61, 2.36, 321.80
352.28, 2.05, 321.68
363.78, 2.54, 322.18
363.67, 2.54, 322.18
363.54, 2.54, 322.18
363.41, 2.54, 322.17
363.27, 2.54, 322.17
363.12, 2.54, 322.16
362.96, 2.54, 322.16
362.79, 2.54, 322.15
362.60, 2.54, 322.15
362.40, 2.54, 322.14
362.18, 2.54, 322.14
361.95, 2.54, 322.13
361.69, 2.54, 322.12
361.39, 2.53, 322.12
361.07, 2.53, 322.11
360.70, 2.53, 322.10
360.28, 2.52, 322.09
359.73, 2.49, 322.07
359.12, 2.47, 322.06
358.40, 2.44, 322.04
357.55, 2.40, 322.02
356.67, 2.39, 321.99
355.61, 2.37, 321.96
¯352.25, 2.06, 321.89
363.78, 2.54, 322.23
363.66, 2.54, 322.23
363.53, 2.54, 322.23
363.40, 2.54, 322.23
363.26, 2.54, 322.22
363.11, 2.54, 322.22
362.95, 2.54, 322.22
362.77, 2.54, 322.22
362.59, 2.54, 322.21
362.39, 2.54, 322.21
362.17, 2.54, 322.21
361.93, 2.54, 322.20
361.67, 2.54, 322.20
361.37, 2.54, 322.20
361.05, 2.53, 322.19
360.68, 2.53, 322.19
360.25, 2.52, 322.18
359.70, 2.49, 322.18
359.08, 2.47, 322.17
358.36, 2.44, 322.16
357.56, 2.42, 322.15
356.68, 2.40, 322.14
355.61, 2.39, 322.12
352.21, 2.07, 322.10
363.77, 2.54, 322.28
363.65, 2.54, 322.28
363.52, 2.54, 322.28
363.39, 2.54, 322.28
363.25, 2.54, 322.28
363.10, 2.54, 322.28
362.94, 2.54, 322.28
362.76, 2.54, 322.28
362.57, 2.54, 322.28
362.37, 2.54, 322.28
362.15, 2.54, 322.28
361.91, 2.54, 322.28
361.65, 2.54, 322.28
361.35, 2.54, 322.28
361.03, 2.53, 322.28
360.66, 2.53, 322.28
360.22, 2.52, 322.28
359.67, 2.49, 322.28
359.05, 2.47, 322.28
358.32, 2.44, 322.28
357.56, 2.43, 322.28
356.68, 2.42, 322.28
354.58, 2.24, 322.30
352.17, 2.08, 322.31
363.76, 2.54, 322.33
363.64, 2.54, 322.33
¯363.52, 2.54, 322.33
363.38, 2.54, 322.33
363.24, 2.54, 322.33
363.09, 2.54, 322.34
362.92, 2.54, 322.34
362.75, 2.54, 322.34
362.56, 2.54, 322.34
362.35, 2.54, 322.35
362.13, 2.54, 322.35
361.89, 2.54, 322.35
361.63, 2.54, 322.36
361.33, 2.54, 322.36
361.01, 2.53, 322.36
360.63, 2.53, 322.37
360.20, 2.52, 322.38
359.65, 2.49, 322.39
359.02, 2.47, 322.40
358.31, 2.45, 322.41
357.57, 2.44, 322.42
356.67, 2.43, 322.43
354.53, 2.25, 322.47
352.10, 2.09, 322.52
363.75, 2.54, 322.37
363.63, 2.54, 322.38
363.51, 2.54, 322.38
363.37, 2.54, 322.38
363.23, 2.54, 322.39
363.08, 2.54, 322.39
362.91, 2.54, 322.40
362.74, 2.54, 322.40
362.55, 2.54, 322.41
362.34, 2.54, 322.41
362.12, 2.54, 322.42
361.87, 2.54, 322.43
361.61, 2.54, 322.43
361.31, 2.54, 322.44
360.99, 2.53, 322.45
360.61, 2.53, 322.46
360.18, 2.52, 322.47
359.62, 2.50, 322.49
358.99, 2.47, 322.51
358.32, 2.46, 322.53
357.57, 2.45, 322.55
356.67, 2.44, 322.58
354.48, 2.25, 322.65
352.04, 2.09, 322.73
363.75, 2.54, 322.42
363.63, 2.54, 322.43
363.50, 2.54, 322.43
363.36, 2.54, 322.44
363.22, 2.54, 322.44
¯363.07, 2.54, 322.45
362.90, 2.54, 322.46
362.72, 2.54, 322.47
362.53, 2.54, 322.47
362.33, 2.54, 322.48
362.10, 2.54, 322.49
361.86, 2.54, 322.50
361.59, 2.54, 322.51
361.29, 2.54, 322.52
360.96, 2.54, 322.54
360.59, 2.53, 322.55
360.15, 2.52, 322.57
359.59, 2.50, 322.60
358.97, 2.48, 322.63
358.33, 2.47, 322.65
357.57, 2.46, 322.69
356.66, 2.45, 322.72
354.43, 2.26, 322.83
352.01, 2.11, 322.94
363.74, 2.54, 322.47
363.62, 2.54, 322.48
363.49, 2.54, 322.49
363.36, 2.54, 322.49
363.21, 2.54, 322.50
363.06, 2.54, 322.51
362.89, 2.54, 322.52
362.71, 2.54, 322.53
362.52, 2.54, 322.54
362.31, 2.54, 322.55
362.09, 2.54, 322.56
361.84, 2.54, 322.58
361.57, 2.54, 322.59
361.27, 2.54, 322.61
360.94, 2.54, 322.63
360.57, 2.53, 322.65
360.13, 2.52, 322.67
359.57, 2.50, 322.71
358.97, 2.49, 322.74
358.33, 2.48, 322.78
357.56, 2.47, 322.82
356.65, 2.46, 322.87
354.38, 2.26, 323.01
351.98, 2.12, 323.16
363.74, 2.54, 322.52
363.61, 2.54, 322.53
363.49, 2.54, 322.54
363.35, 2.54, 322.55
363.20, 2.54, 322.56
363.05, 2.54, 322.57
362.88, 2.54, 322.58
362.70, 2.54, 322.59
¯362.51, 2.54, 322.61
362.30, 2.54, 322.62
362.07, 2.54, 322.64
361.82, 2.54, 322.65
361.55, 2.54, 322.67
361.25, 2.54, 322.69
360.92, 2.54, 322.72
360.55, 2.53, 322.74
360.11, 2.52, 322.77
359.54, 2.50, 322.81
358.98, 2.50, 322.85
358.33, 2.49, 322.90
357.56, 2.48, 322.95
356.63, 2.46, 323.02
354.34, 2.27, 323.19
351.96, 2.13, 323.37
347.82, 1.85, 323.68
363.73, 2.54, 322.57
363.61, 2.54, 322.58
363.48, 2.54, 322.59
363.34, 2.54, 322.60
363.20, 2.54, 322.61
363.04, 2.54, 322.63
362.87, 2.54, 322.64
362.69, 2.54, 322.66
362.50, 2.54, 322.67
362.29, 2.54, 322.69
362.06, 2.54, 322.71
361.81, 2.54, 322.73
361.53, 2.54, 322.75
361.23, 2.54, 322.78
360.90, 2.54, 322.81
360.53, 2.53, 322.84
360.08, 2.53, 322.87
359.54, 2.51, 322.92
358.98, 2.50, 322.97
358.32, 2.49, 323.02
357.54, 2.48, 323.09
356.61, 2.47, 323.17
354.31, 2.28, 323.38
351.93, 2.14, 323.59
348.15, 1.91, 323.92
363.73, 2.54, 322.62
363.60, 2.54, 322.63
363.47, 2.54, 322.64
363.34, 2.54, 322.66
363.19, 2.54, 322.67
363.03, 2.54, 322.69
362.86, 2.54, 322.70
362.68, 2.54, 322.72
362.49, 2.54, 322.74
¯362.27, 2.54, 322.76
362.04, 2.54, 322.78
361.79, 2.54, 322.81
361.52, 2.54, 322.83
361.21, 2.54, 322.86
360.88, 2.54, 322.90
360.50, 2.53, 322.93
360.06, 2.53, 322.98
359.55, 2.52, 323.03
358.97, 2.51, 323.08
358.31, 2.50, 323.15
357.52, 2.49, 323.23
355.82, 2.35, 323.41
354.28, 2.29, 323.56
351.91, 2.16, 323.80
348.47, 1.97, 324.15
363.72, 2.54, 322.67
363.60, 2.54, 322.68
363.47, 2.54, 322.70
363.33, 2.54, 322.71
363.18, 2.54, 322.73
363.03, 2.54, 322.75
362.86, 2.54, 322.77
362.67, 2.54, 322.79
362.48, 2.54, 322.81
362.26, 2.54, 322.83
362.03, 2.54, 322.86
361.78, 2.54, 322.89
361.50, 2.54, 322.92
361.20, 2.54, 322.95
360.86, 2.53, 322.99
360.48, 2.53, 323.03
360.05, 2.53, 323.08
359.54, 2.52, 323.14
358.96, 2.52, 323.20
358.29, 2.51, 323.28
357.50, 2.50, 323.37
355.79, 2.36, 323.57
354.25, 2.30, 323.75
351.88, 2.17, 324.02
348.59, 2.00, 324.40
363.72, 2.54, 322.72
363.60, 2.54, 322.73
363.47, 2.54, 322.75
363.33, 2.54, 322.77
363.18, 2.54, 322.79
363.02, 2.54, 322.81
362.85, 2.54, 322.83
362.67, 2.54, 322.85
362.47, 2.54, 322.88
362.25, 2.54, 322.90
¯362.02, 2.54, 322.93
361.76, 2.54, 322.96
361.49, 2.54, 323.00
361.18, 2.54, 323.04
360.84, 2.53, 323.08
360.46, 2.53, 323.13
360.04, 2.53, 323.18
359.53, 2.53, 323.25
358.95, 2.52, 323.32
358.28, 2.51, 323.40
357.48, 2.50, 323.51
355.76, 2.37, 323.73
354.22, 2.31, 323.93
351.85, 2.18, 324.24
348.63, 2.02, 324.66
363.72, 2.54, 322.77
363.59, 2.54, 322.79
363.46, 2.54, 322.80
363.32, 2.54, 322.82
363.17, 2.54, 322.84
363.01, 2.54, 322.87
362.84, 2.54, 322.89
362.66, 2.54, 322.92
362.46, 2.54, 322.94
362.24, 2.54, 322.97
362.01, 2.54, 323.01
361.75, 2.54, 323.04
361.47, 2.54, 323.08
361.16, 2.53, 323.13
360.82, 2.53, 323.17
360.43, 2.53, 323.23
360.02, 2.54, 323.29
359.52, 2.53, 323.36
358.94, 2.53, 323.44
358.26, 2.52, 323.53
357.47, 2.51, 323.65
355.74, 2.37, 323.90
354.20, 2.32, 324.12
351.79, 2.19, 324.47
348.67, 2.05, 324.92
363.71, 2.54, 322.82
363.59, 2.54, 322.84
363.46, 2.54, 322.86
363.32, 2.54, 322.88
363.17, 2.54, 322.90
363.01, 2.54, 322.93
362.84, 2.54, 322.95
362.65, 2.54, 322.98
362.45, 2.54, 323.01
362.23, 2.54, 323.05
362.00, 2.54, 323.08
¯361.74, 2.54, 323.12
361.45, 2.54, 323.17
361.14, 2.53, 323.22
360.80, 2.53, 323.27
360.41, 2.53, 323.33
360.00, 2.54, 323.39
359.50, 2.53, 323.47
358.92, 2.53, 323.56
358.25, 2.52, 323.66
357.45, 2.51, 323.79
355.71, 2.38, 324.07
354.15, 2.32, 324.31
351.83, 2.21, 324.68
348.71, 2.07, 325.17
363.71, 2.54, 322.87
363.59, 2.54, 322.89
363.45, 2.54, 322.91
363.31, 2.54, 322.94
363.16, 2.54, 322.96
363.00, 2.54, 322.99
362.83, 2.54, 323.02
362.64, 2.54, 323.05
362.44, 2.54, 323.08
362.22, 2.54, 323.12
361.99, 2.54, 323.16
361.73, 2.54, 323.20
361.44, 2.54, 323.25
361.13, 2.53, 323.31
360.78, 2.53, 323.36
360.38, 2.53, 323.43
359.98, 2.54, 323.50
359.49, 2.54, 323.58
358.90, 2.53, 323.68
358.23, 2.53, 323.79
357.43, 2.52, 323.93
355.68, 2.39, 324.24
354.07, 2.32, 324.51
351.86, 2.23, 324.89
363.71, 2.54, 322.92
363.59, 2.54, 322.94
363.45, 2.54, 322.97
363.31, 2.54, 322.99
363.16, 2.54, 323.02
363.00, 2.54, 323.05
362.82, 2.54, 323.08
362.64, 2.54, 323.12
362.43, 2.54, 323.15
362.22, 2.54, 323.19
361.98, 2.54, 323.24
361.71, 2.54, 323.28
361.43, 2.53, 323.34
¯361.11, 2.53, 323.40
360.75, 2.53, 323.46
360.36, 2.53, 323.53
359.96, 2.54, 323.60
359.47, 2.54, 323.69
358.88, 2.54, 323.80
358.20, 2.53, 323.93
357.40, 2.52, 324.07
355.61, 2.39, 324.41
354.00, 2.33, 324.72
351.90, 2.25, 325.11
363.71, 2.54, 322.97
363.58, 2.54, 323.00
363.45, 2.54, 323.02
363.31, 2.54, 323.05
363.16, 2.54, 323.08
362.99, 2.54, 323.11
362.82, 2.54, 323.15
362.63, 2.54, 323.18
362.43, 2.54, 323.22
362.21, 2.54, 323.27
361.97, 2.54, 323.31
361.70, 2.54, 323.37
361.41, 2.53, 323.42
361.09, 2.53, 323.49
360.74, 2.53, 323.56
360.34, 2.53, 323.64
359.95, 2.54, 323.71
359.46, 2.54, 323.81
358.87, 2.54, 323.93
358.18, 2.53, 324.06
356.71, 2.42, 324.36
355.57, 2.39, 324.59
353.96, 2.33, 324.91
351.94, 2.27, 325.32
363.71, 2.54, 323.02
363.58, 2.54, 323.05
363.45, 2.54, 323.08
363.31, 2.54, 323.11
363.15, 2.54, 323.14
362.99, 2.54, 323.17
362.82, 2.54, 323.21
362.63, 2.54, 323.25
362.42, 2.54, 323.29
362.20, 2.54, 323.34
361.96, 2.54, 323.39
361.69, 2.54, 323.45
361.40, 2.53, 323.51
361.08, 2.53, 323.58
360.72, 2.53, 323.66
360.32, 2.53, 323.74
¯359.93, 2.54, 323.82
359.44, 2.55, 323.92
358.85, 2.54, 324.05
358.16, 2.54, 324.20
356.66, 2.42, 324.53
355.53, 2.40, 324.77
353.93, 2.34, 325.11
351.98, 2.29, 325.53
363.71, 2.54, 323.07
363.58, 2.54, 323.10
363.45, 2.54, 323.13
363.31, 2.54, 323.16
363.15, 2.54, 323.20
362.99, 2.54, 323.24
362.81, 2.54, 323.28
362.62, 2.54, 323.32
362.42, 2.54, 323.37
362.19, 2.54, 323.42
361.95, 2.54, 323.47
361.68, 2.53, 323.53
361.39, 2.53, 323.60
361.06, 2.53, 323.67
360.70, 2.53, 323.76
360.31, 2.53, 323.84
359.92, 2.55, 323.93
359.42, 2.55, 324.04
358.83, 2.55, 324.18
358.13, 2.54, 324.34
356.60, 2.42, 324.70
355.49, 2.40, 324.95
353.90, 2.35, 325.31
352.02, 2.31, 325.74
363.71, 2.54, 323.12
363.58, 2.54, 323.16
363.45, 2.54, 323.19
363.31, 2.54, 323.22
363.15, 2.54, 323.26
362.99, 2.54, 323.30
362.81, 2.54, 323.34
362.62, 2.54, 323.39
362.41, 2.54, 323.44
362.19, 2.54, 323.49
361.94, 2.54, 323.55
361.67, 2.53, 323.62
361.38, 2.53, 323.69
361.05, 2.53, 323.77
360.68, 2.53, 323.86
360.30, 2.53, 323.95
359.90, 2.55, 324.04
359.40, 2.55, 324.16
358.81, 2.55, 324.30
¯358.11, 2.54, 324.47
356.54, 2.42, 324.87
355.44, 2.40, 325.13
353.86, 2.36, 325.52
352.07, 2.33, 325.95
363.71, 2.54, 323.18
363.58, 2.54, 323.21
363.45, 2.54, 323.24
363.31, 2.54, 323.28
363.15, 2.54, 323.32
362.99, 2.54, 323.36
362.81, 2.54, 323.41
362.62, 2.54, 323.46
362.41, 2.54, 323.51
362.18, 2.54, 323.57
361.94, 2.54, 323.63
361.67, 2.53, 323.70
361.36, 2.53, 323.78
361.03, 2.53, 323.86
360.66, 2.53, 323.96
360.29, 2.54, 324.05
359.89, 2.55, 324.15
359.39, 2.55, 324.28
358.80, 2.55, 324.43
358.09, 2.55, 324.61
356.49, 2.42, 325.04
355.39, 2.41, 325.32
353.83, 2.37, 325.72
352.11, 2.35, 326.17
363.71, 2.54, 323.23
363.59, 2.54, 323.26
363.45, 2.54, 323.30
363.31, 2.54, 323.34
363.15, 2.54, 323.38
362.99, 2.54, 323.43
362.81, 2.54, 323.47
362.61, 2.54, 323.53
362.41, 2.54, 323.58
362.18, 2.54, 323.64
361.93, 2.53, 323.71
361.66, 2.53, 323.79
361.35, 2.53, 323.87
361.02, 2.53, 323.96
360.65, 2.53, 324.06
360.28, 2.54, 324.16
359.87, 2.55, 324.27
359.37, 2.55, 324.40
358.78, 2.56, 324.56
358.07, 2.55, 324.76
356.43, 2.42, 325.21
355.33, 2.41, 325.51
¯353.80, 2.38, 325.93
352.03, 2.36, 326.41
363.72, 2.54, 323.28
363.59, 2.54, 323.32
363.45, 2.54, 323.36
363.31, 2.54, 323.40
363.15, 2.54, 323.44
362.99, 2.54, 323.49
362.81, 2.54, 323.54
362.61, 2.54, 323.60
362.40, 2.54, 323.66
362.17, 2.54, 323.72
361.93, 2.53, 323.79
361.65, 2.53, 323.87
361.34, 2.53, 323.96
361.01, 2.53, 324.06
360.63, 2.53, 324.16
360.27, 2.54, 324.26
359.86, 2.55, 324.38
359.35, 2.56, 324.53
358.77, 2.56, 324.69
357.42, 2.44, 325.09
356.40, 2.42, 325.38
355.28, 2.41, 325.71
353.77, 2.39, 326.14
351.99, 2.37, 326.65
363.72, 2.54, 323.33
363.59, 2.54, 323.37
363.45, 2.54, 323.41
363.31, 2.54, 323.46
363.15, 2.54, 323.50
362.99, 2.54, 323.55
362.81, 2.54, 323.61
362.61, 2.54, 323.67
362.40, 2.54, 323.73
362.17, 2.54, 323.80
361.92, 2.53, 323.87
361.64, 2.53, 323.96
361.33, 2.53, 324.05
361.00, 2.53, 324.15
360.62, 2.53, 324.27
360.26, 2.54, 324.37
359.85, 2.55, 324.50
359.34, 2.56, 324.65
358.75, 2.56, 324.83
357.38, 2.44, 325.25
356.38, 2.43, 325.56
355.23, 2.42, 325.90
353.68, 2.39, 326.37
352.03, 2.39, 326.87
363.72, 2.54, 323.38
¯363.59, 2.54, 323.43
363.46, 2.54, 323.47
363.31, 2.54, 323.51
363.16, 2.54, 323.56
362.99, 2.54, 323.62
362.81, 2.54, 323.67
362.61, 2.54, 323.74
362.40, 2.54, 323.80
362.17, 2.53, 323.88
361.92, 2.53, 323.96
361.63, 2.53, 324.05
361.33, 2.53, 324.14
360.99, 2.53, 324.25
360.60, 2.53, 324.37
360.25, 2.54, 324.48
359.84, 2.56, 324.61
359.32, 2.56, 324.78
358.72, 2.56, 324.96
357.34, 2.44, 325.42
356.35, 2.43, 325.73
355.20, 2.42, 326.09
353.63, 2.39, 326.60
352.08, 2.41, 327.08
363.73, 2.54, 323.44
363.60, 2.54, 323.48
363.46, 2.54, 323.53
363.31, 2.54, 323.57
363.16, 2.54, 323.63
362.99, 2.54, 323.68
362.81, 2.54, 323.74
362.61, 2.54, 323.81
362.40, 2.54, 323.88
362.17, 2.53, 323.96
361.91, 2.53, 324.04
361.63, 2.53, 324.13
361.32, 2.53, 324.24
360.97, 2.53, 324.35
360.59, 2.53, 324.48
360.24, 2.55, 324.59
359.83, 2.56, 324.73
359.31, 2.56, 324.90
358.70, 2.57, 325.10
357.29, 2.44, 325.58
356.32, 2.44, 325.91
355.15, 2.43, 326.30
353.57, 2.40, 326.83
352.13, 2.43, 327.30
363.73, 2.54, 323.49
363.60, 2.54, 323.53
363.46, 2.54, 323.58
363.32, 2.54, 323.63
¯363.16, 2.54, 323.69
362.99, 2.54, 323.75
362.81, 2.54, 323.81
362.61, 2.54, 323.88
362.40, 2.54, 323.95
362.17, 2.53, 324.03
361.90, 2.53, 324.13
361.62, 2.53, 324.22
361.31, 2.53, 324.33
360.96, 2.53, 324.45
360.58, 2.53, 324.59
360.24, 2.55, 324.70
359.82, 2.56, 324.85
359.29, 2.56, 325.03
358.69, 2.57, 325.24
357.25, 2.45, 325.75
356.29, 2.44, 326.09
355.08, 2.43, 326.51
353.51, 2.41, 327.06
352.17, 2.46, 327.52
363.74, 2.54, 323.54
363.61, 2.54, 323.59
363.47, 2.54, 323.64
363.32, 2.54, 323.69
363.16, 2.54, 323.75
363.00, 2.54, 323.81
362.81, 2.54, 323.88
362.61, 2.54, 323.95
362.40, 2.53, 324.03
362.17, 2.53, 324.11
361.90, 2.53, 324.21
361.62, 2.53, 324.31
361.31, 2.53, 324.43
360.96, 2.53, 324.55
360.57, 2.53, 324.69
360.23, 2.55, 324.82
359.80, 2.56, 324.97
359.28, 2.57, 325.16
358.67, 2.57, 325.38
357.21, 2.45, 325.92
356.25, 2.44, 326.27
355.00, 2.43, 326.73
353.45, 2.41, 327.30
352.22, 2.48, 327.73
363.74, 2.54, 323.60
363.61, 2.54, 323.65
363.47, 2.54, 323.70
363.33, 2.54, 323.75
363.17, 2.54, 323.81
363.00, 2.54, 323.88
362.82, 2.54, 323.95
¯362.62, 2.54, 324.02
362.40, 2.53, 324.11
362.16, 2.53, 324.20
361.90, 2.53, 324.30
361.62, 2.53, 324.40
361.30, 2.53, 324.52
360.95, 2.53, 324.66
360.57, 2.53, 324.80
360.22, 2.55, 324.93
359.80, 2.56, 325.09
359.27, 2.57, 325.29
358.65, 2.57, 325.52
357.19, 2.45, 326.09
356.19, 2.44, 326.47
354.92, 2.43, 326.96
353.39, 2.42, 327.54
352.27, 2.50, 327.95
363.75, 2.54, 323.65
363.62, 2.54, 323.70
363.48, 2.54, 323.76
363.33, 2.54, 323.81
363.17, 2.54, 323.88
363.00, 2.54, 323.94
362.82, 2.54, 324.02
362.62, 2.54, 324.10
362.40, 2.53, 324.18
362.16, 2.53, 324.28
361.90, 2.53, 324.38
361.61, 2.53, 324.50
361.29, 2.53, 324.62
360.94, 2.53, 324.76
360.57, 2.53, 324.91
360.22, 2.55, 325.04
359.79, 2.56, 325.21
359.25, 2.57, 325.42
357.98, 2.45, 325.94
357.16, 2.45, 326.27
356.13, 2.44, 326.67
354.84, 2.43, 327.18
353.33, 2.42, 327.78
352.29, 2.52, 328.18
363.76, 2.54, 323.70
363.63, 2.54, 323.76
363.49, 2.54, 323.81
363.34, 2.54, 323.87
363.18, 2.54, 323.94
363.01, 2.54, 324.01
362.82, 2.54, 324.09
362.62, 2.53, 324.17
362.41, 2.53, 324.26
362.16, 2.53, 324.36
¯361.90, 2.53, 324.47
361.61, 2.53, 324.59
361.29, 2.53, 324.72
360.93, 2.52, 324.87
360.57, 2.53, 325.02
360.21, 2.55, 325.16
359.78, 2.57, 325.34
359.24, 2.57, 325.56
357.96, 2.45, 326.10
357.12, 2.45, 326.45
356.07, 2.44, 326.88
354.77, 2.43, 327.42
353.32, 2.44, 328.01
352.18, 2.52, 328.47
363.76, 2.54, 323.76
363.63, 2.54, 323.81
363.49, 2.54, 323.87
363.35, 2.54, 323.94
363.19, 2.54, 324.00
363.02, 2.54, 324.08
362.83, 2.54, 324.16
362.63, 2.53, 324.24
362.40, 2.53, 324.34
362.16, 2.53, 324.44
361.90, 2.53, 324.56
361.61, 2.53, 324.68
361.29, 2.53, 324.82
360.93, 2.52, 324.97
360.57, 2.53, 325.12
360.21, 2.55, 325.28
359.77, 2.57, 325.46
359.23, 2.57, 325.69
357.92, 2.45, 326.27
357.07, 2.45, 326.63
356.03, 2.44, 327.08
354.73, 2.43, 327.64
353.31, 2.45, 328.24
363.77, 2.54, 323.81
363.64, 2.54, 323.87
363.50, 2.54, 323.93
363.35, 2.54, 324.00
363.19, 2.54, 324.07
363.02, 2.54, 324.14
362.84, 2.54, 324.23
362.63, 2.53, 324.32
362.41, 2.53, 324.42
362.17, 2.53, 324.53
361.90, 2.53, 324.64
361.61, 2.53, 324.77
361.29, 2.53, 324.92
360.92, 2.52, 325.08
¯360.57, 2.54, 325.24
360.20, 2.55, 325.40
359.76, 2.57, 325.59
359.22, 2.58, 325.83
357.88, 2.45, 326.44
358.37, 2.68, 326.20
358.42, 2.82, 326.16
358.39, 2.95, 326.15
358.34, 3.08, 326.16
363.78, 2.54, 323.86
363.65, 2.54, 323.92
363.51, 2.54, 323.99
363.36, 2.54, 324.06
363.20, 2.54, 324.13
363.03, 2.54, 324.21
362.84, 2.53, 324.30
362.64, 2.53, 324.39
362.41, 2.53, 324.50
362.17, 2.53, 324.61
361.90, 2.53, 324.73
361.61, 2.53, 324.87
361.28, 2.52, 325.02
360.92, 2.52, 325.19
360.57, 2.54, 325.35
360.20, 2.56, 325.52
359.76, 2.57, 325.72
359.21, 2.58, 325.97
358.52, 2.57, 326.29
358.60, 2.72, 326.23
358.61, 2.86, 326.21
358.59, 2.99, 326.20
358.58, 3.12, 326.19
358.56, 3.25, 326.18
358.54, 3.38, 326.18
358.52, 3.51, 326.17
358.49, 3.64, 326.16
358.47, 3.77, 326.16
363.79, 2.54, 323.92
363.66, 2.54, 323.98
363.52, 2.54, 324.05
363.37, 2.54, 324.12
363.21, 2.54, 324.20
363.04, 2.54, 324.28
362.85, 2.53, 324.37
362.64, 2.53, 324.47
362.42, 2.53, 324.58
362.18, 2.53, 324.69
361.91, 2.53, 324.82
