žVERSION 0.7
FIELDS x y z
SIZE 8 8 8
TYPE F F F
COUNT 1 1 1
WIDTH 2271
HEIGHT 1
VIEWPOINT 362.21, 8.79, 321.46 1 382.19, 5.94, 325.68
POINTS 2271
DATA ascii
393.69, 5.52, 319.93
393.93, 5.70, 319.81
394.20, 5.87, 319.66
394.50, 6.06, 319.50
394.78, 6.26, 319.35
395.07, 6.46, 319.20
395.38, 6.67, 319.03
395.71, 6.90, 318.86
396.06, 7.14, 318.67
396.43, 7.39, 318.47
388.13, 4.76, 322.51
388.49, 4.79, 322.33
388.91, 4.81, 322.13
389.39, 4.83, 321.89
389.93, 4.86, 321.63
390.55, 4.89, 321.32
391.31, 4.92, 320.95
392.14, 4.96, 320.54
392.70, 5.06, 320.26
392.90, 5.21, 320.15
393.10, 5.36, 320.04
393.31, 5.53, 319.92
393.53, 5.69, 319.80
393.75, 5.87, 319.67
394.02, 6.05, 319.52
394.31, 6.24, 319.36
394.61, 6.44, 319.20
¯394.89, 6.65, 319.04
395.19, 6.86, 318.87
395.51, 7.09, 318.69
395.86, 7.33, 318.50
388.08, 4.76, 322.43
388.43, 4.78, 322.25
388.84, 4.80, 322.04
389.31, 4.83, 321.80
389.85, 4.85, 321.53
390.46, 4.88, 321.22
391.20, 4.91, 320.84
392.02, 4.95, 320.43
392.50, 5.06, 320.18
392.57, 5.22, 320.12
392.75, 5.37, 320.02
392.95, 5.53, 319.90
393.15, 5.69, 319.78
393.36, 5.86, 319.66
393.58, 6.04, 319.53
393.84, 6.22, 319.38
394.12, 6.42, 319.22
394.42, 6.62, 319.05
394.71, 6.83, 318.88
395.00, 7.05, 318.71
395.32, 7.28, 318.53
388.02, 4.76, 322.35
388.37, 4.78, 322.17
388.77, 4.80, 321.95
389.24, 4.82, 321.71
389.77, 4.84, 321.43
390.37, 4.87, 321.11
391.10, 4.90, 320.74
391.90, 4.94, 320.31
392.37, 5.05, 320.06
392.44, 5.21, 320.00
392.51, 5.37, 319.95
392.60, 5.53, 319.89
392.79, 5.69, 319.77
392.99, 5.86, 319.65
393.20, 6.03, 319.52
393.41, 6.21, 319.39
393.65, 6.39, 319.25
393.93, 6.59, 319.08
394.23, 6.79, 318.91
394.53, 7.01, 318.72
394.82, 7.23, 318.55
395.13, 7.47, 318.37
387.95, 4.75, 322.28
388.31, 4.77, 322.09
388.70, 4.79, 321.87
389.16, 4.81, 321.62
¯389.68, 4.84, 321.34
390.28, 4.86, 321.02
390.99, 4.89, 320.63
391.74, 4.94, 320.22
392.25, 5.04, 319.94
392.32, 5.20, 319.88
392.39, 5.36, 319.83
392.46, 5.52, 319.77
392.53, 5.69, 319.72
392.64, 5.85, 319.64
392.83, 6.02, 319.52
393.03, 6.19, 319.39
393.24, 6.38, 319.26
393.47, 6.56, 319.11
393.74, 6.76, 318.95
394.03, 6.97, 318.77
394.33, 7.18, 318.58
394.63, 7.41, 318.40
387.89, 4.75, 322.20
388.24, 4.76, 322.01
388.63, 4.79, 321.79
389.08, 4.81, 321.54
389.60, 4.83, 321.25
390.18, 4.86, 320.92
390.88, 4.89, 320.53
391.59, 4.94, 320.13
392.12, 5.03, 319.82
392.19, 5.19, 319.77
392.26, 5.35, 319.71
392.33, 5.51, 319.65
392.40, 5.67, 319.60
392.47, 5.84, 319.54
392.54, 6.01, 319.48
392.67, 6.18, 319.39
392.87, 6.36, 319.26
393.07, 6.54, 319.13
393.29, 6.73, 318.98
393.56, 6.93, 318.81
393.83, 7.14, 318.63
394.13, 7.36, 318.45
387.83, 4.74, 322.13
388.18, 4.76, 321.93
388.56, 4.78, 321.71
389.00, 4.80, 321.45
389.51, 4.82, 321.16
390.09, 4.85, 320.82
390.76, 4.88, 320.43
391.43, 4.93, 320.04
392.00, 5.02, 319.71
392.07, 5.18, 319.65
392.13, 5.33, 319.59
¯392.20, 5.50, 319.54
392.27, 5.66, 319.48
392.34, 5.83, 319.42
392.41, 5.99, 319.36
392.48, 6.16, 319.30
392.55, 6.34, 319.24
392.70, 6.52, 319.13
392.90, 6.70, 319.00
393.11, 6.89, 318.85
393.37, 7.09, 318.68
393.64, 7.31, 318.50
387.77, 4.73, 322.06
388.11, 4.75, 321.85
388.49, 4.77, 321.63
388.92, 4.79, 321.37
389.42, 4.82, 321.07
389.99, 4.84, 320.73
390.65, 4.87, 320.33
391.28, 4.93, 319.96
391.88, 5.01, 319.59
391.94, 5.16, 319.53
392.01, 5.32, 319.48
392.07, 5.48, 319.42
392.14, 5.65, 319.36
392.21, 5.81, 319.30
392.28, 5.98, 319.24
392.35, 6.15, 319.18
392.42, 6.32, 319.12
392.49, 6.50, 319.05
392.56, 6.67, 318.99
392.73, 6.86, 318.87
392.93, 7.05, 318.73
393.18, 7.26, 318.55
393.45, 7.47, 318.37
387.71, 4.73, 321.99
388.04, 4.75, 321.78
388.41, 4.77, 321.55
388.84, 4.79, 321.29
389.33, 4.81, 320.98
389.89, 4.84, 320.64
390.54, 4.87, 320.24
391.12, 4.92, 319.87
391.75, 5.00, 319.48
391.82, 5.15, 319.42
391.88, 5.31, 319.36
391.95, 5.47, 319.30
392.01, 5.63, 319.24
392.08, 5.80, 319.18
392.15, 5.96, 319.12
392.21, 6.13, 319.06
392.28, 6.30, 319.00
¯392.35, 6.48, 318.93
392.43, 6.65, 318.87
392.50, 6.83, 318.80
392.57, 7.02, 318.73
392.76, 7.21, 318.60
393.00, 7.42, 318.42
387.64, 4.72, 321.92
387.97, 4.74, 321.71
388.34, 4.76, 321.47
388.75, 4.78, 321.21
389.24, 4.80, 320.90
389.79, 4.83, 320.55
390.42, 4.86, 320.15
390.97, 4.92, 319.79
391.63, 4.98, 319.37
391.70, 5.14, 319.31
391.76, 5.30, 319.25
391.82, 5.46, 319.19
391.89, 5.62, 319.13
391.95, 5.78, 319.07
392.02, 5.95, 319.00
392.08, 6.11, 318.94
392.15, 6.29, 318.88
392.22, 6.46, 318.81
392.29, 6.63, 318.75
392.36, 6.81, 318.68
392.43, 6.99, 318.61
392.51, 7.18, 318.54
392.59, 7.37, 318.47
387.58, 4.72, 321.85
387.90, 4.74, 321.64
388.26, 4.75, 321.40
388.67, 4.78, 321.13
389.14, 4.80, 320.82
389.69, 4.82, 320.46
390.30, 4.85, 320.06
390.82, 4.92, 319.72
391.48, 4.98, 319.28
391.57, 5.13, 319.20
391.64, 5.28, 319.14
391.70, 5.44, 319.07
391.76, 5.60, 319.01
391.82, 5.77, 318.95
391.89, 5.93, 318.89
391.95, 6.10, 318.82
392.02, 6.27, 318.76
392.09, 6.44, 318.69
392.16, 6.61, 318.63
392.23, 6.79, 318.56
392.30, 6.97, 318.49
392.37, 7.16, 318.42
¯392.44, 7.34, 318.35
387.51, 4.71, 321.78
387.83, 4.73, 321.56
388.19, 4.75, 321.32
388.59, 4.77, 321.05
389.05, 4.79, 320.74
389.58, 4.81, 320.38
390.18, 4.84, 319.97
390.66, 4.91, 319.64
391.30, 4.97, 319.20
391.45, 5.11, 319.08
391.51, 5.27, 319.02
391.57, 5.43, 318.96
391.63, 5.59, 318.90
391.70, 5.75, 318.84
391.76, 5.91, 318.77
391.82, 6.08, 318.71
391.89, 6.25, 318.64
391.96, 6.42, 318.58
392.02, 6.59, 318.51
392.09, 6.77, 318.44
392.16, 6.95, 318.37
392.23, 7.13, 318.30
392.30, 7.32, 318.23
387.44, 4.71, 321.72
387.76, 4.72, 321.50
388.11, 4.74, 321.25
388.50, 4.76, 320.98
388.95, 4.78, 320.66
389.48, 4.81, 320.30
390.06, 4.84, 319.89
390.53, 4.90, 319.55
391.13, 4.97, 319.13
391.33, 5.10, 318.97
391.39, 5.26, 318.91
391.45, 5.41, 318.85
391.51, 5.57, 318.79
391.57, 5.73, 318.72
391.63, 5.90, 318.66
391.70, 6.06, 318.59
391.76, 6.23, 318.53
391.82, 6.40, 318.46
391.89, 6.57, 318.39
391.96, 6.75, 318.32
392.03, 6.93, 318.25
392.10, 7.11, 318.18
392.17, 7.30, 318.10
392.24, 7.49, 318.03
387.37, 4.70, 321.65
387.68, 4.72, 321.43
388.03, 4.74, 321.18
¯388.42, 4.76, 320.90
388.86, 4.78, 320.58
389.37, 4.80, 320.22
389.94, 4.83, 319.80
390.41, 4.89, 319.46
390.97, 4.96, 319.06
391.21, 5.09, 318.86
391.27, 5.24, 318.80
391.33, 5.40, 318.74
391.39, 5.56, 318.68
391.45, 5.72, 318.61
391.51, 5.88, 318.55
391.57, 6.05, 318.48
391.63, 6.21, 318.41
391.69, 6.38, 318.34
391.76, 6.56, 318.27
391.83, 6.73, 318.20
391.89, 6.91, 318.13
391.96, 7.09, 318.06
392.03, 7.27, 317.98
392.11, 7.46, 317.90
387.30, 4.70, 321.59
387.61, 4.71, 321.36
387.95, 4.73, 321.11
388.33, 4.75, 320.83
388.76, 4.77, 320.51
389.26, 4.79, 320.14
389.82, 4.82, 319.72
390.29, 4.88, 319.37
390.80, 4.96, 318.99
391.09, 5.07, 318.76
391.15, 5.23, 318.69
391.21, 5.38, 318.63
391.26, 5.54, 318.57
391.32, 5.70, 318.50
391.38, 5.86, 318.43
391.44, 6.03, 318.37
391.50, 6.19, 318.30
391.57, 6.36, 318.23
391.63, 6.54, 318.16
391.70, 6.71, 318.08
391.76, 6.89, 318.01
391.83, 7.07, 317.93
391.90, 7.25, 317.86
391.97, 7.44, 317.78
387.23, 4.69, 321.53
387.53, 4.70, 321.30
387.87, 4.72, 321.04
388.24, 4.74, 320.76
388.66, 4.76, 320.44
389.15, 4.79, 320.07
¯389.70, 4.81, 319.65
390.17, 4.87, 319.29
390.63, 4.95, 318.92
390.97, 5.06, 318.65
391.03, 5.21, 318.58
391.08, 5.37, 318.52
391.14, 5.52, 318.46
391.20, 5.68, 318.39
391.26, 5.85, 318.32
391.32, 6.01, 318.25
391.38, 6.18, 318.18
391.44, 6.34, 318.11
391.50, 6.52, 318.04
391.57, 6.69, 317.97
391.63, 6.87, 317.89
391.70, 7.05, 317.81
391.77, 7.23, 317.74
391.84, 7.42, 317.66
387.16, 4.68, 321.47
387.46, 4.70, 321.23
387.79, 4.72, 320.98
388.15, 4.73, 320.69
388.57, 4.76, 320.36
389.04, 4.78, 319.99
389.58, 4.80, 319.57
390.04, 4.86, 319.20
390.50, 4.94, 318.84
390.86, 5.04, 318.54
390.91, 5.20, 318.48
390.96, 5.35, 318.41
391.02, 5.51, 318.35
391.08, 5.67, 318.28
391.14, 5.83, 318.21
391.19, 5.99, 318.14
391.25, 6.16, 318.07
391.32, 6.32, 318.00
391.38, 6.49, 317.92
391.44, 6.67, 317.85
391.50, 6.84, 317.77
391.57, 7.02, 317.70
391.63, 7.21, 317.62
391.70, 7.39, 317.54
387.09, 4.68, 321.41
387.38, 4.69, 321.17
387.70, 4.71, 320.91
388.06, 4.73, 320.62
388.47, 4.75, 320.29
388.92, 4.77, 319.93
389.45, 4.80, 319.50
389.92, 4.85, 319.12
390.36, 4.93, 318.75
¯390.74, 5.03, 318.44
390.79, 5.18, 318.37
390.84, 5.33, 318.30
390.90, 5.49, 318.24
390.96, 5.65, 318.17
391.01, 5.81, 318.10
391.07, 5.97, 318.03
391.13, 6.14, 317.95
391.19, 6.30, 317.88
391.25, 6.47, 317.81
391.31, 6.65, 317.73
391.37, 6.82, 317.65
391.44, 7.00, 317.58
391.50, 7.18, 317.50
391.57, 7.37, 317.42
387.02, 4.67, 321.35
387.30, 4.69, 321.11
387.62, 4.70, 320.85
387.97, 4.72, 320.55
388.37, 4.74, 320.23
388.81, 4.76, 319.86
389.33, 4.79, 319.43
389.80, 4.84, 319.03
390.23, 4.92, 318.66
390.61, 5.01, 318.33
390.67, 5.16, 318.26
390.73, 5.32, 318.19
390.78, 5.47, 318.13
390.84, 5.63, 318.06
390.89, 5.79, 317.98
390.95, 5.95, 317.91
391.01, 6.12, 317.84
391.07, 6.28, 317.77
391.12, 6.45, 317.69
391.18, 6.63, 317.61
391.25, 6.80, 317.54
391.31, 6.98, 317.46
391.37, 7.16, 317.38
391.44, 7.34, 317.30
386.94, 4.67, 321.29
387.22, 4.68, 321.05
387.53, 4.70, 320.79
387.88, 4.71, 320.49
388.27, 4.73, 320.16
388.70, 4.76, 319.79
389.20, 4.78, 319.36
389.67, 4.83, 318.95
390.10, 4.90, 318.58
390.39, 5.01, 318.32
390.48, 5.16, 318.22
390.59, 5.30, 318.10
¯390.66, 5.46, 318.02
390.72, 5.61, 317.94
390.77, 5.77, 317.87
390.83, 5.93, 317.80
390.88, 6.10, 317.73
390.94, 6.26, 317.65
391.00, 6.43, 317.58
391.06, 6.61, 317.50
391.12, 6.78, 317.42
391.18, 6.96, 317.34
391.24, 7.14, 317.26
391.30, 7.32, 317.18
386.87, 4.66, 321.24
387.14, 4.67, 320.99
387.45, 4.69, 320.73
387.79, 4.71, 320.43
388.17, 4.73, 320.10
388.59, 4.75, 319.73
389.08, 4.77, 319.29
389.55, 4.82, 318.88
389.96, 4.89, 318.50
390.18, 5.01, 318.30
390.26, 5.15, 318.20
390.35, 5.30, 318.10
390.46, 5.45, 317.98
390.57, 5.60, 317.86
390.65, 5.75, 317.76
390.71, 5.91, 317.69
390.76, 6.08, 317.61
390.82, 6.24, 317.54
390.87, 6.41, 317.46
390.93, 6.58, 317.38
390.99, 6.76, 317.30
391.05, 6.93, 317.22
391.11, 7.11, 317.14
391.17, 7.30, 317.06
386.79, 4.65, 321.18
387.06, 4.67, 320.94
387.36, 4.68, 320.67
387.70, 4.70, 320.37
388.06, 4.72, 320.03
388.47, 4.74, 319.66
388.95, 4.77, 319.23
389.42, 4.81, 318.80
389.83, 4.88, 318.42
389.97, 5.01, 318.28
390.05, 5.15, 318.18
390.13, 5.29, 318.08
390.22, 5.44, 317.98
390.32, 5.59, 317.86
390.43, 5.74, 317.74
¯390.54, 5.90, 317.62
390.64, 6.06, 317.50
390.69, 6.22, 317.43
390.75, 6.39, 317.35
390.80, 6.56, 317.27
390.86, 6.74, 317.19
390.92, 6.91, 317.11
390.98, 7.09, 317.02
391.04, 7.27, 316.94
386.72, 4.65, 321.13
386.98, 4.66, 320.88
387.28, 4.67, 320.61
387.60, 4.69, 320.31
387.96, 4.71, 319.97
388.36, 4.73, 319.60
388.82, 4.76, 319.17
389.30, 4.80, 318.73
389.69, 4.87, 318.36
389.76, 5.01, 318.26
389.84, 5.15, 318.17
389.92, 5.29, 318.07
390.00, 5.43, 317.97
390.09, 5.58, 317.86
390.19, 5.73, 317.75
390.29, 5.88, 317.62
390.40, 6.04, 317.50
390.51, 6.20, 317.37
390.62, 6.37, 317.24
390.68, 6.54, 317.16
390.74, 6.71, 317.07
390.79, 6.89, 316.99
390.85, 7.07, 316.91
390.91, 7.25, 316.82
386.64, 4.64, 321.08
386.90, 4.65, 320.83
387.19, 4.67, 320.56
387.51, 4.68, 320.25
387.86, 4.70, 319.92
388.25, 4.73, 319.54
388.70, 4.75, 319.11
389.17, 4.79, 318.65
389.49, 4.87, 318.34
389.56, 5.00, 318.25
389.64, 5.14, 318.15
389.72, 5.28, 318.05
389.79, 5.42, 317.95
389.87, 5.57, 317.85
389.96, 5.72, 317.75
390.05, 5.87, 317.63
390.15, 6.03, 317.51
390.26, 6.18, 317.38
¯390.36, 6.35, 317.25
390.48, 6.52, 317.12
390.59, 6.69, 316.98
390.66, 6.87, 316.88
390.72, 7.05, 316.79
390.78, 7.23, 316.70
386.56, 4.64, 321.03
386.82, 4.65, 320.78
387.10, 4.66, 320.50
387.41, 4.68, 320.20
387.75, 4.70, 319.86
388.14, 4.72, 319.48
388.57, 4.74, 319.05
389.05, 4.78, 318.58
389.30, 4.87, 318.32
389.37, 5.00, 318.23
389.44, 5.14, 318.13
389.51, 5.28, 318.04
389.59, 5.42, 317.94
389.66, 5.56, 317.84
389.74, 5.71, 317.74
389.82, 5.86, 317.63
389.91, 6.01, 317.52
390.01, 6.17, 317.39
390.11, 6.33, 317.26
390.22, 6.49, 317.13
390.33, 6.66, 317.00
390.44, 6.84, 316.85
390.55, 7.02, 316.71
390.65, 7.20, 316.59
390.71, 7.39, 316.50
386.48, 4.63, 320.98
386.73, 4.64, 320.73
387.01, 4.65, 320.45
387.31, 4.67, 320.14
387.65, 4.69, 319.81
388.02, 4.71, 319.42
388.45, 4.73, 318.99
388.92, 4.76, 318.51
389.11, 4.87, 318.31
389.18, 5.00, 318.21
389.25, 5.13, 318.12
389.32, 5.27, 318.03
389.39, 5.41, 317.93
389.46, 5.55, 317.83
389.53, 5.69, 317.73
389.61, 5.84, 317.62
389.69, 5.99, 317.52
389.78, 6.15, 317.40
389.87, 6.31, 317.28
389.97, 6.47, 317.15
¯390.07, 6.64, 317.01
390.18, 6.81, 316.88
390.29, 6.99, 316.73
390.40, 7.17, 316.59
390.52, 7.36, 316.44
386.41, 4.62, 320.94
386.65, 4.64, 320.68
386.92, 4.65, 320.40
387.22, 4.66, 320.09
387.54, 4.68, 319.75
387.91, 4.70, 319.37
388.33, 4.73, 318.94
388.80, 4.75, 318.45
388.93, 4.87, 318.29
388.99, 5.00, 318.20
389.06, 5.13, 318.11
389.12, 5.26, 318.01
389.19, 5.40, 317.92
389.26, 5.54, 317.82
389.33, 5.68, 317.72
389.40, 5.83, 317.62
389.48, 5.98, 317.51
389.55, 6.13, 317.41
389.64, 6.29, 317.29
389.73, 6.45, 317.16
389.83, 6.61, 317.03
389.93, 6.78, 316.90
390.03, 6.95, 316.76
390.14, 7.13, 316.61
390.25, 7.32, 316.46
386.33, 4.62, 320.89
386.57, 4.63, 320.63
386.83, 4.64, 320.35
387.12, 4.66, 320.04
387.44, 4.67, 319.70
387.80, 4.69, 319.32
388.20, 4.72, 318.88
388.66, 4.74, 318.39
388.75, 4.86, 318.28
388.81, 4.99, 318.19
388.87, 5.12, 318.09
388.94, 5.26, 318.00
389.00, 5.39, 317.91
389.07, 5.53, 317.81
389.13, 5.67, 317.71
389.20, 5.81, 317.61
389.27, 5.96, 317.51
389.35, 6.11, 317.40
389.42, 6.27, 317.29
389.50, 6.42, 317.18
389.59, 6.58, 317.05
¯389.69, 6.75, 316.92
389.78, 6.92, 316.78
389.88, 7.10, 316.64
389.99, 7.28, 316.49
386.25, 4.61, 320.85
386.48, 4.62, 320.59
386.74, 4.63, 320.30
387.02, 4.65, 320.00
387.33, 4.67, 319.65
387.68, 4.69, 319.27
388.08, 4.71, 318.83
388.51, 4.74, 318.36
388.56, 4.86, 318.27
388.63, 4.99, 318.18
388.69, 5.12, 318.08
388.75, 5.25, 317.99
388.81, 5.38, 317.90
388.88, 5.52, 317.80
388.94, 5.66, 317.70
389.01, 5.80, 317.60
389.07, 5.95, 317.50
389.14, 6.09, 317.39
389.21, 6.25, 317.29
389.28, 6.40, 317.18
389.36, 6.56, 317.07
389.45, 6.72, 316.93
389.54, 6.89, 316.80
389.64, 7.06, 316.66
389.74, 7.24, 316.52
386.17, 4.61, 320.80
386.40, 4.62, 320.54
386.65, 4.63, 320.26
386.92, 4.64, 319.95
387.23, 4.66, 319.61
387.57, 4.68, 319.22
387.95, 4.70, 318.78
388.33, 4.74, 318.35
388.39, 4.86, 318.26
388.44, 4.99, 318.17
388.50, 5.11, 318.08
388.56, 5.24, 317.99
388.63, 5.37, 317.89
388.69, 5.51, 317.79
388.75, 5.65, 317.69
388.81, 5.79, 317.59
388.88, 5.93, 317.49
388.94, 6.08, 317.39
389.01, 6.23, 317.28
389.08, 6.38, 317.18
389.15, 6.53, 317.07
389.22, 6.70, 316.95
¯389.31, 6.86, 316.82
389.40, 7.03, 316.68
389.49, 7.21, 316.54
386.09, 4.60, 320.76
386.31, 4.61, 320.50
386.56, 4.62, 320.21
386.82, 4.64, 319.91
387.12, 4.65, 319.56
387.45, 4.67, 319.17
387.83, 4.69, 318.74
388.16, 4.74, 318.34
388.21, 4.86, 318.25
388.27, 4.98, 318.17
388.32, 5.11, 318.08
388.37, 5.24, 317.99
388.44, 5.37, 317.89
388.50, 5.50, 317.79
388.56, 5.63, 317.69
388.62, 5.77, 317.59
388.69, 5.91, 317.49
388.75, 6.06, 317.39
388.81, 6.21, 317.28
388.88, 6.36, 317.17
388.94, 6.51, 317.07
389.01, 6.67, 316.95
389.08, 6.83, 316.84
389.17, 7.00, 316.71
389.26, 7.17, 316.57
389.35, 7.35, 316.43
386.01, 4.59, 320.72
386.23, 4.60, 320.46
386.47, 4.61, 320.17
386.72, 4.63, 319.86
387.01, 4.64, 319.52
387.34, 4.66, 319.13
387.70, 4.68, 318.69
387.99, 4.74, 318.33
388.04, 4.86, 318.25
388.09, 4.98, 318.16
388.14, 5.10, 318.08
388.19, 5.23, 317.99
388.25, 5.36, 317.90
388.31, 5.49, 317.80
388.37, 5.62, 317.70
388.43, 5.76, 317.60
388.49, 5.90, 317.50
388.55, 6.04, 317.39
388.62, 6.19, 317.28
388.68, 6.34, 317.17
388.75, 6.49, 317.06
388.81, 6.64, 316.95
¯388.88, 6.80, 316.84
388.94, 6.97, 316.73
389.03, 7.14, 316.59
389.11, 7.31, 316.45
385.93, 4.59, 320.68
386.14, 4.60, 320.42
386.37, 4.61, 320.13
386.63, 4.62, 319.82
386.91, 4.64, 319.48
387.22, 4.65, 319.09
387.58, 4.67, 318.65
387.83, 4.73, 318.33
387.88, 4.85, 318.24
387.92, 4.97, 318.16
387.97, 5.10, 318.07
388.02, 5.22, 317.98
388.07, 5.35, 317.90
388.12, 5.48, 317.81
388.18, 5.61, 317.71
388.23, 5.75, 317.61
388.29, 5.88, 317.51
388.35, 6.02, 317.40
388.41, 6.17, 317.29
388.48, 6.31, 317.19
388.54, 6.46, 317.07
388.61, 6.62, 316.96
388.68, 6.78, 316.84
388.74, 6.94, 316.73
388.81, 7.10, 316.61
388.88, 7.27, 316.48
385.84, 4.58, 320.65
386.05, 4.59, 320.38
386.28, 4.60, 320.09
386.53, 4.61, 319.78
386.80, 4.63, 319.44
387.11, 4.65, 319.05
387.45, 4.66, 318.61
387.67, 4.73, 318.32
387.71, 4.85, 318.24
387.76, 4.97, 318.15
387.80, 5.09, 318.07
387.85, 5.22, 317.98
387.90, 5.34, 317.89
387.95, 5.47, 317.80
387.99, 5.60, 317.71
388.05, 5.73, 317.62
388.10, 5.87, 317.51
388.16, 6.01, 317.41
388.22, 6.15, 317.31
388.28, 6.29, 317.20
388.34, 6.44, 317.09
¯388.40, 6.59, 316.98
388.47, 6.75, 316.86
388.53, 6.91, 316.74
388.60, 7.07, 316.62
388.67, 7.24, 316.50
385.76, 4.58, 320.61
385.97, 4.58, 320.35
386.19, 4.59, 320.05
386.43, 4.61, 319.74
386.69, 4.62, 319.40
386.99, 4.64, 319.01
387.33, 4.66, 318.57
387.51, 4.73, 318.31
387.55, 4.85, 318.23
387.59, 4.97, 318.15
387.64, 5.09, 318.06
387.68, 5.21, 317.98
387.73, 5.33, 317.89
387.77, 5.46, 317.80
387.82, 5.59, 317.71
387.87, 5.72, 317.62
387.92, 5.86, 317.52
387.97, 5.99, 317.42
388.03, 6.13, 317.32
388.08, 6.27, 317.21
388.14, 6.42, 317.11
388.20, 6.57, 316.99
388.26, 6.72, 316.88
388.32, 6.88, 316.76
388.39, 7.04, 316.64
388.45, 7.20, 316.52
385.68, 4.57, 320.58
385.88, 4.58, 320.31
386.10, 4.59, 320.02
386.33, 4.60, 319.70
386.59, 4.61, 319.36
386.87, 4.63, 318.97
387.20, 4.65, 318.53
387.35, 4.73, 318.31
387.39, 4.84, 318.23
387.43, 4.96, 318.14
387.48, 5.08, 318.06
387.52, 5.20, 317.98
387.56, 5.33, 317.89
387.60, 5.45, 317.80
387.65, 5.58, 317.71
387.69, 5.71, 317.62
387.74, 5.84, 317.53
387.79, 5.98, 317.43
387.84, 6.11, 317.33
387.89, 6.25, 317.23
¯387.95, 6.40, 317.12
388.00, 6.54, 317.01
388.06, 6.70, 316.90
388.12, 6.85, 316.78
388.18, 7.01, 316.67
388.24, 7.17, 316.55
388.30, 7.34, 316.42
385.60, 4.56, 320.54
385.79, 4.57, 320.28
386.00, 4.58, 319.98
386.23, 4.59, 319.66
386.48, 4.61, 319.32
386.76, 4.62, 318.94
387.08, 4.64, 318.50
387.20, 4.73, 318.30
387.24, 4.84, 318.22
387.28, 4.96, 318.14
387.32, 5.07, 318.06
387.36, 5.19, 317.97
387.40, 5.32, 317.89
387.44, 5.44, 317.80
387.48, 5.57, 317.71
387.52, 5.69, 317.62
387.57, 5.83, 317.53
387.61, 5.96, 317.44
387.66, 6.10, 317.34
387.71, 6.23, 317.24
387.76, 6.38, 317.13
387.81, 6.52, 317.03
387.87, 6.67, 316.92
387.92, 6.82, 316.80
387.98, 6.98, 316.69
388.04, 7.14, 316.57
388.10, 7.30, 316.45
385.52, 4.56, 320.51
385.70, 4.56, 320.24
385.91, 4.57, 319.95
386.14, 4.58, 319.63
386.38, 4.60, 319.28
386.64, 4.61, 318.90
386.95, 4.63, 318.46
387.05, 4.72, 318.30
387.09, 4.84, 318.22
387.12, 4.95, 318.14
387.16, 5.07, 318.06
387.20, 5.19, 317.97
387.24, 5.31, 317.89
387.28, 5.43, 317.80
387.32, 5.55, 317.71
387.36, 5.68, 317.63
387.40, 5.81, 317.53
¯387.44, 5.94, 317.44
387.48, 6.08, 317.35
387.53, 6.21, 317.25
387.57, 6.35, 317.15
387.62, 6.50, 317.04
387.68, 6.64, 316.93
387.73, 6.79, 316.82
387.78, 6.95, 316.71
387.84, 7.11, 316.59
387.89, 7.27, 316.47
385.43, 4.55, 320.48
385.62, 4.56, 320.21
385.82, 4.57, 319.92
386.04, 4.57, 319.59
386.27, 4.59, 319.25
386.53, 4.61, 318.87
386.83, 4.62, 318.43
386.90, 4.72, 318.29
386.94, 4.83, 318.21
386.97, 4.95, 318.13
387.01, 5.06, 318.05
387.04, 5.18, 317.97
387.08, 5.30, 317.89
387.12, 5.42, 317.80
387.16, 5.54, 317.72
387.19, 5.67, 317.63
387.23, 5.80, 317.54
387.27, 5.93, 317.45
387.31, 6.06, 317.35
387.35, 6.20, 317.26
387.40, 6.33, 317.16
387.44, 6.48, 317.06
387.49, 6.62, 316.95
387.54, 6.77, 316.84
387.59, 6.92, 316.73
387.64, 7.07, 316.61
387.69, 7.23, 316.49
385.35, 4.55, 320.45
385.53, 4.55, 320.18
385.72, 4.56, 319.89
385.94, 4.57, 319.56
386.17, 4.58, 319.22
386.42, 4.60, 318.83
386.70, 4.61, 318.40
386.76, 4.72, 318.29
386.79, 4.83, 318.21
386.83, 4.94, 318.13
386.86, 5.05, 318.05
386.89, 5.17, 317.97
386.93, 5.29, 317.89
386.96, 5.41, 317.80
¯387.00, 5.53, 317.72
387.03, 5.66, 317.63
387.07, 5.78, 317.54
387.11, 5.91, 317.45
387.15, 6.04, 317.36
387.19, 6.18, 317.26
387.23, 6.31, 317.17
387.27, 6.45, 317.07
387.31, 6.60, 316.97
387.35, 6.74, 316.86
387.40, 6.89, 316.75
387.45, 7.04, 316.63
387.50, 7.20, 316.52
385.27, 4.54, 320.42
385.44, 4.55, 320.16
385.63, 4.55, 319.86
385.84, 4.56, 319.53
386.06, 4.57, 319.19
386.31, 4.59, 318.80
386.58, 4.60, 318.37
386.62, 4.71, 318.29
386.65, 4.82, 318.21
386.68, 4.93, 318.13
386.71, 5.05, 318.05
386.74, 5.16, 317.97
386.78, 5.28, 317.89
386.81, 5.40, 317.80
386.84, 5.52, 317.72
386.88, 5.64, 317.63
386.91, 5.77, 317.54
386.95, 5.90, 317.45
386.98, 6.03, 317.36
387.02, 6.16, 317.27
387.06, 6.29, 317.17
387.10, 6.43, 317.08
387.13, 6.57, 316.98
387.17, 6.72, 316.88
387.22, 6.86, 316.77
387.26, 7.01, 316.66
387.31, 7.17, 316.54
387.36, 7.33, 316.42
385.18, 4.53, 320.40
385.35, 4.54, 320.13
385.53, 4.55, 319.83
385.74, 4.55, 319.51
385.96, 4.56, 319.16
386.19, 4.58, 318.77
386.45, 4.60, 318.36
386.48, 4.71, 318.28
386.50, 4.82, 318.21
386.53, 4.93, 318.14
¯386.56, 5.04, 318.06
386.59, 5.15, 317.97
386.62, 5.27, 317.89
386.66, 5.39, 317.81
386.69, 5.51, 317.72
386.72, 5.63, 317.63
386.75, 5.75, 317.55
386.79, 5.88, 317.46
386.82, 6.01, 317.37
386.86, 6.14, 317.27
386.89, 6.27, 317.18
386.93, 6.41, 317.08
386.97, 6.55, 316.99
387.00, 6.69, 316.89
387.04, 6.84, 316.78
387.08, 6.99, 316.68
387.13, 7.14, 316.56
387.17, 7.30, 316.44
385.10, 4.53, 320.37
385.26, 4.53, 320.10
385.44, 4.54, 319.81
385.64, 4.55, 319.48
385.85, 4.56, 319.13
386.08, 4.57, 318.74
386.31, 4.59, 318.35
386.34, 4.70, 318.28
386.36, 4.81, 318.21
386.39, 4.92, 318.13
386.41, 5.03, 318.06
386.44, 5.15, 317.98
386.47, 5.26, 317.90
386.50, 5.38, 317.81
386.53, 5.50, 317.73
386.57, 5.62, 317.64
386.60, 5.74, 317.55
386.63, 5.86, 317.47
386.66, 5.99, 317.37
386.70, 6.12, 317.28
386.73, 6.25, 317.19
386.76, 6.39, 317.09
386.80, 6.53, 317.00
386.83, 6.67, 316.90
386.87, 6.81, 316.79
386.91, 6.96, 316.69
386.95, 7.11, 316.58
386.99, 7.26, 316.47
385.02, 4.52, 320.35
385.17, 4.53, 320.08
385.35, 4.53, 319.78
385.54, 4.54, 319.46
385.74, 4.55, 319.10
¯385.97, 4.56, 318.72
386.18, 4.59, 318.35
386.20, 4.70, 318.28
386.23, 4.81, 318.21
386.25, 4.92, 318.13
386.27, 5.03, 318.06
386.30, 5.14, 317.98
386.33, 5.25, 317.90
386.35, 5.37, 317.82
386.38, 5.49, 317.74
386.41, 5.60, 317.65
386.44, 5.73, 317.57
386.47, 5.85, 317.48
386.50, 5.97, 317.39
386.53, 6.10, 317.30
386.57, 6.23, 317.20
386.60, 6.37, 317.11
386.63, 6.50, 317.01
386.67, 6.64, 316.91
386.70, 6.78, 316.81
386.74, 6.93, 316.70
386.77, 7.08, 316.60
386.81, 7.23, 316.49
384.93, 4.52, 320.33
385.09, 4.52, 320.06
385.25, 4.53, 319.76
385.44, 4.53, 319.44
385.64, 4.54, 319.08
385.86, 4.55, 318.69
386.05, 4.59, 318.34
386.07, 4.69, 318.27
386.09, 4.80, 318.20
386.11, 4.91, 318.13
386.14, 5.02, 318.06
386.16, 5.13, 317.98
386.18, 5.24, 317.91
386.21, 5.36, 317.83
386.23, 5.47, 317.75
386.26, 5.59, 317.66
386.29, 5.71, 317.58
386.32, 5.83, 317.49
386.35, 5.96, 317.40
386.38, 6.09, 317.31
386.41, 6.21, 317.22
386.44, 6.35, 317.12
386.47, 6.48, 317.03
386.50, 6.62, 316.93
386.53, 6.76, 316.83
386.57, 6.90, 316.72
386.60, 7.05, 316.62
386.64, 7.20, 316.51
¯384.85, 4.51, 320.31
385.00, 4.51, 320.04
385.16, 4.52, 319.74
385.34, 4.53, 319.42
385.53, 4.53, 319.06
385.74, 4.54, 318.67
385.92, 4.58, 318.34
385.94, 4.69, 318.27
385.96, 4.79, 318.20
385.98, 4.90, 318.13
386.00, 5.01, 318.06
386.02, 5.12, 317.98
386.04, 5.23, 317.91
386.07, 5.35, 317.83
386.09, 5.46, 317.75
386.11, 5.58, 317.67
386.14, 5.70, 317.59
386.17, 5.82, 317.50
386.19, 5.94, 317.41
386.22, 6.07, 317.32
386.25, 6.20, 317.23
386.28, 6.33, 317.14
386.31, 6.46, 317.04
386.34, 6.59, 316.94
386.37, 6.73, 316.84
386.40, 6.88, 316.74
386.43, 7.02, 316.64
386.46, 7.17, 316.53
384.77, 4.50, 320.29
384.91, 4.51, 320.02
385.06, 4.51, 319.72
385.24, 4.52, 319.40
385.43, 4.52, 319.04
385.63, 4.54, 318.65
385.79, 4.58, 318.34
385.81, 4.68, 318.27
385.83, 4.79, 318.20
385.85, 4.89, 318.13
385.87, 5.00, 318.05
385.89, 5.11, 317.98
385.91, 5.22, 317.91
385.93, 5.34, 317.83
385.95, 5.45, 317.76
385.97, 5.57, 317.68
385.99, 5.68, 317.60
386.02, 5.80, 317.51
386.04, 5.93, 317.43
386.07, 6.05, 317.34
386.09, 6.18, 317.25
386.12, 6.31, 317.15
386.15, 6.44, 317.06
¯386.18, 6.57, 316.96
386.20, 6.71, 316.86
386.23, 6.85, 316.76
386.26, 6.99, 316.66
386.29, 7.14, 316.55
384.68, 4.50, 320.26
384.82, 4.50, 320.00
384.97, 4.51, 319.70
385.14, 4.51, 319.38
385.32, 4.52, 319.02
385.52, 4.53, 318.63
385.66, 4.57, 318.34
385.68, 4.67, 318.27
385.70, 4.78, 318.20
385.72, 4.89, 318.13
385.74, 4.99, 318.05
385.75, 5.10, 317.98
385.77, 5.21, 317.91
385.79, 5.32, 317.83
385.81, 5.44, 317.76
385.83, 5.55, 317.68
385.85, 5.67, 317.60
385.87, 5.79, 317.52
385.89, 5.91, 317.44
385.92, 6.03, 317.35
385.94, 6.16, 317.26
385.97, 6.29, 317.17
385.99, 6.42, 317.07
386.02, 6.55, 316.98
386.04, 6.68, 316.88
386.07, 6.82, 316.78
386.10, 6.97, 316.68
386.13, 7.11, 316.58
384.60, 4.49, 320.24
384.73, 4.50, 319.98
384.88, 4.50, 319.69
385.04, 4.50, 319.36
385.22, 4.51, 319.00
385.41, 4.52, 318.62
385.54, 4.57, 318.33
385.56, 4.67, 318.26
385.57, 4.77, 318.19
385.59, 4.88, 318.12
385.61, 4.98, 318.05
385.62, 5.09, 317.98
385.64, 5.20, 317.91
385.66, 5.31, 317.83
385.67, 5.43, 317.76
385.69, 5.54, 317.68
385.71, 5.66, 317.60
385.73, 5.77, 317.53
¯385.75, 5.89, 317.45
385.77, 6.02, 317.36
385.79, 6.14, 317.27
385.82, 6.27, 317.18
385.84, 6.39, 317.09
385.86, 6.53, 317.00
385.89, 6.66, 316.90
385.91, 6.80, 316.80
385.94, 6.94, 316.70
385.96, 7.08, 316.60
384.52, 4.48, 320.22
384.65, 4.49, 319.96
384.78, 4.49, 319.67
384.94, 4.50, 319.35
385.11, 4.50, 318.99
385.30, 4.51, 318.60
385.42, 4.56, 318.33
385.43, 4.66, 318.26
385.45, 4.77, 318.19
385.46, 4.87, 318.12
385.48, 4.98, 318.05
385.49, 5.08, 317.98
385.51, 5.19, 317.91
385.52, 5.30, 317.83
385.54, 5.41, 317.76
385.56, 5.53, 317.68
385.57, 5.64, 317.61
385.59, 5.76, 317.53
385.61, 5.88, 317.45
385.63, 6.00, 317.37
385.65, 6.12, 317.29
385.67, 6.25, 317.20
385.69, 6.37, 317.11
385.71, 6.50, 317.01
385.73, 6.64, 316.92
385.76, 6.77, 316.82
385.78, 6.91, 316.72
385.80, 7.05, 316.62
384.44, 4.48, 320.20
384.56, 4.48, 319.94
384.69, 4.49, 319.65
384.84, 4.49, 319.34
385.00, 4.50, 318.98
385.18, 4.50, 318.59
385.29, 4.55, 318.33
385.31, 4.65, 318.26
385.32, 4.76, 318.19
385.34, 4.86, 318.12
385.35, 4.97, 318.05
385.36, 5.07, 317.98
385.38, 5.18, 317.91
¯385.39, 5.29, 317.84
385.41, 5.40, 317.76
385.42, 5.51, 317.69
385.44, 5.63, 317.61
385.46, 5.74, 317.53
385.47, 5.86, 317.45
385.49, 5.98, 317.37
385.50, 6.10, 317.29
385.52, 6.23, 317.21
385.54, 6.35, 317.12
385.56, 6.48, 317.03
385.58, 6.61, 316.94
385.60, 6.75, 316.84
385.62, 6.89, 316.74
385.65, 7.03, 316.64
384.36, 4.47, 320.19
384.48, 4.47, 319.92
384.60, 4.48, 319.64
384.74, 4.48, 319.32
384.90, 4.49, 318.97
385.07, 4.49, 318.57
385.17, 4.55, 318.33
385.19, 4.65, 318.26
385.20, 4.75, 318.19
385.21, 4.85, 318.12
385.22, 4.96, 318.05
385.24, 5.06, 317.98
385.25, 5.17, 317.91
385.26, 5.28, 317.84
385.28, 5.39, 317.76
385.29, 5.50, 317.69
385.31, 5.61, 317.61
385.32, 5.73, 317.54
385.34, 5.85, 317.46
385.35, 5.96, 317.38
385.37, 6.09, 317.30
385.38, 6.21, 317.22
385.40, 6.33, 317.13
385.41, 6.46, 317.05
385.43, 6.59, 316.95
385.45, 6.72, 316.86
385.47, 6.86, 316.76
385.49, 7.00, 316.66
384.28, 4.46, 320.17
384.39, 4.47, 319.91
384.51, 4.47, 319.62
384.65, 4.48, 319.31
384.79, 4.48, 318.96
384.96, 4.48, 318.56
385.05, 4.54, 318.33
385.07, 4.64, 318.26
¯385.08, 4.74, 318.19
385.09, 4.84, 318.12
385.10, 4.95, 318.05
385.11, 5.05, 317.98
385.13, 5.16, 317.91
385.14, 5.27, 317.84
385.15, 5.38, 317.77
385.16, 5.49, 317.69
385.18, 5.60, 317.62
385.19, 5.71, 317.54
385.20, 5.83, 317.46
385.22, 5.95, 317.38
385.23, 6.07, 317.30
385.24, 6.19, 317.22
385.26, 6.31, 317.14
385.27, 6.44, 317.05
385.29, 6.57, 316.97
385.30, 6.70, 316.88
385.32, 6.83, 316.78
385.34, 6.97, 316.68
384.20, 4.45, 320.16
384.30, 4.46, 319.89
384.42, 4.46, 319.61
384.55, 4.47, 319.29
384.69, 4.47, 318.95
384.85, 4.48, 318.56
384.94, 4.53, 318.32
384.95, 4.63, 318.26
384.96, 4.73, 318.19
384.97, 4.83, 318.12
384.98, 4.94, 318.05
384.99, 5.04, 317.98
385.00, 5.15, 317.91
385.01, 5.26, 317.84
385.02, 5.36, 317.77
385.03, 5.47, 317.69
385.05, 5.59, 317.62
385.06, 5.70, 317.54
385.07, 5.81, 317.47
385.08, 5.93, 317.39
385.09, 6.05, 317.31
385.11, 6.17, 317.23
385.12, 6.29, 317.14
385.13, 6.42, 317.06
385.15, 6.55, 316.98
385.16, 6.68, 316.89
385.17, 6.81, 316.80
385.19, 6.95, 316.70
384.12, 4.45, 320.14
384.22, 4.45, 319.88
384.33, 4.45, 319.59
¯384.45, 4.46, 319.28
384.59, 4.46, 318.93
384.74, 4.47, 318.55
384.82, 4.53, 318.32
384.83, 4.62, 318.26
384.84, 4.72, 318.19
384.85, 4.83, 318.12
384.86, 4.93, 318.05
384.87, 5.03, 317.98
384.88, 5.14, 317.91
384.89, 5.24, 317.84
384.90, 5.35, 317.77
384.91, 5.46, 317.70
384.92, 5.57, 317.62
384.93, 5.68, 317.55
384.94, 5.80, 317.47
384.95, 5.91, 317.39
384.96, 6.03, 317.31
384.97, 6.15, 317.23
384.98, 6.27, 317.15
385.00, 6.40, 317.07
385.01, 6.53, 316.98
385.02, 6.65, 316.90
385.03, 6.79, 316.81
385.04, 6.92, 316.72
384.03, 4.44, 320.13
384.13, 4.44, 319.87
384.24, 4.45, 319.58
384.36, 4.45, 319.27
384.49, 4.46, 318.92
384.63, 4.46, 318.54
384.70, 4.52, 318.32
384.71, 4.62, 318.26
384.72, 4.72, 318.19
384.73, 4.82, 318.12
384.74, 4.92, 318.06
384.75, 5.02, 317.99
384.76, 5.13, 317.92
384.76, 5.23, 317.84
384.77, 5.34, 317.77
384.78, 5.45, 317.70
384.79, 5.56, 317.63
384.80, 5.67, 317.55
384.81, 5.78, 317.47
384.82, 5.90, 317.40
384.83, 6.01, 317.32
384.84, 6.13, 317.24
384.85, 6.25, 317.16
384.86, 6.38, 317.07
384.87, 6.50, 316.99
384.88, 6.63, 316.90
¯384.89, 6.76, 316.82
384.90, 6.90, 316.73
383.95, 4.43, 320.12
384.05, 4.44, 319.86
384.15, 4.44, 319.57
384.26, 4.44, 319.26
384.39, 4.45, 318.91
384.52, 4.45, 318.53
384.59, 4.51, 318.32
384.60, 4.61, 318.26
384.60, 4.71, 318.20
384.61, 4.81, 318.13
384.62, 4.91, 318.06
384.62, 5.01, 317.99
384.63, 5.11, 317.92
384.64, 5.22, 317.85
384.65, 5.33, 317.78
384.66, 5.43, 317.71
384.66, 5.54, 317.63
384.67, 5.65, 317.56
384.68, 5.77, 317.48
384.69, 5.88, 317.41
384.70, 6.00, 317.33
384.71, 6.12, 317.25
384.72, 6.24, 317.17
384.72, 6.36, 317.08
384.73, 6.48, 317.00
384.74, 6.61, 316.91
384.75, 6.74, 316.83
384.76, 6.87, 316.74
383.87, 4.43, 320.11
383.96, 4.43, 319.85
384.06, 4.43, 319.56
384.17, 4.43, 319.25
384.29, 4.44, 318.90
384.42, 4.44, 318.52
384.48, 4.50, 318.32
384.48, 4.60, 318.26
384.49, 4.70, 318.20
384.49, 4.80, 318.13
384.50, 4.90, 318.07
384.50, 5.00, 318.00
384.51, 5.10, 317.93
384.52, 5.21, 317.86
384.52, 5.31, 317.79
384.53, 5.42, 317.72
384.54, 5.53, 317.64
384.54, 5.64, 317.57
384.55, 5.75, 317.49
384.56, 5.86, 317.42
384.57, 5.98, 317.34
¯384.57, 6.10, 317.26
384.58, 6.22, 317.18
384.59, 6.34, 317.10
384.60, 6.46, 317.01
384.61, 6.59, 316.93
384.61, 6.72, 316.84
384.62, 6.85, 316.75
383.29, 4.56, 331.94
383.30, 4.57, 332.23
383.31, 4.57, 332.54
383.32, 4.58, 332.89
383.33, 4.59, 333.27
383.34, 4.60, 333.68
383.35, 4.62, 334.10
383.35, 4.66, 334.47
383.35, 4.72, 334.82
383.35, 4.78, 335.18
383.35, 4.84, 335.58
383.38, 4.57, 331.96
383.39, 4.58, 332.25
383.41, 4.58, 332.57
383.42, 4.59, 332.92
383.44, 4.60, 333.30
383.45, 4.61, 333.72
383.47, 4.63, 334.13
383.48, 4.67, 334.50
383.48, 4.73, 334.87
383.49, 4.79, 335.24
383.49, 4.86, 335.64
383.47, 4.58, 331.98
383.49, 4.58, 332.27
383.50, 4.59, 332.60
383.52, 4.60, 332.95
383.54, 4.61, 333.33
383.57, 4.62, 333.76
383.59, 4.64, 334.16
383.60, 4.69, 334.54
383.61, 4.74, 334.92
383.62, 4.80, 335.29
383.64, 4.87, 335.70
383.56, 4.59, 332.00
383.58, 4.59, 332.30
383.60, 4.60, 332.62
383.63, 4.61, 332.97
383.65, 4.62, 333.36
383.68, 4.63, 333.79
383.71, 4.66, 334.19
383.73, 4.70, 334.57
383.75, 4.75, 334.97
383.76, 4.82, 335.35
383.78, 4.89, 335.76
¯383.65, 4.59, 332.02
383.68, 4.60, 332.32
383.70, 4.61, 332.64
383.73, 4.62, 333.00
383.77, 4.63, 333.39
383.80, 4.64, 333.82
383.83, 4.67, 334.22
383.86, 4.72, 334.60
383.88, 4.77, 335.01
383.90, 4.83, 335.40
383.93, 4.90, 335.81
383.74, 4.60, 332.03
383.77, 4.61, 332.34
383.80, 4.62, 332.67
383.84, 4.63, 333.03
383.88, 4.64, 333.42
383.92, 4.65, 333.86
383.95, 4.68, 334.24
383.98, 4.73, 334.63
384.02, 4.78, 335.04
384.05, 4.84, 335.45
384.08, 4.91, 335.87
383.84, 4.61, 332.05
383.87, 4.62, 332.35
383.91, 4.63, 332.69
383.95, 4.64, 333.05
383.99, 4.65, 333.45
384.04, 4.66, 333.89
384.08, 4.70, 334.27
384.11, 4.74, 334.65
384.15, 4.80, 335.07
384.19, 4.86, 335.51
384.23, 4.93, 335.93
383.93, 4.62, 332.07
383.97, 4.63, 332.37
384.01, 4.64, 332.71
384.05, 4.65, 333.07
384.10, 4.66, 333.47
384.16, 4.67, 333.91
384.20, 4.71, 334.29
384.24, 4.76, 334.68
384.29, 4.81, 335.10
384.34, 4.87, 335.56
384.02, 4.63, 332.08
384.06, 4.64, 332.39
384.11, 4.65, 332.72
384.16, 4.66, 333.09
384.22, 4.67, 333.50
384.28, 4.68, 333.94
384.33, 4.72, 334.32
384.38, 4.77, 334.71
¯384.43, 4.83, 335.13
384.49, 4.88, 335.60
384.12, 4.63, 332.09
384.16, 4.64, 332.40
384.22, 4.65, 332.74
384.27, 4.67, 333.11
384.33, 4.68, 333.52
384.40, 4.69, 333.97
384.45, 4.74, 334.34
384.51, 4.79, 334.73
384.57, 4.84, 335.16
384.63, 4.90, 335.63
384.21, 4.64, 332.10
384.26, 4.65, 332.42
384.32, 4.66, 332.76
384.38, 4.68, 333.13
384.45, 4.69, 333.54
384.53, 4.71, 333.99
384.58, 4.75, 334.36
384.64, 4.80, 334.76
384.71, 4.86, 335.19
384.78, 4.91, 335.67
384.30, 4.65, 332.11
384.36, 4.66, 332.43
384.42, 4.67, 332.77
384.49, 4.69, 333.15
384.57, 4.70, 333.56
384.65, 4.72, 334.01
384.71, 4.76, 334.38
384.78, 4.81, 334.78
384.85, 4.87, 335.23
384.94, 4.92, 335.73
384.40, 4.66, 332.12
384.46, 4.67, 332.44
384.53, 4.68, 332.78
384.60, 4.70, 333.16
384.69, 4.71, 333.58
384.77, 4.73, 334.03
384.84, 4.77, 334.41
384.92, 4.82, 334.83
385.01, 4.88, 335.29
385.10, 4.93, 335.79
385.19, 5.01, 336.30
384.50, 4.67, 332.13
384.56, 4.68, 332.45
384.64, 4.69, 332.80
384.72, 4.71, 333.18
384.81, 4.72, 333.60
384.90, 4.74, 334.06
384.98, 4.78, 334.46
385.07, 4.83, 334.88
¯385.16, 4.88, 335.35
385.26, 4.94, 335.86
385.36, 5.02, 336.36
384.59, 4.68, 332.14
384.66, 4.69, 332.46
384.74, 4.70, 332.81
384.83, 4.71, 333.19
384.93, 4.73, 333.62
385.03, 4.75, 334.08
385.12, 4.79, 334.50
385.21, 4.84, 334.93
385.31, 4.89, 335.40
385.42, 4.95, 335.92
385.53, 5.03, 336.42
384.69, 4.68, 332.14
384.77, 4.70, 332.46
384.85, 4.71, 332.82
384.95, 4.72, 333.21
385.05, 4.74, 333.64
385.16, 4.76, 334.10
385.26, 4.80, 334.54
385.36, 4.85, 334.98
385.47, 4.90, 335.46
385.59, 4.97, 335.98
385.70, 5.04, 336.49
384.79, 4.69, 332.15
384.87, 4.70, 332.47
384.96, 4.72, 332.83
385.06, 4.73, 333.23
385.18, 4.75, 333.66
385.29, 4.77, 334.12
385.41, 4.81, 334.57
385.52, 4.86, 335.02
385.63, 4.91, 335.51
385.76, 4.98, 336.03
385.88, 5.06, 336.55
386.01, 5.14, 337.11
384.89, 4.70, 332.16
384.98, 4.71, 332.48
385.07, 4.72, 332.85
385.18, 4.74, 333.24
385.30, 4.75, 333.68
385.43, 4.78, 334.14
385.55, 4.82, 334.60
385.67, 4.86, 335.07
385.80, 4.92, 335.56
385.93, 4.99, 336.08
386.06, 5.07, 336.61
386.20, 5.16, 337.19
384.99, 4.70, 332.16
385.08, 4.72, 332.49
¯385.19, 4.73, 332.86
385.30, 4.75, 333.26
385.43, 4.76, 333.70
385.56, 4.79, 334.16
385.69, 4.83, 334.62
385.83, 4.87, 335.12
385.96, 4.93, 335.62
386.10, 5.00, 336.14
386.24, 5.08, 336.67
386.40, 5.17, 337.26
385.09, 4.71, 332.17
385.19, 4.72, 332.50
385.30, 4.74, 332.87
385.42, 4.75, 333.27
385.56, 4.77, 333.71
385.69, 4.80, 334.18
385.83, 4.84, 334.64
385.98, 4.88, 335.15
386.13, 4.94, 335.67
386.28, 5.01, 336.19
386.43, 5.09, 336.73
386.60, 5.19, 337.32
385.19, 4.72, 332.17
385.30, 4.73, 332.51
385.41, 4.75, 332.87
385.54, 4.76, 333.28
385.68, 4.78, 333.73
385.83, 4.81, 334.19
385.97, 4.85, 334.66
386.13, 4.89, 335.18
386.30, 4.95, 335.72
386.46, 5.02, 336.24
386.62, 5.11, 336.79
386.81, 5.20, 337.43
385.29, 4.72, 332.17
385.40, 4.74, 332.51
385.53, 4.75, 332.88
385.66, 4.77, 333.29
385.81, 4.79, 333.74
385.97, 4.82, 334.21
386.12, 4.86, 334.68
386.29, 4.90, 335.20
386.47, 4.96, 335.77
386.64, 5.03, 336.29
386.83, 5.11, 336.89
387.05, 5.20, 337.60
385.39, 4.73, 332.17
385.51, 4.75, 332.51
385.64, 4.76, 332.89
385.79, 4.78, 333.30
385.94, 4.80, 333.75
¯386.11, 4.83, 334.22
386.27, 4.87, 334.69
386.45, 4.92, 335.22
386.65, 4.97, 335.81
386.84, 5.04, 336.39
387.06, 5.11, 337.04
387.30, 5.20, 337.77
385.50, 4.74, 332.17
385.62, 4.75, 332.51
385.76, 4.77, 332.89
385.91, 4.79, 333.30
386.08, 4.81, 333.76
386.24, 4.84, 334.23
386.42, 4.88, 334.71
386.60, 4.93, 335.24
386.83, 4.98, 335.86
387.06, 5.04, 336.52
387.30, 5.12, 337.20
387.63, 5.18, 338.12
385.60, 4.75, 332.17
385.73, 4.76, 332.51
385.87, 4.78, 332.89
386.03, 4.79, 333.31
386.21, 4.82, 333.77
386.38, 4.85, 334.24
386.56, 4.89, 334.72
386.77, 4.94, 335.27
387.01, 4.98, 335.92
387.29, 5.04, 336.66
387.55, 5.12, 337.35
388.13, 5.12, 338.86
385.70, 4.75, 332.17
385.84, 4.77, 332.51
385.99, 4.78, 332.89
386.16, 4.80, 333.31
386.34, 4.82, 333.77
386.53, 4.86, 334.25
386.72, 4.90, 334.73
386.95, 4.94, 335.32
387.21, 4.99, 335.99
387.53, 5.03, 336.80
387.80, 5.12, 337.51
388.68, 5.06, 339.67
385.81, 4.76, 332.16
385.95, 4.77, 332.51
386.11, 4.79, 332.89
386.28, 4.81, 333.31
386.48, 4.83, 333.78
386.67, 4.87, 334.25
386.88, 4.91, 334.77
387.13, 4.95, 335.37
¯387.41, 4.99, 336.06
387.76, 5.04, 336.91
388.07, 5.12, 337.68
388.98, 5.07, 339.82
385.91, 4.77, 332.16
386.06, 4.78, 332.50
386.23, 4.80, 332.89
386.41, 4.82, 333.31
386.61, 4.84, 333.78
386.82, 4.87, 334.28
387.05, 4.91, 334.82
387.31, 4.95, 335.42
387.61, 5.00, 336.13
387.98, 5.04, 337.00
388.34, 5.11, 337.85
386.02, 4.77, 332.15
386.17, 4.79, 332.50
386.35, 4.81, 332.88
386.53, 4.83, 333.31
386.75, 4.85, 333.78
386.98, 4.88, 334.31
387.23, 4.91, 334.86
387.50, 4.96, 335.47
387.82, 5.00, 336.20
388.21, 5.05, 337.08
388.74, 5.09, 338.25
386.12, 4.78, 332.14
386.29, 4.80, 332.49
386.46, 4.82, 332.87
386.66, 4.84, 333.30
386.89, 4.86, 333.79
387.14, 4.88, 334.33
387.40, 4.92, 334.90
387.69, 4.96, 335.52
388.03, 5.01, 336.27
388.45, 5.05, 337.17
389.00, 5.09, 338.36
386.23, 4.79, 332.13
386.40, 4.80, 332.48
386.58, 4.82, 332.86
386.79, 4.84, 333.30
387.03, 4.86, 333.79
387.29, 4.89, 334.34
387.58, 4.92, 334.93
387.88, 4.97, 335.57
388.25, 5.01, 336.33
388.69, 5.06, 337.25
389.27, 5.10, 338.47
386.34, 4.79, 332.11
386.51, 4.81, 332.47
386.70, 4.83, 332.85
¯386.93, 4.85, 333.30
387.18, 4.87, 333.80
387.45, 4.90, 334.35
387.75, 4.93, 334.96
388.08, 4.97, 335.62
388.47, 5.02, 336.40
388.93, 5.07, 337.34
389.57, 5.11, 338.61
386.44, 4.80, 332.10
386.62, 4.82, 332.45
386.83, 4.84, 332.85
387.06, 4.86, 333.30
387.32, 4.88, 333.80
387.61, 4.90, 334.35
387.93, 4.94, 334.97
388.28, 4.98, 335.66
388.69, 5.02, 336.46
389.18, 5.07, 337.42
389.87, 5.11, 338.75
386.55, 4.81, 332.08
386.74, 4.82, 332.44
386.95, 4.84, 332.84
387.20, 4.86, 333.29
387.47, 4.88, 333.80
387.76, 4.91, 334.36
388.10, 4.95, 334.98
388.48, 4.98, 335.70
388.92, 5.03, 336.52
389.44, 5.08, 337.50
390.19, 5.11, 338.89
386.66, 4.81, 332.07
386.86, 4.83, 332.43
387.08, 4.85, 332.83
387.33, 4.87, 333.29
387.61, 4.89, 333.80
387.92, 4.92, 334.36
388.27, 4.95, 334.99
388.67, 4.99, 335.72
389.15, 5.03, 336.58
389.70, 5.09, 337.58
390.51, 5.12, 339.03
386.76, 4.82, 332.05
386.97, 4.84, 332.42
387.21, 4.85, 332.82
387.47, 4.87, 333.28
387.76, 4.90, 333.79
388.08, 4.93, 334.36
388.45, 4.96, 335.00
388.87, 5.00, 335.74
389.39, 5.04, 336.64
389.97, 5.09, 337.66
¯390.77, 5.14, 339.06
386.87, 4.82, 332.03
387.09, 4.84, 332.40
387.34, 4.86, 332.81
387.61, 4.88, 333.27
387.91, 4.90, 333.79
388.25, 4.93, 334.36
388.62, 4.97, 335.00
389.08, 5.01, 335.77
389.62, 5.05, 336.68
390.24, 5.10, 337.74
391.00, 5.16, 339.03
386.98, 4.83, 332.01
387.21, 4.85, 332.38
387.46, 4.87, 332.80
387.74, 4.89, 333.26
388.06, 4.91, 333.78
388.41, 4.94, 334.35
388.81, 4.98, 335.01
389.29, 5.01, 335.80
389.85, 5.05, 336.72
390.52, 5.10, 337.82
391.23, 5.18, 339.00
387.09, 4.84, 331.99
387.33, 4.85, 332.36
387.59, 4.87, 332.78
387.88, 4.89, 333.25
388.21, 4.92, 333.77
388.57, 4.95, 334.35
389.00, 4.98, 335.02
389.50, 5.02, 335.82
390.09, 5.06, 336.76
390.82, 5.11, 337.91
391.47, 5.21, 338.95
387.20, 4.84, 331.96
387.44, 4.86, 332.34
387.72, 4.88, 332.76
388.02, 4.90, 333.23
388.36, 4.93, 333.75
388.74, 4.96, 334.34
389.19, 4.99, 335.03
389.72, 5.03, 335.84
390.33, 5.07, 336.79
391.11, 5.12, 337.98
391.71, 5.23, 338.94
387.31, 4.85, 331.94
387.56, 4.87, 332.31
387.84, 4.89, 332.73
388.16, 4.91, 333.20
388.51, 4.93, 333.73
388.92, 4.96, 334.34
¯389.39, 4.99, 335.04
389.93, 5.03, 335.86
390.58, 5.08, 336.82
391.41, 5.12, 338.06
392.05, 5.23, 339.03
387.42, 4.85, 331.91
387.68, 4.87, 332.28
387.97, 4.89, 332.70
388.29, 4.92, 333.18
388.66, 4.94, 333.71
389.09, 4.97, 334.34
389.58, 5.00, 335.05
390.15, 5.04, 335.87
390.86, 5.08, 336.90
391.71, 5.13, 338.13
392.39, 5.24, 339.13
387.53, 4.86, 331.88
387.80, 4.88, 332.26
388.09, 4.90, 332.68
388.43, 4.92, 333.15
388.81, 4.95, 333.69
389.26, 4.97, 334.32
389.78, 5.01, 335.05
390.38, 5.05, 335.89
391.16, 5.08, 336.98
392.03, 5.13, 338.21
392.72, 5.25, 339.19
387.64, 4.87, 331.85
387.91, 4.88, 332.22
388.22, 4.91, 332.64
388.57, 4.93, 333.12
388.97, 4.95, 333.66
389.43, 4.98, 334.30
389.97, 5.01, 335.03
390.60, 5.05, 335.89
391.46, 5.08, 337.07
392.35, 5.14, 338.28
393.03, 5.27, 339.22
387.75, 4.87, 331.81
388.03, 4.89, 332.19
388.35, 4.91, 332.61
388.70, 4.94, 333.08
389.12, 4.96, 333.64
389.60, 4.99, 334.27
390.16, 5.02, 335.01
390.82, 5.06, 335.89
391.78, 5.08, 337.15
392.67, 5.15, 338.33
393.34, 5.28, 339.25
387.86, 4.88, 331.78
388.15, 4.90, 332.15
¯388.47, 4.92, 332.57
388.84, 4.94, 333.05
389.27, 4.97, 333.61
389.77, 5.00, 334.25
390.35, 5.03, 334.99
391.04, 5.07, 335.88
392.05, 5.08, 337.18
392.96, 5.16, 338.34
393.66, 5.30, 339.27
387.96, 4.88, 331.74
388.26, 4.90, 332.12
388.60, 4.93, 332.54
388.99, 4.95, 333.02
389.43, 4.98, 333.58
389.94, 5.01, 334.22
390.54, 5.04, 334.96
391.26, 5.08, 335.87
392.31, 5.09, 337.18
393.19, 5.18, 338.28
393.99, 5.31, 339.29
388.07, 4.89, 331.70
388.38, 4.91, 332.08
388.73, 4.93, 332.50
389.13, 4.96, 332.98
389.58, 4.98, 333.54
390.11, 5.01, 334.18
390.73, 5.05, 334.94
391.49, 5.09, 335.86
392.58, 5.10, 337.17
393.41, 5.20, 338.19
394.22, 5.34, 339.20
388.18, 4.89, 331.66
388.50, 4.92, 332.03
388.86, 4.94, 332.46
389.27, 4.96, 332.95
389.74, 4.99, 333.50
390.28, 5.02, 334.15
390.93, 5.06, 334.91
391.72, 5.09, 335.84
392.75, 5.13, 337.06
393.63, 5.23, 338.10
394.46, 5.37, 339.11
388.29, 4.90, 331.62
388.61, 4.92, 331.99
388.99, 4.94, 332.42
389.41, 4.97, 332.91
389.89, 5.00, 333.46
390.46, 5.03, 334.11
391.13, 5.06, 334.88
391.94, 5.10, 335.82
392.93, 5.15, 336.94
¯393.84, 5.25, 338.00
394.77, 5.38, 339.09
388.40, 4.91, 331.57
388.73, 4.93, 331.94
389.11, 4.95, 332.37
389.55, 4.97, 332.86
390.05, 5.00, 333.42
390.63, 5.04, 334.07
391.33, 5.07, 334.85
392.17, 5.11, 335.79
393.10, 5.17, 336.83
394.06, 5.27, 337.90
395.12, 5.40, 339.11
388.50, 4.91, 331.52
388.85, 4.93, 331.90
389.24, 4.96, 332.33
389.69, 4.98, 332.82
390.21, 5.01, 333.37
390.81, 5.04, 334.03
391.53, 5.08, 334.82
392.41, 5.12, 335.76
393.27, 5.20, 336.70
394.25, 5.30, 337.77
395.48, 5.41, 339.12
388.61, 4.92, 331.47
388.97, 4.94, 331.85
389.37, 4.96, 332.28
389.83, 4.99, 332.77
390.36, 5.02, 333.32
390.99, 5.05, 333.99
391.74, 5.08, 334.78
392.64, 5.13, 335.73
393.51, 5.21, 336.66
394.49, 5.31, 337.70
395.86, 5.42, 339.15
388.72, 4.92, 331.42
389.09, 4.94, 331.80
389.50, 4.97, 332.23
389.97, 4.99, 332.71
390.52, 5.02, 333.27
391.17, 5.06, 333.94
391.94, 5.09, 334.73
392.87, 5.14, 335.69
393.79, 5.22, 336.63
394.88, 5.32, 337.76
396.33, 5.43, 339.26
388.83, 4.93, 331.37
389.20, 4.95, 331.75
389.63, 4.97, 332.18
390.11, 5.00, 332.66
390.67, 5.03, 333.22
¯391.35, 5.06, 333.89
392.14, 5.10, 334.69
393.11, 5.14, 335.65
394.06, 5.23, 336.61
395.29, 5.32, 337.84
396.96, 5.42, 339.51
388.93, 4.93, 331.32
389.32, 4.95, 331.70
389.76, 4.98, 332.12
390.25, 5.01, 332.60
390.83, 5.04, 333.17
391.53, 5.07, 333.84
392.35, 5.11, 334.64
393.34, 5.15, 335.60
394.34, 5.24, 336.58
395.71, 5.32, 337.91
397.70, 5.41, 339.84
389.04, 4.94, 331.27
389.44, 4.96, 331.64
389.88, 4.98, 332.06
390.39, 5.01, 332.54
390.99, 5.04, 333.11
391.71, 5.07, 333.78
392.55, 5.11, 334.58
393.58, 5.16, 335.55
394.65, 5.24, 336.57
396.14, 5.32, 337.98
398.68, 5.38, 340.36
389.15, 4.94, 331.21
389.55, 4.96, 331.58
390.01, 4.99, 332.00
390.53, 5.02, 332.48
391.15, 5.05, 333.05
391.89, 5.08, 333.72
392.76, 5.12, 334.53
393.81, 5.17, 335.49
395.02, 5.24, 336.61
396.63, 5.32, 338.08
398.86, 5.41, 340.12
400.49, 5.62, 341.64
389.25, 4.94, 331.15
389.67, 4.97, 331.52
390.13, 4.99, 331.94
390.67, 5.02, 332.42
391.31, 5.05, 332.99
392.07, 5.09, 333.66
392.96, 5.13, 334.46
394.05, 5.18, 335.43
395.35, 5.24, 336.60
396.91, 5.33, 337.99
399.24, 5.43, 340.07
¯400.86, 5.65, 341.53
389.36, 4.95, 331.09
389.78, 4.97, 331.46
390.26, 5.00, 331.87
390.81, 5.03, 332.35
391.47, 5.06, 332.92
392.25, 5.09, 333.60
393.17, 5.13, 334.40
394.29, 5.19, 335.37
395.64, 5.25, 336.54
397.16, 5.35, 337.87
399.64, 5.45, 340.01
401.23, 5.67, 341.41
389.46, 4.95, 331.03
389.89, 4.98, 331.39
390.38, 5.00, 331.80
390.96, 5.03, 332.29
391.63, 5.06, 332.86
392.42, 5.10, 333.53
393.37, 5.14, 334.33
394.52, 5.19, 335.30
395.92, 5.26, 336.48
397.44, 5.37, 337.77
400.03, 5.46, 339.95
401.60, 5.70, 341.29
389.57, 4.96, 330.96
390.01, 4.98, 331.32
390.51, 5.01, 331.73
391.10, 5.04, 332.22
391.79, 5.07, 332.78
392.60, 5.10, 333.45
393.58, 5.15, 334.25
394.76, 5.20, 335.22
396.21, 5.27, 336.41
397.72, 5.39, 337.66
400.43, 5.48, 339.87
402.10, 5.72, 341.27
389.67, 4.96, 330.89
390.12, 4.99, 331.25
390.63, 5.01, 331.66
391.24, 5.04, 332.14
391.94, 5.07, 332.71
392.78, 5.11, 333.37
393.78, 5.16, 334.17
395.00, 5.21, 335.14
396.49, 5.28, 336.33
398.00, 5.40, 337.55
400.96, 5.49, 339.90
389.77, 4.97, 330.82
390.23, 4.99, 331.18
390.75, 5.02, 331.59
¯391.38, 5.05, 332.07
392.10, 5.08, 332.63
392.96, 5.12, 333.29
393.98, 5.16, 334.09
395.24, 5.22, 335.06
396.73, 5.30, 336.22
398.30, 5.42, 337.44
401.51, 5.50, 339.92
389.87, 4.97, 330.75
390.34, 5.00, 331.10
390.88, 5.02, 331.51
391.51, 5.05, 331.99
392.26, 5.08, 332.55
393.13, 5.12, 333.21
394.18, 5.17, 334.00
395.47, 5.23, 334.97
396.99, 5.31, 336.11
398.68, 5.43, 337.39
402.08, 5.51, 339.94
389.97, 4.97, 330.68
390.45, 5.00, 331.03
391.00, 5.03, 331.43
391.65, 5.05, 331.91
392.41, 5.09, 332.46
393.31, 5.13, 333.12
394.38, 5.18, 333.91
395.69, 5.24, 334.86
397.25, 5.32, 336.00
399.13, 5.43, 337.38
402.59, 5.52, 339.90
390.07, 4.98, 330.60
390.55, 5.00, 330.95
391.12, 5.03, 331.35
391.79, 5.06, 331.82
392.56, 5.09, 332.37
393.48, 5.13, 333.03
394.58, 5.18, 333.81
395.90, 5.25, 334.75
397.50, 5.33, 335.88
399.58, 5.43, 337.36
402.95, 5.54, 339.75
390.16, 4.98, 330.52
390.66, 5.01, 330.87
391.24, 5.03, 331.27
391.92, 5.06, 331.74
392.71, 5.10, 332.28
393.65, 5.14, 332.93
394.77, 5.19, 333.70
396.11, 5.26, 334.63
397.73, 5.34, 335.74
400.00, 5.44, 337.31
¯403.26, 5.56, 339.55
390.26, 4.99, 330.44
390.77, 5.01, 330.78
391.36, 5.04, 331.18
392.05, 5.07, 331.65
392.86, 5.10, 332.19
393.82, 5.14, 332.83
394.95, 5.20, 333.59
396.32, 5.27, 334.50
397.96, 5.36, 335.60
400.37, 5.45, 337.21
390.35, 4.99, 330.36
390.87, 5.01, 330.70
391.48, 5.04, 331.10
392.19, 5.07, 331.55
393.01, 5.11, 332.09
393.99, 5.15, 332.72
395.14, 5.21, 333.47
396.52, 5.28, 334.37
398.20, 5.37, 335.46
400.78, 5.46, 337.13
389.93, 5.10, 329.96
390.98, 5.02, 330.61
391.60, 5.04, 331.00
392.31, 5.08, 331.46
393.16, 5.11, 331.99
394.16, 5.16, 332.61
395.32, 5.21, 333.35
396.71, 5.29, 334.23
398.45, 5.38, 335.32
401.20, 5.46, 337.05
390.01, 5.10, 329.88
391.08, 5.02, 330.53
391.71, 5.05, 330.91
392.44, 5.08, 331.36
393.30, 5.12, 331.88
394.32, 5.16, 332.50
395.50, 5.22, 333.22
396.92, 5.30, 334.09
398.74, 5.39, 335.21
401.59, 5.47, 336.94
390.10, 5.11, 329.80
390.60, 5.13, 330.10
391.82, 5.05, 330.81
392.57, 5.08, 331.25
393.44, 5.12, 331.77
394.48, 5.17, 332.39
395.67, 5.23, 333.09
397.13, 5.30, 333.95
399.03, 5.39, 335.08
401.95, 5.48, 336.80
