ŸVERSION 0.7
FIELDS x y z
SIZE 8 8 8
TYPE F F F
COUNT 1 1 1
WIDTH 2271
HEIGHT 1
VIEWPOINT 439.60, 13.92, 281.23 1 436.30, 9.05, 300.99
POINTS 2271
DATA ascii
429.90, 9.35, 304.56
431.87, 7.01, 303.10
431.68, 7.01, 303.26
431.47, 7.02, 303.43
¯431.25, 7.02, 303.62
431.00, 7.03, 303.82
430.74, 7.04, 304.04
430.45, 7.05, 304.28
430.13, 7.06, 304.54
429.78, 7.07, 304.83
429.45, 7.10, 305.10
429.12, 7.15, 305.38
428.76, 7.19, 305.68
427.71, 7.10, 306.54
427.13, 7.13, 307.03
430.17, 7.89, 304.50
430.17, 8.00, 304.50
430.17, 8.11, 304.49
430.17, 8.23, 304.49
430.17, 8.34, 304.49
430.17, 8.45, 304.49
430.17, 8.56, 304.49
430.17, 8.68, 304.49
430.17, 8.79, 304.49
430.14, 8.90, 304.51
430.10, 9.01, 304.55
430.06, 9.12, 304.58
430.02, 9.24, 304.61
429.97, 9.35, 304.64
431.92, 7.01, 303.16
431.73, 7.01, 303.32
431.53, 7.02, 303.50
431.31, 7.02, 303.68
431.07, 7.03, 303.89
430.81, 7.04, 304.11
430.52, 7.05, 304.36
430.20, 7.06, 304.62
429.86, 7.07, 304.92
429.52, 7.10, 305.21
429.19, 7.14, 305.49
428.81, 7.18, 305.81
429.06, 7.38, 305.60
429.90, 7.70, 304.87
430.25, 7.89, 304.58
430.25, 8.00, 304.58
430.25, 8.12, 304.58
430.25, 8.23, 304.58
430.25, 8.34, 304.57
430.25, 8.45, 304.57
430.25, 8.56, 304.57
430.24, 8.68, 304.57
430.24, 8.79, 304.57
430.21, 8.90, 304.60
430.17, 9.01, 304.63
430.13, 9.12, 304.66
¯430.09, 9.24, 304.70
430.05, 9.35, 304.73
431.98, 7.01, 303.22
431.79, 7.01, 303.38
431.59, 7.02, 303.56
431.37, 7.03, 303.75
431.13, 7.03, 303.96
430.87, 7.04, 304.19
430.59, 7.05, 304.43
430.28, 7.06, 304.71
429.94, 7.08, 305.00
429.58, 7.10, 305.32
429.25, 7.14, 305.61
428.84, 7.17, 305.97
429.15, 7.39, 305.70
429.98, 7.70, 304.96
430.33, 7.89, 304.66
430.32, 8.00, 304.66
430.32, 8.12, 304.66
430.32, 8.23, 304.66
430.32, 8.34, 304.66
430.32, 8.45, 304.66
430.32, 8.57, 304.65
430.32, 8.68, 304.65
430.32, 8.79, 304.65
430.29, 8.90, 304.68
430.25, 9.01, 304.71
430.21, 9.12, 304.75
430.17, 9.24, 304.78
430.13, 9.35, 304.81
432.04, 7.01, 303.27
431.85, 7.02, 303.44
431.65, 7.02, 303.63
431.43, 7.03, 303.82
431.20, 7.04, 304.03
430.94, 7.04, 304.26
430.66, 7.05, 304.51
430.36, 7.07, 304.79
430.03, 7.08, 305.09
429.65, 7.09, 305.43
429.32, 7.13, 305.72
428.87, 7.16, 306.13
429.24, 7.39, 305.79
430.06, 7.70, 305.05
430.40, 7.89, 304.74
430.40, 8.00, 304.74
430.40, 8.12, 304.74
430.40, 8.23, 304.74
430.40, 8.34, 304.74
430.40, 8.46, 304.74
430.40, 8.57, 304.74
¯430.40, 8.68, 304.74
430.40, 8.79, 304.73
430.37, 8.90, 304.76
430.33, 9.01, 304.79
430.29, 9.13, 304.83
430.25, 9.24, 304.86
430.21, 9.36, 304.90
432.09, 7.01, 303.33
431.91, 7.02, 303.50
431.71, 7.02, 303.69
431.49, 7.03, 303.89
431.26, 7.04, 304.10
431.01, 7.05, 304.33
430.74, 7.06, 304.59
430.44, 7.07, 304.87
430.11, 7.08, 305.17
429.73, 7.09, 305.53
429.39, 7.13, 305.83
428.91, 7.14, 306.28
428.14, 7.10, 307.00
427.56, 7.14, 307.54
429.25, 7.65, 305.96
429.25, 7.78, 305.96
429.25, 7.92, 305.96
429.25, 8.06, 305.96
429.25, 8.19, 305.96
429.25, 8.33, 305.95
429.25, 8.46, 305.95
429.25, 8.60, 305.95
430.16, 8.78, 305.11
430.16, 8.89, 305.11
430.16, 9.01, 305.10
430.16, 9.13, 305.10
430.16, 9.25, 305.10
430.16, 9.36, 305.10
432.15, 7.01, 303.39
431.97, 7.02, 303.56
431.77, 7.02, 303.75
431.56, 7.03, 303.95
431.33, 7.04, 304.17
431.08, 7.05, 304.41
430.81, 7.06, 304.66
430.52, 7.07, 304.94
430.19, 7.08, 305.25
429.82, 7.09, 305.61
429.47, 7.13, 305.95
428.95, 7.13, 306.44
428.26, 7.11, 307.10
427.67, 7.14, 307.66
427.13, 7.20, 308.18
426.68, 7.30, 308.60
¯428.47, 7.78, 306.89
428.47, 7.93, 306.89
428.47, 8.09, 306.89
420.56, 7.41, 314.44
424.47, 8.05, 310.71
424.47, 8.28, 310.71
430.24, 8.78, 305.19
430.24, 8.89, 305.19
430.24, 9.01, 305.19
430.24, 9.13, 305.19
430.24, 9.25, 305.19
430.24, 9.36, 305.19
432.21, 7.02, 303.44
432.03, 7.02, 303.62
431.83, 7.03, 303.81
431.62, 7.03, 304.02
431.40, 7.04, 304.24
431.15, 7.05, 304.48
430.89, 7.06, 304.74
430.60, 7.07, 305.02
430.28, 7.09, 305.33
429.91, 7.10, 305.70
429.54, 7.12, 306.06
428.99, 7.11, 306.60
428.39, 7.11, 307.19
427.79, 7.14, 307.78
427.25, 7.20, 308.30
426.80, 7.30, 308.74
428.57, 7.78, 307.00
428.57, 7.93, 307.00
428.57, 8.09, 307.00
420.71, 7.40, 314.73
424.62, 8.05, 310.87
424.62, 8.28, 310.87
432.26, 7.02, 303.50
432.09, 7.02, 303.68
431.90, 7.03, 303.87
431.69, 7.03, 304.08
431.47, 7.04, 304.30
431.23, 7.05, 304.55
430.97, 7.06, 304.81
430.68, 7.07, 305.10
430.37, 7.09, 305.41
430.00, 7.10, 305.78
429.61, 7.12, 306.17
429.09, 7.11, 306.71
428.51, 7.12, 307.29
427.92, 7.14, 307.88
427.37, 7.20, 308.43
426.93, 7.30, 308.88
428.68, 7.78, 307.11
¯428.67, 7.93, 307.11
428.67, 8.09, 307.11
420.85, 7.40, 315.01
424.78, 8.05, 311.04
424.78, 8.28, 311.04
432.32, 7.02, 303.55
432.15, 7.02, 303.73
431.96, 7.03, 303.93
431.76, 7.03, 304.14
431.54, 7.04, 304.37
431.30, 7.05, 304.62
431.04, 7.06, 304.88
430.77, 7.08, 305.17
430.46, 7.09, 305.49
430.10, 7.10, 305.87
429.69, 7.11, 306.29
429.20, 7.12, 306.79
428.64, 7.12, 307.38
428.06, 7.15, 307.98
427.50, 7.20, 308.56
427.06, 7.30, 309.02
428.78, 7.78, 307.22
428.78, 7.93, 307.22
428.78, 8.09, 307.22
421.00, 7.39, 315.30
424.94, 8.05, 311.21
424.94, 8.28, 311.21
432.38, 7.02, 303.61
432.21, 7.02, 303.79
432.03, 7.03, 303.99
431.83, 7.04, 304.20
431.61, 7.04, 304.43
431.37, 7.05, 304.68
431.12, 7.06, 304.95
430.85, 7.08, 305.24
430.55, 7.09, 305.57
430.19, 7.10, 305.95
429.79, 7.12, 306.37
429.32, 7.12, 306.88
428.76, 7.13, 307.47
428.19, 7.15, 308.08
427.62, 7.20, 308.69
427.18, 7.30, 309.15
428.88, 7.78, 307.34
428.88, 7.93, 307.33
428.88, 8.09, 307.33
421.14, 7.39, 315.61
425.09, 8.05, 311.38
425.09, 8.28, 311.37
432.44, 7.02, 303.66
432.28, 7.03, 303.85
¯432.09, 7.03, 304.05
431.90, 7.04, 304.26
431.68, 7.04, 304.50
431.45, 7.05, 304.75
431.20, 7.07, 305.02
430.93, 7.08, 305.32
430.64, 7.10, 305.64
430.29, 7.11, 306.03
429.89, 7.12, 306.46
429.44, 7.13, 306.96
428.89, 7.13, 307.56
428.33, 7.16, 308.17
427.74, 7.20, 308.82
427.31, 7.30, 309.29
428.99, 7.78, 307.45
428.99, 7.93, 307.45
428.98, 8.09, 307.45
425.23, 7.82, 311.57
425.25, 8.05, 311.54
425.25, 8.28, 311.54
432.51, 7.02, 303.71
432.34, 7.03, 303.90
432.16, 7.03, 304.10
431.97, 7.04, 304.32
431.75, 7.05, 304.56
431.53, 7.06, 304.81
431.29, 7.07, 305.09
431.02, 7.08, 305.39
430.73, 7.10, 305.72
430.38, 7.11, 306.11
430.00, 7.12, 306.54
429.55, 7.13, 307.04
429.02, 7.14, 307.64
428.47, 7.16, 308.27
427.87, 7.20, 308.94
427.44, 7.30, 309.43
429.09, 7.78, 307.56
429.09, 7.93, 307.56
429.09, 8.09, 307.56
421.36, 7.36, 316.29
432.57, 7.02, 303.76
432.40, 7.03, 303.95
432.23, 7.04, 304.16
432.04, 7.04, 304.38
431.83, 7.05, 304.62
431.61, 7.06, 304.88
431.37, 7.07, 305.15
431.11, 7.08, 305.46
430.82, 7.10, 305.79
430.48, 7.11, 306.18
430.10, 7.12, 306.62
¯429.67, 7.14, 307.12
429.15, 7.14, 307.73
429.32, 7.34, 307.53
428.01, 7.20, 309.06
427.57, 7.30, 309.56
429.19, 7.78, 307.67
429.19, 7.93, 307.67
429.19, 8.09, 307.67
421.47, 7.35, 316.64
432.63, 7.03, 303.81
432.47, 7.03, 304.00
432.30, 7.04, 304.21
432.11, 7.04, 304.44
431.90, 7.05, 304.68
431.69, 7.06, 304.94
431.45, 7.07, 305.22
431.19, 7.09, 305.53
430.91, 7.10, 305.87
430.58, 7.11, 306.26
430.21, 7.13, 306.70
429.79, 7.14, 307.21
429.28, 7.15, 307.81
429.42, 7.34, 307.64
429.28, 7.46, 307.81
429.28, 7.62, 307.81
429.30, 7.78, 307.78
429.30, 7.93, 307.78
429.30, 8.09, 307.78
429.27, 8.24, 307.81
429.27, 8.39, 307.81
432.69, 7.03, 303.86
432.54, 7.03, 304.06
432.37, 7.04, 304.26
432.18, 7.04, 304.49
431.98, 7.05, 304.74
431.77, 7.06, 305.00
431.54, 7.07, 305.28
431.28, 7.09, 305.59
431.00, 7.10, 305.94
430.68, 7.11, 306.33
430.31, 7.13, 306.78
429.90, 7.14, 307.29
429.41, 7.15, 307.89
429.52, 7.34, 307.75
428.27, 7.20, 309.29
427.84, 7.30, 309.82
427.27, 7.38, 310.52
425.71, 7.33, 312.44
423.60, 7.27, 315.03
421.31, 7.28, 317.84
432.76, 7.03, 303.91
¯432.60, 7.03, 304.11
432.44, 7.04, 304.32
432.25, 7.05, 304.55
432.06, 7.05, 304.80
431.85, 7.06, 305.06
431.62, 7.07, 305.35
431.37, 7.09, 305.66
431.10, 7.10, 306.01
430.78, 7.12, 306.41
430.42, 7.13, 306.86
430.02, 7.14, 307.37
429.54, 7.16, 307.97
429.02, 7.18, 308.64
428.41, 7.20, 309.40
427.98, 7.30, 309.94
427.42, 7.38, 310.66
425.86, 7.32, 312.63
423.68, 7.25, 315.39
421.02, 7.21, 318.75
433.04, 7.16, 303.67
432.67, 7.04, 304.15
432.51, 7.04, 304.37
432.33, 7.05, 304.60
432.13, 7.05, 304.85
431.93, 7.06, 305.12
431.70, 7.08, 305.41
431.46, 7.09, 305.73
431.19, 7.11, 306.08
430.88, 7.12, 306.48
430.53, 7.13, 306.94
430.13, 7.15, 307.46
429.68, 7.16, 308.05
429.15, 7.18, 308.73
428.55, 7.21, 309.52
428.13, 7.30, 310.06
427.57, 7.38, 310.79
426.04, 7.32, 312.78
423.76, 7.23, 315.75
433.11, 7.16, 303.71
432.74, 7.04, 304.20
432.58, 7.04, 304.42
432.40, 7.05, 304.65
432.21, 7.06, 304.91
432.01, 7.07, 305.18
431.79, 7.08, 305.47
431.55, 7.09, 305.79
431.29, 7.11, 306.14
430.99, 7.12, 306.55
430.64, 7.13, 307.01
430.25, 7.15, 307.54
429.80, 7.17, 308.13
¯430.39, 7.48, 307.35
430.40, 7.62, 307.33
430.39, 7.76, 307.34
430.39, 7.90, 307.34
430.39, 8.04, 307.34
430.39, 8.18, 307.34
430.39, 8.32, 307.34
430.39, 8.46, 307.34
430.38, 8.60, 307.34
430.38, 8.74, 307.34
430.38, 8.88, 307.34
430.36, 9.01, 307.37
433.17, 7.16, 303.75
433.03, 7.17, 303.94
432.65, 7.04, 304.47
432.48, 7.05, 304.70
432.29, 7.06, 304.96
432.09, 7.07, 305.24
431.88, 7.08, 305.53
431.64, 7.09, 305.85
431.39, 7.11, 306.21
431.09, 7.12, 306.62
430.75, 7.14, 307.09
430.37, 7.15, 307.61
430.55, 7.35, 307.36
430.59, 7.50, 307.31
430.59, 7.64, 307.31
430.59, 7.78, 307.31
430.59, 7.92, 307.31
430.58, 8.06, 307.30
430.58, 8.20, 307.30
430.58, 8.33, 307.30
430.58, 8.47, 307.30
430.58, 8.61, 307.30
430.58, 8.74, 307.30
430.58, 8.88, 307.30
430.57, 9.02, 307.32
430.52, 9.15, 307.39
433.23, 7.16, 303.79
433.09, 7.17, 303.99
432.72, 7.05, 304.52
432.55, 7.05, 304.75
432.37, 7.06, 305.01
432.17, 7.07, 305.29
431.97, 7.08, 305.59
431.74, 7.10, 305.92
431.48, 7.11, 306.27
431.19, 7.12, 306.69
430.86, 7.14, 307.16
430.58, 7.18, 307.56
430.70, 7.36, 307.39
¯430.73, 7.51, 307.35
430.73, 7.65, 307.34
430.73, 7.79, 307.34
430.73, 7.93, 307.34
430.72, 8.06, 307.34
430.72, 8.20, 307.34
430.72, 8.34, 307.34
430.72, 8.47, 307.34
430.72, 8.61, 307.34
430.72, 8.75, 307.34
430.72, 8.88, 307.34
430.71, 9.02, 307.35
430.67, 9.15, 307.41
430.54, 9.30, 307.59
433.29, 7.16, 303.84
433.16, 7.17, 304.03
433.02, 7.17, 304.24
432.63, 7.05, 304.80
432.45, 7.06, 305.07
432.26, 7.07, 305.35
432.05, 7.08, 305.65
431.83, 7.10, 305.98
431.58, 7.11, 306.34
431.30, 7.13, 306.75
430.97, 7.14, 307.23
430.69, 7.18, 307.65
430.81, 7.36, 307.47
430.84, 7.51, 307.43
430.84, 7.65, 307.42
430.84, 7.79, 307.42
430.84, 7.93, 307.42
430.84, 8.06, 307.42
430.84, 8.20, 307.42
430.83, 8.34, 307.42
430.83, 8.47, 307.42
430.83, 8.61, 307.42
430.83, 8.75, 307.42
430.83, 8.88, 307.42
430.82, 9.02, 307.43
430.78, 9.15, 307.49
430.66, 9.30, 307.66
433.35, 7.16, 303.88
433.23, 7.17, 304.07
433.09, 7.18, 304.28
432.71, 7.05, 304.85
432.53, 7.06, 305.12
432.34, 7.07, 305.40
432.14, 7.08, 305.71
431.92, 7.10, 306.04
431.68, 7.11, 306.40
431.40, 7.13, 306.82
¯431.09, 7.14, 307.30
430.73, 7.16, 307.84
430.88, 7.35, 307.60
430.92, 7.50, 307.55
430.92, 7.64, 307.54
430.92, 7.78, 307.54
430.92, 7.92, 307.54
430.92, 8.06, 307.54
430.92, 8.20, 307.54
430.92, 8.34, 307.54
430.92, 8.47, 307.54
430.92, 8.61, 307.54
430.92, 8.75, 307.54
430.92, 8.88, 307.53
430.91, 9.02, 307.55
430.86, 9.16, 307.62
433.42, 7.17, 303.92
433.29, 7.17, 304.11
433.16, 7.18, 304.32
433.01, 7.18, 304.55
432.61, 7.06, 305.17
432.43, 7.07, 305.46
432.23, 7.08, 305.76
432.02, 7.10, 306.09
431.78, 7.12, 306.46
431.51, 7.13, 306.88
431.20, 7.14, 307.36
430.85, 7.16, 307.91
430.45, 7.18, 308.53
430.95, 7.48, 307.76
430.95, 7.62, 307.74
430.96, 7.76, 307.74
430.96, 7.91, 307.74
430.96, 8.05, 307.74
430.96, 8.19, 307.73
430.96, 8.33, 307.73
430.96, 8.46, 307.73
430.96, 8.60, 307.73
430.96, 8.74, 307.73
430.96, 8.88, 307.73
430.94, 9.02, 307.75
433.48, 7.17, 303.95
433.36, 7.17, 304.15
433.23, 7.18, 304.36
433.08, 7.18, 304.59
432.70, 7.06, 305.21
432.51, 7.07, 305.51
432.32, 7.09, 305.82
432.11, 7.10, 306.15
431.88, 7.12, 306.52
431.62, 7.13, 306.94
¯431.31, 7.15, 307.43
430.97, 7.16, 307.98
430.58, 7.18, 308.61
430.11, 7.19, 309.36
429.56, 7.21, 310.25
429.08, 7.27, 311.01
428.46, 7.33, 312.00
427.41, 7.34, 313.70
424.23, 7.04, 318.79
433.55, 7.17, 303.99
433.43, 7.17, 304.19
433.30, 7.18, 304.40
433.16, 7.19, 304.64
433.00, 7.19, 304.89
432.60, 7.07, 305.56
432.41, 7.09, 305.87
432.21, 7.10, 306.21
431.98, 7.12, 306.58
431.72, 7.13, 307.01
431.43, 7.15, 307.50
431.09, 7.16, 308.05
430.71, 7.18, 308.68
430.25, 7.19, 309.44
429.71, 7.21, 310.34
429.21, 7.27, 311.16
428.60, 7.32, 312.18
427.61, 7.34, 313.81
424.36, 7.02, 319.20
433.61, 7.17, 304.03
433.49, 7.17, 304.23
433.37, 7.18, 304.44
433.23, 7.19, 304.68
433.08, 7.19, 304.93
432.69, 7.08, 305.61
432.50, 7.09, 305.92
432.30, 7.10, 306.26
432.08, 7.12, 306.64
431.83, 7.13, 307.07
431.55, 7.15, 307.56
431.22, 7.16, 308.12
430.84, 7.18, 308.76
430.39, 7.20, 309.52
429.87, 7.21, 310.42
429.57, 7.32, 310.93
428.73, 7.31, 312.36
427.80, 7.34, 313.95
424.50, 7.00, 319.60
433.68, 7.17, 304.06
433.56, 7.18, 304.26
433.44, 7.18, 304.48
433.31, 7.19, 304.72
¯433.16, 7.20, 304.97
433.00, 7.20, 305.25
432.60, 7.09, 305.97
432.40, 7.10, 306.32
432.18, 7.12, 306.70
431.94, 7.13, 307.13
431.66, 7.15, 307.62
431.34, 7.17, 308.18
430.98, 7.18, 308.83
430.54, 7.20, 309.60
430.02, 7.21, 310.51
429.98, 7.39, 310.58
428.87, 7.31, 312.54
427.96, 7.33, 314.16
424.64, 6.98, 320.01
429.79, 8.45, 310.91
429.86, 8.64, 310.78
429.86, 8.83, 310.79
433.74, 7.17, 304.10
433.63, 7.18, 304.30
433.51, 7.18, 304.52
433.38, 7.19, 304.76
433.24, 7.20, 305.02
433.09, 7.20, 305.30
432.69, 7.09, 306.02
432.50, 7.10, 306.37
432.29, 7.12, 306.75
432.05, 7.13, 307.19
431.78, 7.15, 307.68
431.47, 7.17, 308.24
431.11, 7.18, 308.90
430.68, 7.20, 309.68
430.18, 7.22, 310.59
430.13, 7.38, 310.68
430.01, 7.54, 310.90
428.12, 7.32, 314.35
424.81, 6.96, 320.38
429.94, 8.45, 311.01
433.81, 7.17, 304.13
433.70, 7.18, 304.34
433.58, 7.18, 304.56
433.46, 7.19, 304.80
433.32, 7.20, 305.06
433.17, 7.21, 305.34
433.01, 7.22, 305.65
432.60, 7.11, 306.42
432.39, 7.12, 306.81
432.16, 7.14, 307.25
431.89, 7.15, 307.75
431.60, 7.17, 308.31
431.24, 7.19, 308.97
¯430.83, 7.20, 309.75
430.34, 7.22, 310.67
430.28, 7.38, 310.78
430.16, 7.54, 311.01
428.29, 7.31, 314.53
425.04, 6.95, 320.66
430.10, 8.45, 311.12
433.88, 7.17, 304.17
433.77, 7.18, 304.37
433.66, 7.18, 304.59
433.53, 7.19, 304.83
433.40, 7.20, 305.10
433.25, 7.21, 305.38
433.09, 7.22, 305.69
432.70, 7.11, 306.47
432.49, 7.12, 306.86
432.27, 7.14, 307.31
432.01, 7.15, 307.81
431.72, 7.17, 308.37
431.38, 7.19, 309.04
430.97, 7.20, 309.83
430.50, 7.22, 310.75
430.43, 7.38, 310.88
429.34, 7.28, 313.02
428.48, 7.31, 314.68
425.28, 6.94, 320.94
430.25, 8.45, 311.22
430.32, 8.64, 311.09
430.31, 8.83, 311.10
433.94, 7.17, 304.20
433.84, 7.18, 304.40
433.73, 7.19, 304.63
433.61, 7.19, 304.87
433.48, 7.20, 305.13
433.34, 7.21, 305.42
433.18, 7.22, 305.73
433.01, 7.23, 306.07
432.60, 7.12, 306.92
432.38, 7.14, 307.36
432.13, 7.15, 307.87
431.85, 7.17, 308.43
431.52, 7.19, 309.10
431.12, 7.20, 309.90
430.66, 7.22, 310.83
430.11, 7.24, 311.93
429.49, 7.28, 313.18
428.68, 7.31, 314.83
425.52, 6.92, 321.21
434.01, 7.17, 304.23
433.91, 7.18, 304.44
433.80, 7.19, 304.66
¯433.69, 7.19, 304.91
433.56, 7.20, 305.17
433.42, 7.21, 305.46
433.27, 7.22, 305.77
433.11, 7.23, 306.12
432.70, 7.12, 306.97
432.49, 7.14, 307.42
432.25, 7.15, 307.92
431.97, 7.17, 308.49
431.65, 7.19, 309.17
431.27, 7.20, 309.96
430.82, 7.22, 310.90
430.29, 7.24, 312.01
429.66, 7.27, 313.34
428.87, 7.30, 314.98
425.77, 6.91, 321.47
434.08, 7.18, 304.26
433.98, 7.18, 304.47
433.88, 7.19, 304.69
433.77, 7.19, 304.94
433.64, 7.20, 305.21
433.51, 7.21, 305.50
433.36, 7.22, 305.81
433.21, 7.23, 306.16
433.03, 7.24, 306.54
432.60, 7.14, 307.47
432.36, 7.15, 307.98
432.10, 7.17, 308.55
431.79, 7.19, 309.23
431.42, 7.21, 310.03
430.99, 7.22, 310.97
430.47, 7.24, 312.09
429.85, 7.27, 313.44
429.07, 7.30, 315.12
426.28, 6.96, 321.18
434.15, 7.18, 304.29
434.05, 7.18, 304.50
433.95, 7.19, 304.73
433.84, 7.20, 304.97
433.72, 7.20, 305.24
433.60, 7.21, 305.53
433.46, 7.22, 305.85
433.30, 7.23, 306.20
433.13, 7.25, 306.58
432.94, 7.26, 307.01
432.48, 7.15, 308.04
432.23, 7.17, 308.61
431.93, 7.19, 309.29
431.57, 7.21, 310.09
431.15, 7.22, 311.04
430.65, 7.25, 312.17
¯430.04, 7.27, 313.53
429.27, 7.30, 315.26
426.72, 6.99, 321.01
434.22, 7.18, 304.32
434.13, 7.18, 304.53
434.03, 7.19, 304.76
433.92, 7.20, 305.01
433.81, 7.20, 305.27
433.68, 7.21, 305.57
433.55, 7.22, 305.88
433.40, 7.23, 306.23
433.23, 7.25, 306.62
433.05, 7.26, 307.06
432.60, 7.15, 308.09
432.36, 7.17, 308.67
432.07, 7.19, 309.34
431.72, 7.21, 310.16
431.31, 7.23, 311.11
430.83, 7.25, 312.24
430.24, 7.27, 313.61
429.48, 7.29, 315.40
427.10, 7.01, 320.96
434.29, 7.18, 304.34
434.20, 7.18, 304.56
434.10, 7.19, 304.79
434.00, 7.20, 305.04
433.89, 7.20, 305.31
433.77, 7.21, 305.60
433.64, 7.22, 305.92
433.49, 7.24, 306.27
433.33, 7.25, 306.66
433.15, 7.26, 307.10
432.95, 7.28, 307.59
432.49, 7.17, 308.73
432.21, 7.19, 309.40
431.87, 7.21, 310.22
431.48, 7.23, 311.17
431.01, 7.25, 312.31
430.45, 7.27, 313.69
429.68, 7.29, 315.54
427.48, 7.03, 320.90
434.36, 7.18, 304.37
434.27, 7.18, 304.58
434.18, 7.19, 304.82
434.08, 7.20, 305.07
433.97, 7.21, 305.34
433.86, 7.21, 305.63
433.73, 7.23, 305.95
433.59, 7.24, 306.31
433.44, 7.25, 306.70
433.26, 7.26, 307.14
¯433.07, 7.28, 307.63
432.62, 7.17, 308.78
432.35, 7.19, 309.45
432.02, 7.21, 310.27
431.64, 7.23, 311.24
431.19, 7.25, 312.38
430.65, 7.28, 313.76
429.91, 7.29, 315.62
427.90, 7.06, 320.72
434.43, 7.18, 304.40
434.34, 7.19, 304.61
434.26, 7.19, 304.84
434.16, 7.20, 305.10
434.06, 7.21, 305.37
433.94, 7.22, 305.66
433.82, 7.23, 305.99
433.69, 7.24, 306.34
433.54, 7.25, 306.74
433.37, 7.26, 307.18
433.18, 7.28, 307.67
432.97, 7.29, 308.23
432.49, 7.20, 309.51
432.18, 7.21, 310.33
431.81, 7.23, 311.30
431.38, 7.25, 312.45
430.85, 7.28, 313.83
430.14, 7.29, 315.70
428.39, 7.11, 320.33
434.50, 7.18, 304.42
434.42, 7.19, 304.64
434.33, 7.19, 304.87
434.24, 7.20, 305.12
434.14, 7.21, 305.40
434.03, 7.22, 305.70
433.92, 7.23, 306.02
433.79, 7.24, 306.37
433.64, 7.25, 306.77
433.48, 7.26, 307.21
433.30, 7.28, 307.71
433.10, 7.30, 308.27
432.86, 7.31, 308.92
432.33, 7.21, 310.38
431.98, 7.23, 311.36
431.56, 7.25, 312.51
431.05, 7.28, 313.91
430.38, 7.29, 315.77
428.90, 7.16, 319.84
434.57, 7.18, 304.44
434.49, 7.19, 304.66
434.41, 7.19, 304.90
434.32, 7.20, 305.15
¯434.23, 7.21, 305.43
434.12, 7.22, 305.72
434.01, 7.23, 306.05
433.88, 7.24, 306.41
433.75, 7.25, 306.81
433.59, 7.27, 307.25
433.42, 7.28, 307.75
433.22, 7.30, 308.32
433.00, 7.31, 308.96
432.49, 7.21, 310.44
432.15, 7.23, 311.41
431.74, 7.25, 312.57
431.26, 7.28, 313.97
430.61, 7.30, 315.84
429.34, 7.20, 319.49
434.64, 7.18, 304.47
434.56, 7.19, 304.69
434.49, 7.19, 304.92
434.40, 7.20, 305.18
434.31, 7.21, 305.45
434.21, 7.22, 305.75
434.10, 7.23, 306.08
433.98, 7.24, 306.44
433.85, 7.25, 306.84
433.70, 7.27, 307.29
433.54, 7.28, 307.79
433.35, 7.30, 308.36
433.13, 7.32, 309.00
432.88, 7.34, 309.75
432.32, 7.23, 311.47
431.93, 7.25, 312.63
431.46, 7.28, 314.04
430.84, 7.30, 315.90
429.74, 7.24, 319.24
434.71, 7.18, 304.49
434.64, 7.19, 304.71
434.56, 7.19, 304.94
434.48, 7.20, 305.20
434.39, 7.21, 305.48
434.30, 7.22, 305.78
434.20, 7.23, 306.11
434.08, 7.24, 306.47
433.95, 7.25, 306.87
433.81, 7.27, 307.32
433.65, 7.28, 307.82
433.47, 7.30, 308.39
433.27, 7.32, 309.04
433.03, 7.34, 309.80
432.49, 7.23, 311.52
432.12, 7.25, 312.69
431.67, 7.28, 314.10
¯431.08, 7.30, 315.96
430.06, 7.25, 319.20
434.78, 7.18, 304.51
434.71, 7.19, 304.73
434.64, 7.20, 304.97
434.56, 7.20, 305.22
434.48, 7.21, 305.50
434.39, 7.22, 305.80
434.29, 7.23, 306.13
434.18, 7.24, 306.50
434.06, 7.25, 306.90
433.92, 7.27, 307.35
433.77, 7.28, 307.86
433.60, 7.30, 308.43
433.40, 7.32, 309.08
433.17, 7.34, 309.84
432.90, 7.36, 310.75
432.30, 7.26, 312.74
431.88, 7.28, 314.16
431.31, 7.30, 316.03
430.37, 7.26, 319.16
434.85, 7.18, 304.53
434.79, 7.19, 304.75
434.72, 7.20, 304.99
434.65, 7.20, 305.25
434.57, 7.21, 305.53
434.48, 7.22, 305.83
434.39, 7.23, 306.16
434.28, 7.24, 306.52
434.17, 7.26, 306.93
434.04, 7.27, 307.38
433.89, 7.28, 307.89
433.73, 7.30, 308.46
433.54, 7.32, 309.12
433.32, 7.34, 309.89
433.06, 7.36, 310.80
432.49, 7.26, 312.79
432.08, 7.28, 314.21
431.55, 7.30, 316.09
430.68, 7.27, 319.14
434.92, 7.18, 304.55
434.86, 7.19, 304.77
434.80, 7.20, 305.01
434.73, 7.20, 305.27
434.65, 7.21, 305.55
434.57, 7.22, 305.85
434.48, 7.23, 306.18
434.38, 7.24, 306.55
434.27, 7.26, 306.96
434.15, 7.27, 307.41
434.01, 7.28, 307.92
¯433.85, 7.30, 308.50
433.68, 7.32, 309.15
433.47, 7.34, 309.93
433.22, 7.36, 310.84
432.92, 7.38, 311.94
432.29, 7.28, 314.27
431.78, 7.30, 316.16
430.98, 7.28, 319.13
434.99, 7.18, 304.57
434.94, 7.19, 304.79
434.88, 7.20, 305.03
434.81, 7.20, 305.29
434.74, 7.21, 305.57
434.66, 7.22, 305.87
434.58, 7.23, 306.20
434.48, 7.24, 306.58
434.38, 7.26, 306.98
434.26, 7.27, 307.44
434.13, 7.28, 307.95
433.98, 7.30, 308.53
433.81, 7.32, 309.19
433.61, 7.34, 309.96
433.38, 7.36, 310.88
433.10, 7.38, 311.98
432.76, 7.40, 313.32
432.01, 7.30, 316.22
431.27, 7.29, 319.12
435.07, 7.18, 304.58
435.01, 7.19, 304.81
434.96, 7.20, 305.05
434.89, 7.20, 305.31
434.82, 7.21, 305.59
434.75, 7.22, 305.89
434.67, 7.23, 306.23
434.58, 7.24, 306.60
434.48, 7.26, 307.01
434.37, 7.27, 307.46
434.25, 7.29, 307.98
434.11, 7.30, 308.56
433.95, 7.32, 309.22
433.76, 7.34, 310.00
433.54, 7.36, 310.92
433.27, 7.38, 312.03
432.95, 7.41, 313.37
432.25, 7.31, 316.28
431.57, 7.30, 319.10
435.14, 7.18, 304.60
435.09, 7.19, 304.82
435.03, 7.20, 305.06
434.98, 7.21, 305.33
434.91, 7.21, 305.61
¯434.84, 7.22, 305.91
434.77, 7.23, 306.25
434.68, 7.25, 306.62
434.59, 7.26, 307.03
434.49, 7.27, 307.49
434.37, 7.29, 308.00
434.24, 7.30, 308.59
434.09, 7.32, 309.25
433.91, 7.34, 310.03
433.70, 7.36, 310.96
433.45, 7.38, 312.06
433.15, 7.41, 313.41
432.76, 7.43, 315.12
431.85, 7.30, 319.15
435.21, 7.19, 304.61
435.16, 7.19, 304.84
435.11, 7.20, 305.08
435.06, 7.21, 305.34
435.00, 7.21, 305.63
434.93, 7.22, 305.93
434.86, 7.24, 306.27
434.78, 7.25, 306.64
434.70, 7.26, 307.05
434.60, 7.27, 307.51
434.49, 7.29, 308.03
434.37, 7.30, 308.61
434.23, 7.32, 309.28
434.06, 7.34, 310.07
433.86, 7.36, 310.99
433.63, 7.38, 312.10
433.34, 7.41, 313.45
432.98, 7.43, 315.17
432.12, 7.30, 319.22
435.29, 7.19, 304.63
435.24, 7.19, 304.85
435.19, 7.20, 305.10
435.14, 7.21, 305.36
435.09, 7.21, 305.64
435.03, 7.23, 305.95
434.96, 7.24, 306.29
434.88, 7.25, 306.66
434.80, 7.26, 307.07
434.71, 7.27, 307.53
434.61, 7.29, 308.05
434.50, 7.30, 308.64
434.36, 7.32, 309.30
434.21, 7.34, 310.10
434.03, 7.36, 311.02
433.81, 7.38, 312.13
433.54, 7.41, 313.49
433.20, 7.43, 315.23
¯432.72, 7.44, 317.64
435.36, 7.19, 304.64
435.32, 7.19, 304.87
435.27, 7.20, 305.11
435.22, 7.21, 305.37
435.17, 7.22, 305.66
435.12, 7.23, 305.97
435.05, 7.24, 306.30
434.99, 7.25, 306.68
434.91, 7.26, 307.09
434.83, 7.27, 307.56
434.73, 7.29, 308.07
434.62, 7.30, 308.66
434.50, 7.32, 309.33
434.36, 7.34, 310.13
434.19, 7.36, 311.05
433.98, 7.38, 312.17
433.74, 7.41, 313.53
433.42, 7.43, 315.27
432.97, 7.44, 317.70
432.25, 7.41, 321.65
435.43, 7.19, 304.65
435.39, 7.19, 304.88
435.35, 7.20, 305.12
435.31, 7.21, 305.39
435.26, 7.22, 305.67
435.21, 7.23, 305.98
435.15, 7.24, 306.32
435.09, 7.25, 306.70
435.02, 7.26, 307.11
434.94, 7.27, 307.57
434.85, 7.29, 308.09
434.75, 7.30, 308.68
434.64, 7.32, 309.35
434.51, 7.34, 310.15
434.35, 7.36, 311.08
434.16, 7.38, 312.19
433.93, 7.41, 313.56
433.64, 7.43, 315.32
433.23, 7.44, 317.75
432.56, 7.41, 321.72
435.50, 7.19, 304.67
435.47, 7.19, 304.89
435.43, 7.20, 305.14
435.39, 7.21, 305.40
435.35, 7.22, 305.69
435.30, 7.23, 305.99
435.25, 7.24, 306.33
435.19, 7.25, 306.71
435.13, 7.26, 307.13
435.05, 7.27, 307.59
¯434.97, 7.29, 308.11
434.88, 7.30, 308.70
434.78, 7.32, 309.38
434.66, 7.34, 310.18
434.51, 7.36, 311.10
434.34, 7.38, 312.22
434.13, 7.41, 313.60
433.86, 7.43, 315.36
433.49, 7.44, 317.79
432.87, 7.41, 321.78
435.58, 7.19, 304.68
435.55, 7.19, 304.90
435.51, 7.20, 305.15
435.48, 7.21, 305.41
435.44, 7.22, 305.70
435.39, 7.23, 306.01
435.34, 7.24, 306.35
435.29, 7.25, 306.73
435.23, 7.26, 307.14
435.17, 7.27, 307.61
435.10, 7.29, 308.13
435.01, 7.31, 308.72
434.92, 7.32, 309.40
434.81, 7.34, 310.20
434.68, 7.36, 311.13
434.52, 7.38, 312.25
434.33, 7.41, 313.63
434.08, 7.43, 315.40
433.74, 7.44, 317.83
433.18, 7.41, 321.84
435.65, 7.19, 304.68
435.62, 7.19, 304.91
435.59, 7.20, 305.16
435.56, 7.21, 305.42
435.52, 7.22, 305.71
435.48, 7.23, 306.02
435.44, 7.24, 306.36
435.39, 7.25, 306.74
435.34, 7.26, 307.16
435.28, 7.27, 307.62
435.22, 7.29, 308.14
435.14, 7.31, 308.74
435.06, 7.32, 309.42
434.96, 7.34, 310.22
434.84, 7.36, 311.15
434.70, 7.38, 312.27
434.53, 7.41, 313.66
434.30, 7.43, 315.44
434.00, 7.44, 317.87
433.49, 7.41, 321.90
435.73, 7.19, 304.69
¯435.70, 7.19, 304.92
435.67, 7.20, 305.17
435.64, 7.21, 305.43
435.61, 7.22, 305.72
435.58, 7.23, 306.03
435.54, 7.24, 306.37
435.50, 7.25, 306.75
435.45, 7.26, 307.17
435.40, 7.27, 307.64
435.34, 7.29, 308.16
435.27, 7.31, 308.75
435.20, 7.32, 309.43
435.11, 7.34, 310.24
435.01, 7.36, 311.17
434.88, 7.38, 312.29
434.73, 7.41, 313.69
434.53, 7.43, 315.47
434.26, 7.44, 317.90
433.81, 7.41, 321.95
435.80, 7.19, 304.70
435.78, 7.19, 304.93
435.75, 7.20, 305.17
435.73, 7.21, 305.44
435.70, 7.22, 305.73
435.67, 7.23, 306.04
435.64, 7.24, 306.38
435.60, 7.25, 306.76
435.56, 7.26, 307.18
435.51, 7.27, 307.65
435.46, 7.29, 308.17
435.40, 7.31, 308.76
435.34, 7.32, 309.45
435.26, 7.34, 310.25
435.17, 7.36, 311.19
435.06, 7.39, 312.30
434.92, 7.41, 313.71
434.75, 7.43, 315.49
434.51, 7.44, 317.93
434.12, 7.41, 321.99
435.87, 7.19, 304.71
435.85, 7.19, 304.93
435.83, 7.20, 305.18
435.81, 7.21, 305.45
435.79, 7.22, 305.73
435.76, 7.23, 306.04
435.73, 7.24, 306.39
435.70, 7.25, 306.77
435.67, 7.26, 307.19
435.63, 7.27, 307.66
435.58, 7.29, 308.18
435.54, 7.31, 308.78
¯435.48, 7.32, 309.46
435.41, 7.34, 310.26
435.33, 7.36, 311.20
435.24, 7.39, 312.32
435.12, 7.41, 313.73
434.98, 7.43, 315.51
434.77, 7.44, 317.95
434.44, 7.41, 322.02
435.95, 7.19, 304.71
435.93, 7.19, 304.94
435.91, 7.20, 305.19
435.90, 7.21, 305.45
435.88, 7.22, 305.74
435.85, 7.23, 306.05
435.83, 7.24, 306.40
435.80, 7.25, 306.78
435.78, 7.26, 307.20
435.74, 7.27, 307.67
435.71, 7.29, 308.19
435.67, 7.31, 308.79
435.62, 7.32, 309.47
435.56, 7.34, 310.27
435.50, 7.36, 311.21
435.42, 7.39, 312.33
435.32, 7.41, 313.75
435.20, 7.43, 315.53
435.03, 7.44, 317.98
434.75, 7.41, 322.05
436.02, 7.19, 304.72
436.01, 7.19, 304.94
436.00, 7.20, 305.19
435.98, 7.21, 305.46
435.96, 7.22, 305.74
435.95, 7.23, 306.06
435.93, 7.24, 306.40
435.91, 7.25, 306.78
435.88, 7.26, 307.20
435.86, 7.27, 307.67
435.83, 7.29, 308.20
435.80, 7.31, 308.79
435.76, 7.32, 309.48
435.72, 7.34, 310.28
435.66, 7.36, 311.22
435.60, 7.39, 312.34
435.52, 7.41, 313.76
435.43, 7.43, 315.55
435.29, 7.44, 317.99
435.07, 7.41, 322.08
436.10, 7.19, 304.72
436.09, 7.19, 304.95
436.08, 7.20, 305.19
¯436.06, 7.21, 305.46
436.05, 7.22, 305.75
436.04, 7.23, 306.06
436.03, 7.24, 306.41
436.01, 7.25, 306.79
435.99, 7.26, 307.21
435.97, 7.27, 307.68
435.95, 7.29, 308.20
435.93, 7.31, 308.80
435.90, 7.32, 309.49
435.87, 7.34, 310.29
435.83, 7.36, 311.23
435.78, 7.39, 312.35
435.72, 7.41, 313.77
435.65, 7.43, 315.56
435.55, 7.44, 318.00
435.38, 7.41, 322.09
436.17, 7.19, 304.72
436.16, 7.19, 304.95
436.16, 7.20, 305.20
436.15, 7.21, 305.46
436.14, 7.22, 305.75
436.13, 7.23, 306.06
436.12, 7.24, 306.41
436.11, 7.25, 306.79
436.10, 7.26, 307.21
436.09, 7.27, 307.68
436.08, 7.29, 308.21
436.06, 7.31, 308.81
436.04, 7.32, 309.50
436.02, 7.34, 310.30
435.99, 7.36, 311.23
435.96, 7.39, 312.36
435.92, 7.41, 313.78
435.88, 7.43, 315.57
435.81, 7.44, 318.01
435.70, 7.41, 322.10
435.89, 8.36, 315.10
436.24, 7.19, 304.72
436.24, 7.19, 304.95
436.24, 7.20, 305.20
436.23, 7.21, 305.47
436.23, 7.22, 305.75
436.23, 7.23, 306.07
436.22, 7.24, 306.41
436.22, 7.25, 306.79
436.21, 7.26, 307.21
436.20, 7.27, 307.68
436.20, 7.29, 308.21
436.19, 7.31, 308.81
436.18, 7.32, 309.50
¯436.17, 7.34, 310.30
436.16, 7.36, 311.23
436.14, 7.39, 312.36
436.13, 7.41, 313.79
436.10, 7.43, 315.58
436.07, 7.44, 318.02
436.12, 7.97, 314.34
436.12, 8.18, 314.36
436.12, 8.39, 314.38
436.12, 8.60, 314.43
436.12, 8.81, 314.52
436.12, 9.02, 314.62
436.11, 9.23, 314.72
436.11, 9.45, 314.82
436.11, 9.67, 314.93
436.32, 7.19, 304.72
436.32, 7.19, 304.95
436.32, 7.20, 305.20
436.32, 7.21, 305.47
436.32, 7.22, 305.75
436.32, 7.23, 306.07
436.32, 7.24, 306.41
436.32, 7.25, 306.79
436.32, 7.26, 307.21
436.32, 7.27, 307.69
436.32, 7.29, 308.21
436.32, 7.31, 308.81
436.32, 7.32, 309.50
436.32, 7.34, 310.30
436.32, 7.36, 311.23
436.32, 7.39, 312.36
436.33, 7.40, 313.79
436.33, 7.43, 315.58
436.33, 7.44, 318.02
436.33, 8.01, 313.82
436.33, 8.21, 313.84
436.33, 8.41, 313.86
436.33, 8.62, 313.89
436.33, 8.82, 313.91
436.33, 9.02, 313.98
436.33, 9.22, 314.07
436.33, 9.43, 314.17
436.33, 9.64, 314.26
436.39, 7.19, 304.72
436.40, 7.19, 304.95
436.40, 7.20, 305.20
436.40, 7.21, 305.46
436.41, 7.22, 305.75
436.41, 7.23, 306.07
436.42, 7.24, 306.41
436.42, 7.25, 306.79
¯436.43, 7.26, 307.21
436.44, 7.27, 307.68
436.44, 7.29, 308.21
436.45, 7.31, 308.81
436.46, 7.32, 309.50
436.47, 7.34, 310.30
436.49, 7.36, 311.23
436.51, 7.39, 312.36
436.53, 7.40, 313.79
436.55, 7.43, 315.58
436.59, 7.44, 318.01
436.52, 8.05, 313.33
436.52, 8.24, 313.35
436.52, 8.44, 313.38
436.52, 8.63, 313.40
436.52, 8.83, 313.43
436.52, 9.02, 313.51
436.53, 9.22, 313.59
436.53, 9.42, 313.67
436.53, 9.62, 313.75
436.47, 7.19, 304.72
436.47, 7.19, 304.95
436.48, 7.20, 305.20
436.49, 7.21, 305.46
436.50, 7.22, 305.75
436.50, 7.23, 306.06
436.51, 7.24, 306.41
436.53, 7.25, 306.79
436.54, 7.26, 307.21
436.55, 7.27, 307.68
436.57, 7.29, 308.21
436.58, 7.31, 308.81
436.60, 7.32, 309.50
436.63, 7.34, 310.30
436.65, 7.36, 311.23
436.69, 7.39, 312.36
436.73, 7.40, 313.79
436.78, 7.43, 315.58
436.70, 7.89, 312.89
436.70, 8.10, 312.65
436.70, 8.28, 312.68
436.70, 8.46, 312.71
436.70, 8.65, 312.81
436.70, 8.84, 312.65
436.70, 9.02, 312.67
436.70, 9.21, 312.70
436.70, 9.40, 312.86
436.72, 9.60, 313.29
436.54, 7.19, 304.72
436.55, 7.19, 304.95
436.56, 7.20, 305.19
¯436.57, 7.21, 305.46
436.58, 7.22, 305.75
436.60, 7.23, 306.06
436.61, 7.24, 306.41
436.63, 7.25, 306.79
436.65, 7.26, 307.21
436.67, 7.27, 307.68
436.69, 7.29, 308.21
436.72, 7.30, 308.80
436.74, 7.32, 309.50
436.78, 7.34, 310.29
436.82, 7.36, 311.22
436.87, 7.39, 312.35
436.93, 7.40, 313.79
437.01, 7.43, 315.58
436.86, 7.95, 312.22
436.86, 8.13, 312.24
436.86, 8.30, 312.26
436.87, 8.48, 312.29
436.87, 8.66, 312.46
436.86, 8.84, 312.23
436.86, 9.02, 312.26
436.87, 9.20, 312.28
436.87, 9.39, 312.31
436.87, 9.57, 312.33
436.61, 7.19, 304.71
436.63, 7.19, 304.94
436.64, 7.20, 305.19
436.66, 7.21, 305.46
436.67, 7.22, 305.74
436.69, 7.23, 306.06
436.71, 7.24, 306.40
436.73, 7.25, 306.78
436.76, 7.26, 307.20
436.78, 7.27, 307.67
436.81, 7.29, 308.20
436.85, 7.30, 308.80
436.89, 7.32, 309.49
436.93, 7.34, 310.29
436.98, 7.36, 311.21
437.05, 7.38, 312.34
437.13, 7.40, 313.78
437.23, 7.43, 315.57
437.02, 7.98, 311.83
437.02, 8.15, 311.85
437.02, 8.33, 311.87
437.02, 8.50, 311.90
437.04, 8.67, 312.13
437.02, 8.85, 311.84
437.02, 9.03, 311.86
437.02, 9.20, 311.89
¯437.03, 9.38, 311.91
437.03, 9.55, 311.93
436.69, 7.19, 304.71
436.70, 7.19, 304.94
436.72, 7.20, 305.18
436.74, 7.21, 305.45
436.76, 7.22, 305.74
436.78, 7.23, 306.05
436.81, 7.24, 306.40
436.83, 7.25, 306.78
436.86, 7.26, 307.20
436.90, 7.27, 307.67
436.93, 7.29, 308.19
436.98, 7.30, 308.79
437.03, 7.32, 309.49
437.08, 7.34, 310.28
437.15, 7.36, 311.20
437.23, 7.38, 312.33
437.33, 7.40, 313.77
437.20, 7.80, 311.89
437.17, 8.01, 311.46
437.17, 8.18, 311.48
437.17, 8.35, 311.51
437.17, 8.52, 311.53
437.19, 8.68, 311.78
437.17, 8.86, 311.47
437.17, 9.03, 311.49
437.17, 9.20, 311.51
437.17, 9.37, 311.54
437.18, 9.54, 311.56
436.76, 7.19, 304.70
436.78, 7.19, 304.93
436.80, 7.20, 305.18
436.82, 7.21, 305.44
436.85, 7.22, 305.73
436.88, 7.23, 306.04
436.91, 7.24, 306.39
436.94, 7.25, 306.77
436.97, 7.26, 307.19
437.01, 7.27, 307.66
437.06, 7.29, 308.19
437.11, 7.30, 308.78
437.17, 7.32, 309.48
437.23, 7.34, 310.27
437.31, 7.36, 311.19
437.41, 7.38, 312.32
437.53, 7.40, 313.76
437.33, 7.85, 311.35
437.33, 8.02, 311.32
437.33, 8.19, 311.34
437.33, 8.36, 311.34
¯437.33, 8.52, 311.33
437.34, 8.69, 311.44
437.31, 8.86, 311.12
437.31, 9.03, 311.14
437.31, 9.19, 311.16
437.32, 9.36, 311.18
437.32, 9.52, 311.20
436.84, 7.19, 304.70
436.86, 7.19, 304.93
436.88, 7.20, 305.17
436.91, 7.21, 305.44
436.94, 7.22, 305.72
436.97, 7.23, 306.04
437.00, 7.24, 306.38
437.04, 7.25, 306.76
437.08, 7.26, 307.18
437.13, 7.27, 307.65
437.18, 7.29, 308.18
437.24, 7.30, 308.77
437.31, 7.32, 309.47
437.39, 7.34, 310.26
437.48, 7.36, 311.18
437.59, 7.38, 312.30
437.73, 7.40, 313.74
437.46, 7.89, 310.98
437.46, 8.05, 310.99
437.46, 8.21, 311.01
437.46, 8.38, 310.99
437.46, 8.54, 311.01
437.47, 8.70, 311.12
437.44, 8.87, 310.79
437.44, 9.03, 310.81
437.45, 9.19, 310.83
437.45, 9.35, 310.85
437.45, 9.51, 310.87
436.91, 7.19, 304.69
436.94, 7.19, 304.92
436.96, 7.20, 305.16
436.99, 7.21, 305.43
437.03, 7.22, 305.72
437.06, 7.23, 306.03
437.10, 7.24, 306.37
437.14, 7.25, 306.75
437.19, 7.26, 307.17
437.24, 7.27, 307.64
437.30, 7.29, 308.17
437.37, 7.30, 308.76
437.45, 7.32, 309.45
437.54, 7.34, 310.24
437.64, 7.36, 311.16
437.77, 7.38, 312.28
¯437.93, 7.40, 313.72
437.59, 7.92, 310.66
437.59, 8.07, 310.68
437.59, 8.24, 310.65
437.59, 8.39, 310.67
437.59, 8.55, 310.69
437.57, 8.72, 310.46
437.57, 8.87, 310.48
437.57, 9.03, 310.50
437.57, 9.18, 310.52
437.57, 9.34, 310.54
437.58, 9.50, 310.55
436.98, 7.19, 304.68
437.01, 7.19, 304.91
437.04, 7.20, 305.15
437.08, 7.21, 305.42
437.11, 7.22, 305.71
437.15, 7.23, 306.02
437.20, 7.24, 306.36
437.25, 7.25, 306.74
437.30, 7.26, 307.16
437.36, 7.27, 307.63
437.42, 7.29, 308.15
437.50, 7.30, 308.75
437.59, 7.32, 309.44
437.69, 7.34, 310.23
437.81, 7.36, 311.14
437.95, 7.38, 312.26
437.73, 7.76, 310.56
437.71, 7.94, 310.36
437.71, 8.10, 310.38
437.71, 8.26, 310.35
437.71, 8.41, 310.37
437.71, 8.56, 310.39
437.68, 8.73, 310.17
437.69, 8.88, 310.18
437.69, 9.03, 310.20
437.69, 9.18, 310.22
437.69, 9.33, 310.24
437.70, 9.49, 310.25
437.06, 7.19, 304.67
437.09, 7.19, 304.90
437.12, 7.20, 305.14
437.16, 7.21, 305.41
437.20, 7.22, 305.69
437.25, 7.23, 306.01
437.29, 7.24, 306.35
437.35, 7.25, 306.73
437.41, 7.26, 307.15
437.47, 7.27, 307.61
437.55, 7.29, 308.14
¯437.63, 7.30, 308.73
437.73, 7.32, 309.42
437.84, 7.34, 310.21
437.97, 7.36, 311.12
438.13, 7.38, 312.24
437.83, 7.81, 310.13
437.82, 7.97, 310.08
437.83, 8.12, 310.09
437.82, 8.27, 310.07
437.82, 8.42, 310.09
437.83, 8.58, 310.10
437.80, 8.73, 309.89
437.80, 8.88, 309.90
437.80, 9.03, 309.92
437.81, 9.18, 309.93
437.81, 9.33, 309.95
437.81, 9.48, 309.97
437.13, 7.19, 304.66
437.17, 7.19, 304.89
437.20, 7.20, 305.13
437.24, 7.21, 305.40
437.29, 7.22, 305.68
437.34, 7.23, 305.99
437.39, 7.23, 306.34
437.45, 7.25, 306.71
437.51, 7.26, 307.13
437.59, 7.27, 307.60
437.67, 7.28, 308.12
437.76, 7.30, 308.71
437.87, 7.32, 309.41
437.99, 7.34, 310.19
438.13, 7.36, 311.10
438.45, 7.26, 313.16
437.93, 7.85, 309.80
437.93, 8.00, 309.81
437.94, 8.14, 309.82
437.93, 8.29, 309.80
437.94, 8.44, 309.81
437.94, 8.59, 309.83
437.91, 8.74, 309.62
437.91, 8.89, 309.63
437.91, 9.03, 309.65
437.91, 9.17, 309.66
437.92, 9.32, 309.68
437.92, 9.47, 309.69
437.20, 7.19, 304.65
437.24, 7.19, 304.88
437.28, 7.20, 305.12
437.33, 7.21, 305.38
437.38, 7.22, 305.67
437.43, 7.22, 305.98
¯437.49, 7.23, 306.32
437.55, 7.24, 306.70
437.62, 7.26, 307.12
437.70, 7.27, 307.58
437.79, 7.28, 308.10
437.89, 7.30, 308.69
438.01, 7.32, 309.39
438.14, 7.33, 310.17
438.43, 7.24, 311.89
438.65, 7.26, 313.13
438.04, 7.88, 309.54
438.04, 8.02, 309.55
438.04, 8.16, 309.57
438.04, 8.31, 309.54
438.04, 8.45, 309.55
438.04, 8.60, 309.57
438.01, 8.75, 309.36
438.01, 8.89, 309.38
438.01, 9.03, 309.39
438.02, 9.17, 309.41
438.02, 9.31, 309.42
438.02, 9.46, 309.44
437.28, 7.19, 304.64
437.32, 7.19, 304.86
437.36, 7.20, 305.11
437.41, 7.21, 305.37
437.46, 7.21, 305.65
437.52, 7.22, 305.96
437.58, 7.23, 306.31
437.65, 7.24, 306.68
437.73, 7.26, 307.10
437.82, 7.27, 307.56
437.91, 7.28, 308.08
438.02, 7.30, 308.67
438.15, 7.31, 309.36
438.43, 7.22, 310.88
438.61, 7.24, 311.86
438.17, 7.73, 309.49
438.14, 7.90, 309.29
438.14, 8.04, 309.30
438.13, 8.19, 309.28
438.14, 8.33, 309.29
438.14, 8.47, 309.30
438.14, 8.61, 309.32
438.11, 8.75, 309.12
438.11, 8.89, 309.13
438.11, 9.03, 309.15
438.12, 9.17, 309.16
438.12, 9.31, 309.17
438.12, 9.45, 309.19
437.35, 7.19, 304.62
¯437.39, 7.19, 304.85
437.44, 7.20, 305.09
437.49, 7.21, 305.35
437.55, 7.21, 305.64
437.61, 7.22, 305.95
437.68, 7.23, 306.29
437.76, 7.24, 306.66
437.84, 7.26, 307.08
437.93, 7.27, 307.54
438.03, 7.28, 308.06
438.15, 7.30, 308.65
438.43, 7.19, 310.03
438.59, 7.21, 310.86
438.78, 7.24, 311.83
438.25, 7.77, 309.14
438.23, 7.92, 309.06
438.24, 8.06, 309.07
438.23, 8.20, 309.04
438.23, 8.34, 309.05
438.24, 8.48, 309.07
438.24, 8.62, 309.08
438.20, 8.76, 308.88
438.20, 8.90, 308.90
438.21, 9.03, 308.91
438.21, 9.17, 308.92
438.21, 9.30, 308.94
438.22, 9.44, 308.95
437.42, 7.19, 304.61
437.47, 7.19, 304.83
437.52, 7.20, 305.08
437.58, 7.21, 305.34
437.64, 7.21, 305.62
437.70, 7.22, 305.93
437.78, 7.23, 306.27
437.86, 7.24, 306.64
437.95, 7.25, 307.06
438.04, 7.27, 307.52
438.15, 7.28, 308.04
438.42, 7.17, 309.28
438.58, 7.19, 310.01
438.75, 7.21, 310.84
438.96, 7.24, 311.80
438.32, 7.81, 308.82
438.33, 7.95, 308.83
438.33, 8.08, 308.84
438.32, 8.22, 308.81
438.33, 8.36, 308.83
438.33, 8.49, 308.84
438.33, 8.63, 308.85
438.29, 8.77, 308.66
438.29, 8.90, 308.67
¯438.30, 9.03, 308.68
438.30, 9.16, 308.70
438.30, 9.30, 308.71
438.31, 9.43, 308.72
437.49, 7.18, 304.59
437.55, 7.19, 304.82
437.60, 7.20, 305.06
437.66, 7.21, 305.32
437.72, 7.21, 305.60
437.80, 7.22, 305.91
437.87, 7.23, 306.25
437.96, 7.24, 306.62
438.05, 7.25, 307.04
438.16, 7.27, 307.50
438.28, 7.28, 308.02
438.56, 7.17, 309.25
438.73, 7.19, 309.99
438.91, 7.21, 310.82
439.13, 7.23, 311.78
438.41, 7.84, 308.60
438.41, 7.97, 308.61
438.42, 8.10, 308.63
438.41, 8.24, 308.60
438.41, 8.37, 308.61
438.42, 8.50, 308.62
438.48, 8.62, 308.88
438.38, 8.77, 308.44
438.38, 8.90, 308.46
438.38, 9.03, 308.47
438.39, 9.16, 308.48
438.39, 9.29, 308.49
438.39, 9.42, 308.50
437.57, 7.18, 304.58
437.62, 7.19, 304.80
437.68, 7.20, 305.04
437.74, 7.20, 305.30
437.81, 7.21, 305.58
437.89, 7.22, 305.89
437.97, 7.23, 306.23
438.06, 7.24, 306.60
438.16, 7.25, 307.01
438.27, 7.27, 307.47
438.54, 7.16, 308.57
438.69, 7.17, 309.22
438.87, 7.19, 309.96
439.08, 7.21, 310.79
439.31, 7.23, 311.75
438.50, 7.86, 308.39
438.50, 7.99, 308.40
438.51, 8.12, 308.43
438.51, 8.25, 308.44
¯438.51, 8.38, 308.44
438.51, 8.51, 308.43
438.46, 8.65, 308.23
438.46, 8.78, 308.24
438.46, 8.90, 308.25
438.47, 9.03, 308.26
438.47, 9.16, 308.27
438.47, 9.29, 308.28
438.48, 9.42, 308.30
437.64, 7.18, 304.56
437.70, 7.19, 304.78
437.76, 7.20, 305.02
437.82, 7.20, 305.28
437.90, 7.21, 305.56
437.98, 7.22, 305.87
438.06, 7.23, 306.21
438.16, 7.24, 306.58
438.27, 7.25, 306.99
438.52, 7.14, 307.99
438.67, 7.16, 308.54
438.83, 7.17, 309.19
439.02, 7.18, 309.93
439.24, 7.20, 310.76
438.61, 7.74, 308.31
438.58, 7.88, 308.19
438.58, 8.01, 308.20
438.59, 8.14, 308.24
438.62, 8.26, 308.34
438.64, 8.38, 308.43
438.66, 8.50, 308.49
438.54, 8.66, 308.03
438.54, 8.78, 308.04
438.54, 8.91, 308.05
438.55, 9.03, 308.06
438.55, 9.16, 308.07
438.55, 9.28, 308.08
438.56, 9.41, 308.09
437.71, 7.18, 304.54
437.77, 7.19, 304.76
437.84, 7.20, 305.00
437.91, 7.20, 305.26
437.98, 7.21, 305.54
438.07, 7.22, 305.85
438.16, 7.23, 306.18
438.26, 7.24, 306.55
438.51, 7.13, 307.48
438.64, 7.14, 307.96
438.79, 7.16, 308.51
438.97, 7.17, 309.15
439.17, 7.18, 309.89
439.40, 7.20, 310.73
¯438.66, 7.77, 308.03
438.66, 7.90, 308.00
438.66, 8.03, 308.02
438.69, 8.15, 308.11
438.71, 8.26, 308.20
438.74, 8.39, 308.30
438.79, 8.50, 308.48
438.61, 8.67, 307.84
438.62, 8.79, 307.85
438.62, 8.91, 307.86
438.62, 9.03, 307.87
438.63, 9.15, 307.88
438.63, 9.28, 307.89
438.63, 9.40, 307.90
437.78, 7.18, 304.52
437.85, 7.19, 304.74
437.91, 7.20, 304.98
437.99, 7.20, 305.24
438.07, 7.21, 305.52
438.16, 7.22, 305.82
438.25, 7.23, 306.16
438.50, 7.12, 307.01
438.62, 7.13, 307.45
438.76, 7.14, 307.93
438.92, 7.16, 308.48
439.10, 7.17, 309.11
439.32, 7.18, 309.85
439.56, 7.20, 310.70
438.74, 7.79, 307.85
438.74, 7.92, 307.85
438.76, 8.04, 307.89
438.78, 8.15, 307.98
438.81, 8.27, 308.07
438.85, 8.39, 308.22
438.91, 8.50, 308.41
438.69, 8.67, 307.65
438.69, 8.79, 307.66
438.70, 8.91, 307.67
438.70, 9.03, 307.68
438.70, 9.15, 307.69
438.71, 9.27, 307.70
438.71, 9.39, 307.71
437.85, 7.18, 304.50
437.92, 7.19, 304.72
437.99, 7.20, 304.96
438.07, 7.20, 305.22
438.15, 7.21, 305.49
438.25, 7.22, 305.80
438.49, 7.10, 306.59
438.60, 7.11, 306.98
438.74, 7.13, 307.42
¯438.88, 7.14, 307.90
439.05, 7.16, 308.44
439.24, 7.17, 309.08
439.46, 7.18, 309.81
439.72, 7.20, 310.65
438.89, 7.78, 307.91
438.89, 7.91, 307.91
438.89, 8.03, 307.92
438.91, 8.15, 307.97
438.93, 8.27, 308.05
438.96, 8.39, 308.15
439.02, 8.51, 308.34
438.78, 8.68, 307.54
438.78, 8.79, 307.54
438.78, 8.91, 307.54
438.78, 9.03, 307.53
438.78, 9.15, 307.53
438.78, 9.27, 307.53
438.78, 9.39, 307.53
437.93, 7.18, 304.48
437.99, 7.19, 304.70
438.07, 7.19, 304.94
438.15, 7.20, 305.19
438.24, 7.21, 305.47
438.34, 7.22, 305.77
438.59, 7.10, 306.56
438.71, 7.11, 306.95
438.85, 7.13, 307.38
439.00, 7.14, 307.87
439.17, 7.15, 308.41
439.37, 7.17, 309.03
439.61, 7.18, 309.76
439.87, 7.20, 310.61
440.18, 7.22, 311.58
439.04, 7.89, 307.97
439.04, 8.02, 307.98
439.05, 8.14, 308.01
439.06, 8.27, 308.05
439.09, 8.39, 308.12
439.14, 8.51, 308.27
438.92, 8.67, 307.60
438.92, 8.79, 307.60
438.92, 8.91, 307.59
438.92, 9.03, 307.59
438.92, 9.15, 307.59
438.92, 9.27, 307.58
438.92, 9.39, 307.58
438.00, 7.18, 304.46
438.07, 7.19, 304.68
438.15, 7.19, 304.91
438.23, 7.20, 305.17
¯438.32, 7.21, 305.44
438.57, 7.09, 306.18
438.69, 7.10, 306.53
438.82, 7.11, 306.92
438.96, 7.12, 307.35
439.12, 7.14, 307.83
439.30, 7.15, 308.37
439.51, 7.17, 308.99
439.75, 7.18, 309.72
440.03, 7.20, 310.56
440.36, 7.22, 311.54
439.19, 7.88, 308.03
439.20, 8.01, 308.04
439.20, 8.13, 308.07
439.21, 8.26, 308.10
439.22, 8.38, 308.13
439.25, 8.51, 308.20
439.07, 8.67, 307.66
439.07, 8.79, 307.66
439.07, 8.91, 307.65
439.07, 9.03, 307.65
439.07, 9.15, 307.64
439.07, 9.27, 307.64
439.07, 9.39, 307.64
438.07, 7.18, 304.44
438.14, 7.19, 304.65
438.22, 7.19, 304.89
438.31, 7.20, 305.14
438.55, 7.08, 305.83
438.66, 7.09, 306.15
438.79, 7.10, 306.50
438.92, 7.11, 306.89
439.07, 7.12, 307.31
439.24, 7.14, 307.79
439.43, 7.15, 308.33
439.64, 7.17, 308.95
439.89, 7.18, 309.67
440.19, 7.20, 310.51
440.53, 7.21, 311.49
439.35, 7.86, 308.09
439.35, 7.99, 308.10
439.36, 8.12, 308.13
439.37, 8.25, 308.16
439.38, 8.38, 308.19
439.39, 8.50, 308.22
439.22, 8.66, 307.72
439.22, 8.78, 307.72
439.22, 8.91, 307.71
439.22, 9.03, 307.71
439.22, 9.15, 307.70
439.22, 9.28, 307.70
¯439.22, 9.40, 307.70
438.14, 7.18, 304.41
438.22, 7.19, 304.63
438.30, 7.19, 304.86
438.53, 7.07, 305.50
438.64, 7.08, 305.79
438.76, 7.09, 306.11
438.89, 7.10, 306.46
439.03, 7.11, 306.85
439.18, 7.12, 307.28
439.36, 7.14, 307.75
439.55, 7.15, 308.29
439.78, 7.17, 308.90
440.04, 7.18, 309.62
440.34, 7.19, 310.45
440.70, 7.21, 311.43
439.51, 7.85, 308.15
439.51, 7.98, 308.17
439.52, 8.11, 308.20
439.53, 8.24, 308.22
439.54, 8.37, 308.25
439.56, 8.50, 308.28
439.37, 8.65, 307.78
439.37, 8.78, 307.78
439.37, 8.90, 307.77
439.37, 9.03, 307.77
439.37, 9.15, 307.77
439.37, 9.28, 307.76
439.37, 9.40, 307.76
438.21, 7.18, 304.39
438.29, 7.19, 304.60
438.38, 7.19, 304.83
438.62, 7.07, 305.47
438.73, 7.08, 305.76
438.85, 7.09, 306.08
438.98, 7.10, 306.43
439.13, 7.11, 306.81
439.29, 7.12, 307.24
439.47, 7.13, 307.71
439.68, 7.15, 308.25
439.91, 7.16, 308.86
440.18, 7.18, 309.57
440.50, 7.19, 310.40
440.87, 7.21, 311.37
439.67, 7.83, 308.22
439.68, 7.96, 308.23
439.69, 8.10, 308.26
439.70, 8.23, 308.29
439.71, 8.36, 308.32
439.72, 8.49, 308.35
439.53, 8.65, 307.84
¯439.53, 8.78, 307.84
439.53, 8.90, 307.84
439.53, 9.03, 307.83
439.53, 9.15, 307.83
439.53, 9.28, 307.82
439.53, 9.41, 307.82
438.28, 7.18, 304.36
438.36, 7.18, 304.58
438.60, 7.06, 305.17
438.70, 7.07, 305.44
438.82, 7.08, 305.73
438.95, 7.09, 306.05
439.08, 7.10, 306.39
439.23, 7.11, 306.78
439.40, 7.12, 307.20
439.59, 7.13, 307.68
439.81, 7.15, 308.21
440.05, 7.16, 308.82
440.32, 7.18, 309.52
440.65, 7.19, 310.34
441.03, 7.21, 311.31
439.84, 7.82, 308.29
439.84, 7.95, 308.30
439.86, 8.08, 308.33
439.87, 8.21, 308.36
439.88, 8.35, 308.39
439.89, 8.48, 308.42
439.69, 8.64, 307.91
439.69, 8.77, 307.90
439.69, 8.90, 307.90
439.69, 9.03, 307.90
439.69, 9.15, 307.89
439.69, 9.28, 307.89
439.69, 9.41, 307.88
438.35, 7.18, 304.34
438.58, 7.06, 304.90
438.68, 7.06, 305.14
438.79, 7.07, 305.41
438.91, 7.08, 305.70
439.04, 7.09, 306.01
439.18, 7.10, 306.36
439.34, 7.11, 306.74
439.51, 7.12, 307.16
439.71, 7.13, 307.64
439.93, 7.14, 308.17
440.18, 7.16, 308.78
440.47, 7.17, 309.47
440.80, 7.19, 310.28
441.20, 7.21, 311.24
440.01, 7.80, 308.36
440.02, 7.93, 308.37
¯440.03, 8.07, 308.40
440.04, 8.20, 308.43
440.06, 8.34, 308.46
440.07, 8.47, 308.49
439.86, 8.64, 307.97
439.86, 8.77, 307.97
439.86, 8.90, 307.97
439.85, 9.03, 307.96
439.85, 9.15, 307.96
439.85, 9.28, 307.95
439.85, 9.41, 307.95
438.56, 7.05, 304.64
438.65, 7.06, 304.87
438.76, 7.06, 305.11
438.87, 7.07, 305.37
439.00, 7.08, 305.66
439.13, 7.09, 305.97
439.28, 7.10, 306.32
439.44, 7.11, 306.70
439.62, 7.12, 307.12
439.83, 7.13, 307.59
440.06, 7.14, 308.13
440.32, 7.16, 308.73
440.61, 7.17, 309.42
440.96, 7.19, 310.22
441.37, 7.21, 311.17
440.19, 7.78, 308.43
440.19, 7.92, 308.44
440.21, 8.05, 308.47
440.22, 8.19, 308.50
440.24, 8.33, 308.53
440.25, 8.46, 308.56
440.03, 8.63, 308.04
440.03, 8.76, 308.04
440.03, 8.89, 308.03
440.02, 9.02, 308.03
440.02, 9.16, 308.03
440.02, 9.29, 308.02
440.02, 9.42, 308.02
438.63, 7.05, 304.61
438.73, 7.05, 304.84
438.84, 7.06, 305.08
438.96, 7.07, 305.34
439.08, 7.08, 305.63
439.22, 7.09, 305.94
439.38, 7.09, 306.28
439.54, 7.10, 306.66
439.73, 7.11, 307.08
439.94, 7.13, 307.55
440.18, 7.14, 308.08
440.45, 7.15, 308.68
¯440.76, 7.17, 309.37
441.11, 7.19, 310.16
441.53, 7.21, 311.11
440.37, 7.76, 308.50
440.38, 7.90, 308.51
440.39, 8.04, 308.54
440.41, 8.18, 308.57
440.42, 8.32, 308.61
440.44, 8.45, 308.64
440.20, 8.62, 308.11
440.20, 8.76, 308.11
440.20, 8.89, 308.10
440.20, 9.02, 308.10
440.20, 9.16, 308.10
440.20, 9.29, 308.09
440.20, 9.42, 308.09
438.70, 7.05, 304.58
438.81, 7.05, 304.80
438.92, 7.06, 305.04
439.04, 7.07, 305.30
439.17, 7.08, 305.59
439.31, 7.08, 305.90
439.47, 7.09, 306.24
439.65, 7.10, 306.62
439.84, 7.11, 307.04
440.06, 7.12, 307.51
440.31, 7.14, 308.04
440.58, 7.15, 308.63
440.90, 7.17, 309.32
441.26, 7.19, 310.10
441.69, 7.21, 311.03
440.56, 7.74, 308.58
440.56, 7.88, 308.58
440.58, 8.02, 308.62
440.60, 8.16, 308.65
440.62, 8.30, 308.69
440.38, 8.62, 308.18
440.38, 8.75, 308.18
440.38, 8.89, 308.18
440.38, 9.02, 308.17
440.38, 9.16, 308.17
440.38, 9.29, 308.16
440.38, 9.43, 308.16
438.78, 7.05, 304.55
438.88, 7.05, 304.77
439.00, 7.06, 305.01
439.12, 7.07, 305.27
439.26, 7.07, 305.55
439.41, 7.08, 305.86
439.57, 7.09, 306.20
439.75, 7.10, 306.57
¯439.95, 7.11, 306.99
440.18, 7.12, 307.46
440.43, 7.13, 307.99
440.72, 7.15, 308.58
441.04, 7.16, 309.26
441.42, 7.18, 310.05
441.86, 7.20, 310.96
440.75, 7.72, 308.66
440.76, 7.87, 308.66
440.77, 8.01, 308.69
440.81, 8.15, 308.76
445.80, 7.44, 319.16
440.57, 8.61, 308.26
440.57, 8.75, 308.25
440.57, 8.88, 308.25
440.56, 9.02, 308.25
440.56, 9.16, 308.24
440.56, 9.29, 308.24
440.56, 9.43, 308.23
438.85, 7.05, 304.51
438.96, 7.05, 304.73
439.08, 7.06, 304.97
439.21, 7.07, 305.23
