žVERSION 0.7
FIELDS x y z
SIZE 8 8 8
TYPE F F F
COUNT 1 1 1
WIDTH 2271
HEIGHT 1
VIEWPOINT 385.52, 6.99, 352.38 1 403.93, 2.19, 360.33
POINTS 2271
DATA ascii
405.18, 0.33, 368.29
405.12, 0.33, 368.80
404.97, 0.20, 370.03
404.88, 0.20, 370.76
404.77, 0.20, 371.61
404.65, 0.19, 372.62
404.57, 0.27, 373.24
404.35, 0.22, 375.03
404.20, 0.28, 376.18
403.78, 0.14, 379.60
403.56, 0.26, 381.32
405.53, 1.94, 365.36
405.54, 2.01, 365.31
405.54, 2.07, 365.27
405.54, 2.14, 365.24
405.55, 2.21, 365.21
405.55, 2.27, 365.19
405.55, 2.34, 365.16
405.58, 0.32, 365.68
405.55, 0.32, 365.91
405.52, 0.32, 366.17
405.49, 0.32, 366.45
405.46, 0.33, 366.75
405.42, 0.33, 367.08
405.38, 0.33, 367.44
405.34, 0.33, 367.85
405.29, 0.33, 368.30
405.23, 0.34, 368.81
405.10, 0.21, 370.03
405.02, 0.20, 370.76
404.93, 0.20, 371.62
404.82, 0.20, 372.62
404.75, 0.28, 373.24
404.65, 0.35, 374.09
404.50, 0.38, 375.46
404.05, 0.15, 379.62
403.85, 0.25, 381.38
405.60, 1.80, 365.40
405.60, 1.87, 365.35
405.61, 1.94, 365.30
405.61, 2.01, 365.25
405.61, 2.08, 365.22
405.62, 2.14, 365.19
405.62, 2.21, 365.17
405.62, 2.27, 365.14
405.62, 2.34, 365.12
405.65, 0.32, 365.69
405.63, 0.32, 365.92
¯405.60, 0.32, 366.17
405.58, 0.33, 366.45
405.55, 0.33, 366.75
405.52, 0.33, 367.08
405.48, 0.33, 367.45
405.44, 0.33, 367.86
405.40, 0.34, 368.31
405.35, 0.34, 368.82
405.24, 0.21, 370.03
405.16, 0.21, 370.76
405.08, 0.21, 371.61
404.99, 0.20, 372.61
404.93, 0.28, 373.24
404.89, 0.42, 373.56
404.75, 0.42, 375.09
404.66, 0.54, 375.96
405.67, 1.73, 365.39
405.67, 1.80, 365.33
405.68, 1.87, 365.28
405.68, 1.94, 365.23
405.68, 2.01, 365.20
405.68, 2.08, 365.18
405.69, 2.14, 365.15
405.69, 2.21, 365.13
405.69, 2.27, 365.10
405.69, 2.34, 365.08
405.72, 0.32, 365.69
405.70, 0.32, 365.92
405.68, 0.33, 366.18
405.66, 0.33, 366.46
405.64, 0.33, 366.76
405.61, 0.33, 367.09
405.58, 0.33, 367.45
405.55, 0.34, 367.86
405.51, 0.34, 368.31
405.47, 0.34, 368.82
405.37, 0.21, 370.04
405.31, 0.21, 370.76
405.24, 0.21, 371.61
405.16, 0.21, 372.61
405.11, 0.29, 373.24
405.08, 0.43, 373.56
405.01, 0.51, 374.41
405.74, 1.66, 365.37
405.74, 1.74, 365.32
405.75, 1.81, 365.27
405.75, 1.88, 365.22
405.75, 1.95, 365.19
405.75, 2.01, 365.16
405.75, 2.08, 365.14
405.76, 2.14, 365.11
¯405.76, 2.21, 365.08
405.76, 2.27, 365.06
405.76, 2.34, 365.04
405.80, 0.32, 365.69
405.78, 0.33, 365.93
405.76, 0.33, 366.18
405.74, 0.33, 366.46
405.72, 0.33, 366.76
405.70, 0.33, 367.09
405.68, 0.34, 367.46
405.65, 0.34, 367.86
405.62, 0.34, 368.32
405.58, 0.34, 368.82
405.50, 0.21, 370.04
405.45, 0.22, 370.76
405.40, 0.21, 371.60
405.33, 0.21, 372.60
405.28, 0.29, 373.23
405.26, 0.43, 373.56
405.81, 1.60, 365.36
405.81, 1.67, 365.30
405.81, 1.74, 365.25
405.82, 1.81, 365.20
405.82, 1.88, 365.17
405.82, 1.95, 365.14
405.82, 2.02, 365.12
405.82, 2.08, 365.09
405.82, 2.15, 365.07
405.82, 2.21, 365.04
405.83, 2.27, 365.02
405.83, 2.33, 365.00
405.87, 0.33, 365.70
405.86, 0.33, 365.93
405.84, 0.33, 366.18
405.83, 0.33, 366.46
405.81, 0.33, 366.76
405.79, 0.33, 367.09
405.77, 0.34, 367.46
405.75, 0.34, 367.87
405.73, 0.34, 368.32
405.70, 0.35, 368.83
405.64, 0.22, 370.04
405.60, 0.22, 370.75
405.55, 0.22, 371.60
405.50, 0.22, 372.59
405.46, 0.29, 373.23
405.44, 0.43, 373.55
405.88, 1.61, 365.29
405.88, 1.68, 365.24
405.88, 1.75, 365.19
405.89, 1.82, 365.15
¯405.89, 1.89, 365.13
405.89, 1.95, 365.10
405.89, 2.02, 365.08
405.89, 2.08, 365.05
405.89, 2.15, 365.03
405.89, 2.21, 365.00
405.89, 2.27, 364.98
405.89, 2.33, 364.96
405.94, 0.33, 365.70
405.93, 0.33, 365.93
405.92, 0.33, 366.19
405.91, 0.33, 366.46
405.90, 0.33, 366.76
405.88, 0.34, 367.10
405.87, 0.34, 367.46
405.85, 0.34, 367.87
405.84, 0.34, 368.32
405.82, 0.35, 368.82
405.77, 0.22, 370.04
405.74, 0.22, 370.74
405.71, 0.22, 371.59
405.67, 0.22, 372.57
405.64, 0.30, 373.23
405.95, 1.54, 365.28
405.95, 1.61, 365.22
405.95, 1.69, 365.18
405.95, 1.76, 365.14
405.95, 1.82, 365.11
405.95, 1.89, 365.09
405.95, 1.96, 365.06
405.95, 2.02, 365.04
405.95, 2.08, 365.01
405.95, 2.15, 364.99
405.95, 2.21, 364.96
405.95, 2.27, 364.94
405.96, 2.33, 364.92
406.01, 0.33, 365.70
406.01, 0.33, 365.93
406.00, 0.33, 366.18
405.99, 0.33, 366.46
405.99, 0.34, 366.76
405.98, 0.34, 367.09
405.97, 0.34, 367.45
405.96, 0.35, 367.85
405.95, 0.35, 368.30
405.93, 0.35, 368.80
405.90, 0.22, 370.04
405.88, 0.23, 370.73
405.86, 0.23, 371.57
405.84, 0.23, 372.56
406.01, 1.48, 365.26
¯406.02, 1.55, 365.21
406.02, 1.62, 365.16
406.02, 1.69, 365.12
406.02, 1.76, 365.10
406.02, 1.83, 365.07
406.02, 1.89, 365.05
406.02, 1.96, 365.02
406.02, 2.02, 365.00
406.02, 2.09, 364.97
406.02, 2.15, 364.95
406.02, 2.21, 364.93
406.02, 2.27, 364.90
406.02, 2.33, 364.88
406.09, 0.33, 365.69
406.08, 0.33, 365.92
406.08, 0.34, 366.18
406.08, 0.34, 366.45
406.07, 0.34, 366.75
406.07, 0.34, 367.08
406.06, 0.35, 367.44
406.06, 0.35, 367.84
406.05, 0.36, 368.28
406.05, 0.36, 368.78
406.03, 0.22, 370.03
406.03, 0.23, 370.73
406.02, 0.23, 371.56
406.00, 0.23, 372.54
406.08, 1.49, 365.20
406.08, 1.56, 365.15
406.08, 1.63, 365.11
406.08, 1.70, 365.08
406.08, 1.76, 365.05
406.08, 1.83, 365.03
406.08, 1.90, 365.01
406.08, 1.96, 364.98
406.08, 2.02, 364.96
406.08, 2.09, 364.93
406.08, 2.15, 364.91
406.08, 2.21, 364.89
406.08, 2.27, 364.87
406.08, 2.33, 364.84
406.16, 0.34, 365.68
406.16, 0.34, 365.92
406.16, 0.34, 366.17
406.16, 0.34, 366.44
406.16, 0.35, 366.74
406.16, 0.35, 367.06
406.16, 0.35, 367.42
406.16, 0.36, 367.82
406.16, 0.36, 368.27
406.16, 0.37, 368.76
¯406.17, 0.23, 370.03
406.17, 0.23, 370.72
406.17, 0.24, 371.54
406.15, 1.42, 365.19
406.15, 1.50, 365.14
406.15, 1.57, 365.09
406.15, 1.64, 365.06
406.15, 1.70, 365.04
406.14, 1.77, 365.02
406.14, 1.83, 364.99
406.14, 1.90, 364.97
406.14, 1.96, 364.94
406.14, 2.03, 364.92
406.14, 2.09, 364.90
406.14, 2.15, 364.87
406.14, 2.21, 364.85
406.14, 2.27, 364.83
406.14, 2.33, 364.81
406.23, 0.34, 365.67
406.23, 0.34, 365.91
406.24, 0.34, 366.16
406.24, 0.35, 366.43
406.25, 0.35, 366.72
406.25, 0.35, 367.05
406.26, 0.36, 367.41
406.26, 0.36, 367.80
406.27, 0.37, 368.25
406.28, 0.37, 368.74
406.30, 0.23, 370.01
406.31, 0.24, 370.70
406.21, 1.36, 365.17
406.21, 1.43, 365.12
406.21, 1.50, 365.08
406.21, 1.57, 365.05
406.21, 1.64, 365.02
406.21, 1.71, 365.00
406.21, 1.77, 364.98
406.21, 1.84, 364.95
406.21, 1.90, 364.93
406.20, 1.96, 364.91
406.20, 2.03, 364.88
406.20, 2.09, 364.86
406.20, 2.15, 364.84
406.20, 2.21, 364.82
406.20, 2.27, 364.79
406.20, 2.33, 364.77
406.30, 0.34, 365.66
406.31, 0.35, 365.89
406.32, 0.35, 366.14
406.32, 0.35, 366.41
406.33, 0.35, 366.71
¯406.34, 0.36, 367.03
406.35, 0.36, 367.39
406.36, 0.37, 367.79
406.38, 0.37, 368.22
406.39, 0.38, 368.72
406.41, 0.38, 369.27
406.34, 0.94, 367.03
406.28, 1.37, 365.11
406.27, 1.44, 365.07
406.27, 1.51, 365.03
406.27, 1.58, 365.01
406.27, 1.65, 364.98
406.27, 1.71, 364.96
406.27, 1.78, 364.94
406.27, 1.84, 364.91
406.27, 1.90, 364.89
406.26, 1.97, 364.87
406.26, 2.03, 364.85
406.26, 2.09, 364.82
406.26, 2.15, 364.80
406.26, 2.21, 364.78
406.26, 2.27, 364.76
406.26, 2.33, 364.74
406.37, 0.35, 365.65
406.38, 0.35, 365.88
406.39, 0.35, 366.13
406.41, 0.35, 366.40
406.42, 0.36, 366.70
406.43, 0.36, 367.02
406.45, 0.37, 367.37
406.47, 0.37, 367.77
406.48, 0.38, 368.20
406.41, 0.85, 366.58
406.41, 0.94, 366.54
406.34, 1.30, 365.10
406.34, 1.38, 365.05
406.34, 1.45, 365.02
406.33, 1.52, 364.99
406.33, 1.58, 364.97
406.33, 1.65, 364.95
406.33, 1.72, 364.92
406.33, 1.78, 364.90
406.33, 1.84, 364.88
406.33, 1.91, 364.85
406.32, 1.97, 364.83
406.32, 2.03, 364.81
406.32, 2.09, 364.79
406.32, 2.15, 364.77
406.32, 2.21, 364.74
406.32, 2.27, 364.72
406.32, 2.33, 364.70
¯406.44, 0.35, 365.64
406.46, 0.35, 365.87
406.47, 0.36, 366.12
406.49, 0.36, 366.39
406.50, 0.36, 366.68
406.52, 0.37, 367.00
406.54, 0.37, 367.35
406.57, 0.38, 367.74
406.47, 0.85, 366.16
406.47, 0.94, 366.12
406.41, 1.24, 365.09
406.40, 1.31, 365.04
406.40, 1.39, 365.00
406.40, 1.46, 364.98
406.40, 1.52, 364.96
406.39, 1.59, 364.93
406.39, 1.66, 364.91
406.39, 1.72, 364.89
406.39, 1.78, 364.86
406.39, 1.85, 364.84
406.38, 1.91, 364.82
406.38, 1.97, 364.80
406.38, 2.03, 364.77
406.38, 2.09, 364.75
406.38, 2.15, 364.73
406.38, 2.21, 364.71
406.37, 2.27, 364.69
406.37, 2.33, 364.67
406.51, 0.35, 365.62
406.53, 0.36, 365.85
406.55, 0.36, 366.10
406.57, 0.36, 366.37
406.59, 0.37, 366.66
406.61, 0.37, 366.98
406.64, 0.38, 367.33
406.52, 0.86, 365.79
406.52, 0.95, 365.76
406.52, 1.03, 365.75
406.47, 1.25, 365.03
406.46, 1.32, 364.99
406.46, 1.39, 364.97
406.46, 1.46, 364.94
406.45, 1.53, 364.92
406.45, 1.59, 364.89
406.45, 1.66, 364.87
406.45, 1.72, 364.85
406.45, 1.79, 364.83
406.44, 1.85, 364.80
406.44, 1.91, 364.78
406.44, 1.97, 364.76
406.44, 2.03, 364.74
¯406.44, 2.09, 364.72
406.43, 2.15, 364.70
406.43, 2.21, 364.67
406.43, 2.27, 364.65
406.43, 2.33, 364.63
406.58, 0.36, 365.61
406.60, 0.36, 365.83
406.63, 0.37, 366.08
406.65, 0.37, 366.34
406.67, 0.37, 366.64
406.70, 0.38, 366.95
406.57, 0.87, 365.47
406.57, 0.95, 365.44
406.56, 1.02, 365.42
406.53, 1.19, 365.02
406.52, 1.26, 364.98
406.52, 1.33, 364.95
406.52, 1.40, 364.93
406.52, 1.47, 364.90
406.51, 1.53, 364.88
406.51, 1.60, 364.86
406.51, 1.66, 364.83
406.51, 1.73, 364.81
406.50, 1.79, 364.79
406.50, 1.85, 364.77
406.50, 1.91, 364.75
406.50, 1.97, 364.72
406.49, 2.03, 364.70
406.49, 2.09, 364.68
406.49, 2.15, 364.66
406.49, 2.21, 364.64
406.49, 2.27, 364.62
406.48, 2.33, 364.60
406.65, 0.36, 365.59
406.68, 0.37, 365.81
406.70, 0.37, 366.06
406.73, 0.37, 366.32
406.76, 0.38, 366.61
406.61, 0.87, 365.18
406.61, 0.95, 365.16
406.60, 1.02, 365.14
406.61, 1.08, 365.17
406.59, 1.20, 364.97
406.58, 1.27, 364.94
406.58, 1.34, 364.91
406.58, 1.41, 364.89
406.57, 1.47, 364.87
406.57, 1.54, 364.84
406.57, 1.60, 364.82
406.57, 1.67, 364.80
406.56, 1.73, 364.78
¯406.56, 1.79, 364.75
406.56, 1.86, 364.73
406.56, 1.92, 364.71
406.55, 1.98, 364.69
406.55, 2.04, 364.67
406.55, 2.10, 364.65
406.55, 2.15, 364.63
406.54, 2.21, 364.61
406.54, 2.27, 364.59
406.54, 2.33, 364.57
406.72, 0.37, 365.57
406.75, 0.37, 365.79
406.78, 0.38, 366.03
406.81, 0.38, 366.30
406.65, 0.87, 364.92
406.64, 0.95, 364.90
406.64, 1.02, 364.88
406.64, 1.08, 364.91
406.65, 1.14, 364.94
406.64, 1.21, 364.92
406.64, 1.27, 364.90
406.64, 1.34, 364.88
406.63, 1.41, 364.85
406.63, 1.48, 364.83
406.63, 1.54, 364.81
406.63, 1.61, 364.78
406.62, 1.67, 364.76
406.62, 1.73, 364.74
406.62, 1.80, 364.72
406.61, 1.86, 364.70
406.61, 1.92, 364.68
406.61, 1.98, 364.66
406.61, 2.04, 364.64
406.60, 2.10, 364.62
406.60, 2.15, 364.60
406.60, 2.21, 364.59
406.60, 2.27, 364.57
406.59, 2.33, 364.55
406.79, 0.37, 365.55
406.82, 0.38, 365.77
406.85, 0.38, 366.01
406.68, 0.88, 364.70
406.68, 0.95, 364.68
406.67, 1.01, 364.66
406.68, 1.07, 364.69
406.68, 1.12, 364.73
406.69, 1.17, 364.78
406.69, 1.22, 364.83
406.70, 1.28, 364.86
406.69, 1.35, 364.84
406.69, 1.42, 364.82
¯406.69, 1.48, 364.79
406.68, 1.55, 364.77
406.68, 1.61, 364.75
406.68, 1.68, 364.73
406.68, 1.74, 364.71
406.67, 1.80, 364.69
406.67, 1.86, 364.67
406.67, 1.92, 364.65
406.66, 1.98, 364.63
406.66, 2.04, 364.61
406.66, 2.10, 364.60
406.66, 2.15, 364.58
406.65, 2.21, 364.56
406.65, 2.27, 364.54
406.65, 2.32, 364.53
406.86, 0.38, 365.53
406.89, 0.38, 365.75
406.93, 0.39, 365.99
406.73, 0.89, 364.64
406.73, 0.95, 364.64
406.73, 1.02, 364.64
406.73, 1.07, 364.66
406.74, 1.13, 364.69
406.74, 1.19, 364.72
406.75, 1.24, 364.76
406.75, 1.29, 364.80
406.75, 1.36, 364.80
406.75, 1.42, 364.78
406.74, 1.49, 364.76
406.74, 1.55, 364.74
406.74, 1.62, 364.72
406.73, 1.68, 364.70
406.73, 1.74, 364.68
406.73, 1.80, 364.66
406.72, 1.86, 364.64
406.72, 1.92, 364.62
406.72, 1.98, 364.61
406.72, 2.04, 364.59
406.71, 2.10, 364.57
406.71, 2.16, 364.55
406.71, 2.21, 364.54
406.71, 2.27, 364.53
406.71, 2.33, 364.53
406.93, 0.38, 365.50
406.96, 0.39, 365.72
407.00, 0.39, 365.96
406.79, 0.88, 364.65
406.79, 0.95, 364.65
406.79, 1.01, 364.65
406.79, 1.07, 364.66
406.80, 1.13, 364.68
¯406.80, 1.19, 364.71
406.80, 1.24, 364.74
406.81, 1.30, 364.77
406.81, 1.36, 364.77
406.80, 1.43, 364.75
406.80, 1.49, 364.73
406.80, 1.56, 364.71
406.79, 1.62, 364.69
406.79, 1.68, 364.67
406.79, 1.74, 364.65
406.78, 1.80, 364.63
406.78, 1.86, 364.62
406.78, 1.92, 364.60
406.77, 1.98, 364.58
406.77, 2.04, 364.56
406.77, 2.10, 364.55
406.77, 2.16, 364.54
406.77, 2.21, 364.54
406.77, 2.27, 364.54
406.76, 2.33, 364.54
407.00, 0.39, 365.48
407.03, 0.39, 365.70
407.07, 0.40, 365.93
406.85, 0.88, 364.66
406.85, 0.94, 364.66
406.85, 1.01, 364.66
406.85, 1.07, 364.66
406.85, 1.13, 364.68
406.86, 1.18, 364.71
406.86, 1.24, 364.74
406.87, 1.30, 364.76
406.86, 1.36, 364.74
406.86, 1.43, 364.72
406.86, 1.49, 364.70
406.85, 1.56, 364.68
406.85, 1.62, 364.66
406.85, 1.68, 364.65
406.84, 1.74, 364.63
406.84, 1.81, 364.61
406.83, 1.87, 364.59
406.83, 1.92, 364.57
406.83, 1.98, 364.56
406.83, 2.04, 364.54
406.82, 2.10, 364.54
406.82, 2.16, 364.54
406.82, 2.21, 364.55
406.82, 2.27, 364.55
406.82, 2.33, 364.55
407.06, 0.39, 365.46
407.10, 0.40, 365.67
407.15, 0.40, 365.91
¯406.91, 0.87, 364.67
406.91, 0.94, 364.67
406.91, 1.00, 364.67
406.91, 1.07, 364.67
406.91, 1.13, 364.68
406.92, 1.18, 364.70
406.92, 1.24, 364.73
406.92, 1.30, 364.73
406.92, 1.37, 364.72
406.92, 1.43, 364.70
406.91, 1.50, 364.68
406.91, 1.56, 364.66
406.90, 1.62, 364.64
406.90, 1.69, 364.62
406.90, 1.75, 364.60
406.89, 1.81, 364.58
406.89, 1.87, 364.57
406.89, 1.93, 364.55
406.88, 1.98, 364.55
406.88, 2.04, 364.55
406.88, 2.10, 364.55
406.88, 2.16, 364.55
406.88, 2.21, 364.55
406.88, 2.27, 364.55
406.88, 2.33, 364.55
407.13, 0.40, 365.43
407.17, 0.40, 365.65
407.22, 0.41, 365.88
406.98, 0.86, 364.70
406.98, 0.93, 364.68
406.98, 1.00, 364.68
406.98, 1.06, 364.68
406.98, 1.12, 364.68
406.98, 1.18, 364.70
406.98, 1.24, 364.73
406.98, 1.31, 364.71
406.98, 1.37, 364.69
406.97, 1.44, 364.67
406.97, 1.50, 364.65
406.96, 1.56, 364.63
406.96, 1.63, 364.61
406.95, 1.69, 364.60
406.95, 1.75, 364.58
406.95, 1.81, 364.56
406.95, 1.87, 364.56
406.95, 1.93, 364.56
406.94, 1.98, 364.56
406.94, 2.04, 364.56
406.94, 2.10, 364.56
406.94, 2.16, 364.56
406.94, 2.21, 364.56
¯406.94, 2.27, 364.56
406.94, 2.33, 364.56
407.20, 0.40, 365.41
407.24, 0.41, 365.62
407.29, 0.41, 365.85
407.05, 0.85, 364.73
407.04, 0.93, 364.69
407.04, 0.99, 364.69
407.04, 1.06, 364.69
407.04, 1.12, 364.69
407.04, 1.18, 364.70
407.04, 1.24, 364.70
407.04, 1.31, 364.68
407.03, 1.37, 364.66
407.03, 1.44, 364.64
407.02, 1.50, 364.63
407.02, 1.57, 364.61
407.01, 1.63, 364.59
407.01, 1.69, 364.57
407.01, 1.75, 364.56
407.01, 1.81, 364.56
407.01, 1.87, 364.56
407.01, 1.92, 364.56
407.01, 1.98, 364.56
407.01, 2.04, 364.56
407.00, 2.10, 364.56
407.00, 2.16, 364.56
407.00, 2.21, 364.57
407.00, 2.27, 364.57
407.00, 2.33, 364.57
407.26, 0.41, 365.38
407.31, 0.41, 365.59
407.36, 0.42, 365.82
407.12, 0.83, 364.77
407.10, 0.92, 364.70
407.10, 0.99, 364.70
407.10, 1.05, 364.70
407.10, 1.11, 364.70
407.10, 1.18, 364.70
407.10, 1.24, 364.68
407.09, 1.31, 364.66
407.09, 1.38, 364.64
407.08, 1.44, 364.62
407.08, 1.51, 364.60
407.07, 1.57, 364.58
407.07, 1.63, 364.57
407.07, 1.69, 364.57
407.07, 1.75, 364.57
407.07, 1.81, 364.57
407.07, 1.86, 364.57
407.07, 1.92, 364.57
¯407.07, 1.98, 364.57
407.07, 2.04, 364.57
407.07, 2.10, 364.57
407.07, 2.16, 364.57
407.07, 2.22, 364.58
407.07, 2.27, 364.58
407.07, 2.33, 364.58
407.33, 0.41, 365.35
407.38, 0.42, 365.56
407.43, 0.42, 365.79
407.49, 0.43, 366.03
407.17, 0.91, 364.71
407.17, 0.98, 364.71
407.16, 1.04, 364.71
407.16, 1.11, 364.69
407.16, 1.18, 364.67
407.15, 1.25, 364.65
407.15, 1.31, 364.63
407.14, 1.38, 364.61
407.14, 1.44, 364.59
407.13, 1.51, 364.58
407.13, 1.57, 364.57
407.13, 1.63, 364.57
407.13, 1.69, 364.57
407.13, 1.75, 364.57
407.13, 1.80, 364.58
407.13, 1.86, 364.58
407.13, 1.92, 364.58
407.13, 1.98, 364.58
407.13, 2.04, 364.58
407.13, 2.10, 364.58
407.13, 2.16, 364.58
407.13, 2.22, 364.58
407.13, 2.27, 364.59
407.13, 2.33, 364.59
407.39, 0.42, 365.32
407.44, 0.42, 365.53
407.50, 0.43, 365.75
407.57, 0.43, 366.00
407.23, 0.91, 364.71
407.23, 0.97, 364.71
407.23, 1.04, 364.72
407.22, 1.11, 364.67
407.21, 1.18, 364.64
407.21, 1.25, 364.63
407.20, 1.32, 364.61
407.19, 1.38, 364.59
407.19, 1.44, 364.58
407.19, 1.50, 364.58
407.19, 1.56, 364.58
407.19, 1.62, 364.58
¯407.19, 1.68, 364.58
407.19, 1.74, 364.58
407.19, 1.80, 364.58
407.19, 1.86, 364.58
407.19, 1.92, 364.58
407.19, 1.98, 364.58
407.19, 2.04, 364.59
407.19, 2.10, 364.59
407.19, 2.16, 364.59
407.19, 2.22, 364.59
407.19, 2.28, 364.60
407.19, 2.33, 364.60
407.45, 0.42, 365.29
407.51, 0.43, 365.50
407.57, 0.43, 365.72
407.64, 0.44, 365.96
407.30, 0.90, 364.72
407.30, 0.97, 364.72
407.30, 1.03, 364.72
407.29, 1.10, 364.70
407.27, 1.19, 364.62
407.26, 1.25, 364.60
407.26, 1.32, 364.59
407.26, 1.38, 364.59
407.25, 1.44, 364.59
407.25, 1.50, 364.59
407.25, 1.56, 364.59
407.25, 1.62, 364.59
407.25, 1.68, 364.59
407.25, 1.74, 364.59
407.25, 1.80, 364.59
407.25, 1.86, 364.59
407.25, 1.92, 364.59
407.25, 1.98, 364.59
407.25, 2.04, 364.60
407.25, 2.10, 364.60
407.25, 2.16, 364.60
407.25, 2.22, 364.60
407.26, 2.28, 364.60
407.26, 2.34, 364.61
407.52, 0.42, 365.26
407.58, 0.43, 365.47
407.64, 0.44, 365.69
407.71, 0.44, 365.93
407.37, 0.88, 364.76
407.36, 0.96, 364.73
407.36, 1.02, 364.73
407.36, 1.09, 364.73
407.32, 1.18, 364.61
407.32, 1.25, 364.59
407.32, 1.31, 364.59
¯407.32, 1.38, 364.59
407.32, 1.44, 364.59
407.32, 1.50, 364.59
407.32, 1.56, 364.59
407.32, 1.62, 364.59
407.32, 1.68, 364.60
407.32, 1.74, 364.60
407.32, 1.80, 364.60
407.32, 1.86, 364.60
407.32, 1.92, 364.60
407.32, 1.98, 364.60
407.32, 2.04, 364.60
407.32, 2.10, 364.61
407.32, 2.16, 364.61
407.32, 2.22, 364.61
407.32, 2.28, 364.61
407.32, 2.34, 364.62
407.58, 0.43, 365.23
407.64, 0.44, 365.44
407.71, 0.44, 365.65
407.78, 0.45, 365.89
407.45, 0.87, 364.81
407.43, 0.95, 364.74
407.43, 1.02, 364.74
407.43, 1.08, 364.74
407.40, 1.17, 364.64
407.38, 1.25, 364.60
407.38, 1.31, 364.60
407.38, 1.37, 364.60
407.38, 1.43, 364.60
407.38, 1.49, 364.60
407.38, 1.56, 364.60
407.38, 1.62, 364.60
407.38, 1.68, 364.60
407.38, 1.74, 364.60
407.38, 1.80, 364.61
407.38, 1.86, 364.61
407.38, 1.92, 364.61
407.38, 1.98, 364.61
407.38, 2.04, 364.61
407.38, 2.10, 364.62
407.38, 2.16, 364.62
407.38, 2.22, 364.62
407.38, 2.28, 364.62
407.39, 2.34, 364.63
407.64, 0.43, 365.20
407.71, 0.44, 365.40
407.78, 0.45, 365.62
407.85, 0.45, 365.85
407.53, 0.85, 364.85
407.50, 0.94, 364.75
¯407.50, 1.01, 364.75
407.50, 1.08, 364.75
407.47, 1.16, 364.67
407.45, 1.24, 364.61
407.45, 1.30, 364.61
407.45, 1.37, 364.61
407.45, 1.43, 364.61
407.45, 1.49, 364.61
407.45, 1.55, 364.61
407.45, 1.61, 364.61
407.45, 1.67, 364.61
407.45, 1.73, 364.61
407.45, 1.80, 364.61
407.45, 1.86, 364.62
407.45, 1.92, 364.62
407.45, 1.98, 364.62
407.45, 2.04, 364.62
407.45, 2.10, 364.63
407.45, 2.16, 364.63
407.45, 2.22, 364.63
407.45, 2.28, 364.63
407.45, 2.34, 364.63
407.70, 0.44, 365.17
407.77, 0.44, 365.37
407.84, 0.45, 365.58
407.92, 0.46, 365.81
407.61, 0.83, 364.90
407.57, 0.94, 364.76
407.57, 1.00, 364.76
407.56, 1.07, 364.76
407.55, 1.15, 364.71
407.52, 1.23, 364.62
407.52, 1.30, 364.62
407.52, 1.36, 364.62
407.52, 1.42, 364.62
407.52, 1.49, 364.62
407.52, 1.55, 364.62
407.52, 1.61, 364.62
407.51, 1.67, 364.62
407.51, 1.73, 364.62
407.51, 1.79, 364.62
407.51, 1.85, 364.63
407.52, 1.91, 364.63
407.52, 1.98, 364.63
407.52, 2.04, 364.63
407.52, 2.10, 364.64
407.52, 2.16, 364.64
407.52, 2.22, 364.64
407.52, 2.28, 364.64
407.52, 2.34, 364.64
407.77, 0.44, 365.14
¯407.83, 0.45, 365.33
407.91, 0.46, 365.55
407.99, 0.46, 365.77
407.70, 0.80, 364.95
407.64, 0.93, 364.77
407.63, 0.99, 364.77
407.63, 1.06, 364.77
407.62, 1.14, 364.74
407.58, 1.23, 364.63
407.58, 1.29, 364.63
407.58, 1.35, 364.63
407.58, 1.42, 364.63
407.58, 1.48, 364.63
407.58, 1.54, 364.63
407.58, 1.61, 364.63
407.58, 1.67, 364.63
407.58, 1.73, 364.63
407.58, 1.79, 364.63
407.58, 1.85, 364.64
407.58, 1.91, 364.64
407.58, 1.97, 364.64
407.58, 2.04, 364.64
407.58, 2.10, 364.64
407.58, 2.16, 364.65
407.59, 2.22, 364.65
407.59, 2.28, 364.65
407.59, 2.34, 364.65
407.83, 0.45, 365.10
407.90, 0.45, 365.30
407.97, 0.46, 365.51
408.06, 0.47, 365.73
408.15, 0.48, 365.98
407.72, 0.91, 364.81
407.71, 0.99, 364.78
407.71, 1.05, 364.78
407.70, 1.12, 364.78
407.66, 1.22, 364.65
407.65, 1.29, 364.64
407.65, 1.35, 364.64
407.65, 1.41, 364.64
407.65, 1.48, 364.64
407.65, 1.54, 364.64
407.65, 1.60, 364.64
407.65, 1.66, 364.64
407.65, 1.73, 364.64
407.65, 1.79, 364.64
407.65, 1.85, 364.65
407.65, 1.91, 364.65
407.65, 1.97, 364.65
407.65, 2.03, 364.65
407.65, 2.10, 364.65
¯407.65, 2.16, 364.66
407.65, 2.22, 364.66
407.65, 2.28, 364.66
407.66, 2.34, 364.66
407.89, 0.45, 365.07
407.96, 0.46, 365.26
408.04, 0.46, 365.47
408.12, 0.47, 365.69
408.22, 0.48, 365.94
407.80, 0.89, 364.86
407.78, 0.98, 364.79
407.78, 1.05, 364.79
407.78, 1.11, 364.79
407.74, 1.21, 364.68
407.72, 1.28, 364.65
407.72, 1.34, 364.65
407.72, 1.41, 364.65
407.72, 1.47, 364.65
407.72, 1.53, 364.65
407.72, 1.60, 364.65
407.72, 1.66, 364.65
407.72, 1.72, 364.65
407.72, 1.79, 364.65
407.72, 1.85, 364.66
407.72, 1.91, 364.66
407.72, 1.97, 364.66
407.72, 2.03, 364.66
407.72, 2.10, 364.66
407.72, 2.16, 364.67
407.72, 2.22, 364.67
407.72, 2.28, 364.67
407.73, 2.35, 364.67
407.95, 0.45, 365.03
408.02, 0.46, 365.23
408.10, 0.47, 365.43
408.19, 0.48, 365.65
408.29, 0.49, 365.89
407.89, 0.87, 364.91
407.85, 0.97, 364.80
407.85, 1.04, 364.80
407.85, 1.11, 364.80
407.82, 1.19, 364.72
407.79, 1.27, 364.66
407.79, 1.34, 364.66
407.79, 1.40, 364.66
407.79, 1.47, 364.66
407.79, 1.53, 364.66
407.79, 1.59, 364.66
407.79, 1.66, 364.66
407.79, 1.72, 364.66
407.79, 1.78, 364.66
¯407.79, 1.85, 364.66
407.79, 1.91, 364.67
407.79, 1.97, 364.67
407.79, 2.03, 364.67
407.79, 2.10, 364.67
407.79, 2.16, 364.68
407.80, 2.22, 364.68
407.80, 2.28, 364.68
407.80, 2.35, 364.68
408.00, 0.46, 365.00
408.08, 0.47, 365.19
408.17, 0.47, 365.39
408.26, 0.48, 365.61
408.36, 0.49, 365.85
407.99, 0.84, 364.97
407.92, 0.96, 364.81
407.92, 1.03, 364.81
407.92, 1.10, 364.81
407.90, 1.18, 364.76
407.86, 1.26, 364.67
407.86, 1.33, 364.67
407.86, 1.39, 364.67
407.86, 1.46, 364.67
407.86, 1.52, 364.67
407.86, 1.59, 364.67
407.86, 1.65, 364.67
407.86, 1.72, 364.67
407.86, 1.78, 364.67
407.86, 1.84, 364.68
407.86, 1.91, 364.68
407.86, 1.97, 364.68
407.87, 2.03, 364.68
407.87, 2.10, 364.68
407.87, 2.16, 364.69
407.87, 2.22, 364.69
407.87, 2.29, 364.69
407.87, 2.35, 364.69
408.06, 0.46, 364.96
408.14, 0.47, 365.15
408.23, 0.48, 365.35
408.32, 0.49, 365.57
408.42, 0.50, 365.80
408.53, 0.51, 366.06
408.00, 0.95, 364.83
408.00, 1.02, 364.82
408.00, 1.09, 364.82
407.99, 1.16, 364.80
407.94, 1.26, 364.68
407.94, 1.32, 364.68
407.94, 1.39, 364.68
407.94, 1.45, 364.68
¯407.94, 1.52, 364.68
407.94, 1.58, 364.68
407.94, 1.65, 364.68
407.94, 1.71, 364.68
407.94, 1.78, 364.68
407.94, 1.84, 364.69
407.94, 1.90, 364.69
407.94, 1.97, 364.69
407.94, 2.03, 364.69
407.94, 2.10, 364.69
407.94, 2.16, 364.70
407.94, 2.22, 364.70
407.94, 2.29, 364.70
407.94, 2.35, 364.70
408.12, 0.47, 364.93
408.20, 0.47, 365.11
408.29, 0.48, 365.31
408.39, 0.49, 365.52
408.49, 0.50, 365.76
408.61, 0.51, 366.01
408.10, 0.92, 364.88
408.08, 1.01, 364.83
408.08, 1.08, 364.84
408.08, 1.15, 364.84
408.02, 1.25, 364.70
408.01, 1.32, 364.69
408.01, 1.38, 364.69
408.01, 1.45, 364.69
408.01, 1.51, 364.69
408.01, 1.58, 364.69
408.01, 1.64, 364.69
408.01, 1.71, 364.69
408.01, 1.77, 364.70
408.01, 1.84, 364.70
408.01, 1.90, 364.70
408.01, 1.97, 364.70
408.01, 2.03, 364.70
408.01, 2.09, 364.71
408.01, 2.16, 364.71
408.02, 2.22, 364.71
408.02, 2.29, 364.71
408.02, 2.35, 364.72
408.18, 0.47, 364.89
408.26, 0.48, 365.07
408.35, 0.49, 365.27
408.45, 0.50, 365.48
408.56, 0.51, 365.71
408.67, 0.52, 365.96
408.20, 0.90, 364.94
408.15, 1.00, 364.85
408.15, 1.07, 364.85
¯408.15, 1.14, 364.85
408.11, 1.23, 364.74
408.09, 1.31, 364.70
408.09, 1.38, 364.70
408.09, 1.44, 364.70
408.09, 1.51, 364.70
408.09, 1.57, 364.70
408.09, 1.64, 364.71
408.09, 1.70, 364.71
408.09, 1.77, 364.71
408.09, 1.83, 364.71
408.09, 1.90, 364.71
408.09, 1.96, 364.71
408.09, 2.03, 364.71
408.09, 2.09, 364.72
408.09, 2.16, 364.72
408.09, 2.22, 364.72
408.09, 2.29, 364.72
408.09, 2.35, 364.73
408.23, 0.48, 364.85
408.32, 0.48, 365.03
408.41, 0.49, 365.23
408.51, 0.50, 365.43
408.62, 0.51, 365.66
408.74, 0.52, 365.91
408.30, 0.87, 365.00
408.23, 0.99, 364.86
408.23, 1.06, 364.86
408.23, 1.13, 364.86
408.20, 1.22, 364.78
408.16, 1.30, 364.71
408.16, 1.37, 364.71
408.16, 1.43, 364.71
408.16, 1.50, 364.72
408.16, 1.57, 364.72
408.16, 1.63, 364.72
408.16, 1.70, 364.72
408.16, 1.77, 364.72
408.16, 1.83, 364.72
408.16, 1.90, 364.72
408.17, 1.96, 364.72
408.17, 2.03, 364.72
408.17, 2.09, 364.73
408.17, 2.16, 364.73
408.17, 2.22, 364.73
408.17, 2.29, 364.73
408.17, 2.36, 364.74
408.29, 0.48, 364.81
408.38, 0.49, 364.99
408.47, 0.50, 365.18
408.58, 0.50, 365.39
¯408.69, 0.51, 365.61
408.81, 0.53, 365.86
408.94, 0.54, 366.12
408.32, 0.98, 364.87
408.32, 1.05, 364.87
408.31, 1.12, 364.87
408.29, 1.20, 364.82
408.24, 1.29, 364.72
408.24, 1.36, 364.73
408.24, 1.43, 364.73
408.24, 1.50, 364.73
408.24, 1.56, 364.73
408.24, 1.63, 364.73
408.24, 1.70, 364.73
408.24, 1.76, 364.73
408.24, 1.83, 364.73
408.24, 1.90, 364.73
408.24, 1.96, 364.73
408.24, 2.03, 364.74
408.25, 2.09, 364.74
408.25, 2.16, 364.74
408.25, 2.23, 364.74
408.25, 2.29, 364.75
408.25, 2.36, 364.75
408.34, 0.48, 364.77
408.43, 0.49, 364.95
408.53, 0.50, 365.14
408.64, 0.51, 365.34
408.75, 0.52, 365.56
408.88, 0.53, 365.81
409.01, 0.54, 366.07
408.42, 0.95, 364.92
408.40, 1.04, 364.88
408.40, 1.11, 364.88
408.39, 1.18, 364.87
408.32, 1.28, 364.74
408.32, 1.35, 364.74
408.32, 1.42, 364.74
408.32, 1.49, 364.74
408.32, 1.56, 364.74
408.32, 1.62, 364.74
408.32, 1.69, 364.74
408.32, 1.76, 364.74
408.32, 1.83, 364.74
408.32, 1.89, 364.74
408.32, 1.96, 364.74
408.32, 2.03, 364.75
408.33, 2.09, 364.75
408.33, 2.16, 364.75
408.33, 2.23, 364.75
408.33, 2.29, 364.76
¯408.33, 2.36, 364.76
408.40, 0.49, 364.73
408.49, 0.50, 364.91
408.59, 0.50, 365.09
408.70, 0.51, 365.30
408.82, 0.52, 365.52
408.94, 0.53, 365.75
409.08, 0.55, 366.01
408.53, 0.93, 364.98
408.48, 1.03, 364.89
408.48, 1.10, 364.89
408.48, 1.17, 364.89
408.42, 1.27, 364.77
408.40, 1.34, 364.75
408.40, 1.41, 364.75
408.40, 1.48, 364.75
408.40, 1.55, 364.75
408.40, 1.62, 364.75
408.40, 1.69, 364.75
408.40, 1.75, 364.75
408.40, 1.82, 364.75
408.40, 1.89, 364.75
408.41, 1.96, 364.76
408.41, 2.02, 364.76
408.41, 2.09, 364.76
408.41, 2.16, 364.76
408.41, 2.23, 364.77
408.41, 2.29, 364.77
408.41, 2.36, 364.77
408.45, 0.49, 364.69
408.55, 0.50, 364.86
408.65, 0.51, 365.05
408.76, 0.52, 365.25
408.88, 0.53, 365.47
409.01, 0.54, 365.70
409.15, 0.55, 365.96
408.65, 0.90, 365.05
408.57, 1.01, 364.90
408.57, 1.09, 364.90
408.57, 1.16, 364.90
408.52, 1.25, 364.82
408.49, 1.34, 364.76
408.49, 1.41, 364.76
408.49, 1.48, 364.76
408.49, 1.54, 364.76
408.49, 1.61, 364.76
408.49, 1.68, 364.76
408.49, 1.75, 364.76
408.49, 1.82, 364.76
408.49, 1.89, 364.77
408.49, 1.96, 364.77
¯408.49, 2.02, 364.77
408.49, 2.09, 364.77
408.49, 2.16, 364.78
408.49, 2.23, 364.78
408.49, 2.30, 364.78
408.50, 2.36, 364.78
408.50, 0.49, 364.65
408.60, 0.50, 364.82
408.71, 0.51, 365.00
408.82, 0.52, 365.20
408.94, 0.53, 365.41
409.07, 0.54, 365.65
409.22, 0.56, 365.90
409.38, 0.57, 366.18
408.66, 1.00, 364.92
408.66, 1.08, 364.92
408.66, 1.15, 364.92
408.62, 1.24, 364.86
408.57, 1.33, 364.77
408.57, 1.40, 364.77
408.57, 1.47, 364.77
408.57, 1.54, 364.77
408.57, 1.61, 364.77
408.57, 1.68, 364.78
408.57, 1.75, 364.78
408.57, 1.82, 364.78
408.57, 1.88, 364.78
408.57, 1.95, 364.78
408.58, 2.02, 364.78
408.58, 2.09, 364.79
408.58, 2.16, 364.79
408.58, 2.23, 364.79
408.58, 2.30, 364.79
408.58, 2.37, 364.80
408.56, 0.50, 364.61
408.66, 0.51, 364.78
408.76, 0.52, 364.96
408.88, 0.53, 365.15
409.00, 0.54, 365.36
409.14, 0.55, 365.59
409.29, 0.56, 365.84
409.45, 0.57, 366.12
408.77, 0.98, 364.98
408.75, 1.07, 364.93
408.75, 1.14, 364.93
408.73, 1.22, 364.91
408.66, 1.32, 364.79
408.66, 1.39, 364.79
408.66, 1.46, 364.79
408.66, 1.53, 364.79
408.66, 1.60, 364.79
¯408.66, 1.67, 364.79
408.66, 1.74, 364.79
408.66, 1.81, 364.79
408.66, 1.88, 364.79
408.66, 1.95, 364.79
408.66, 2.02, 364.79
408.66, 2.09, 364.80
408.67, 2.16, 364.80
408.67, 2.23, 364.80
408.67, 2.30, 364.81
408.67, 2.37, 364.81
408.61, 0.50, 364.57
408.71, 0.51, 364.73
408.82, 0.52, 364.91
408.94, 0.53, 365.10
409.06, 0.54, 365.31
409.20, 0.55, 365.54
409.35, 0.57, 365.78
409.52, 0.58, 366.06
408.90, 0.95, 365.04
408.84, 1.05, 364.94
408.84, 1.13, 364.94
408.84, 1.20, 364.94
408.76, 1.31, 364.81
408.75, 1.38, 364.80
408.75, 1.45, 364.80
408.75, 1.52, 364.80
408.75, 1.59, 364.80
408.75, 1.67, 364.80
408.75, 1.74, 364.80
408.75, 1.81, 364.80
408.75, 1.88, 364.80
408.75, 1.95, 364.80
408.75, 2.02, 364.81
408.75, 2.09, 364.81
408.75, 2.16, 364.81
408.76, 2.23, 364.82
408.76, 2.30, 364.82
408.76, 2.37, 364.82
408.66, 0.51, 364.52
408.76, 0.51, 364.69
408.87, 0.52, 364.86
408.99, 0.53, 365.05
409.12, 0.54, 365.26
409.26, 0.56, 365.48
409.42, 0.57, 365.73
409.59, 0.58, 366.00
409.03, 0.92, 365.12
408.93, 1.04, 364.96
408.93, 1.12, 364.96
408.93, 1.19, 364.96
¯408.87, 1.29, 364.86
408.84, 1.37, 364.81
408.84, 1.44, 364.81
408.84, 1.52, 364.81
408.84, 1.59, 364.81
408.84, 1.66, 364.81
408.84, 1.73, 364.81
408.84, 1.80, 364.81
408.84, 1.87, 364.82
408.84, 1.95, 364.82
408.84, 2.02, 364.82
408.84, 2.09, 364.82
408.85, 2.16, 364.83
408.85, 2.23, 364.83
408.85, 2.30, 364.83
408.85, 2.37, 364.83
408.71, 0.51, 364.48
408.82, 0.52, 364.64
408.93, 0.53, 364.82
409.05, 0.54, 365.00
409.18, 0.55, 365.21
409.32, 0.56, 365.43
409.48, 0.57, 365.67
409.66, 0.59, 365.94
409.85, 0.60, 366.24
409.03, 1.03, 364.98
409.03, 1.10, 364.97
409.03, 1.18, 364.97
408.99, 1.27, 364.91
408.93, 1.36, 364.82
408.93, 1.44, 364.83
408.93, 1.51, 364.83
408.93, 1.58, 364.83
408.93, 1.65, 364.83
408.93, 1.73, 364.83
408.93, 1.80, 364.83
408.93, 1.87, 364.83
408.93, 1.94, 364.83
408.94, 2.02, 364.83
408.94, 2.09, 364.84
408.94, 2.16, 364.84
408.94, 2.23, 364.84
408.94, 2.30, 364.84
408.94, 2.38, 364.85
408.76, 0.51, 364.44
408.87, 0.52, 364.60
408.98, 0.53, 364.77
409.11, 0.54, 364.95
409.24, 0.55, 365.15
409.38, 0.57, 365.37
409.55, 0.58, 365.61
¯409.72, 0.59, 365.88
409.92, 0.60, 366.17
409.17, 1.00, 365.05
409.13, 1.09, 364.98
409.13, 1.17, 364.98
409.11, 1.25, 364.96
409.03, 1.35, 364.84
409.03, 1.43, 364.84
409.03, 1.50, 364.84
409.03, 1.57, 364.84
409.03, 1.65, 364.84
409.03, 1.72, 364.84
409.03, 1.79, 364.84
409.03, 1.87, 364.84
409.03, 1.94, 364.84
409.03, 2.01, 364.85
409.03, 2.09, 364.85
409.03, 2.16, 364.85
409.04, 2.23, 364.86
409.04, 2.31, 364.86
409.04, 2.38, 364.86
408.81, 0.52, 364.39
408.92, 0.52, 364.55
409.04, 0.53, 364.72
409.16, 0.55, 364.90
409.30, 0.56, 365.10
409.45, 0.57, 365.31
409.61, 0.58, 365.55
409.79, 0.59, 365.81
409.98, 0.61, 366.10
409.31, 0.96, 365.12
409.23, 1.08, 365.00
409.23, 1.16, 365.00
409.23, 1.24, 365.00
409.13, 1.34, 364.86
409.13, 1.42, 364.85
409.13, 1.49, 364.85
409.13, 1.57, 364.85
409.13, 1.64, 364.85
409.13, 1.72, 364.86
409.13, 1.79, 364.86
409.13, 1.86, 364.86
409.13, 1.94, 364.86
409.13, 2.01, 364.86
409.13, 2.09, 364.86
409.13, 2.16, 364.87
409.13, 2.23, 364.87
409.14, 2.31, 364.87
409.14, 2.38, 364.88
408.86, 0.52, 364.35
408.97, 0.53, 364.50
¯409.09, 0.54, 364.67
409.22, 0.55, 364.85
409.35, 0.56, 365.04
409.51, 0.57, 365.26
409.67, 0.58, 365.49
409.85, 0.60, 365.75
410.05, 0.61, 366.03
410.27, 0.63, 366.33
409.33, 1.06, 365.02
409.33, 1.14, 365.01
409.33, 1.22, 365.01
409.26, 1.32, 364.91
409.23, 1.41, 364.87
409.23, 1.48, 364.87
409.23, 1.56, 364.87
409.23, 1.63, 364.87
409.23, 1.71, 364.87
409.23, 1.78, 364.87
409.23, 1.86, 364.87
409.23, 1.93, 364.87
409.23, 2.01, 364.87
409.23, 2.08, 364.88
409.23, 2.16, 364.88
409.24, 2.23, 364.88
409.24, 2.31, 364.89
409.24, 2.38, 364.89
408.91, 0.52, 364.30
409.02, 0.53, 364.45
409.14, 0.54, 364.62
409.27, 0.55, 364.80
409.41, 0.56, 364.99
409.56, 0.58, 365.20
409.73, 0.59, 365.43
409.91, 0.60, 365.68
410.11, 0.62, 365.95
410.33, 0.64, 366.26
409.46, 1.04, 365.06
409.44, 1.13, 365.03
409.44, 1.21, 365.03
409.39, 1.30, 364.97
409.33, 1.40, 364.88
409.33, 1.47, 364.88
409.33, 1.55, 364.88
409.33, 1.63, 364.88
409.33, 1.70, 364.88
409.33, 1.78, 364.89
409.33, 1.86, 364.89
409.33, 1.93, 364.89
409.33, 2.01, 364.89
409.34, 2.08, 364.89
409.34, 2.16, 364.90
¯409.34, 2.23, 364.90
409.34, 2.31, 364.90
409.35, 2.39, 364.91
408.95, 0.53, 364.25
409.07, 0.53, 364.41
409.19, 0.54, 364.57
409.32, 0.56, 364.74
409.46, 0.57, 364.93
409.62, 0.58, 365.14
409.79, 0.59, 365.37
409.98, 0.61, 365.61
410.18, 0.62, 365.88
410.40, 0.64, 366.18
409.62, 1.01, 365.14
409.55, 1.12, 365.04
409.55, 1.20, 365.04
409.55, 1.28, 365.04
409.44, 1.39, 364.90
409.44, 1.46, 364.90
409.44, 1.54, 364.90
409.44, 1.62, 364.90
409.44, 1.70, 364.90
409.44, 1.77, 364.90
409.44, 1.85, 364.90
409.44, 1.93, 364.90
409.44, 2.00, 364.90
409.44, 2.08, 364.91
409.44, 2.16, 364.91
409.45, 2.24, 364.91
409.45, 2.31, 364.92
409.45, 2.39, 364.92
409.00, 0.53, 364.21
409.12, 0.54, 364.36
409.24, 0.55, 364.52
409.37, 0.56, 364.69
409.52, 0.57, 364.88
409.68, 0.58, 365.08
409.85, 0.60, 365.30
410.04, 0.61, 365.55
410.24, 0.63, 365.81
410.47, 0.65, 366.10
410.72, 0.67, 366.43
409.66, 1.10, 365.06
409.66, 1.18, 365.06
409.66, 1.27, 365.06
409.55, 1.37, 364.92
409.54, 1.45, 364.91
409.54, 1.53, 364.91
409.55, 1.61, 364.92
409.55, 1.69, 364.92
409.55, 1.77, 364.92
¯409.55, 1.85, 364.92
409.55, 1.92, 364.92
409.55, 2.00, 364.92
409.55, 2.08, 364.92
409.55, 2.16, 364.93
409.56, 2.24, 364.93
409.56, 2.32, 364.94
409.56, 2.39, 364.94
409.05, 0.53, 364.16
409.16, 0.54, 364.31
409.29, 0.55, 364.47
409.42, 0.56, 364.64
409.57, 0.57, 364.82
409.73, 0.59, 365.02
409.91, 0.60, 365.24
410.09, 0.62, 365.48
410.30, 0.63, 365.74
410.53, 0.65, 366.03
410.79, 0.67, 366.35
409.78, 1.08, 365.08
409.77, 1.17, 365.08
409.77, 1.25, 365.08
409.70, 1.35, 364.98
409.66, 1.44, 364.93
409.66, 1.52, 364.93
409.66, 1.60, 364.93
409.66, 1.68, 364.93
409.66, 1.76, 364.93
409.66, 1.84, 364.93
409.66, 1.92, 364.93
409.66, 2.00, 364.94
409.66, 2.08, 364.94
409.67, 2.16, 364.94
409.67, 2.24, 364.95
409.67, 2.32, 364.95
409.68, 2.40, 364.96
409.09, 0.53, 364.11
409.21, 0.54, 364.26
409.34, 0.55, 364.41
409.48, 0.57, 364.58
409.63, 0.58, 364.77
409.79, 0.59, 364.96
409.96, 0.60, 365.18
410.15, 0.62, 365.41
410.36, 0.64, 365.67
410.60, 0.66, 365.95
410.85, 0.68, 366.27
409.95, 1.05, 365.16
409.89, 1.15, 365.09
409.89, 1.24, 365.09
409.89, 1.32, 365.09
¯409.77, 1.43, 364.95
409.77, 1.51, 364.95
409.77, 1.59, 364.95
409.77, 1.68, 364.95
409.77, 1.76, 364.95
409.77, 1.84, 364.95
409.77, 1.92, 364.95
409.78, 2.00, 364.95
409.78, 2.08, 364.96
409.78, 2.16, 364.96
409.79, 2.24, 364.97
409.79, 2.32, 364.97
409.79, 2.40, 364.98
409.14, 0.54, 364.07
409.26, 0.55, 364.21
409.39, 0.56, 364.36
409.53, 0.57, 364.53
409.68, 0.58, 364.71
409.84, 0.59, 364.90
410.02, 0.61, 365.11
410.21, 0.62, 365.34
410.42, 0.64, 365.59
410.66, 0.66, 365.87
410.92, 0.68, 366.18
410.15, 1.01, 365.27
410.01, 1.14, 365.11
410.02, 1.22, 365.11
410.02, 1.31, 365.11
409.89, 1.42, 364.96
409.89, 1.50, 364.96
409.89, 1.59, 364.96
409.89, 1.67, 364.97
409.89, 1.75, 364.97
409.89, 1.83, 364.97
409.89, 1.91, 364.97
409.89, 1.99, 364.97
409.90, 2.08, 364.97
409.90, 2.16, 364.98
409.91, 2.24, 364.98
409.94, 2.32, 365.02
409.99, 2.41, 365.08
409.20, 0.53, 364.05
409.30, 0.55, 364.16
409.43, 0.56, 364.31
409.58, 0.57, 364.47
409.73, 0.58, 364.65
409.89, 0.60, 364.84
410.07, 0.61, 365.05
410.27, 0.63, 365.27
410.48, 0.65, 365.52
410.72, 0.66, 365.79
¯410.98, 0.69, 366.09
411.27, 0.71, 366.43
410.15, 1.12, 365.13
410.14, 1.21, 365.13
410.14, 1.30, 365.13
410.14, 1.38, 365.13
410.01, 1.49, 364.98
410.02, 1.58, 364.98
410.02, 1.66, 364.98
410.02, 1.74, 364.98
410.02, 1.83, 364.98
410.02, 1.91, 364.99
410.03, 1.99, 365.00
410.07, 2.07, 365.04
410.11, 2.16, 365.10
410.16, 2.24, 365.15
410.21, 2.33, 365.20
410.22, 2.42, 365.22
409.28, 0.51, 364.03
409.35, 0.55, 364.11
409.48, 0.56, 364.26
409.62, 0.58, 364.42
409.78, 0.59, 364.59
409.94, 0.60, 364.78
410.12, 0.62, 364.98
410.32, 0.63, 365.20
410.54, 0.65, 365.44
410.78, 0.67, 365.72
411.04, 0.69, 366.01
411.33, 0.72, 366.34
410.32, 1.09, 365.20
410.27, 1.19, 365.15
410.27, 1.28, 365.15
410.27, 1.37, 365.15
410.18, 1.47, 365.05
410.21, 1.56, 365.07
410.23, 1.64, 365.10
410.26, 1.72, 365.13
410.28, 1.81, 365.16
410.29, 1.89, 365.17
410.30, 1.98, 365.18
410.31, 2.07, 365.19
410.32, 2.16, 365.20
410.33, 2.24, 365.21
410.34, 2.33, 365.22
410.35, 2.42, 365.23
409.35, 0.50, 364.01
409.40, 0.55, 364.06
409.53, 0.57, 364.20
409.67, 0.58, 364.36
409.83, 0.59, 364.53
¯409.99, 0.61, 364.71
410.18, 0.62, 364.91
410.38, 0.64, 365.13
410.60, 0.65, 365.37
410.84, 0.67, 365.63
411.10, 0.70, 365.92
411.40, 0.72, 366.24
410.54, 1.05, 365.31
410.41, 1.18, 365.17
410.41, 1.27, 365.17
410.41, 1.36, 365.17
410.41, 1.45, 365.17
410.41, 1.54, 365.17
410.41, 1.63, 365.17
410.41, 1.71, 365.17
410.41, 1.80, 365.17
410.42, 1.89, 365.18
410.43, 1.98, 365.19
410.44, 2.07, 365.20
410.45, 2.16, 365.21
410.46, 2.25, 365.23
410.47, 2.34, 365.24
410.48, 2.43, 365.25
409.44, 0.48, 364.01
409.47, 0.54, 364.05
409.57, 0.57, 364.15
409.72, 0.58, 364.30
409.87, 0.60, 364.47
410.04, 0.61, 364.65
410.23, 0.62, 364.85
410.43, 0.64, 365.06
410.65, 0.66, 365.30
410.89, 0.68, 365.55
411.16, 0.70, 365.84
411.46, 0.73, 366.15
411.80, 0.75, 366.51
410.55, 1.16, 365.19
410.55, 1.25, 365.19
410.55, 1.34, 365.19
410.55, 1.43, 365.19
410.55, 1.52, 365.19
410.55, 1.62, 365.19
410.55, 1.71, 365.19
410.55, 1.80, 365.19
410.56, 1.89, 365.20
410.57, 1.98, 365.21
410.58, 2.07, 365.22
410.59, 2.16, 365.23
410.60, 2.25, 365.24
410.61, 2.34, 365.25
410.62, 2.43, 365.27
¯409.54, 0.46, 364.02
409.55, 0.53, 364.03
409.61, 0.57, 364.09
409.76, 0.59, 364.24
409.92, 0.60, 364.41
410.09, 0.61, 364.59
410.28, 0.63, 364.78
410.48, 0.64, 364.99
410.71, 0.66, 365.22
410.95, 0.68, 365.47
411.22, 0.71, 365.75
411.52, 0.73, 366.06
411.86, 0.76, 366.41
410.72, 1.13, 365.24
410.69, 1.23, 365.21
410.69, 1.33, 365.21
410.69, 1.42, 365.21
410.69, 1.51, 365.21
410.69, 1.61, 365.21
410.69, 1.70, 365.21
410.69, 1.79, 365.21
410.70, 1.88, 365.21
410.71, 1.97, 365.23
410.72, 2.06, 365.24
410.73, 2.16, 365.25
410.74, 2.25, 365.26
410.76, 2.34, 365.27
410.77, 2.43, 365.28
409.63, 0.44, 364.01
409.64, 0.51, 364.02
409.68, 0.57, 364.06
409.80, 0.59, 364.19
409.97, 0.60, 364.35
410.14, 0.62, 364.52
410.33, 0.63, 364.71
410.53, 0.65, 364.92
410.76, 0.67, 365.14
411.00, 0.69, 365.39
411.28, 0.71, 365.66
411.58, 0.74, 365.96
411.92, 0.76, 366.31
410.98, 1.09, 365.36
410.84, 1.22, 365.23
410.84, 1.31, 365.23
410.84, 1.41, 365.23
410.84, 1.50, 365.23
410.84, 1.60, 365.23
410.84, 1.69, 365.23
410.84, 1.78, 365.23
410.85, 1.88, 365.23
410.86, 1.97, 365.24
¯410.87, 2.06, 365.25
410.88, 2.16, 365.27
410.89, 2.25, 365.28
410.90, 2.34, 365.29
410.92, 2.44, 365.30
409.67, 0.44, 363.95
409.74, 0.48, 364.02
409.76, 0.55, 364.04
409.85, 0.59, 364.13
410.01, 0.61, 364.29
410.19, 0.62, 364.46
410.38, 0.63, 364.64
410.59, 0.65, 364.85
410.81, 0.67, 365.07
411.06, 0.69, 365.31
411.33, 0.71, 365.57
411.64, 0.74, 365.87
411.98, 0.77, 366.21
412.36, 0.80, 366.58
411.00, 1.20, 365.25
411.00, 1.30, 365.25
411.00, 1.39, 365.25
411.00, 1.49, 365.25
411.00, 1.58, 365.25
411.00, 1.68, 365.25
411.00, 1.77, 365.25
411.00, 1.87, 365.25
411.01, 1.96, 365.26
411.02, 2.06, 365.27
411.03, 2.16, 365.28
411.05, 2.25, 365.30
411.06, 2.35, 365.31
411.07, 2.44, 365.32
409.71, 0.44, 363.90
409.84, 0.46, 364.02
409.84, 0.54, 364.02
409.90, 0.59, 364.07
410.05, 0.61, 364.22
410.23, 0.62, 364.39
410.42, 0.64, 364.57
410.63, 0.66, 364.77
410.86, 0.67, 364.99
411.11, 0.70, 365.22
411.38, 0.72, 365.48
411.70, 0.74, 365.78
412.04, 0.77, 366.11
412.42, 0.81, 366.47
411.18, 1.18, 365.29
411.16, 1.28, 365.27
411.16, 1.38, 365.27
411.16, 1.47, 365.27
¯411.16, 1.57, 365.27
411.16, 1.67, 365.27
411.16, 1.77, 365.27
411.16, 1.86, 365.27
411.17, 1.96, 365.28
411.18, 2.06, 365.29
411.19, 2.15, 365.30
411.21, 2.25, 365.32
411.22, 2.35, 365.33
411.22, 2.45, 365.33
409.75, 0.45, 363.84
409.89, 0.46, 363.97
409.95, 0.51, 364.02
409.98, 0.58, 364.05
410.10, 0.61, 364.16
410.28, 0.63, 364.33
410.47, 0.64, 364.50
410.68, 0.66, 364.70
410.91, 0.68, 364.91
411.16, 0.70, 365.14
411.44, 0.72, 365.40
411.75, 0.75, 365.69
412.10, 0.78, 366.00
412.48, 0.81, 366.36
412.92, 0.85, 366.77
411.33, 1.26, 365.30
411.33, 1.36, 365.30
411.33, 1.46, 365.30
411.33, 1.56, 365.30
411.33, 1.66, 365.30
411.33, 1.76, 365.30
411.33, 1.86, 365.30
411.33, 1.96, 365.30
411.34, 2.06, 365.31
411.36, 2.15, 365.32
411.37, 2.25, 365.34
411.39, 2.35, 365.35
411.39, 2.45, 365.35
409.79, 0.45, 363.78
409.94, 0.46, 363.91
410.06, 0.49, 364.02
410.07, 0.56, 364.03
410.14, 0.61, 364.10
410.32, 0.63, 364.26
410.52, 0.64, 364.44
410.73, 0.66, 364.62
410.96, 0.68, 364.83
411.21, 0.70, 365.06
411.49, 0.73, 365.31
411.81, 0.75, 365.59
412.15, 0.78, 365.90
¯412.54, 0.82, 366.25
412.98, 0.85, 366.65
411.51, 1.24, 365.33
411.50, 1.34, 365.32
411.50, 1.45, 365.32
411.51, 1.55, 365.32
411.51, 1.65, 365.32
411.51, 1.75, 365.32
411.51, 1.85, 365.32
411.51, 1.95, 365.32
411.52, 2.05, 365.33
411.53, 2.15, 365.34
411.54, 2.26, 365.36
411.56, 2.36, 365.37
411.57, 2.46, 365.38
409.83, 0.45, 363.73
409.98, 0.46, 363.86
410.13, 0.47, 363.99
410.17, 0.54, 364.03
410.22, 0.60, 364.07
410.36, 0.63, 364.19
410.56, 0.65, 364.37
410.77, 0.67, 364.55
411.01, 0.69, 364.75
411.26, 0.71, 364.97
411.54, 0.73, 365.22
411.86, 0.76, 365.50
412.21, 0.79, 365.80
412.60, 0.82, 366.14
413.04, 0.86, 366.53
411.71, 1.22, 365.36
411.69, 1.33, 365.35
411.69, 1.43, 365.35
411.69, 1.53, 365.35
411.69, 1.64, 365.35
411.69, 1.74, 365.35
411.69, 1.84, 365.35
411.69, 1.95, 365.35
411.69, 2.05, 365.35
411.71, 2.15, 365.36
411.72, 2.26, 365.38
411.74, 2.36, 365.39
411.75, 2.47, 365.40
409.87, 0.45, 363.67
410.02, 0.47, 363.80
410.17, 0.48, 363.93
410.29, 0.51, 364.03
410.31, 0.59, 364.04
410.41, 0.64, 364.13
410.60, 0.65, 364.29
410.82, 0.67, 364.48
¯411.05, 0.69, 364.67
411.31, 0.71, 364.89
411.59, 0.74, 365.13
411.91, 0.76, 365.40
412.26, 0.79, 365.70
412.65, 0.83, 366.03
413.09, 0.86, 366.40
413.59, 0.91, 366.83
411.88, 1.31, 365.37
411.88, 1.41, 365.37
411.88, 1.52, 365.37
411.88, 1.63, 365.38
411.88, 1.73, 365.38
411.88, 1.84, 365.38
411.88, 1.94, 365.38
411.88, 2.05, 365.38
411.89, 2.15, 365.39
411.91, 2.26, 365.40
411.93, 2.36, 365.41
411.94, 2.47, 365.43
409.90, 0.46, 363.61
410.05, 0.47, 363.74
410.21, 0.48, 363.87
410.38, 0.50, 364.01
410.41, 0.57, 364.03
410.47, 0.63, 364.08
410.65, 0.66, 364.22
410.86, 0.67, 364.40
411.10, 0.69, 364.59
411.35, 0.72, 364.81
411.64, 0.74, 365.04
411.96, 0.77, 365.30
412.31, 0.80, 365.59
412.70, 0.83, 365.92
413.15, 0.87, 366.28
413.65, 0.91, 366.70
412.09, 1.29, 365.41
412.08, 1.40, 365.40
412.08, 1.50, 365.40
412.08, 1.61, 365.40
412.08, 1.72, 365.40
412.08, 1.83, 365.40
412.08, 1.94, 365.40
412.08, 2.04, 365.41
412.09, 2.15, 365.41
412.10, 2.26, 365.42
412.12, 2.37, 365.44
412.14, 2.48, 365.45
409.94, 0.46, 363.55
410.09, 0.47, 363.68
410.25, 0.48, 363.80
¯410.42, 0.50, 363.94
410.54, 0.54, 364.03
410.56, 0.62, 364.05
410.69, 0.66, 364.15
410.90, 0.68, 364.33
411.14, 0.70, 364.51
411.40, 0.72, 364.72
411.69, 0.74, 364.95
412.01, 0.77, 365.21
412.36, 0.80, 365.49
412.76, 0.83, 365.81
413.20, 0.87, 366.16
413.70, 0.92, 366.57
412.31, 1.26, 365.45
412.29, 1.38, 365.43
412.29, 1.49, 365.43
412.29, 1.60, 365.43
412.29, 1.71, 365.43
412.29, 1.82, 365.43
412.29, 1.93, 365.43
412.29, 2.04, 365.43
412.29, 2.15, 365.44
412.31, 2.26, 365.45
412.33, 2.37, 365.46
412.35, 2.48, 365.48
409.98, 0.46, 363.50
410.13, 0.47, 363.61
410.29, 0.49, 363.74
410.46, 0.50, 363.87
410.64, 0.52, 364.02
410.66, 0.60, 364.03
410.73, 0.66, 364.08
410.95, 0.68, 364.25
411.18, 0.70, 364.44
411.44, 0.72, 364.64
411.74, 0.75, 364.86
412.05, 0.77, 365.11
412.41, 0.81, 365.39
412.81, 0.84, 365.70
413.25, 0.88, 366.04
413.75, 0.92, 366.43
414.33, 0.98, 366.89
412.51, 1.36, 365.46
412.51, 1.47, 365.46
412.51, 1.59, 365.46
412.51, 1.70, 365.46
412.51, 1.81, 365.46
412.51, 1.92, 365.47
412.51, 2.04, 365.47
412.51, 2.15, 365.47
412.52, 2.26, 365.47
¯412.54, 2.38, 365.49
412.56, 2.49, 365.50
410.01, 0.47, 363.44
410.16, 0.48, 363.55
410.33, 0.49, 363.68
410.50, 0.50, 363.81
410.68, 0.52, 363.95
410.79, 0.57, 364.03
410.83, 0.64, 364.06
410.99, 0.68, 364.17
411.23, 0.70, 364.36
411.49, 0.73, 364.55
411.78, 0.75, 364.77
412.10, 0.78, 365.02
412.46, 0.81, 365.28
412.85, 0.84, 365.59
413.30, 0.88, 365.92
413.81, 0.93, 366.30
414.39, 0.98, 366.74
412.75, 1.34, 365.50
412.74, 1.45, 365.50
412.74, 1.57, 365.50
412.74, 1.69, 365.50
412.74, 1.80, 365.50
412.74, 1.92, 365.50
412.74, 2.03, 365.50
412.74, 2.15, 365.50
412.74, 2.27, 365.50
412.77, 2.38, 365.52
412.79, 2.50, 365.53
410.05, 0.47, 363.38
410.20, 0.48, 363.49
410.36, 0.49, 363.61
410.54, 0.51, 363.74
410.72, 0.52, 363.88
410.92, 0.54, 364.02
410.93, 0.63, 364.03
411.03, 0.69, 364.10
411.27, 0.71, 364.28
411.53, 0.73, 364.47
411.82, 0.75, 364.68
412.14, 0.78, 364.92
412.50, 0.81, 365.18
412.90, 0.85, 365.47
413.34, 0.89, 365.80
413.86, 0.93, 366.17
414.43, 0.99, 366.60
413.01, 1.31, 365.56
412.99, 1.43, 365.54
412.98, 1.55, 365.53
412.98, 1.67, 365.53
¯412.98, 1.79, 365.53
412.98, 1.91, 365.53
412.98, 2.03, 365.53
412.98, 2.15, 365.53
412.98, 2.27, 365.53
413.00, 2.39, 365.55
413.02, 2.51, 365.56
410.08, 0.47, 363.32
410.23, 0.48, 363.43
410.40, 0.50, 363.55
410.57, 0.51, 363.67
410.76, 0.53, 363.80
410.96, 0.54, 363.95
411.07, 0.60, 364.03
411.12, 0.67, 364.06
411.31, 0.71, 364.19
411.57, 0.73, 364.38
411.86, 0.76, 364.59
412.19, 0.79, 364.82
412.55, 0.82, 365.08
412.95, 0.85, 365.36
413.39, 0.89, 365.68
413.90, 0.94, 366.04
414.48, 0.99, 366.46
415.15, 1.05, 366.93
413.25, 1.41, 365.58
413.24, 1.54, 365.57
413.24, 1.66, 365.57
413.24, 1.78, 365.57
413.24, 1.90, 365.57
413.24, 2.03, 365.57
413.24, 2.15, 365.57
413.24, 2.27, 365.57
413.27, 2.39, 365.59
413.29, 2.52, 365.61
410.11, 0.47, 363.26
410.27, 0.49, 363.37
410.43, 0.50, 363.48
410.61, 0.51, 363.60
410.80, 0.53, 363.73
411.00, 0.55, 363.87
411.22, 0.57, 364.03
411.23, 0.66, 364.03
411.35, 0.71, 364.11
411.61, 0.74, 364.30
411.91, 0.76, 364.50
412.23, 0.79, 364.73
412.59, 0.82, 364.98
412.99, 0.86, 365.25
413.44, 0.90, 365.56
413.95, 0.94, 365.91
¯414.53, 1.00, 366.31
415.19, 1.06, 366.77
413.52, 1.39, 365.62
413.52, 1.52, 365.62
413.52, 1.64, 365.61
413.51, 1.77, 365.61
413.51, 1.90, 365.61
413.51, 2.02, 365.61
413.53, 2.15, 365.62
413.55, 2.27, 365.64
413.58, 2.40, 365.65
413.60, 2.53, 365.67
410.15, 0.47, 363.20
410.30, 0.49, 363.31
410.46, 0.50, 363.42
410.64, 0.52, 363.53
410.83, 0.53, 363.66
411.04, 0.55, 363.80
411.26, 0.57, 363.95
411.37, 0.63, 364.02
411.43, 0.70, 364.06
411.65, 0.74, 364.21
411.95, 0.77, 364.41
412.27, 0.79, 364.63
412.63, 0.82, 364.87
413.03, 0.86, 365.14
413.48, 0.90, 365.44
413.99, 0.95, 365.78
414.57, 1.00, 366.17
415.23, 1.06, 366.62
416.00, 1.14, 367.13
413.81, 1.50, 365.66
413.81, 1.63, 365.66
413.81, 1.76, 365.66
413.83, 1.89, 365.67
413.84, 2.02, 365.68
413.86, 2.15, 365.69
413.88, 2.28, 365.71
413.91, 2.41, 365.73
413.94, 2.54, 365.74
410.18, 0.48, 363.14
410.33, 0.49, 363.24
410.50, 0.50, 363.35
410.67, 0.52, 363.47
410.87, 0.54, 363.59
411.07, 0.55, 363.73
411.30, 0.57, 363.87
411.53, 0.60, 364.02
411.54, 0.69, 364.03
411.69, 0.74, 364.13
411.98, 0.77, 364.32
¯412.31, 0.80, 364.53
412.67, 0.83, 364.77
413.07, 0.87, 365.03
413.52, 0.91, 365.32
414.03, 0.95, 365.65
414.62, 1.01, 366.03
415.27, 1.07, 366.46
416.05, 1.14, 366.96
416.95, 1.23, 367.55
414.16, 1.61, 365.73
414.17, 1.74, 365.74
414.18, 1.88, 365.75
414.19, 2.01, 365.76
414.21, 2.14, 365.76
414.24, 2.28, 365.79
414.29, 2.42, 365.82
410.21, 0.48, 363.08
410.36, 0.49, 363.18
410.53, 0.51, 363.28
410.71, 0.52, 363.40
410.90, 0.54, 363.52
411.11, 0.56, 363.65
411.33, 0.58, 363.79
411.58, 0.60, 363.95
411.69, 0.66, 364.02
411.75, 0.74, 364.06
412.02, 0.77, 364.23
412.35, 0.80, 364.44
412.71, 0.83, 364.66
413.11, 0.87, 364.92
