ŸVERSION 0.7
FIELDS x y z
SIZE 8 8 8
TYPE F F F
COUNT 1 1 1
WIDTH 2271
HEIGHT 1
VIEWPOINT 393.99, 14.79, 307.70 1 413.65, 9.74, 311.30
POINTS 2271
DATA ascii
410.26, 9.24, 315.29
410.26, 9.31, 315.29
¯410.26, 9.37, 315.29
410.26, 9.44, 315.29
410.26, 9.50, 315.29
410.26, 9.56, 315.31
410.27, 9.63, 315.34
410.28, 9.69, 315.39
410.29, 9.76, 315.46
410.32, 8.09, 315.29
410.32, 8.16, 315.29
410.32, 8.23, 315.29
410.32, 8.30, 315.29
410.32, 8.37, 315.29
410.32, 8.44, 315.29
410.32, 8.51, 315.29
410.32, 8.58, 315.29
410.32, 8.65, 315.29
410.32, 8.71, 315.29
410.32, 8.78, 315.29
410.32, 8.85, 315.29
410.32, 8.91, 315.29
410.32, 8.98, 315.29
410.32, 9.05, 315.29
410.32, 9.11, 315.29
410.32, 9.18, 315.29
410.32, 9.24, 315.29
410.32, 9.31, 315.29
410.32, 9.37, 315.29
410.32, 9.44, 315.29
410.33, 9.50, 315.30
410.33, 9.56, 315.32
410.33, 9.63, 315.35
410.34, 9.69, 315.40
410.36, 9.76, 315.48
410.39, 8.08, 315.31
410.39, 8.15, 315.31
410.39, 8.22, 315.31
410.39, 8.29, 315.31
410.39, 8.36, 315.31
410.39, 8.43, 315.31
410.39, 8.50, 315.31
410.39, 8.57, 315.31
410.39, 8.64, 315.31
410.39, 8.71, 315.31
410.39, 8.77, 315.31
410.39, 8.84, 315.31
410.39, 8.91, 315.31
410.39, 8.98, 315.31
410.39, 9.04, 315.31
410.39, 9.11, 315.31
410.39, 9.17, 315.31
410.39, 9.24, 315.31
¯410.39, 9.30, 315.31
410.39, 9.37, 315.31
410.39, 9.43, 315.31
410.39, 9.50, 315.31
410.40, 9.56, 315.33
410.41, 9.63, 315.37
410.42, 9.69, 315.43
410.44, 9.76, 315.54
410.46, 8.06, 315.34
410.46, 8.13, 315.34
410.46, 8.20, 315.34
410.46, 8.28, 315.34
410.46, 8.35, 315.34
410.47, 8.42, 315.34
410.47, 8.49, 315.34
410.47, 8.56, 315.34
410.47, 8.63, 315.34
410.47, 8.70, 315.34
410.47, 8.76, 315.34
410.47, 8.83, 315.34
410.47, 8.90, 315.34
410.47, 8.97, 315.34
410.47, 9.03, 315.34
410.47, 9.10, 315.34
410.47, 9.17, 315.34
410.47, 9.23, 315.34
410.47, 9.30, 315.34
410.47, 9.36, 315.34
410.47, 9.43, 315.34
410.47, 9.49, 315.35
410.47, 9.56, 315.37
410.48, 9.62, 315.41
410.50, 9.69, 315.49
410.55, 8.03, 315.41
410.55, 8.10, 315.40
410.55, 8.18, 315.40
410.55, 8.25, 315.40
410.55, 8.32, 315.40
410.55, 8.40, 315.40
410.55, 8.47, 315.40
410.55, 8.54, 315.40
410.55, 8.61, 315.40
410.55, 8.68, 315.40
410.55, 8.75, 315.40
410.55, 8.82, 315.40
410.55, 8.89, 315.40
410.55, 8.95, 315.40
410.55, 9.02, 315.40
410.55, 9.09, 315.40
410.55, 9.16, 315.40
410.55, 9.22, 315.40
¯410.55, 9.29, 315.40
410.55, 9.36, 315.40
410.55, 9.42, 315.40
410.55, 9.49, 315.41
410.56, 9.56, 315.45
410.58, 9.62, 315.52
411.24, 7.08, 317.91
411.38, 6.99, 318.48
411.59, 6.83, 319.31
411.85, 6.63, 320.34
412.10, 6.46, 321.37
412.36, 6.32, 322.40
412.59, 6.25, 323.31
412.82, 6.19, 324.24
412.92, 6.30, 324.64
413.17, 6.27, 325.66
413.46, 6.25, 326.79
413.78, 6.22, 328.07
414.15, 6.20, 329.55
414.79, 6.03, 332.14
415.22, 6.07, 333.84
411.34, 7.08, 317.88
411.49, 7.00, 318.44
411.70, 6.84, 319.26
411.97, 6.64, 320.29
412.23, 6.49, 321.25
412.51, 6.34, 322.30
412.74, 6.27, 323.17
412.99, 6.21, 324.14
413.09, 6.32, 324.50
413.36, 6.29, 325.52
413.66, 6.26, 326.65
414.00, 6.24, 327.93
414.38, 6.22, 329.39
415.06, 6.05, 331.95
415.47, 6.11, 333.49
411.43, 7.09, 317.85
411.59, 7.00, 318.40
411.82, 6.84, 319.21
412.10, 6.65, 320.22
412.35, 6.51, 321.12
412.64, 6.36, 322.17
412.89, 6.30, 323.04
413.16, 6.22, 324.03
413.26, 6.34, 324.37
413.54, 6.31, 325.37
413.85, 6.28, 326.50
414.21, 6.26, 327.77
414.61, 6.24, 329.22
415.31, 6.08, 331.71
415.75, 6.13, 333.29
¯411.53, 7.09, 317.81
411.69, 7.01, 318.35
411.93, 6.85, 319.16
412.21, 6.67, 320.11
412.47, 6.54, 320.99
412.77, 6.39, 322.02
413.04, 6.31, 322.93
413.33, 6.24, 323.91
413.43, 6.36, 324.24
413.71, 6.33, 325.22
414.05, 6.30, 326.35
414.42, 6.28, 327.61
414.84, 6.25, 329.06
415.56, 6.10, 331.48
416.03, 6.15, 333.07
416.28, 6.36, 333.92
411.63, 7.09, 317.78
411.79, 7.01, 318.31
412.04, 6.86, 319.10
412.31, 6.70, 319.99
412.58, 6.57, 320.86
412.90, 6.42, 321.87
413.19, 6.33, 322.81
413.48, 6.27, 323.75
413.58, 6.38, 324.09
413.88, 6.36, 325.06
414.23, 6.33, 326.17
414.62, 6.30, 327.43
415.07, 6.27, 328.88
415.81, 6.12, 331.29
416.17, 6.24, 332.44
416.42, 6.44, 333.25
416.77, 6.63, 334.37
411.72, 7.09, 317.74
411.90, 7.01, 318.27
412.14, 6.87, 319.03
412.42, 6.72, 319.87
412.70, 6.59, 320.75
413.02, 6.46, 321.72
413.33, 6.35, 322.69
413.63, 6.29, 323.61
413.74, 6.41, 323.94
414.07, 6.37, 324.95
414.41, 6.35, 326.00
414.82, 6.32, 327.26
415.28, 6.30, 328.68
416.05, 6.15, 331.04
416.40, 6.28, 332.11
416.56, 6.52, 332.60
416.83, 6.74, 333.43
411.82, 7.10, 317.70
¯412.00, 7.02, 318.23
412.23, 6.89, 318.92
412.51, 6.75, 319.75
412.82, 6.61, 320.64
413.13, 6.49, 321.57
413.48, 6.37, 322.57
413.78, 6.31, 323.47
413.89, 6.43, 323.78
414.23, 6.39, 324.79
414.60, 6.37, 325.86
415.01, 6.34, 327.07
415.49, 6.32, 328.48
416.21, 6.21, 330.60
416.61, 6.32, 331.77
416.83, 6.54, 332.40
416.99, 6.80, 332.89
417.24, 7.04, 333.61
411.91, 7.10, 317.66
412.10, 7.02, 318.18
412.32, 6.92, 318.82
412.61, 6.78, 319.62
412.93, 6.63, 320.53
413.25, 6.52, 321.42
413.62, 6.39, 322.45
413.94, 6.33, 323.34
414.04, 6.45, 323.64
414.39, 6.42, 324.61
414.79, 6.38, 325.73
415.20, 6.37, 326.89
415.70, 6.34, 328.28
416.42, 6.24, 330.31
416.77, 6.38, 331.29
417.10, 6.55, 332.22
417.27, 6.81, 332.70
417.45, 7.08, 333.20
417.66, 7.35, 333.79
412.00, 7.10, 317.61
412.19, 7.03, 318.11
412.41, 6.94, 318.71
412.70, 6.80, 319.50
413.05, 6.65, 320.42
413.37, 6.54, 321.29
413.76, 6.40, 322.33
414.08, 6.35, 323.20
414.19, 6.47, 323.49
414.54, 6.44, 324.44
414.96, 6.40, 325.56
415.40, 6.38, 326.74
415.90, 6.36, 328.07
416.69, 6.24, 330.21
416.96, 6.42, 330.92
¯417.37, 6.56, 332.03
417.55, 6.82, 332.51
417.73, 7.09, 333.00
417.92, 7.37, 333.52
412.09, 7.11, 317.56
412.28, 7.05, 318.04
412.50, 6.96, 318.61
412.80, 6.83, 319.37
413.16, 6.67, 320.31
413.49, 6.56, 321.16
413.88, 6.43, 322.18
414.23, 6.37, 323.06
414.33, 6.49, 323.34
414.71, 6.46, 324.30
415.12, 6.43, 325.36
415.60, 6.39, 326.60
416.11, 6.38, 327.91
416.96, 6.24, 330.09
417.23, 6.42, 330.80
417.53, 6.61, 331.56
417.82, 6.83, 332.32
418.01, 7.10, 332.80
418.19, 7.38, 333.26
418.38, 7.68, 333.75
412.18, 7.12, 317.50
412.36, 7.06, 317.96
412.58, 6.98, 318.51
412.88, 6.86, 319.25
413.25, 6.70, 320.16
413.60, 6.58, 321.03
414.00, 6.46, 322.02
414.36, 6.39, 322.91
414.48, 6.52, 323.19
414.86, 6.48, 324.14
415.29, 6.45, 325.19
415.78, 6.41, 326.41
416.32, 6.39, 327.74
417.17, 6.27, 329.85
417.51, 6.42, 330.69
417.81, 6.62, 331.44
418.08, 6.84, 332.10
418.26, 7.11, 332.55
418.45, 7.40, 333.00
418.64, 7.69, 333.48
412.26, 7.13, 317.43
412.45, 7.07, 317.89
412.67, 7.00, 318.41
412.97, 6.88, 319.13
413.34, 6.73, 320.01
413.71, 6.61, 320.90
414.12, 6.49, 321.85
¯414.50, 6.41, 322.77
414.61, 6.54, 323.03
415.01, 6.50, 323.97
415.46, 6.46, 325.04
415.95, 6.44, 326.20
416.52, 6.41, 327.57
417.37, 6.30, 329.58
417.78, 6.42, 330.57
418.06, 6.63, 331.22
418.28, 6.87, 331.75
418.50, 7.13, 332.26
418.70, 7.41, 332.74
418.90, 7.70, 333.22
419.11, 8.01, 333.70
412.34, 7.14, 317.36
412.53, 7.08, 317.81
412.75, 7.02, 318.32
413.06, 6.91, 319.01
413.43, 6.76, 319.85
413.82, 6.63, 320.76
414.22, 6.52, 321.68
414.63, 6.44, 322.61
414.76, 6.55, 322.90
415.15, 6.52, 323.80
415.61, 6.49, 324.86
416.13, 6.45, 326.03
416.71, 6.43, 327.37
417.60, 6.31, 329.39
418.03, 6.44, 330.38
418.24, 6.67, 330.87
418.47, 6.91, 331.39
418.71, 7.16, 331.93
418.92, 7.43, 332.42
419.14, 7.72, 332.92
419.37, 8.02, 333.43
412.41, 7.15, 317.29
412.61, 7.10, 317.73
412.84, 7.03, 318.23
413.14, 6.93, 318.89
413.51, 6.79, 319.71
413.93, 6.65, 320.63
414.32, 6.55, 321.50
414.76, 6.46, 322.45
414.90, 6.57, 322.76
415.30, 6.54, 323.65
415.76, 6.51, 324.67
416.30, 6.47, 325.86
416.90, 6.44, 327.18
417.83, 6.32, 329.23
418.25, 6.46, 330.15
418.43, 6.70, 330.54
¯418.66, 6.94, 331.04
418.90, 7.19, 331.56
419.14, 7.45, 332.10
419.36, 7.73, 332.59
419.59, 8.03, 333.09
412.49, 7.17, 317.22
412.69, 7.11, 317.65
412.92, 7.05, 318.14
413.22, 6.95, 318.77
413.60, 6.82, 319.57
414.03, 6.68, 320.49
414.42, 6.59, 321.32
414.88, 6.49, 322.29
415.04, 6.58, 322.63
415.43, 6.57, 323.46
415.91, 6.53, 324.49
416.46, 6.49, 325.66
417.09, 6.46, 326.98
418.03, 6.34, 328.98
418.45, 6.48, 329.86
418.69, 6.70, 330.38
418.88, 6.95, 330.78
419.08, 7.21, 331.21
419.33, 7.47, 331.74
419.58, 7.75, 332.26
419.81, 8.05, 332.75
420.09, 8.35, 333.36
412.56, 7.18, 317.14
412.77, 7.12, 317.57
413.01, 7.06, 318.05
413.30, 6.98, 318.65
413.68, 6.85, 319.43
414.12, 6.70, 320.34
414.52, 6.62, 321.15
414.98, 6.52, 322.09
415.17, 6.60, 322.49
415.56, 6.59, 323.28
416.07, 6.55, 324.32
416.62, 6.52, 325.45
417.27, 6.48, 326.78
418.18, 6.39, 328.64
418.59, 6.52, 329.49
418.95, 6.71, 330.22
419.14, 6.96, 330.62
419.34, 7.22, 331.03
419.56, 7.49, 331.46
419.78, 7.77, 331.92
420.06, 8.06, 332.49
420.39, 8.35, 333.17
412.64, 7.19, 317.07
412.85, 7.14, 317.49
¯413.09, 7.08, 317.96
413.38, 7.00, 318.53
413.76, 6.88, 319.29
414.20, 6.74, 320.15
414.61, 6.65, 320.97
415.07, 6.56, 321.89
415.30, 6.62, 322.34
415.69, 6.61, 323.10
416.20, 6.57, 324.11
416.78, 6.54, 325.26
417.43, 6.50, 326.56
418.36, 6.41, 328.38
418.73, 6.56, 329.13
419.19, 6.71, 330.04
419.41, 6.96, 330.46
419.61, 7.22, 330.87
419.83, 7.49, 331.29
420.04, 7.77, 331.72
420.31, 8.06, 332.24
420.68, 8.35, 332.97
412.71, 7.20, 316.99
412.92, 7.15, 317.40
413.17, 7.09, 317.87
413.45, 7.02, 318.41
413.83, 6.90, 319.15
414.26, 6.78, 319.97
414.69, 6.68, 320.79
415.16, 6.59, 321.69
415.43, 6.64, 322.19
415.81, 6.64, 322.93
416.32, 6.60, 323.91
416.93, 6.56, 325.06
417.60, 6.53, 326.34
418.61, 6.41, 328.28
418.94, 6.58, 328.90
419.33, 6.75, 329.65
419.67, 6.96, 330.29
419.88, 7.22, 330.70
420.09, 7.50, 331.10
420.30, 7.78, 331.51
420.53, 8.08, 331.93
420.90, 8.36, 332.65
412.78, 7.21, 316.92
413.00, 7.17, 317.32
413.24, 7.11, 317.78
413.52, 7.04, 318.30
413.91, 6.93, 319.00
414.33, 6.82, 319.78
414.77, 6.72, 320.60
415.25, 6.63, 321.49
415.55, 6.65, 322.04
¯415.92, 6.67, 322.72
416.47, 6.62, 323.74
417.07, 6.58, 324.84
417.76, 6.55, 326.12
418.87, 6.40, 328.17
419.20, 6.58, 328.79
419.56, 6.76, 329.45
419.93, 6.97, 330.13
420.13, 7.23, 330.50
420.34, 7.50, 330.89
420.56, 7.79, 331.30
420.79, 8.08, 331.71
421.07, 8.38, 332.24
412.85, 7.23, 316.85
413.07, 7.18, 317.24
413.32, 7.12, 317.68
413.60, 7.06, 318.19
413.98, 6.96, 318.86
414.39, 6.86, 319.59
414.85, 6.75, 320.42
415.33, 6.66, 321.28
415.67, 6.67, 321.89
416.02, 6.69, 322.52
416.61, 6.64, 323.57
417.20, 6.61, 324.63
417.91, 6.57, 325.90
419.07, 6.42, 327.96
419.47, 6.57, 328.67
419.83, 6.76, 329.33
420.15, 6.98, 329.90
420.39, 7.23, 330.32
420.60, 7.51, 330.69
420.82, 7.79, 331.09
421.05, 8.08, 331.50
421.29, 8.39, 331.93
412.92, 7.24, 316.77
413.14, 7.19, 317.16
413.39, 7.14, 317.59
413.68, 7.08, 318.09
414.05, 6.99, 318.72
414.44, 6.89, 319.41
414.91, 6.79, 320.22
415.40, 6.70, 321.07
415.79, 6.69, 321.74
416.14, 6.72, 322.34
416.71, 6.67, 323.34
417.35, 6.62, 324.45
418.05, 6.60, 325.65
419.23, 6.44, 327.69
419.73, 6.57, 328.56
420.06, 6.77, 329.13
¯420.36, 6.99, 329.64
420.65, 7.24, 330.15
420.86, 7.51, 330.52
421.08, 7.79, 330.90
421.31, 8.09, 331.30
421.55, 8.39, 331.71
421.86, 8.70, 332.24
412.99, 7.25, 316.70
413.21, 7.20, 317.08
413.47, 7.15, 317.50
413.76, 7.09, 317.98
414.10, 7.02, 318.57
414.50, 6.93, 319.23
414.97, 6.83, 320.01
415.47, 6.74, 320.86
415.90, 6.71, 321.58
416.20, 6.76, 322.09
416.82, 6.69, 323.13
417.50, 6.64, 324.26
418.21, 6.61, 325.45
419.40, 6.47, 327.44
419.97, 6.57, 328.41
420.26, 6.78, 328.89
420.56, 7.01, 329.39
420.88, 7.24, 329.92
421.13, 7.51, 330.34
421.35, 7.79, 330.72
421.59, 8.09, 331.11
421.83, 8.39, 331.52
422.12, 8.71, 331.99
413.05, 7.26, 316.62
413.28, 7.21, 316.99
413.54, 7.16, 317.41
413.83, 7.11, 317.88
414.16, 7.05, 318.41
414.55, 6.97, 319.05
415.02, 6.87, 319.81
415.54, 6.78, 320.65
416.01, 6.73, 321.42
416.28, 6.80, 321.86
416.96, 6.71, 322.96
417.61, 6.67, 324.02
418.36, 6.63, 325.24
419.58, 6.48, 327.23
420.20, 6.57, 328.23
420.46, 6.80, 328.65
420.76, 7.02, 329.14
421.08, 7.26, 329.66
421.39, 7.51, 330.17
421.63, 7.79, 330.54
421.87, 8.09, 330.93
¯422.15, 8.39, 331.39
422.44, 8.70, 331.87
413.12, 7.27, 316.54
413.35, 7.23, 316.91
413.61, 7.18, 317.32
413.90, 7.12, 317.78
414.23, 7.07, 318.29
414.60, 7.00, 318.88
415.06, 6.91, 319.60
415.60, 6.81, 320.45
416.11, 6.75, 321.25
416.36, 6.83, 321.64
417.04, 6.74, 322.72
417.73, 6.69, 323.80
418.51, 6.65, 325.04
419.77, 6.49, 327.01
420.46, 6.57, 328.10
420.73, 6.79, 328.54
421.01, 7.02, 328.97
421.30, 7.27, 329.43
421.63, 7.52, 329.95
421.90, 7.80, 330.37
422.18, 8.08, 330.81
422.47, 8.39, 331.26
422.77, 8.70, 331.74
413.18, 7.28, 316.47
413.42, 7.24, 316.82
413.68, 7.19, 317.23
413.98, 7.14, 317.68
414.29, 7.09, 318.17
414.66, 7.03, 318.73
415.10, 6.95, 319.40
415.65, 6.85, 320.24
416.20, 6.77, 321.08
416.41, 6.87, 321.40
417.10, 6.79, 322.44
417.86, 6.71, 323.62
418.63, 6.68, 324.78
419.94, 6.51, 326.79
420.60, 6.60, 327.80
421.01, 6.78, 328.42
421.29, 7.02, 328.85
421.59, 7.26, 329.31
421.90, 7.52, 329.78
422.19, 7.79, 330.22
422.49, 8.08, 330.68
422.79, 8.38, 331.14
423.10, 8.70, 331.61
413.24, 7.29, 316.39
413.48, 7.25, 316.74
413.75, 7.21, 317.13
¯414.05, 7.15, 317.58
414.36, 7.11, 318.04
414.72, 7.05, 318.58
415.17, 6.98, 319.24
415.69, 6.89, 320.01
416.28, 6.80, 320.89
416.49, 6.90, 321.19
417.22, 6.80, 322.28
417.99, 6.73, 323.42
418.76, 6.69, 324.57
420.07, 6.54, 326.51
420.74, 6.62, 327.49
421.28, 6.77, 328.30
421.58, 7.01, 328.73
421.88, 7.25, 329.19
422.16, 7.52, 329.60
422.45, 7.79, 330.03
422.76, 8.08, 330.48
423.08, 8.38, 330.96
423.42, 8.70, 331.46
413.31, 7.30, 316.32
413.54, 7.26, 316.65
413.81, 7.22, 317.04
414.11, 7.17, 317.47
414.42, 7.13, 317.92
414.78, 7.08, 318.44
415.22, 7.01, 319.07
415.74, 6.93, 319.82
416.36, 6.83, 320.70
416.53, 6.94, 320.95
417.29, 6.83, 322.04
418.03, 6.78, 323.10
418.90, 6.71, 324.36
420.26, 6.55, 326.31
420.87, 6.65, 327.19
421.56, 6.77, 328.18
421.86, 7.00, 328.61
422.13, 7.25, 329.01
422.42, 7.52, 329.41
422.71, 7.79, 329.84
423.03, 8.08, 330.29
423.35, 8.38, 330.76
423.70, 8.70, 331.25
413.37, 7.31, 316.24
413.60, 7.28, 316.57
413.87, 7.23, 316.94
414.17, 7.19, 317.36
414.48, 7.15, 317.80
414.84, 7.10, 318.30
415.28, 7.04, 318.91
415.80, 6.96, 319.63
¯416.42, 6.86, 320.49
416.59, 6.97, 320.74
417.34, 6.87, 321.78
418.15, 6.79, 322.91
419.03, 6.73, 324.14
420.49, 6.54, 326.18
421.10, 6.65, 327.03
421.77, 6.77, 327.97
422.11, 7.00, 328.44
422.39, 7.25, 328.83
422.68, 7.52, 329.23
422.98, 7.79, 329.65
423.29, 8.08, 330.09
423.63, 8.38, 330.56
413.43, 7.32, 316.17
413.66, 7.29, 316.48
413.93, 7.25, 316.85
414.23, 7.21, 317.25
414.54, 7.17, 317.67
414.90, 7.12, 318.16
415.33, 7.06, 318.74
415.85, 6.99, 319.44
416.47, 6.89, 320.29
416.64, 7.00, 320.52
417.46, 6.89, 321.62
418.27, 6.81, 322.72
419.10, 6.77, 323.85
420.64, 6.56, 325.94
421.34, 6.65, 326.89
421.99, 6.78, 327.77
422.39, 6.99, 328.31
422.66, 7.25, 328.68
422.95, 7.51, 329.07
423.24, 7.79, 329.47
423.56, 8.08, 329.90
423.99, 8.37, 330.47
413.49, 7.33, 316.09
413.72, 7.30, 316.39
413.99, 7.26, 316.75
414.28, 7.22, 317.13
414.60, 7.19, 317.55
414.96, 7.14, 318.03
415.38, 7.09, 318.58
415.90, 7.02, 319.26
416.50, 6.93, 320.06
416.70, 7.03, 320.32
417.52, 6.92, 321.40
418.33, 6.84, 322.46
419.22, 6.78, 323.63
420.78, 6.58, 325.69
421.58, 6.64, 326.75
¯422.18, 6.79, 327.53
422.68, 6.98, 328.19
422.96, 7.24, 328.56
423.25, 7.51, 328.94
423.56, 7.78, 329.35
423.89, 8.07, 329.78
424.52, 8.35, 330.62
413.55, 7.34, 316.01
413.78, 7.31, 316.31
414.05, 7.27, 316.66
414.34, 7.24, 317.02
414.66, 7.21, 317.43
415.02, 7.17, 317.89
415.43, 7.12, 318.42
415.94, 7.05, 319.08
416.52, 6.97, 319.82
416.74, 7.06, 320.10
417.56, 6.95, 321.15
418.40, 6.87, 322.23
419.34, 6.80, 323.42
420.35, 6.75, 324.71
421.83, 6.63, 326.60
422.36, 6.80, 327.29
422.93, 6.98, 328.01
423.26, 7.23, 328.44
423.56, 7.50, 328.82
423.89, 7.77, 329.24
424.30, 8.06, 329.76
413.61, 7.35, 315.94
413.84, 7.32, 316.23
414.10, 7.29, 316.55
414.39, 7.26, 316.91
414.71, 7.22, 317.31
415.07, 7.19, 317.76
415.48, 7.14, 318.27
415.98, 7.08, 318.89
416.52, 7.03, 319.56
416.78, 7.10, 319.88
417.67, 6.97, 320.98
418.52, 6.89, 322.04
419.45, 6.82, 323.20
420.47, 6.78, 324.47
422.02, 6.64, 326.39
422.55, 6.81, 327.05
423.12, 6.99, 327.76
423.57, 7.22, 328.32
423.89, 7.48, 328.71
424.29, 7.75, 329.22
424.72, 8.04, 329.74
413.66, 7.35, 315.86
413.90, 7.33, 316.15
¯414.15, 7.30, 316.45
414.44, 7.28, 316.80
414.76, 7.24, 317.19
415.12, 7.21, 317.62
415.53, 7.16, 318.12
416.03, 7.11, 318.72
416.50, 7.08, 319.29
416.84, 7.12, 319.70
417.72, 7.00, 320.76
418.63, 6.90, 321.86
419.50, 6.86, 322.91
420.58, 6.80, 324.22
422.28, 6.63, 326.27
422.79, 6.81, 326.89
423.33, 6.99, 327.54
423.88, 7.20, 328.21
424.28, 7.46, 328.69
424.70, 7.73, 329.19
425.14, 8.02, 329.73
413.72, 7.36, 315.79
413.96, 7.34, 316.07
414.21, 7.32, 316.36
414.49, 7.29, 316.69
414.81, 7.26, 317.07
415.17, 7.23, 317.49
415.58, 7.19, 317.97
416.06, 7.14, 318.54
416.46, 7.14, 319.00
416.87, 7.15, 319.49
417.76, 7.03, 320.54
418.64, 6.94, 321.57
419.61, 6.87, 322.71
420.69, 6.82, 323.97
422.57, 6.61, 326.18
423.09, 6.79, 326.79
423.65, 6.98, 327.45
424.22, 7.19, 328.12
424.64, 7.44, 328.61
425.09, 7.72, 329.13
425.55, 8.00, 329.68
413.78, 7.37, 315.71
414.02, 7.35, 315.98
414.27, 7.33, 316.27
414.55, 7.30, 316.59
414.87, 7.27, 316.96
415.23, 7.24, 317.37
415.64, 7.20, 317.83
416.11, 7.16, 318.37
416.40, 7.20, 318.71
416.92, 7.18, 319.30
417.86, 7.04, 320.37
¯418.74, 6.96, 321.38
419.73, 6.89, 322.50
420.79, 6.84, 323.72
422.71, 6.63, 325.91
423.39, 6.77, 326.69
423.96, 6.96, 327.33
424.53, 7.18, 327.99
425.00, 7.43, 328.52
425.45, 7.70, 329.04
413.83, 7.38, 315.64
414.07, 7.35, 315.90
414.32, 7.34, 316.18
414.60, 7.32, 316.49
414.92, 7.29, 316.84
415.28, 7.26, 317.25
415.69, 7.22, 317.70
416.17, 7.18, 318.23
416.35, 7.26, 318.43
416.99, 7.19, 319.15
417.91, 7.07, 320.16
418.84, 6.97, 321.19
419.83, 6.90, 322.30
420.89, 6.86, 323.47
422.83, 6.65, 325.63
423.70, 6.75, 326.59
424.25, 6.95, 327.20
424.84, 7.16, 327.85
425.35, 7.41, 328.42
425.91, 7.68, 329.04
413.58, 7.55, 315.23
414.12, 7.36, 315.82
414.37, 7.35, 316.09
414.65, 7.33, 316.38
414.97, 7.30, 316.73
415.33, 7.27, 317.12
415.74, 7.24, 317.57
416.19, 7.21, 318.04
416.28, 7.32, 318.14
417.04, 7.22, 318.96
417.92, 7.10, 319.92
418.90, 7.00, 320.97
419.87, 6.93, 322.02
421.00, 6.87, 323.24
422.95, 6.67, 325.35
423.99, 6.74, 326.47
424.55, 6.94, 327.07
425.15, 7.15, 327.71
425.72, 7.39, 328.33
412.25, 8.28, 313.71
412.25, 8.35, 313.71
412.25, 8.41, 313.71
¯412.25, 8.47, 313.71
412.25, 8.53, 313.71
412.25, 8.60, 313.71
412.25, 8.66, 313.71
412.25, 8.72, 313.71
412.25, 8.78, 313.71
412.25, 8.84, 313.71
412.25, 8.90, 313.71
412.25, 8.95, 313.71
412.25, 9.01, 313.71
412.25, 9.07, 313.71
412.25, 9.13, 313.71
412.25, 9.19, 313.71
412.25, 9.24, 313.71
412.25, 9.30, 313.71
412.25, 9.36, 313.71
412.25, 9.41, 313.71
412.27, 9.47, 313.74
412.35, 9.52, 313.81
412.22, 8.32, 313.60
412.22, 8.38, 313.60
412.22, 8.44, 313.60
412.22, 8.50, 313.60
412.22, 8.56, 313.60
412.22, 8.62, 313.60
412.22, 8.68, 313.60
412.22, 8.74, 313.60
412.22, 8.80, 313.60
412.22, 8.86, 313.60
412.22, 8.92, 313.60
412.22, 8.97, 313.60
412.22, 9.03, 313.60
412.22, 9.09, 313.60
412.22, 9.14, 313.60
412.22, 9.20, 313.60
412.22, 9.26, 313.60
412.22, 9.31, 313.60
412.22, 9.37, 313.60
412.23, 9.42, 313.61
412.24, 9.48, 313.62
412.26, 9.53, 313.64
412.31, 9.58, 313.69
412.22, 8.34, 313.52
412.22, 8.40, 313.52
412.22, 8.46, 313.52
412.22, 8.52, 313.52
412.22, 8.58, 313.52
412.22, 8.64, 313.52
412.22, 8.70, 313.52
412.22, 8.76, 313.52
412.22, 8.81, 313.52
¯412.22, 8.87, 313.52
412.22, 8.93, 313.52
412.22, 8.98, 313.52
412.22, 9.04, 313.52
412.22, 9.10, 313.52
412.22, 9.15, 313.52
412.22, 9.21, 313.52
412.22, 9.26, 313.52
412.22, 9.32, 313.52
412.22, 9.37, 313.52
412.22, 9.43, 313.53
412.24, 9.48, 313.54
412.25, 9.53, 313.56
412.28, 9.59, 313.59
412.33, 9.64, 313.63
412.23, 8.35, 313.46
412.23, 8.41, 313.46
412.23, 8.47, 313.46
412.23, 8.53, 313.46
412.23, 8.59, 313.46
412.23, 8.65, 313.46
412.23, 8.71, 313.46
412.23, 8.77, 313.46
412.23, 8.82, 313.46
412.23, 8.88, 313.46
412.23, 8.94, 313.46
412.23, 8.99, 313.46
412.23, 9.05, 313.46
412.23, 9.10, 313.46
412.23, 9.16, 313.46
412.23, 9.21, 313.46
412.23, 9.27, 313.46
412.23, 9.32, 313.46
412.23, 9.38, 313.46
412.24, 9.43, 313.46
412.25, 9.48, 313.47
412.26, 9.54, 313.49
412.29, 9.59, 313.51
412.33, 9.64, 313.55
412.39, 9.70, 313.61
412.25, 8.36, 313.40
412.25, 8.42, 313.40
412.25, 8.48, 313.40
412.25, 8.54, 313.40
412.25, 8.60, 313.40
412.25, 8.66, 313.40
412.25, 8.72, 313.40
412.25, 8.77, 313.40
412.25, 8.83, 313.40
412.25, 8.89, 313.40
412.25, 8.94, 313.40
¯412.25, 9.00, 313.40
412.25, 9.05, 313.40
412.25, 9.11, 313.40
412.25, 9.16, 313.40
412.25, 9.22, 313.40
412.25, 9.27, 313.40
412.25, 9.33, 313.40
412.25, 9.38, 313.40
412.25, 9.43, 313.41
412.26, 9.49, 313.41
412.28, 9.54, 313.43
412.30, 9.59, 313.45
412.34, 9.64, 313.48
412.39, 9.70, 313.53
412.28, 8.37, 313.35
412.28, 8.43, 313.35
412.28, 8.49, 313.35
412.28, 8.55, 313.35
412.28, 8.60, 313.35
412.28, 8.66, 313.35
412.28, 8.72, 313.35
412.28, 8.78, 313.35
412.28, 8.83, 313.35
412.28, 8.89, 313.35
412.28, 8.94, 313.35
412.28, 9.00, 313.35
412.28, 9.06, 313.35
412.28, 9.11, 313.35
412.28, 9.16, 313.35
412.28, 9.22, 313.35
412.28, 9.27, 313.35
412.28, 9.33, 313.35
412.28, 9.38, 313.35
412.28, 9.43, 313.36
412.29, 9.49, 313.36
412.30, 9.54, 313.38
412.33, 9.59, 313.40
412.36, 9.64, 313.43
412.41, 9.70, 313.47
412.50, 9.75, 313.55
412.31, 8.37, 313.31
412.31, 8.43, 313.31
412.31, 8.49, 313.31
412.31, 8.55, 313.31
412.31, 8.61, 313.31
412.31, 8.66, 313.31
412.31, 8.72, 313.31
412.31, 8.78, 313.31
412.31, 8.83, 313.31
412.31, 8.89, 313.31
412.31, 8.95, 313.31
¯412.31, 9.00, 313.31
412.31, 9.06, 313.31
412.31, 9.11, 313.31
412.31, 9.17, 313.31
412.31, 9.22, 313.31
412.31, 9.27, 313.31
412.31, 9.33, 313.31
412.31, 9.38, 313.31
412.31, 9.43, 313.31
412.32, 9.49, 313.32
412.33, 9.54, 313.33
412.36, 9.59, 313.35
412.39, 9.65, 313.38
412.43, 9.70, 313.42
412.52, 9.75, 313.49
412.34, 8.37, 313.27
412.34, 8.43, 313.27
412.34, 8.49, 313.27
412.34, 8.55, 313.27
412.34, 8.61, 313.27
412.34, 8.66, 313.27
412.34, 8.72, 313.27
412.34, 8.78, 313.27
412.34, 8.83, 313.27
412.34, 8.89, 313.27
412.34, 8.95, 313.27
412.34, 9.00, 313.27
412.34, 9.06, 313.27
412.34, 9.11, 313.27
412.34, 9.17, 313.27
412.34, 9.22, 313.27
412.34, 9.27, 313.27
412.34, 9.33, 313.27
412.34, 9.38, 313.27
412.35, 9.43, 313.27
412.35, 9.49, 313.28
412.37, 9.54, 313.29
412.39, 9.59, 313.31
412.42, 9.64, 313.34
412.47, 9.70, 313.38
412.55, 9.75, 313.45
412.38, 8.37, 313.23
412.38, 8.43, 313.23
412.38, 8.49, 313.23
412.38, 8.55, 313.23
412.38, 8.60, 313.23
412.38, 8.66, 313.23
412.38, 8.72, 313.23
412.38, 8.78, 313.23
412.38, 8.83, 313.23
412.38, 8.89, 313.23
¯412.38, 8.94, 313.23
412.38, 9.00, 313.23
412.38, 9.05, 313.23
412.38, 9.11, 313.23
412.38, 9.16, 313.23
412.38, 9.22, 313.23
412.38, 9.27, 313.23
412.38, 9.33, 313.23
412.38, 9.38, 313.23
412.39, 9.43, 313.24
412.40, 9.49, 313.25
412.41, 9.54, 313.26
412.43, 9.59, 313.28
412.47, 9.64, 313.31
412.52, 9.70, 313.35
412.62, 9.75, 313.43
412.43, 8.36, 313.20
412.43, 8.42, 313.20
412.43, 8.48, 313.20
412.43, 8.54, 313.20
412.43, 8.60, 313.20
412.43, 8.66, 313.20
412.43, 8.71, 313.20
412.43, 8.77, 313.20
412.43, 8.83, 313.20
412.43, 8.88, 313.20
412.43, 8.94, 313.20
412.43, 9.00, 313.20
412.43, 9.05, 313.20
412.43, 9.11, 313.20
412.43, 9.16, 313.20
412.43, 9.22, 313.20
412.43, 9.27, 313.20
412.43, 9.32, 313.20
412.43, 9.38, 313.20
412.43, 9.43, 313.21
412.44, 9.49, 313.22
412.46, 9.54, 313.23
412.49, 9.59, 313.25
412.52, 9.64, 313.28
412.58, 9.70, 313.33
412.48, 8.35, 313.18
412.48, 8.41, 313.18
412.48, 8.47, 313.18
412.48, 8.53, 313.18
412.48, 8.59, 313.18
412.48, 8.65, 313.18
412.48, 8.71, 313.18
412.48, 8.76, 313.18
412.48, 8.82, 313.18
412.48, 8.88, 313.18
¯412.48, 8.93, 313.18
412.48, 8.99, 313.18
412.48, 9.05, 313.18
412.48, 9.10, 313.18
412.48, 9.16, 313.18
412.48, 9.21, 313.18
412.48, 9.27, 313.18
412.48, 9.32, 313.18
412.48, 9.38, 313.18
412.49, 9.43, 313.18
412.50, 9.48, 313.19
412.52, 9.54, 313.21
412.55, 9.59, 313.23
412.59, 9.64, 313.26
412.67, 9.70, 313.32
412.55, 8.34, 313.16
412.55, 8.40, 313.16
412.55, 8.46, 313.16
412.55, 8.52, 313.16
412.55, 8.58, 313.16
412.55, 8.64, 313.16
412.55, 8.70, 313.16
412.55, 8.75, 313.16
412.55, 8.81, 313.16
412.55, 8.87, 313.16
412.55, 8.93, 313.16
412.55, 8.98, 313.16
412.55, 9.04, 313.16
412.55, 9.10, 313.16
412.55, 9.15, 313.16
412.55, 9.21, 313.16
412.55, 9.26, 313.16
412.55, 9.32, 313.16
412.55, 9.37, 313.16
412.55, 9.43, 313.16
412.57, 9.48, 313.17
412.59, 9.53, 313.19
412.62, 9.59, 313.22
412.68, 9.64, 313.26
412.63, 8.31, 313.15
412.63, 8.38, 313.15
412.63, 8.44, 313.15
412.63, 8.50, 313.15
412.63, 8.56, 313.15
412.63, 8.62, 313.15
412.63, 8.68, 313.15
412.63, 8.74, 313.15
412.63, 8.80, 313.15
412.63, 8.86, 313.15
412.63, 8.91, 313.15
412.63, 8.97, 313.15
¯412.63, 9.03, 313.15
412.63, 9.09, 313.15
412.63, 9.14, 313.15
412.63, 9.20, 313.15
412.63, 9.25, 313.15
412.63, 9.31, 313.15
412.63, 9.37, 313.15
412.63, 9.42, 313.16
412.65, 9.48, 313.17
412.68, 9.53, 313.19
412.74, 9.58, 313.23
412.75, 8.27, 313.17
412.75, 8.34, 313.17
412.75, 8.40, 313.17
412.75, 8.46, 313.17
412.75, 8.53, 313.17
412.75, 8.59, 313.17
412.75, 8.65, 313.17
412.75, 8.71, 313.17
412.75, 8.77, 313.17
412.75, 8.83, 313.17
412.75, 8.89, 313.17
412.75, 8.95, 313.17
412.75, 9.01, 313.17
412.75, 9.07, 313.17
412.75, 9.12, 313.17
412.75, 9.18, 313.17
412.75, 9.24, 313.17
412.75, 9.30, 313.17
412.75, 9.36, 313.17
412.76, 9.41, 313.18
412.79, 9.47, 313.20
414.35, 7.57, 314.23
414.59, 7.57, 314.40
414.84, 7.56, 314.58
415.12, 7.56, 314.77
415.43, 7.55, 314.99
415.78, 7.53, 315.24
416.19, 7.51, 315.53
416.66, 7.49, 315.86
417.19, 7.46, 316.24
417.86, 7.41, 316.71
418.68, 7.35, 317.29
419.60, 7.29, 317.94
420.73, 7.22, 318.73
422.90, 6.96, 320.26
424.40, 6.91, 321.31
425.97, 6.90, 322.42
427.20, 7.00, 323.29
428.62, 7.11, 324.29
414.39, 7.58, 314.16
¯414.63, 7.57, 314.32
414.89, 7.56, 314.50
415.17, 7.56, 314.69
415.48, 7.55, 314.90
415.83, 7.54, 315.14
416.24, 7.52, 315.42
416.71, 7.49, 315.75
417.24, 7.47, 316.11
417.92, 7.42, 316.57
418.73, 7.36, 317.13
419.65, 7.30, 317.76
420.77, 7.23, 318.52
422.94, 6.98, 320.01
424.45, 6.93, 321.04
426.08, 6.91, 322.16
427.34, 7.00, 323.02
428.76, 7.11, 323.99
414.44, 7.58, 314.09
414.67, 7.57, 314.25
414.93, 7.57, 314.42
415.21, 7.56, 314.60
415.53, 7.55, 314.81
415.88, 7.54, 315.05
416.29, 7.52, 315.32
416.76, 7.50, 315.63
417.30, 7.47, 315.99
417.97, 7.43, 316.44
418.78, 7.37, 316.97
419.70, 7.31, 317.58
420.81, 7.24, 318.32
422.97, 7.00, 319.76
424.53, 6.94, 320.79
426.15, 6.92, 321.87
427.48, 7.01, 322.75
428.91, 7.12, 323.70
414.48, 7.58, 314.02
414.72, 7.58, 314.17
414.97, 7.57, 314.34
415.26, 7.56, 314.52
415.57, 7.56, 314.72
415.93, 7.54, 314.95
416.34, 7.53, 315.22
416.81, 7.51, 315.52
417.35, 7.48, 315.87
418.02, 7.44, 316.30
418.82, 7.38, 316.81
419.71, 7.33, 317.39
420.85, 7.26, 318.12
423.00, 7.02, 319.51
424.62, 6.95, 320.55
426.21, 6.94, 321.57
¯427.62, 7.01, 322.48
429.04, 7.12, 323.40
414.52, 7.58, 313.94
414.76, 7.58, 314.09
415.02, 7.57, 314.25
415.30, 7.57, 314.43
415.62, 7.56, 314.63
415.98, 7.55, 314.85
416.39, 7.53, 315.11
416.85, 7.51, 315.40
417.41, 7.48, 315.75
418.07, 7.44, 316.16
418.84, 7.40, 316.64
419.75, 7.34, 317.21
420.89, 7.27, 317.92
423.06, 7.03, 319.28
424.71, 6.96, 320.30
426.27, 6.95, 321.28
427.74, 7.02, 322.20
429.15, 7.13, 323.08
414.55, 7.59, 313.87
414.80, 7.58, 314.01
415.06, 7.58, 314.17
415.34, 7.57, 314.35
415.66, 7.56, 314.54
416.02, 7.55, 314.76
416.44, 7.54, 315.01
416.90, 7.52, 315.29
417.46, 7.49, 315.63
418.11, 7.45, 316.02
418.86, 7.41, 316.47
419.79, 7.36, 317.04
420.88, 7.30, 317.70
423.12, 7.04, 319.05
424.76, 6.97, 320.04
426.33, 6.97, 320.99
427.82, 7.03, 321.89
429.25, 7.14, 322.76
414.59, 7.59, 313.79
414.83, 7.58, 313.94
415.10, 7.58, 314.09
415.39, 7.57, 314.26
415.71, 7.57, 314.45
416.07, 7.55, 314.66
416.48, 7.54, 314.90
416.95, 7.52, 315.17
417.51, 7.49, 315.50
418.15, 7.46, 315.88
418.89, 7.42, 316.32
419.83, 7.37, 316.87
420.91, 7.31, 317.50
¯423.17, 7.05, 318.82
424.80, 6.99, 319.78
426.40, 6.98, 320.72
427.89, 7.04, 321.59
429.35, 7.15, 322.45
414.63, 7.59, 313.72
414.87, 7.59, 313.86
415.13, 7.58, 314.01
415.43, 7.58, 314.17
415.75, 7.57, 314.35
416.11, 7.56, 314.56
416.52, 7.54, 314.79
416.99, 7.53, 315.06
417.55, 7.50, 315.38
418.17, 7.47, 315.73
418.94, 7.43, 316.16
419.87, 7.38, 316.69
420.94, 7.32, 317.30
423.22, 7.07, 318.60
424.84, 7.00, 319.52
426.48, 6.99, 320.45
427.96, 7.05, 321.29
429.44, 7.16, 322.13
414.66, 7.59, 313.64
414.91, 7.59, 313.78
415.17, 7.58, 313.92
415.46, 7.58, 314.08
415.79, 7.57, 314.26
416.15, 7.56, 314.46
416.56, 7.55, 314.69
417.04, 7.53, 314.95
417.60, 7.50, 315.26
418.20, 7.48, 315.59
418.97, 7.44, 316.01
419.90, 7.39, 316.52
420.96, 7.34, 317.10
423.27, 7.08, 318.37
424.89, 7.02, 319.26
426.54, 7.00, 320.17
428.03, 7.06, 320.98
429.50, 7.17, 321.80
414.69, 7.60, 313.57
414.94, 7.59, 313.70
415.21, 7.59, 313.84
415.50, 7.58, 313.99
415.82, 7.58, 314.17
416.19, 7.57, 314.36
416.60, 7.55, 314.58
417.08, 7.53, 314.83
417.64, 7.51, 315.13
418.24, 7.49, 315.45
¯419.01, 7.45, 315.86
419.93, 7.40, 316.35
420.97, 7.35, 316.90
423.30, 7.09, 318.14
424.94, 7.03, 319.01
426.57, 7.02, 319.88
428.09, 7.07, 320.68
429.56, 7.18, 321.47
414.72, 7.60, 313.49
414.97, 7.59, 313.62
415.24, 7.59, 313.75
415.54, 7.58, 313.91
415.86, 7.58, 314.07
416.23, 7.57, 314.26
416.64, 7.56, 314.47
417.12, 7.54, 314.72
417.68, 7.51, 315.00
418.28, 7.50, 315.32
419.05, 7.46, 315.71
419.95, 7.41, 316.17
421.00, 7.37, 316.71
423.32, 7.11, 317.90
424.99, 7.04, 318.76
426.60, 7.03, 319.59
428.15, 7.08, 320.38
429.62, 7.19, 321.14
414.76, 7.60, 313.41
415.00, 7.60, 313.54
415.28, 7.59, 313.67
415.57, 7.59, 313.82
415.90, 7.58, 313.98
416.26, 7.57, 314.16
416.68, 7.56, 314.36
417.16, 7.54, 314.60
417.71, 7.52, 314.88
418.32, 7.50, 315.18
419.08, 7.47, 315.55
419.95, 7.43, 315.99
421.02, 7.38, 316.52
423.34, 7.12, 317.67
425.03, 7.05, 318.51
426.63, 7.05, 319.30
428.20, 7.10, 320.08
429.68, 7.20, 320.81
414.78, 7.60, 313.33
415.04, 7.60, 313.45
415.31, 7.60, 313.58
415.60, 7.59, 313.73
415.93, 7.59, 313.88
416.30, 7.58, 314.06
416.71, 7.57, 314.26
¯417.19, 7.55, 314.49
417.73, 7.53, 314.75
418.36, 7.51, 315.05
419.11, 7.47, 315.40
419.97, 7.44, 315.82
421.04, 7.39, 316.33
423.35, 7.14, 317.44
425.06, 7.06, 318.25
426.68, 7.06, 319.03
428.24, 7.11, 319.78
429.74, 7.21, 320.50
414.81, 7.61, 313.26
415.06, 7.60, 313.37
415.34, 7.60, 313.50
415.64, 7.59, 313.64
415.96, 7.59, 313.79
416.33, 7.58, 313.96
416.75, 7.57, 314.15
417.23, 7.55, 314.37
417.76, 7.54, 314.62
418.40, 7.51, 314.91
419.13, 7.48, 315.25
420.00, 7.45, 315.65
421.05, 7.40, 316.14
423.36, 7.15, 317.20
425.06, 7.08, 317.99
426.73, 7.07, 318.76
428.28, 7.12, 319.47
429.81, 7.22, 320.18
414.84, 7.61, 313.18
415.09, 7.61, 313.29
415.37, 7.60, 313.41
415.67, 7.60, 313.55
415.99, 7.59, 313.69
416.36, 7.58, 313.86
416.78, 7.57, 314.04
417.26, 7.56, 314.26
417.80, 7.54, 314.49
418.43, 7.52, 314.78
419.14, 7.49, 315.09
420.02, 7.46, 315.48
421.06, 7.41, 315.95
423.37, 7.17, 316.97
425.06, 7.10, 317.72
426.79, 7.07, 318.49
428.31, 7.13, 319.17
429.87, 7.23, 319.87
414.87, 7.61, 313.10
415.12, 7.61, 313.21
415.39, 7.60, 313.33
415.69, 7.60, 313.46
¯416.02, 7.60, 313.60
416.40, 7.59, 313.75
416.81, 7.58, 313.93
417.29, 7.56, 314.14
417.83, 7.55, 314.37
418.46, 7.52, 314.64
419.16, 7.51, 314.94
420.04, 7.47, 315.31
421.07, 7.43, 315.76
423.38, 7.18, 316.74
425.06, 7.11, 317.47
426.81, 7.09, 318.21
428.35, 7.14, 318.88
429.93, 7.24, 319.55
432.28, 7.30, 320.56
414.89, 7.61, 313.02
415.15, 7.61, 313.13
415.42, 7.61, 313.24
415.72, 7.60, 313.36
416.05, 7.60, 313.50
416.42, 7.59, 313.65
416.84, 7.58, 313.83
417.32, 7.57, 314.02
417.86, 7.55, 314.24
418.49, 7.53, 314.50
419.19, 7.51, 314.79
420.06, 7.48, 315.15
421.99, 7.26, 315.95
423.38, 7.20, 316.52
425.07, 7.13, 317.21
426.81, 7.10, 317.93
428.40, 7.15, 318.58
429.99, 7.25, 319.24
432.31, 7.31, 320.19
414.92, 7.62, 312.94
415.17, 7.61, 313.04
415.45, 7.61, 313.15
415.75, 7.61, 313.27
416.08, 7.60, 313.40
416.45, 7.59, 313.55
416.87, 7.59, 313.72
417.35, 7.57, 313.91
417.89, 7.56, 314.12
418.52, 7.53, 314.37
419.21, 7.52, 314.64
420.07, 7.49, 314.98
422.01, 7.27, 315.75
423.38, 7.21, 316.29
425.07, 7.14, 316.96
426.80, 7.12, 317.64
428.43, 7.16, 318.29
¯430.04, 7.25, 318.93
432.33, 7.32, 319.83
414.94, 7.62, 312.86
415.19, 7.62, 312.96
415.47, 7.61, 313.07
415.77, 7.61, 313.18
416.11, 7.60, 313.31
416.48, 7.60, 313.45
416.90, 7.59, 313.61
417.37, 7.58, 313.79
417.91, 7.56, 313.99
418.54, 7.54, 314.23
419.24, 7.52, 314.50
420.08, 7.50, 314.82
422.02, 7.28, 315.55
423.39, 7.22, 316.07
425.07, 7.16, 316.71
426.79, 7.13, 317.36
428.43, 7.17, 317.98
430.10, 7.26, 318.62
432.36, 7.33, 319.47
414.96, 7.62, 312.79
415.22, 7.62, 312.88
415.49, 7.62, 312.98
415.80, 7.61, 313.09
416.13, 7.61, 313.21
416.50, 7.60, 313.35
416.92, 7.59, 313.50
417.39, 7.58, 313.67
417.94, 7.57, 313.87
418.56, 7.55, 314.09
419.26, 7.53, 314.35
420.09, 7.51, 314.65
422.03, 7.29, 315.36
423.40, 7.23, 315.85
425.07, 7.17, 316.46
426.80, 7.15, 317.09
428.43, 7.19, 317.68
430.16, 7.27, 318.31
432.38, 7.34, 319.12
414.98, 7.62, 312.71
415.24, 7.62, 312.80
415.52, 7.62, 312.89
415.82, 7.62, 313.00
416.15, 7.61, 313.11
416.52, 7.61, 313.24
416.94, 7.60, 313.39
417.41, 7.59, 313.55
417.96, 7.57, 313.74
418.57, 7.56, 313.95
419.28, 7.54, 314.20
¯420.10, 7.52, 314.49
422.04, 7.30, 315.16
423.42, 7.24, 315.64
425.08, 7.18, 316.22
426.80, 7.16, 316.82
428.42, 7.20, 317.38
430.20, 7.27, 318.00
432.40, 7.35, 318.77
415.00, 7.63, 312.63
415.26, 7.62, 312.71
415.54, 7.62, 312.80
415.84, 7.62, 312.91
416.17, 7.61, 313.02
416.54, 7.61, 313.14
416.97, 7.60, 313.28
417.44, 7.59, 313.44
417.98, 7.58, 313.62
418.59, 7.56, 313.82
419.30, 7.54, 314.06
420.10, 7.53, 314.32
422.04, 7.31, 314.97
423.43, 7.25, 315.43
425.08, 7.19, 315.98
426.80, 7.17, 316.55
428.41, 7.22, 317.08
430.24, 7.28, 317.69
432.43, 7.36, 318.42
415.02, 7.63, 312.55
415.28, 7.63, 312.63
415.56, 7.62, 312.72
415.86, 7.62, 312.81
416.19, 7.62, 312.92
416.56, 7.61, 313.04
416.98, 7.61, 313.17
417.46, 7.60, 313.32
418.00, 7.58, 313.49
418.61, 7.57, 313.68
419.32, 7.55, 313.91
420.12, 7.53, 314.16
422.04, 7.32, 314.77
423.44, 7.26, 315.21
425.08, 7.20, 315.74
426.77, 7.19, 316.27
428.44, 7.22, 316.80
430.28, 7.29, 317.38
432.45, 7.37, 318.07
415.03, 7.63, 312.47
415.29, 7.63, 312.54
415.57, 7.63, 312.63
415.88, 7.62, 312.72
416.21, 7.62, 312.82
¯416.58, 7.62, 312.93
417.00, 7.61, 313.06
417.47, 7.60, 313.20
418.01, 7.59, 313.37
418.62, 7.57, 313.55
419.33, 7.56, 313.76
420.13, 7.54, 314.00
422.04, 7.33, 314.58
423.44, 7.27, 315.00
425.05, 7.22, 315.49
426.73, 7.20, 315.99
428.48, 7.23, 316.52
430.31, 7.29, 317.07
432.47, 7.38, 317.72
415.05, 7.64, 312.39
415.31, 7.63, 312.46
415.59, 7.63, 312.54
415.90, 7.63, 312.63
416.23, 7.62, 312.72
416.60, 7.62, 312.83
417.02, 7.61, 312.95
417.49, 7.60, 313.09
418.03, 7.59, 313.24
418.64, 7.58, 313.41
419.34, 7.56, 313.62
420.95, 7.38, 314.08
422.06, 7.34, 314.39
423.44, 7.28, 314.79
425.02, 7.24, 315.24
426.68, 7.22, 315.72
428.45, 7.24, 316.23
430.39, 7.29, 316.78
432.49, 7.39, 317.38
415.06, 7.64, 312.31
415.32, 7.64, 312.38
415.61, 7.63, 312.45
415.91, 7.63, 312.54
416.25, 7.63, 312.63
416.62, 7.62, 312.73
417.03, 7.62, 312.84
417.51, 7.61, 312.97
418.04, 7.60, 313.11
418.65, 7.58, 313.28
419.35, 7.57, 313.47
420.97, 7.38, 313.91
422.08, 7.34, 314.21
423.44, 7.29, 314.58
424.98, 7.25, 315.00
426.64, 7.24, 315.45
428.40, 7.26, 315.92
430.46, 7.30, 316.48
¯432.51, 7.39, 317.04
415.08, 7.64, 312.23
415.34, 7.64, 312.29
415.62, 7.64, 312.36
415.93, 7.63, 312.44
416.26, 7.63, 312.53
416.63, 7.63, 312.62
417.05, 7.62, 312.73
417.52, 7.61, 312.85
418.05, 7.60, 312.99
418.66, 7.59, 313.14
419.36, 7.58, 313.32
421.00, 7.39, 313.74
422.11, 7.35, 314.03
423.45, 7.30, 314.37
424.94, 7.27, 314.75
426.58, 7.26, 315.18
428.34, 7.28, 315.63
430.53, 7.30, 316.19
432.54, 7.40, 316.70
415.09, 7.64, 312.15
415.35, 7.64, 312.21
415.63, 7.64, 312.28
415.94, 7.64, 312.35
416.27, 7.63, 312.43
416.64, 7.63, 312.52
417.06, 7.63, 312.62
417.53, 7.62, 312.73
418.06, 7.61, 312.86
418.67, 7.60, 313.01
419.36, 7.58, 313.18
421.02, 7.39, 313.58
422.13, 7.35, 313.85
423.47, 7.31, 314.17
424.89, 7.28, 314.51
426.53, 7.27, 314.91
428.28, 7.29, 315.33
430.60, 7.30, 315.89
432.56, 7.40, 316.37
415.10, 7.65, 312.07
415.36, 7.64, 312.12
415.64, 7.64, 312.19
415.95, 7.64, 312.26
416.29, 7.64, 312.33
416.66, 7.63, 312.42
417.07, 7.63, 312.51
417.54, 7.62, 312.62
418.07, 7.61, 312.74
418.68, 7.60, 312.88
419.37, 7.59, 313.03
421.03, 7.40, 313.41
¯422.14, 7.36, 313.66
423.47, 7.31, 313.96
424.88, 7.29, 314.28
426.47, 7.29, 314.64
428.22, 7.31, 315.04
430.66, 7.30, 315.60
432.58, 7.41, 316.03
415.11, 7.65, 311.98
415.37, 7.65, 312.04
415.65, 7.65, 312.10
415.96, 7.64, 312.16
416.30, 7.64, 312.24
416.67, 7.64, 312.31
417.08, 7.63, 312.40
417.55, 7.63, 312.50
418.07, 7.62, 312.61
418.68, 7.61, 312.74
419.37, 7.59, 312.89
421.05, 7.40, 313.24
422.16, 7.36, 313.48
423.47, 7.32, 313.76
424.87, 7.30, 314.06
426.44, 7.30, 314.39
428.22, 7.32, 314.77
430.74, 7.30, 315.30
432.61, 7.41, 315.70
415.12, 7.65, 311.90
415.38, 7.65, 311.96
415.66, 7.65, 312.01
415.97, 7.65, 312.07
416.30, 7.64, 312.14
416.67, 7.64, 312.21
417.08, 7.64, 312.29
417.55, 7.63, 312.39
418.08, 7.62, 312.49
418.68, 7.61, 312.61
420.13, 7.44, 312.89
421.06, 7.40, 313.08
422.17, 7.37, 313.30
423.47, 7.33, 313.55
424.86, 7.31, 313.83
426.45, 7.31, 314.14
428.28, 7.31, 314.51
430.82, 7.29, 315.01
432.63, 7.42, 315.37
415.13, 7.65, 311.82
415.39, 7.65, 311.87
415.67, 7.65, 311.92
415.98, 7.65, 311.98
416.31, 7.65, 312.04
416.68, 7.65, 312.11
¯417.09, 7.64, 312.18
417.56, 7.64, 312.27
418.08, 7.63, 312.37
418.68, 7.62, 312.48
420.13, 7.44, 312.74
421.07, 7.41, 312.91
422.18, 7.37, 313.11
423.46, 7.34, 313.35
424.85, 7.32, 313.60
426.46, 7.31, 313.90
428.29, 7.32, 314.23
430.90, 7.29, 314.71
432.65, 7.42, 315.03
415.13, 7.66, 311.74
415.39, 7.66, 311.79
415.68, 7.65, 311.83
415.98, 7.65, 311.89
416.32, 7.65, 311.94
416.69, 7.65, 312.01
417.10, 7.65, 312.07
417.56, 7.64, 312.15
418.08, 7.63, 312.24
418.68, 7.62, 312.34
420.14, 7.44, 312.59
421.08, 7.41, 312.75
422.18, 7.38, 312.93
423.45, 7.34, 313.15
424.85, 7.33, 313.38
426.47, 7.32, 313.66
428.27, 7.33, 313.96
430.98, 7.29, 314.42
432.67, 7.43, 314.70
415.14, 7.66, 311.66
415.40, 7.66, 311.70
415.68, 7.66, 311.75
415.99, 7.66, 311.79
416.32, 7.65, 311.85
416.69, 7.65, 311.90
417.10, 7.65, 311.97
417.56, 7.64, 312.04
418.09, 7.64, 312.12
418.68, 7.63, 312.21
420.15, 7.45, 312.44
421.08, 7.42, 312.58
422.18, 7.38, 312.75
423.43, 7.35, 312.94
424.86, 7.33, 313.16
426.48, 7.32, 313.41
428.25, 7.34, 313.69
431.08, 7.28, 314.13
432.76, 7.42, 314.38
¯415.14, 7.66, 311.58
415.40, 7.66, 311.62
415.69, 7.66, 311.66
415.99, 7.66, 311.70
416.33, 7.66, 311.75
416.70, 7.66, 311.80
417.10, 7.65, 311.86
417.56, 7.65, 311.92
418.08, 7.64, 311.99
419.37, 7.47, 312.17
420.16, 7.45, 312.29
421.08, 7.42, 312.42
422.17, 7.39, 312.57
423.42, 7.36, 312.74
424.87, 7.33, 312.95
426.48, 7.33, 313.17
428.23, 7.34, 313.42
431.17, 7.28, 313.83
432.86, 7.42, 314.07
415.15, 7.67, 311.50
415.41, 7.66, 311.53
415.69, 7.66, 311.57
415.99, 7.66, 311.61
416.33, 7.66, 311.65
416.70, 7.66, 311.70
417.10, 7.66, 311.75
417.56, 7.65, 311.81
418.08, 7.65, 311.87
419.38, 7.48, 312.04
420.17, 7.45, 312.13
421.09, 7.42, 312.25
422.16, 7.40, 312.39
423.40, 7.37, 312.54
424.87, 7.34, 312.73
426.46, 7.33, 312.93
428.20, 7.35, 313.15
431.26, 7.27, 313.53
432.96, 7.41, 313.75
415.15, 7.67, 311.42
415.41, 7.67, 311.45
415.69, 7.67, 311.48
416.00, 7.67, 311.52
416.33, 7.66, 311.55
416.70, 7.66, 311.59
417.10, 7.66, 311.64
417.55, 7.66, 311.69
418.07, 7.65, 311.75
419.38, 7.48, 311.90
420.17, 7.46, 311.98
421.10, 7.43, 312.09
422.15, 7.40, 312.20
¯423.38, 7.37, 312.34
424.87, 7.34, 312.51
426.45, 7.34, 312.69
428.21, 7.36, 312.88
431.35, 7.27, 313.23
433.05, 7.41, 313.42
415.15, 7.67, 311.34
415.41, 7.67, 311.37
415.69, 7.67, 311.39
416.00, 7.67, 311.42
416.33, 7.67, 311.46
416.70, 7.67, 311.49
417.10, 7.66, 311.53
417.55, 7.66, 311.58
418.70, 7.50, 311.69
419.39, 7.48, 311.76
420.18, 7.46, 311.83
421.10, 7.43, 311.92
422.14, 7.41, 312.02
423.37, 7.38, 312.14
424.85, 7.35, 312.29
426.43, 7.34, 312.44
428.34, 7.34, 312.63
431.43, 7.26, 312.93
433.15, 7.40, 313.10
415.15, 7.68, 311.26
415.41, 7.67, 311.28
415.69, 7.67, 311.31
415.99, 7.67, 311.33
416.33, 7.67, 311.36
416.69, 7.67, 311.39
417.10, 7.67, 311.42
417.54, 7.67, 311.46
418.70, 7.50, 311.56
419.39, 7.48, 311.62
420.18, 7.46, 311.68
421.10, 7.43, 311.76
422.13, 7.41, 311.85
423.35, 7.39, 311.95
424.83, 7.35, 312.07
426.41, 7.35, 312.20
428.43, 7.33, 312.37
431.51, 7.25, 312.63
433.24, 7.39, 312.77
415.14, 7.68, 311.18
415.41, 7.68, 311.20
415.69, 7.68, 311.22
415.99, 7.67, 311.24
416.32, 7.67, 311.26
416.69, 7.67, 311.29
417.09, 7.67, 311.32
¯417.54, 7.67, 311.35
418.70, 7.51, 311.43
419.39, 7.49, 311.48
420.18, 7.46, 311.53
421.09, 7.44, 311.59
422.11, 7.42, 311.67
423.33, 7.39, 311.75
424.80, 7.36, 311.85
426.38, 7.36, 311.96
428.47, 7.33, 312.11
431.58, 7.25, 312.33
433.33, 7.39, 312.45
415.14, 7.68, 311.10
415.40, 7.68, 311.12
415.68, 7.68, 311.13
415.99, 7.68, 311.15
416.32, 7.68, 311.17
416.68, 7.68, 311.19
417.08, 7.68, 311.21
418.10, 7.53, 311.27
418.70, 7.51, 311.30
419.38, 7.49, 311.34
420.17, 7.47, 311.38
421.07, 7.44, 311.43
422.10, 7.42, 311.49
423.31, 7.40, 311.56
424.77, 7.37, 311.64
425.12, 7.54, 311.66
425.12, 7.76, 311.66
425.06, 7.99, 311.65
425.06, 8.21, 311.65
425.12, 8.43, 311.66
415.14, 7.68, 311.02
415.40, 7.68, 311.03
415.68, 7.68, 311.04
415.98, 7.68, 311.06
416.31, 7.68, 311.07
416.68, 7.68, 311.09
417.08, 7.68, 311.10
418.10, 7.53, 311.14
418.70, 7.51, 311.17
419.38, 7.49, 311.20
420.16, 7.47, 311.23
421.06, 7.45, 311.27
422.08, 7.43, 311.31
423.28, 7.40, 311.36
424.74, 7.37, 311.42
426.33, 7.37, 311.49
428.53, 7.33, 311.58
424.85, 8.01, 311.43
424.85, 8.23, 311.43
¯415.13, 7.69, 310.94
415.40, 7.68, 310.95
415.67, 7.68, 310.96
415.98, 7.68, 310.97
416.31, 7.68, 310.97
416.67, 7.68, 310.98
417.59, 7.54, 311.01
418.09, 7.53, 311.02
418.69, 7.51, 311.04
419.37, 7.50, 311.06
420.15, 7.47, 311.08
421.04, 7.45, 311.11
422.05, 7.43, 311.13
423.26, 7.41, 311.17
424.71, 7.38, 311.21
426.29, 7.37, 311.25
428.57, 7.32, 311.31
424.64, 8.04, 311.20
424.64, 8.25, 311.20
415.13, 7.69, 310.86
415.39, 7.69, 310.87
415.67, 7.69, 310.87
415.97, 7.69, 310.87
416.30, 7.69, 310.88
416.66, 7.69, 310.88
417.59, 7.54, 310.90
418.08, 7.53, 310.90
418.68, 7.52, 310.91
419.36, 7.50, 310.92
420.14, 7.48, 310.93
421.02, 7.46, 310.94
422.03, 7.44, 310.96
423.23, 7.42, 310.97
424.67, 7.39, 310.99
426.26, 7.38, 311.01
428.70, 7.31, 311.05
424.44, 8.06, 310.99
424.44, 8.27, 310.99
429.99, 8.01, 311.07
429.99, 8.30, 311.07
429.73, 8.60, 311.06
430.01, 8.88, 311.07
415.12, 7.69, 310.78
415.38, 7.69, 310.78
415.66, 7.69, 310.78
415.96, 7.69, 310.78
416.29, 7.69, 310.78
416.65, 7.69, 310.78
417.58, 7.54, 310.78
418.08, 7.54, 310.78
418.67, 7.52, 310.78
¯419.35, 7.50, 310.78
420.13, 7.48, 310.78
420.99, 7.46, 310.78
422.00, 7.44, 310.78
423.19, 7.42, 310.78
424.63, 7.39, 310.78
423.60, 7.76, 310.78
423.60, 7.96, 310.78
423.60, 8.16, 310.78
423.60, 8.36, 310.78
423.60, 8.56, 310.78
423.60, 8.76, 310.78
415.11, 7.70, 310.71
415.37, 7.69, 310.70
415.65, 7.69, 310.70
415.95, 7.69, 310.69
416.28, 7.69, 310.69
417.13, 7.55, 310.68
417.57, 7.55, 310.67
418.07, 7.54, 310.66
418.66, 7.52, 310.65
419.33, 7.50, 310.64
420.11, 7.48, 310.63
420.97, 7.47, 310.62
421.97, 7.45, 310.61
423.15, 7.43, 310.59
424.58, 7.40, 310.57
423.41, 7.78, 310.59
423.41, 7.98, 310.59
423.41, 8.18, 310.59
423.41, 8.38, 310.59
423.41, 8.57, 310.59
423.41, 8.77, 310.59
415.10, 7.70, 310.63
415.36, 7.70, 310.62
415.64, 7.70, 310.61
415.94, 7.70, 310.60
416.26, 7.70, 310.59
417.12, 7.55, 310.57
417.56, 7.55, 310.56
418.05, 7.54, 310.54
418.65, 7.53, 310.53
419.32, 7.51, 310.51
420.09, 7.49, 310.49
420.94, 7.47, 310.46
421.94, 7.45, 310.43
423.12, 7.43, 310.40
424.53, 7.41, 310.36
423.24, 7.81, 310.40
423.24, 8.00, 310.40
423.24, 8.20, 310.40
°423.24, 8.39, 310.40
423.24, 8.59, 310.40
423.24, 8.78, 310.40
415.09, 7.70, 310.55
415.35, 7.70, 310.54
415.63, 7.70, 310.53
415.92, 7.70, 310.51
416.72, 7.56, 310.48
417.12, 7.55, 310.46
417.55, 7.55, 310.44
418.04, 7.54, 310.42
418.63, 7.53, 310.40
419.31, 7.51, 310.37
420.07, 7.49, 310.34
420.92, 7.48, 310.30
421.91, 7.46, 310.26
423.09, 7.44, 310.21
424.48, 7.42, 310.15
423.06, 7.83, 310.21
423.06, 8.02, 310.21
423.06, 8.22, 310.21
423.06, 8.41, 310.21
423.06, 8.60, 310.21
423.06, 8.79, 310.21
424.02, 8.93, 310.17
424.94, 9.09, 310.13
424.94, 9.31, 310.13
424.94, 9.53, 310.13
424.94, 9.74, 310.13
424.94, 9.96, 310.13
424.94, 10.17, 310.13
415.08, 7.70, 310.47
415.34, 7.70, 310.46
415.61, 7.70, 310.44
415.91, 7.70, 310.42
416.71, 7.56, 310.38
417.11, 7.55, 310.36
417.54, 7.55, 310.33
418.03, 7.54, 310.30
418.62, 7.53, 310.27
419.29, 7.51, 310.23
420.04, 7.49, 310.19
420.89, 7.48, 310.14
421.89, 7.46, 310.09
423.06, 7.44, 310.02
424.43, 7.42, 309.94
422.90, 7.85, 310.03
422.90, 8.04, 310.03
422.90, 8.24, 310.03
422.90, 8.42, 310.03
422.90, 8.61, 310.03
±422.90, 8.80, 310.03
423.93, 8.93, 309.97
424.09, 9.13, 309.96
424.09, 9.33, 309.96
424.09, 9.54, 309.96
424.09, 9.74, 309.96
424.09, 9.95, 309.96
424.09, 10.15, 309.96
415.07, 7.71, 310.39
415.32, 7.71, 310.37
415.60, 7.70, 310.35
416.34, 7.56, 310.30
416.70, 7.56, 310.28
417.10, 7.56, 310.25
417.53, 7.55, 310.22
418.02, 7.55, 310.18
418.61, 7.53, 310.14
419.28, 7.51, 310.10
420.02, 7.50, 310.04
420.87, 7.48, 309.98
421.85, 7.47, 309.92
423.02, 7.44, 309.83
424.37, 7.43, 309.74
422.73, 7.88, 309.85
422.73, 8.06, 309.85
422.73, 8.25, 309.85
422.73, 8.44, 309.85
422.73, 8.63, 309.85
422.73, 8.81, 309.85
423.91, 8.93, 309.77
423.54, 9.15, 309.80
423.54, 9.35, 309.80
423.54, 9.55, 309.80
423.54, 9.74, 309.80
423.54, 9.94, 309.80
423.54, 10.14, 309.80
415.05, 7.71, 310.31
415.31, 7.71, 310.29
415.58, 7.71, 310.27
416.33, 7.56, 310.21
416.69, 7.56, 310.18
417.08, 7.56, 310.14
417.52, 7.55, 310.11
418.00, 7.55, 310.07
418.59, 7.53, 310.02
419.26, 7.51, 309.96
419.99, 7.50, 309.90
420.84, 7.49, 309.83
421.82, 7.47, 309.74
422.98, 7.45, 309.65
424.31, 7.44, 309.53
±422.57, 7.90, 309.68
422.57, 8.08, 309.68
422.57, 8.27, 309.68
422.57, 8.45, 309.68
422.57, 8.64, 309.68
422.57, 8.82, 309.68
423.72, 8.94, 309.58
423.15, 9.17, 309.63
423.15, 9.36, 309.63
423.15, 9.55, 309.63
423.15, 9.74, 309.63
423.15, 9.94, 309.63
423.15, 10.13, 309.63
415.04, 7.71, 310.24
415.29, 7.71, 310.21
416.00, 7.57, 310.14
416.32, 7.56, 310.11
416.68, 7.56, 310.08
417.07, 7.56, 310.04
417.50, 7.55, 309.99
417.99, 7.55, 309.95
418.57, 7.53, 309.89
419.24, 7.52, 309.82
419.97, 7.50, 309.75
420.80, 7.49, 309.67
421.78, 7.47, 309.57
422.93, 7.46, 309.46
424.25, 7.44, 309.33
422.41, 7.92, 309.51
422.41, 8.10, 309.51
422.41, 8.29, 309.51
422.41, 8.47, 309.51
422.41, 8.65, 309.51
422.41, 8.83, 309.51
423.50, 8.95, 309.40
422.79, 9.18, 309.47
422.79, 9.37, 309.47
422.79, 9.56, 309.47
422.79, 9.74, 309.48
422.79, 9.93, 309.48
422.79, 10.12, 309.48
415.02, 7.71, 310.16
415.69, 7.57, 310.09
415.98, 7.57, 310.05
416.31, 7.56, 310.02
416.66, 7.56, 309.98
417.06, 7.56, 309.93
417.49, 7.56, 309.88
417.97, 7.55, 309.83
418.55, 7.54, 309.76
419.21, 7.52, 309.69
±419.94, 7.51, 309.61
420.77, 7.49, 309.51
421.74, 7.48, 309.40
422.88, 7.46, 309.28
422.26, 7.75, 309.35
422.26, 7.94, 309.35
422.26, 8.12, 309.35
422.26, 8.30, 309.35
422.26, 8.48, 309.35
422.26, 8.66, 309.35
422.26, 8.84, 309.35
423.40, 8.96, 309.22
422.85, 9.18, 309.28
422.85, 9.37, 309.28
422.85, 9.56, 309.28
422.85, 9.74, 309.28
422.85, 9.93, 309.28
422.85, 10.12, 309.28
415.01, 7.72, 310.08
415.67, 7.57, 310.00
415.97, 7.57, 309.96
416.29, 7.57, 309.92
416.65, 7.56, 309.88
417.04, 7.56, 309.83
417.47, 7.56, 309.77
