ŸVERSION 0.7
FIELDS x y z
SIZE 8 8 8
TYPE F F F
COUNT 1 1 1
WIDTH 2271
HEIGHT 1
VIEWPOINT 435.34, 13.93, 293.98 1 441.56, 9.09, 274.93
POINTS 2271
DATA ascii
447.47, 7.03, 276.43
447.78, 7.04, 276.39
448.12, 7.04, 276.34
448.49, 7.04, 276.29
448.90, 7.05, 276.23
449.31, 7.07, 276.18
449.64, 7.11, 276.13
449.96, 7.17, 276.09
450.14, 7.26, 276.06
450.33, 7.36, 276.03
450.53, 7.46, 276.01
450.73, 7.56, 275.98
450.94, 7.67, 275.95
451.17, 7.78, 275.92
451.51, 7.88, 275.87
451.73, 8.01, 275.84
451.87, 8.15, 275.82
452.02, 8.29, 275.80
452.17, 8.43, 275.78
452.32, 8.58, 275.76
452.48, 8.74, 275.74
452.65, 8.89, 275.72
452.82, 9.06, 275.69
452.99, 9.22, 275.67
446.67, 7.02, 276.46
446.92, 7.03, 276.43
447.18, 7.03, 276.39
447.46, 7.03, 276.34
447.76, 7.04, 276.30
448.10, 7.04, 276.24
448.47, 7.05, 276.19
448.88, 7.05, 276.13
449.29, 7.07, 276.06
449.63, 7.11, 276.01
449.89, 7.18, 275.97
450.07, 7.27, 275.94
450.26, 7.37, 275.91
¯450.46, 7.47, 275.88
450.66, 7.57, 275.85
450.87, 7.68, 275.82
451.09, 7.79, 275.79
451.38, 7.90, 275.74
451.60, 8.02, 275.71
451.74, 8.16, 275.69
451.88, 8.30, 275.67
452.03, 8.44, 275.65
452.18, 8.59, 275.62
452.33, 8.74, 275.60
452.49, 8.90, 275.58
452.66, 9.06, 275.55
452.83, 9.22, 275.53
453.00, 9.39, 275.50
446.66, 7.03, 276.39
446.90, 7.03, 276.35
447.16, 7.03, 276.30
447.44, 7.04, 276.26
447.75, 7.04, 276.20
448.08, 7.04, 276.15
448.45, 7.05, 276.09
448.85, 7.05, 276.02
449.28, 7.07, 275.95
449.61, 7.11, 275.89
449.83, 7.19, 275.86
450.01, 7.28, 275.83
450.19, 7.38, 275.80
450.38, 7.47, 275.76
450.58, 7.58, 275.73
450.79, 7.68, 275.70
451.00, 7.80, 275.66
451.26, 7.91, 275.62
451.47, 8.03, 275.58
451.60, 8.17, 275.56
451.74, 8.31, 275.54
451.89, 8.45, 275.51
452.04, 8.59, 275.49
452.19, 8.74, 275.47
452.34, 8.90, 275.44
452.50, 9.06, 275.41
452.67, 9.22, 275.39
452.86, 9.39, 275.36
446.64, 7.03, 276.31
446.88, 7.03, 276.27
447.14, 7.03, 276.22
447.42, 7.04, 276.17
447.73, 7.04, 276.11
448.06, 7.05, 276.05
448.43, 7.05, 275.99
448.83, 7.05, 275.91
¯449.26, 7.07, 275.83
449.59, 7.11, 275.77
449.77, 7.20, 275.74
449.94, 7.29, 275.71
450.12, 7.38, 275.68
450.31, 7.48, 275.64
450.51, 7.59, 275.61
450.71, 7.69, 275.57
450.93, 7.80, 275.53
451.15, 7.92, 275.49
451.34, 8.04, 275.46
451.47, 8.18, 275.44
451.61, 8.31, 275.41
451.75, 8.45, 275.38
451.91, 8.60, 275.36
452.08, 8.75, 275.33
452.24, 8.90, 275.30
452.41, 9.06, 275.27
452.59, 9.22, 275.23
452.78, 9.39, 275.20
446.63, 7.03, 276.23
446.86, 7.03, 276.19
447.12, 7.03, 276.14
447.40, 7.04, 276.08
447.70, 7.04, 276.02
448.04, 7.05, 275.96
448.40, 7.05, 275.89
448.80, 7.06, 275.81
449.24, 7.06, 275.72
449.53, 7.12, 275.66
449.70, 7.21, 275.63
449.88, 7.30, 275.60
450.06, 7.39, 275.56
450.24, 7.49, 275.53
450.44, 7.59, 275.49
450.64, 7.70, 275.45
450.85, 7.81, 275.41
451.08, 7.92, 275.36
451.24, 8.05, 275.33
451.39, 8.18, 275.30
451.53, 8.32, 275.27
451.69, 8.46, 275.25
451.84, 8.60, 275.22
452.00, 8.75, 275.18
452.17, 8.90, 275.15
452.34, 9.06, 275.12
452.52, 9.22, 275.08
452.70, 9.39, 275.05
446.61, 7.03, 276.16
446.85, 7.03, 276.11
447.10, 7.04, 276.05
¯447.38, 7.04, 276.00
447.68, 7.04, 275.93
448.01, 7.05, 275.86
448.38, 7.05, 275.79
448.78, 7.06, 275.70
449.22, 7.06, 275.61
449.47, 7.13, 275.56
449.64, 7.22, 275.52
449.81, 7.31, 275.48
449.99, 7.40, 275.45
450.17, 7.50, 275.41
450.37, 7.60, 275.37
450.60, 7.70, 275.32
450.83, 7.81, 275.27
451.04, 7.92, 275.23
451.18, 8.05, 275.20
451.32, 8.19, 275.17
451.47, 8.32, 275.14
451.62, 8.46, 275.11
451.77, 8.60, 275.07
451.93, 8.75, 275.04
452.10, 8.90, 275.01
452.26, 9.06, 274.97
452.44, 9.22, 274.94
452.62, 9.38, 274.90
446.59, 7.03, 276.08
446.82, 7.03, 276.03
447.08, 7.04, 275.97
447.36, 7.04, 275.91
447.66, 7.05, 275.84
447.99, 7.05, 275.77
448.35, 7.05, 275.69
448.75, 7.06, 275.60
449.19, 7.07, 275.50
449.41, 7.14, 275.45
449.57, 7.22, 275.41
449.75, 7.31, 275.37
449.95, 7.40, 275.33
450.15, 7.50, 275.28
450.36, 7.60, 275.23
450.59, 7.70, 275.18
450.82, 7.81, 275.13
450.98, 7.93, 275.10
451.12, 8.06, 275.07
451.26, 8.19, 275.03
451.40, 8.32, 275.00
451.55, 8.46, 274.97
451.70, 8.60, 274.94
451.86, 8.75, 274.90
452.02, 8.90, 274.86
452.19, 9.06, 274.83
¯452.36, 9.22, 274.79
452.56, 9.38, 274.75
446.57, 7.03, 276.01
446.80, 7.04, 275.95
447.06, 7.04, 275.89
447.33, 7.04, 275.83
447.63, 7.05, 275.75
447.96, 7.05, 275.67
448.32, 7.06, 275.59
448.72, 7.06, 275.49
449.16, 7.07, 275.39
449.37, 7.14, 275.34
449.55, 7.22, 275.29
449.74, 7.31, 275.25
449.94, 7.40, 275.20
450.14, 7.50, 275.15
450.35, 7.59, 275.10
450.57, 7.70, 275.05
450.79, 7.81, 275.00
450.92, 7.93, 274.97
451.05, 8.06, 274.93
451.19, 8.19, 274.90
451.33, 8.33, 274.87
451.48, 8.46, 274.83
451.63, 8.61, 274.80
451.79, 8.75, 274.76
451.95, 8.90, 274.72
452.12, 9.06, 274.68
452.29, 9.22, 274.64
452.50, 9.38, 274.59
446.55, 7.03, 275.93
446.78, 7.04, 275.87
447.03, 7.04, 275.81
447.31, 7.04, 275.74
447.61, 7.05, 275.66
447.93, 7.05, 275.58
448.29, 7.06, 275.49
448.69, 7.06, 275.39
449.12, 7.07, 275.28
449.36, 7.14, 275.22
449.54, 7.22, 275.17
449.73, 7.31, 275.12
449.92, 7.40, 275.07
450.13, 7.49, 275.02
450.34, 7.59, 274.97
450.56, 7.69, 274.91
450.74, 7.81, 274.87
450.86, 7.94, 274.84
450.99, 8.06, 274.80
451.13, 8.19, 274.77
451.27, 8.33, 274.73
¯451.41, 8.47, 274.70
451.56, 8.61, 274.66
451.72, 8.75, 274.62
451.88, 8.90, 274.58
452.04, 9.06, 274.54
452.21, 9.22, 274.50
452.44, 9.38, 274.44
446.52, 7.03, 275.86
446.76, 7.04, 275.80
447.01, 7.04, 275.73
447.28, 7.05, 275.66
447.58, 7.05, 275.58
447.91, 7.05, 275.49
448.26, 7.06, 275.39
448.65, 7.07, 275.29
449.09, 7.07, 275.17
449.35, 7.13, 275.10
449.53, 7.22, 275.05
449.72, 7.30, 275.00
449.91, 7.39, 274.95
450.12, 7.49, 274.89
450.33, 7.59, 274.84
450.55, 7.69, 274.78
450.68, 7.81, 274.74
450.80, 7.94, 274.71
450.93, 8.07, 274.67
451.07, 8.20, 274.64
451.20, 8.33, 274.60
451.35, 8.47, 274.56
451.50, 8.61, 274.52
451.65, 8.76, 274.48
451.81, 8.90, 274.44
451.97, 9.06, 274.40
452.15, 9.22, 274.35
452.38, 9.38, 274.29
446.50, 7.04, 275.79
446.73, 7.04, 275.72
446.98, 7.04, 275.65
447.26, 7.05, 275.57
447.55, 7.05, 275.49
447.88, 7.06, 275.40
448.23, 7.06, 275.30
448.61, 7.07, 275.18
449.05, 7.07, 275.06
449.33, 7.13, 274.98
449.51, 7.21, 274.93
449.70, 7.30, 274.88
449.90, 7.39, 274.82
450.10, 7.49, 274.76
450.32, 7.59, 274.70
450.50, 7.70, 274.65
¯450.62, 7.82, 274.62
450.74, 7.94, 274.58
450.87, 8.07, 274.54
451.00, 8.20, 274.51
451.14, 8.33, 274.47
451.28, 8.47, 274.43
451.43, 8.61, 274.39
451.58, 8.76, 274.34
451.74, 8.91, 274.30
451.90, 9.06, 274.26
452.09, 9.22, 274.20
452.32, 9.38, 274.13
446.48, 7.04, 275.71
446.71, 7.04, 275.64
446.96, 7.04, 275.57
447.23, 7.05, 275.49
447.52, 7.05, 275.40
447.84, 7.06, 275.30
448.19, 7.06, 275.20
448.58, 7.07, 275.08
449.01, 7.08, 274.95
449.32, 7.12, 274.86
449.50, 7.21, 274.81
449.69, 7.30, 274.75
449.89, 7.39, 274.69
450.09, 7.48, 274.63
450.30, 7.58, 274.57
450.44, 7.70, 274.53
450.56, 7.82, 274.49
450.68, 7.94, 274.45
450.81, 8.07, 274.42
450.94, 8.20, 274.38
451.08, 8.34, 274.34
451.21, 8.47, 274.30
451.36, 8.61, 274.25
451.51, 8.76, 274.21
451.66, 8.91, 274.16
451.82, 9.06, 274.11
452.04, 9.22, 274.05
452.27, 9.38, 273.98
446.45, 7.04, 275.64
446.68, 7.04, 275.57
446.93, 7.04, 275.49
447.20, 7.05, 275.40
447.49, 7.05, 275.31
447.81, 7.06, 275.21
448.15, 7.07, 275.10
448.54, 7.07, 274.98
448.97, 7.08, 274.85
449.30, 7.12, 274.74
449.49, 7.20, 274.68
¯449.67, 7.29, 274.62
449.87, 7.38, 274.56
450.08, 7.48, 274.50
450.26, 7.58, 274.44
450.38, 7.70, 274.40
450.50, 7.82, 274.37
450.62, 7.95, 274.33
450.75, 8.07, 274.29
450.88, 8.20, 274.25
451.01, 8.34, 274.21
451.15, 8.47, 274.16
451.29, 8.61, 274.12
451.44, 8.76, 274.07
451.59, 8.91, 274.02
451.76, 9.06, 273.97
451.98, 9.22, 273.90
452.21, 9.38, 273.83
446.43, 7.04, 275.57
446.65, 7.04, 275.49
446.90, 7.05, 275.41
447.17, 7.05, 275.32
447.46, 7.06, 275.23
447.77, 7.06, 275.12
448.11, 7.07, 275.01
448.49, 7.08, 274.88
448.93, 7.08, 274.74
449.29, 7.11, 274.62
449.47, 7.20, 274.56
449.66, 7.29, 274.50
449.86, 7.38, 274.43
450.06, 7.47, 274.37
450.21, 7.59, 274.32
450.32, 7.70, 274.28
450.44, 7.83, 274.24
450.56, 7.95, 274.20
450.69, 8.08, 274.16
450.82, 8.21, 274.12
450.95, 8.34, 274.07
451.08, 8.48, 274.03
451.22, 8.62, 273.98
451.37, 8.76, 273.94
451.52, 8.91, 273.89
451.71, 9.06, 273.83
451.93, 9.22, 273.75
452.15, 9.38, 273.68
446.40, 7.04, 275.49
446.63, 7.04, 275.42
446.87, 7.05, 275.33
447.13, 7.05, 275.24
447.42, 7.06, 275.14
447.73, 7.06, 275.03
¯448.07, 7.07, 274.91
448.45, 7.08, 274.78
448.88, 7.08, 274.63
449.27, 7.11, 274.50
449.45, 7.19, 274.44
449.64, 7.28, 274.37
449.84, 7.37, 274.30
450.04, 7.47, 274.24
450.15, 7.59, 274.20
450.26, 7.71, 274.16
450.38, 7.83, 274.12
450.50, 7.95, 274.08
450.63, 8.08, 274.03
450.76, 8.21, 273.99
450.89, 8.34, 273.94
451.02, 8.48, 273.90
451.16, 8.62, 273.85
451.30, 8.76, 273.80
451.45, 8.91, 273.75
451.65, 9.06, 273.68
451.87, 9.22, 273.61
452.10, 9.38, 273.53
446.37, 7.04, 275.42
446.60, 7.05, 275.34
446.84, 7.05, 275.25
447.10, 7.05, 275.16
447.38, 7.06, 275.06
447.69, 7.07, 274.94
448.03, 7.07, 274.82
448.41, 7.08, 274.69
448.84, 7.08, 274.53
449.26, 7.10, 274.38
449.44, 7.19, 274.31
449.63, 7.28, 274.24
449.83, 7.37, 274.17
449.98, 7.47, 274.12
450.09, 7.59, 274.08
450.21, 7.71, 274.04
450.32, 7.83, 273.99
450.45, 7.95, 273.95
450.57, 8.08, 273.91
450.69, 8.21, 273.86
450.82, 8.34, 273.81
450.96, 8.48, 273.77
451.09, 8.62, 273.72
451.23, 8.76, 273.67
451.39, 8.91, 273.61
451.60, 9.06, 273.53
451.82, 9.22, 273.46
452.14, 9.39, 273.34
446.34, 7.04, 275.35
¯446.56, 7.05, 275.27
446.80, 7.05, 275.18
447.06, 7.06, 275.08
447.35, 7.06, 274.97
447.65, 7.07, 274.86
447.99, 7.08, 274.73
448.36, 7.08, 274.59
448.79, 7.09, 274.42
449.24, 7.10, 274.26
449.42, 7.18, 274.19
449.61, 7.27, 274.12
449.81, 7.36, 274.04
449.92, 7.48, 274.00
450.04, 7.59, 273.96
450.15, 7.71, 273.91
450.27, 7.83, 273.87
450.39, 7.96, 273.83
450.51, 8.08, 273.78
450.63, 8.21, 273.73
450.76, 8.34, 273.68
450.89, 8.48, 273.64
451.03, 8.62, 273.58
451.17, 8.76, 273.53
451.34, 8.91, 273.47
451.62, 9.06, 273.36
451.97, 9.22, 273.23
452.34, 9.40, 273.09
446.31, 7.04, 275.28
446.53, 7.05, 275.19
446.77, 7.05, 275.10
447.03, 7.06, 275.00
447.31, 7.06, 274.89
447.61, 7.07, 274.77
447.95, 7.08, 274.64
448.32, 7.09, 274.49
448.75, 7.09, 274.32
449.22, 7.09, 274.13
449.40, 7.18, 274.06
449.59, 7.27, 273.99
449.76, 7.37, 273.92
449.87, 7.48, 273.88
449.98, 7.59, 273.84
450.09, 7.71, 273.79
450.21, 7.83, 273.75
450.33, 7.96, 273.70
450.45, 8.08, 273.65
450.57, 8.21, 273.61
450.70, 8.34, 273.56
450.83, 8.48, 273.50
450.96, 8.62, 273.45
451.12, 8.76, 273.39
¯451.46, 8.91, 273.26
451.80, 9.06, 273.12
452.16, 9.23, 272.98
452.53, 9.40, 272.84
446.28, 7.05, 275.21
446.50, 7.05, 275.12
446.73, 7.06, 275.02
446.99, 7.06, 274.92
447.27, 7.07, 274.80
447.57, 7.07, 274.68
447.90, 7.08, 274.54
448.27, 7.09, 274.39
448.70, 7.09, 274.22
449.17, 7.09, 274.02
449.39, 7.17, 273.94
449.58, 7.26, 273.86
449.70, 7.37, 273.81
449.81, 7.48, 273.76
449.92, 7.60, 273.72
450.03, 7.71, 273.67
450.15, 7.83, 273.63
450.27, 7.96, 273.58
450.39, 8.08, 273.53
450.51, 8.21, 273.48
450.64, 8.35, 273.42
450.79, 8.48, 273.36
450.95, 8.62, 273.30
451.30, 8.76, 273.15
451.63, 8.90, 273.02
451.98, 9.06, 272.88
452.36, 9.23, 272.72
452.57, 9.41, 272.64
446.24, 7.05, 275.14
446.46, 7.05, 275.05
446.70, 7.06, 274.95
446.95, 7.06, 274.84
447.23, 7.07, 274.72
447.53, 7.07, 274.59
447.86, 7.08, 274.45
448.23, 7.09, 274.30
448.65, 7.09, 274.12
449.12, 7.10, 273.91
449.37, 7.17, 273.81
449.54, 7.26, 273.74
449.65, 7.37, 273.69
449.75, 7.48, 273.65
449.86, 7.60, 273.60
449.98, 7.72, 273.55
450.09, 7.84, 273.50
450.21, 7.96, 273.45
450.34, 8.08, 273.40
¯450.48, 8.21, 273.34
450.63, 8.34, 273.27
450.78, 8.48, 273.21
451.11, 8.61, 273.07
451.47, 8.75, 272.92
451.81, 8.90, 272.77
452.17, 9.06, 272.62
452.41, 9.24, 272.52
452.60, 9.41, 272.44
446.21, 7.05, 275.07
446.43, 7.05, 274.98
446.66, 7.06, 274.87
446.91, 7.06, 274.76
447.19, 7.07, 274.64
447.48, 7.08, 274.51
447.81, 7.08, 274.36
448.18, 7.09, 274.20
448.60, 7.09, 274.02
449.07, 7.10, 273.81
449.35, 7.16, 273.68
449.49, 7.26, 273.62
449.59, 7.37, 273.57
449.70, 7.48, 273.53
449.81, 7.60, 273.48
449.92, 7.72, 273.43
450.05, 7.83, 273.37
450.19, 7.96, 273.31
450.33, 8.08, 273.25
450.47, 8.21, 273.19
450.62, 8.34, 273.12
450.77, 8.48, 273.05
451.31, 8.60, 272.82
451.64, 8.74, 272.67
452.00, 8.90, 272.51
452.25, 9.06, 272.40
452.44, 9.24, 272.32
452.63, 9.42, 272.23
446.17, 7.05, 275.00
446.39, 7.06, 274.91
446.62, 7.06, 274.80
446.87, 7.07, 274.68
447.14, 7.07, 274.56
447.44, 7.08, 274.42
447.76, 7.09, 274.27
448.13, 7.09, 274.11
448.54, 7.10, 273.91
449.01, 7.10, 273.70
449.33, 7.15, 273.55
449.43, 7.26, 273.51
449.53, 7.37, 273.46
449.65, 7.48, 273.41
¯449.78, 7.59, 273.35
449.91, 7.71, 273.29
450.04, 7.83, 273.23
450.18, 7.95, 273.17
450.32, 8.07, 273.10
450.46, 8.20, 273.04
450.61, 8.34, 272.97
451.11, 8.45, 272.74
451.47, 8.59, 272.57
451.82, 8.74, 272.41
452.10, 8.90, 272.28
452.28, 9.07, 272.20
452.47, 9.24, 272.11
452.66, 9.42, 272.02
446.14, 7.05, 274.94
446.35, 7.06, 274.84
446.58, 7.06, 274.73
446.83, 7.07, 274.61
447.10, 7.07, 274.48
447.39, 7.08, 274.34
447.71, 7.09, 274.18
448.08, 7.09, 274.01
448.49, 7.10, 273.81
448.95, 7.10, 273.59
449.27, 7.15, 273.44
449.39, 7.26, 273.38
449.51, 7.37, 273.33
449.64, 7.48, 273.27
449.76, 7.59, 273.21
449.89, 7.70, 273.15
450.03, 7.82, 273.08
450.16, 7.94, 273.02
450.30, 8.07, 272.95
450.45, 8.20, 272.88
450.74, 8.32, 272.75
451.31, 8.44, 272.47
451.65, 8.58, 272.31
451.95, 8.73, 272.17
452.12, 8.90, 272.09
452.31, 9.07, 272.00
452.50, 9.24, 271.91
452.70, 9.42, 271.81
446.10, 7.05, 274.87
446.31, 7.06, 274.76
446.54, 7.06, 274.65
446.79, 7.07, 274.53
447.05, 7.08, 274.40
447.35, 7.08, 274.25
447.66, 7.09, 274.10
448.02, 7.10, 273.92
448.43, 7.10, 273.72
¯448.89, 7.10, 273.49
449.26, 7.14, 273.31
449.38, 7.25, 273.25
449.50, 7.36, 273.19
449.62, 7.47, 273.13
449.75, 7.58, 273.07
449.88, 7.70, 273.00
450.01, 7.82, 272.94
450.15, 7.94, 272.87
450.29, 8.07, 272.80
450.44, 8.20, 272.73
451.12, 8.29, 272.39
451.48, 8.42, 272.21
451.80, 8.57, 272.06
451.97, 8.73, 271.97
452.15, 8.90, 271.88
452.34, 9.07, 271.79
452.53, 9.24, 271.70
452.73, 9.43, 271.60
446.06, 7.06, 274.80
446.27, 7.06, 274.70
446.50, 7.07, 274.58
446.74, 7.07, 274.45
447.01, 7.08, 274.32
447.30, 7.08, 274.17
447.61, 7.09, 274.01
447.97, 7.10, 273.83
448.38, 7.10, 273.62
448.83, 7.11, 273.39
449.24, 7.13, 273.18
449.36, 7.24, 273.12
449.48, 7.35, 273.05
449.61, 7.46, 272.99
449.73, 7.57, 272.92
449.87, 7.69, 272.86
450.00, 7.81, 272.79
450.14, 7.93, 272.72
450.28, 8.06, 272.65
450.73, 8.16, 272.42
451.31, 8.27, 272.12
451.65, 8.41, 271.95
451.82, 8.57, 271.86
452.00, 8.73, 271.77
452.18, 8.89, 271.68
452.37, 9.07, 271.58
452.57, 9.25, 271.48
452.77, 9.43, 271.37
446.02, 7.06, 274.74
446.23, 7.06, 274.63
446.46, 7.07, 274.51
446.70, 7.07, 274.38
¯446.96, 7.08, 274.24
447.25, 7.09, 274.09
447.56, 7.09, 273.92
447.92, 7.10, 273.73
448.32, 7.10, 273.52
448.77, 7.11, 273.28
449.22, 7.13, 273.04
449.34, 7.23, 272.98
449.47, 7.34, 272.91
449.59, 7.45, 272.85
449.72, 7.57, 272.78
449.85, 7.68, 272.71
449.99, 7.80, 272.64
450.12, 7.93, 272.57
450.37, 8.04, 272.44
451.11, 8.12, 272.04
451.49, 8.25, 271.85
451.67, 8.40, 271.75
451.84, 8.56, 271.66
452.02, 8.72, 271.56
452.21, 8.89, 271.46
452.41, 9.07, 271.36
452.61, 9.25, 271.26
452.83, 9.44, 271.14
445.99, 7.06, 274.67
446.19, 7.06, 274.56
446.41, 7.07, 274.44
446.65, 7.07, 274.30
446.91, 7.08, 274.16
447.20, 7.09, 274.01
447.51, 7.10, 273.84
447.86, 7.10, 273.64
448.26, 7.11, 273.42
448.71, 7.11, 273.18
449.17, 7.12, 272.92
449.33, 7.22, 272.84
449.45, 7.33, 272.77
449.57, 7.44, 272.71
449.70, 7.56, 272.64
449.84, 7.68, 272.56
449.97, 7.80, 272.49
450.11, 7.92, 272.41
450.72, 8.00, 272.08
451.31, 8.10, 271.75
451.52, 8.24, 271.64
451.69, 8.40, 271.55
451.87, 8.56, 271.45
452.06, 8.72, 271.35
452.25, 8.89, 271.25
452.45, 9.07, 271.14
452.65, 9.25, 271.03
¯452.97, 9.45, 270.85
445.94, 7.06, 274.61
446.15, 7.06, 274.49
446.37, 7.07, 274.37
446.61, 7.08, 274.23
446.86, 7.08, 274.08
447.15, 7.09, 273.93
447.45, 7.10, 273.75
447.81, 7.10, 273.55
448.20, 7.11, 273.33
448.64, 7.11, 273.08
449.10, 7.13, 272.82
449.31, 7.21, 272.70
449.43, 7.32, 272.63
449.56, 7.43, 272.56
449.69, 7.55, 272.49
449.82, 7.67, 272.41
449.96, 7.79, 272.34
450.35, 7.88, 272.12
451.11, 7.95, 271.69
451.38, 8.08, 271.53
451.55, 8.23, 271.44
451.72, 8.39, 271.34
451.90, 8.55, 271.24
452.09, 8.72, 271.13
452.28, 8.89, 271.02
452.49, 9.07, 270.91
452.78, 9.26, 270.74
454.66, 9.51, 269.68
445.90, 7.06, 274.54
446.11, 7.07, 274.42
446.32, 7.07, 274.30
446.56, 7.08, 274.16
446.81, 7.08, 274.01
447.09, 7.09, 273.85
447.40, 7.10, 273.67
447.75, 7.10, 273.46
448.14, 7.11, 273.23
448.58, 7.11, 272.98
449.03, 7.13, 272.71
449.29, 7.20, 272.56
449.41, 7.31, 272.49
449.54, 7.42, 272.42
449.67, 7.54, 272.34
449.80, 7.66, 272.26
450.00, 7.77, 272.15
450.70, 7.83, 271.74
451.23, 7.92, 271.43
451.40, 8.07, 271.33
451.57, 8.23, 271.23
451.75, 8.38, 271.13
¯451.93, 8.55, 271.02
452.13, 8.72, 270.91
452.32, 8.89, 270.79
452.60, 9.07, 270.63
452.93, 9.26, 270.44
454.70, 9.51, 269.41
445.86, 7.06, 274.48
446.06, 7.07, 274.36
446.28, 7.07, 274.23
446.51, 7.08, 274.09
446.76, 7.09, 273.93
447.04, 7.09, 273.77
447.34, 7.10, 273.58
447.69, 7.11, 273.37
448.08, 7.11, 273.14
448.51, 7.12, 272.88
448.95, 7.13, 272.61
449.27, 7.19, 272.42
449.40, 7.30, 272.34
449.52, 7.41, 272.27
449.65, 7.53, 272.19
449.79, 7.65, 272.11
450.32, 7.72, 271.79
450.93, 7.79, 271.42
451.26, 7.91, 271.22
451.43, 8.06, 271.12
451.60, 8.22, 271.02
451.78, 8.38, 270.91
451.97, 8.54, 270.80
452.16, 8.71, 270.68
452.41, 8.89, 270.53
452.74, 9.07, 270.33
453.08, 9.27, 270.13
454.84, 9.52, 269.07
445.82, 7.06, 274.41
446.02, 7.07, 274.29
446.23, 7.07, 274.16
446.46, 7.08, 274.01
446.71, 7.09, 273.86
446.99, 7.10, 273.69
447.28, 7.10, 273.50
447.63, 7.11, 273.29
448.01, 7.11, 273.05
448.44, 7.12, 272.78
448.88, 7.13, 272.51
449.25, 7.18, 272.27
449.38, 7.29, 272.20
449.51, 7.40, 272.12
449.64, 7.52, 272.04
449.96, 7.61, 271.84
450.59, 7.67, 271.45
¯450.91, 7.78, 271.25
451.28, 7.90, 271.02
451.45, 8.05, 270.91
451.63, 8.21, 270.80
451.81, 8.37, 270.69
452.00, 8.54, 270.57
452.23, 8.71, 270.42
452.55, 8.88, 270.23
452.89, 9.07, 270.02
453.89, 9.28, 269.40
454.97, 9.53, 268.72
445.78, 7.07, 274.35
445.97, 7.07, 274.22
446.18, 7.08, 274.09
446.41, 7.08, 273.94
446.66, 7.09, 273.78
446.93, 7.10, 273.61
447.23, 7.11, 273.42
447.57, 7.11, 273.20
447.95, 7.11, 272.96
448.37, 7.12, 272.68
448.80, 7.14, 272.41
449.23, 7.17, 272.13
449.36, 7.28, 272.05
449.49, 7.39, 271.97
449.62, 7.51, 271.88
450.26, 7.55, 271.47
450.56, 7.66, 271.28
450.99, 7.76, 271.01
451.30, 7.89, 270.80
451.48, 8.04, 270.69
451.66, 8.20, 270.58
451.84, 8.36, 270.46
452.06, 8.53, 270.32
452.37, 8.70, 270.12
452.69, 8.88, 269.91
453.04, 9.07, 269.69
454.01, 9.29, 269.07
445.73, 7.07, 274.29
445.93, 7.07, 274.16
446.13, 7.08, 274.02
446.36, 7.08, 273.87
446.61, 7.09, 273.71
446.87, 7.10, 273.53
447.17, 7.11, 273.34
447.50, 7.11, 273.11
447.88, 7.12, 272.87
448.30, 7.12, 272.59
448.73, 7.14, 272.31
449.20, 7.16, 271.99
449.34, 7.27, 271.90
¯449.47, 7.38, 271.82
449.92, 7.44, 271.52
450.23, 7.54, 271.31
450.53, 7.65, 271.11
451.10, 7.73, 270.74
451.33, 7.88, 270.58
451.50, 8.03, 270.47
451.69, 8.19, 270.35
451.88, 8.35, 270.22
452.18, 8.52, 270.02
452.50, 8.69, 269.81
452.84, 8.88, 269.59
453.15, 9.07, 269.38
454.15, 9.29, 268.72
445.69, 7.07, 274.23
445.88, 7.07, 274.10
446.08, 7.08, 273.95
446.31, 7.09, 273.80
446.55, 7.09, 273.64
446.82, 7.10, 273.46
447.11, 7.11, 273.26
447.44, 7.11, 273.03
447.81, 7.12, 272.78
448.23, 7.12, 272.49
448.65, 7.14, 272.21
449.12, 7.16, 271.89
449.32, 7.26, 271.75
449.09, 7.44, 271.90
449.06, 7.59, 271.93
449.06, 7.72, 271.93
449.06, 7.86, 271.93
449.06, 7.99, 271.93
449.06, 8.13, 271.93
449.06, 8.26, 271.93
449.06, 8.40, 271.93
449.06, 8.53, 271.93
449.06, 8.66, 271.93
449.06, 8.80, 271.93
449.06, 8.93, 271.93
449.10, 9.06, 271.90
454.27, 9.30, 268.37
445.64, 7.07, 274.17
445.83, 7.07, 274.03
446.03, 7.08, 273.89
446.26, 7.09, 273.73
446.50, 7.09, 273.56
446.76, 7.10, 273.38
447.05, 7.11, 273.18
447.38, 7.11, 272.95
447.74, 7.12, 272.69
448.15, 7.12, 272.40
¯448.57, 7.14, 272.11
449.03, 7.16, 271.78
448.98, 7.31, 271.82
448.90, 7.47, 271.87
448.89, 7.61, 271.88
448.89, 7.74, 271.88
448.89, 7.87, 271.89
448.89, 8.01, 271.89
448.89, 8.14, 271.89
448.89, 8.27, 271.89
448.89, 8.41, 271.89
448.89, 8.54, 271.89
448.89, 8.67, 271.89
448.89, 8.80, 271.89
448.89, 8.93, 271.89
448.91, 9.06, 271.87
448.99, 9.20, 271.82
445.59, 7.07, 274.11
445.78, 7.08, 273.97
445.98, 7.08, 273.82
446.20, 7.09, 273.66
446.44, 7.10, 273.49
446.70, 7.10, 273.30
446.98, 7.11, 273.10
447.31, 7.12, 272.86
447.67, 7.12, 272.60
448.08, 7.13, 272.31
448.49, 7.14, 272.01
448.94, 7.17, 271.68
448.85, 7.33, 271.75
448.79, 7.48, 271.79
448.78, 7.61, 271.80
448.78, 7.75, 271.80
448.78, 7.88, 271.80
448.78, 8.01, 271.80
448.78, 8.14, 271.80
448.78, 8.28, 271.80
448.78, 8.41, 271.80
448.78, 8.54, 271.80
448.78, 8.67, 271.80
448.78, 8.80, 271.80
448.78, 8.93, 271.80
448.80, 9.06, 271.79
448.86, 9.20, 271.74
445.55, 7.07, 274.05
445.73, 7.08, 273.91
445.93, 7.08, 273.76
446.15, 7.09, 273.60
446.38, 7.10, 273.42
446.64, 7.10, 273.23
446.92, 7.11, 273.02
¯447.24, 7.12, 272.78
447.60, 7.12, 272.51
448.00, 7.13, 272.21
448.41, 7.15, 271.91
448.86, 7.17, 271.58
448.77, 7.33, 271.64
448.71, 7.47, 271.69
448.70, 7.61, 271.69
448.70, 7.75, 271.69
448.70, 7.88, 271.70
448.70, 8.01, 271.70
448.70, 8.14, 271.70
448.70, 8.28, 271.70
448.70, 8.41, 271.70
448.70, 8.54, 271.70
448.70, 8.67, 271.70
448.70, 8.80, 271.70
448.70, 8.93, 271.70
448.72, 9.07, 271.68
448.79, 9.20, 271.64
445.50, 7.07, 273.99
445.68, 7.08, 273.85
445.88, 7.08, 273.69
446.09, 7.09, 273.53
446.33, 7.10, 273.35
446.58, 7.11, 273.16
446.86, 7.11, 272.94
447.18, 7.12, 272.70
447.53, 7.12, 272.43
447.93, 7.13, 272.12
448.32, 7.15, 271.82
448.77, 7.17, 271.48
448.77, 7.31, 271.48
448.68, 7.47, 271.55
448.66, 7.60, 271.56
448.66, 7.74, 271.56
448.66, 7.87, 271.56
448.66, 8.01, 271.56
448.66, 8.14, 271.56
448.66, 8.27, 271.56
448.66, 8.41, 271.56
448.66, 8.54, 271.56
448.66, 8.67, 271.56
448.66, 8.80, 271.56
448.66, 8.93, 271.56
448.69, 9.07, 271.54
448.77, 9.20, 271.48
445.45, 7.07, 273.93
445.63, 7.08, 273.79
445.83, 7.09, 273.63
446.04, 7.09, 273.46
¯446.27, 7.10, 273.28
446.52, 7.11, 273.09
446.79, 7.12, 272.87
447.11, 7.12, 272.62
447.46, 7.13, 272.34
447.85, 7.13, 272.03
448.24, 7.15, 271.72
448.68, 7.17, 271.37
449.22, 7.19, 270.95
448.74, 7.43, 271.33
448.69, 7.58, 271.37
448.69, 7.72, 271.37
448.69, 7.86, 271.37
448.69, 7.99, 271.37
448.69, 8.13, 271.37
448.69, 8.26, 271.37
448.69, 8.40, 271.37
448.69, 8.53, 271.37
448.69, 8.66, 271.37
448.69, 8.80, 271.37
448.69, 8.93, 271.37
448.73, 9.07, 271.34
454.94, 9.33, 266.43
445.40, 7.08, 273.87
445.58, 7.08, 273.73
445.77, 7.09, 273.57
445.98, 7.09, 273.40
446.21, 7.10, 273.21
446.45, 7.11, 273.01
446.73, 7.12, 272.79
447.04, 7.12, 272.54
447.38, 7.13, 272.26
447.77, 7.13, 271.95
448.16, 7.15, 271.63
448.60, 7.17, 271.27
449.14, 7.18, 270.83
449.44, 7.27, 270.58
449.72, 7.37, 270.36
450.16, 7.44, 270.00
450.87, 7.49, 269.42
451.28, 7.61, 269.09
451.49, 7.77, 268.92
451.71, 7.94, 268.75
451.93, 8.11, 268.56
452.18, 8.28, 268.36
452.46, 8.47, 268.13
452.76, 8.66, 267.89
453.07, 8.87, 267.64
454.49, 9.08, 266.49
454.99, 9.33, 266.08
445.35, 7.08, 273.81
¯445.53, 7.08, 273.67
445.72, 7.09, 273.51
445.92, 7.10, 273.33
446.15, 7.10, 273.15
446.39, 7.11, 272.94
446.66, 7.12, 272.72
446.97, 7.12, 272.46
447.31, 7.13, 272.18
447.69, 7.14, 271.86
448.07, 7.15, 271.54
448.51, 7.17, 271.17
449.04, 7.19, 270.72
449.41, 7.25, 270.42
449.68, 7.35, 270.19
450.24, 7.41, 269.72
450.81, 7.49, 269.25
451.27, 7.60, 268.86
451.48, 7.76, 268.69
451.70, 7.92, 268.50
451.93, 8.10, 268.31
452.21, 8.27, 268.08
452.49, 8.46, 267.84
452.79, 8.66, 267.59
454.05, 8.85, 266.54
454.52, 9.09, 266.15
455.04, 9.34, 265.72
445.30, 7.08, 273.76
445.47, 7.08, 273.61
445.66, 7.09, 273.45
445.86, 7.10, 273.27
446.08, 7.10, 273.08
446.33, 7.11, 272.87
446.59, 7.12, 272.65
446.89, 7.12, 272.38
447.23, 7.13, 272.09
447.60, 7.14, 271.77
447.98, 7.16, 271.45
448.42, 7.17, 271.07
448.95, 7.19, 270.62
449.37, 7.24, 270.26
449.64, 7.34, 270.02
450.27, 7.39, 269.48
450.75, 7.48, 269.07
451.26, 7.58, 268.63
451.48, 7.74, 268.44
451.70, 7.91, 268.25
451.95, 8.08, 268.04
452.23, 8.26, 267.80
452.52, 8.45, 267.55
452.81, 8.65, 267.30
454.08, 8.85, 266.21
¯454.56, 9.09, 265.79
445.25, 7.08, 273.70
445.42, 7.08, 273.55
445.60, 7.09, 273.39
445.80, 7.10, 273.21
446.02, 7.11, 273.01
446.26, 7.11, 272.81
446.52, 7.12, 272.57
446.82, 7.13, 272.31
447.15, 7.13, 272.01
447.52, 7.14, 271.69
447.90, 7.16, 271.35
448.33, 7.18, 270.98
448.85, 7.19, 270.51
449.33, 7.23, 270.09
449.65, 7.32, 269.81
450.21, 7.38, 269.31
450.70, 7.47, 268.87
451.25, 7.57, 268.39
451.47, 7.73, 268.20
451.70, 7.90, 267.99
451.97, 8.07, 267.75
452.25, 8.25, 267.51
452.53, 8.45, 267.26
453.12, 8.64, 266.74
454.11, 8.84, 265.86
454.60, 9.09, 265.43
444.93, 7.21, 273.89
445.36, 7.09, 273.49
445.55, 7.09, 273.33
445.74, 7.10, 273.15
445.96, 7.11, 272.95
446.19, 7.11, 272.74
446.45, 7.12, 272.50
446.75, 7.13, 272.23
447.08, 7.13, 271.93
447.44, 7.14, 271.60
447.81, 7.16, 271.26
448.24, 7.18, 270.88
448.75, 7.19, 270.41
449.28, 7.22, 269.92
449.71, 7.29, 269.53
450.14, 7.37, 269.15
450.66, 7.45, 268.67
451.25, 7.55, 268.14
451.46, 7.71, 267.94
451.72, 7.88, 267.71
451.98, 8.06, 267.47
452.25, 8.24, 267.22
452.57, 8.44, 266.94
453.68, 8.61, 265.93
¯454.14, 8.84, 265.51
444.88, 7.21, 273.84
445.31, 7.09, 273.44
445.49, 7.09, 273.27
445.68, 7.10, 273.08
445.90, 7.11, 272.89
446.13, 7.12, 272.67
446.38, 7.12, 272.43
446.67, 7.13, 272.16
447.00, 7.13, 271.86
447.35, 7.14, 271.52
447.73, 7.16, 271.17
448.14, 7.18, 270.78
448.65, 7.19, 270.31
449.24, 7.20, 269.75
449.64, 7.28, 269.38
450.07, 7.36, 268.98
450.62, 7.44, 268.47
451.23, 7.53, 267.89
451.47, 7.70, 267.67
451.72, 7.87, 267.43
451.99, 8.05, 267.19
452.26, 8.23, 266.93
452.92, 8.41, 266.32
453.70, 8.61, 265.58
454.18, 8.84, 265.14
444.83, 7.21, 273.79
444.98, 7.22, 273.64
445.43, 7.09, 273.21
445.62, 7.10, 273.02
445.83, 7.11, 272.82
446.06, 7.12, 272.60
446.31, 7.13, 272.36
446.60, 7.13, 272.09
446.92, 7.14, 271.78
447.27, 7.14, 271.44
447.64, 7.16, 271.08
448.05, 7.18, 270.69
448.55, 7.19, 270.20
449.17, 7.20, 269.61
449.57, 7.27, 269.22
449.99, 7.35, 268.82
450.57, 7.43, 268.26
451.22, 7.51, 267.63
451.47, 7.68, 267.40
451.72, 7.85, 267.15
451.99, 8.03, 266.90
452.37, 8.21, 266.53
453.28, 8.38, 265.66
453.73, 8.60, 265.23
454.21, 8.84, 264.76
¯444.78, 7.21, 273.74
444.93, 7.22, 273.59
445.10, 7.22, 273.42
445.56, 7.10, 272.96
445.77, 7.11, 272.76
445.99, 7.12, 272.54
446.24, 7.13, 272.29
446.52, 7.13, 272.01
446.83, 7.14, 271.70
447.18, 7.14, 271.36
447.55, 7.16, 271.00
447.95, 7.18, 270.60
448.45, 7.19, 270.10
449.05, 7.20, 269.51
449.50, 7.26, 269.06
449.92, 7.35, 268.65
450.52, 7.42, 268.05
451.22, 7.49, 267.36
451.47, 7.66, 267.12
451.72, 7.83, 266.86
451.99, 8.02, 266.60
452.71, 8.18, 265.89
453.30, 8.37, 265.31
453.75, 8.59, 264.86
444.73, 7.21, 273.69
444.88, 7.22, 273.54
445.04, 7.22, 273.37
445.50, 7.10, 272.91
445.70, 7.11, 272.70
445.92, 7.12, 272.47
446.16, 7.13, 272.23
446.44, 7.13, 271.94
446.75, 7.14, 271.63
447.10, 7.15, 271.28
447.46, 7.16, 270.91
447.86, 7.18, 270.50
448.35, 7.19, 270.01
448.94, 7.20, 269.40
449.43, 7.25, 268.91
449.84, 7.34, 268.48
450.47, 7.40, 267.84
451.21, 7.47, 267.09
451.46, 7.64, 266.83
451.72, 7.82, 266.57
452.16, 7.99, 266.13
452.84, 8.16, 265.44
453.32, 8.36, 264.95
453.78, 8.59, 264.48
444.68, 7.21, 273.64
444.82, 7.22, 273.49
444.98, 7.22, 273.32
¯445.15, 7.23, 273.14
445.63, 7.11, 272.64
445.85, 7.12, 272.41
446.09, 7.13, 272.16
446.36, 7.13, 271.87
446.67, 7.14, 271.55
447.01, 7.15, 271.20
447.37, 7.16, 270.83
447.76, 7.18, 270.41
448.24, 7.19, 269.91
448.82, 7.20, 269.30
449.35, 7.24, 268.75
449.77, 7.33, 268.31
450.42, 7.39, 267.63
451.21, 7.45, 266.81
451.46, 7.62, 266.54
451.72, 7.80, 266.27
452.40, 7.95, 265.55
452.84, 8.14, 265.10
453.34, 8.35, 264.58
444.62, 7.21, 273.59
444.77, 7.22, 273.44
444.92, 7.23, 273.27
445.09, 7.23, 273.09
445.57, 7.11, 272.58
445.78, 7.12, 272.35
446.02, 7.13, 272.09
446.29, 7.14, 271.80
446.58, 7.14, 271.48
446.92, 7.15, 271.12
447.27, 7.16, 270.74
447.66, 7.18, 270.32
448.13, 7.19, 269.81
448.70, 7.20, 269.21
449.27, 7.23, 268.59
449.69, 7.32, 268.14
450.33, 7.38, 267.45
451.20, 7.43, 266.52
451.45, 7.60, 266.24
451.94, 7.76, 265.72
452.38, 7.94, 265.25
452.86, 8.13, 264.73
453.36, 8.34, 264.20
444.57, 7.21, 273.55
444.71, 7.22, 273.39
444.87, 7.23, 273.22
445.03, 7.23, 273.03
445.21, 7.24, 272.83
445.71, 7.12, 272.29
445.94, 7.13, 272.03
446.20, 7.14, 271.74
¯446.50, 7.14, 271.41
446.83, 7.15, 271.05
447.18, 7.16, 270.66
447.56, 7.18, 270.23
448.03, 7.19, 269.72
448.58, 7.20, 269.11
449.18, 7.23, 268.44
449.61, 7.31, 267.97
450.24, 7.37, 267.27
451.19, 7.41, 266.22
451.45, 7.58, 265.93
451.96, 7.74, 265.37
452.36, 7.92, 264.93
452.87, 8.11, 264.36
444.52, 7.21, 273.50
444.66, 7.22, 273.34
444.81, 7.23, 273.17
444.97, 7.23, 272.98
445.15, 7.24, 272.78
445.63, 7.12, 272.23
445.86, 7.13, 271.97
446.12, 7.14, 271.67
446.41, 7.14, 271.34
446.74, 7.15, 270.97
447.08, 7.17, 270.58
447.46, 7.18, 270.15
447.92, 7.20, 269.63
448.46, 7.21, 269.01
449.05, 7.23, 268.34
449.54, 7.30, 267.78
450.14, 7.36, 267.10
451.18, 7.38, 265.91
451.56, 7.54, 265.49
451.93, 7.72, 265.06
452.35, 7.90, 264.58
452.88, 8.10, 263.98
444.46, 7.22, 273.46
444.60, 7.22, 273.29
444.75, 7.23, 273.12
444.91, 7.23, 272.93
445.08, 7.24, 272.73
445.27, 7.25, 272.50
445.79, 7.13, 271.91
446.04, 7.14, 271.60
446.33, 7.15, 271.27
446.64, 7.15, 270.90
446.98, 7.17, 270.50
447.36, 7.18, 270.06
447.81, 7.20, 269.54
448.34, 7.21, 268.92
448.92, 7.23, 268.24
¯449.48, 7.28, 267.58
450.04, 7.36, 266.93
451.16, 7.36, 265.62
451.52, 7.52, 265.19
451.90, 7.70, 264.75
452.36, 7.89, 264.21
452.88, 8.08, 263.59
444.41, 7.22, 273.41
444.54, 7.22, 273.25
444.69, 7.23, 273.07
444.85, 7.24, 272.88
445.02, 7.24, 272.67
445.21, 7.25, 272.45
445.41, 7.26, 272.20
445.96, 7.14, 271.54
446.24, 7.15, 271.20
446.55, 7.15, 270.83
446.88, 7.17, 270.43
447.26, 7.18, 269.98
447.69, 7.20, 269.45
448.21, 7.21, 268.83
448.78, 7.23, 268.14
449.38, 7.27, 267.42
449.94, 7.35, 266.75
451.00, 7.36, 265.47
451.49, 7.50, 264.88
451.87, 7.68, 264.42
452.36, 7.87, 263.83
454.30, 7.95, 261.49
444.35, 7.22, 273.37
444.48, 7.22, 273.20
444.63, 7.23, 273.02
444.78, 7.24, 272.83
444.95, 7.24, 272.62
445.14, 7.25, 272.39
445.34, 7.26, 272.14
445.88, 7.14, 271.48
446.15, 7.15, 271.14
446.46, 7.16, 270.76
446.78, 7.17, 270.35
447.15, 7.19, 269.90
447.58, 7.20, 269.37
448.09, 7.21, 268.74
448.65, 7.23, 268.04
449.28, 7.26, 267.26
449.83, 7.34, 266.57
450.85, 7.36, 265.32
451.45, 7.48, 264.57
451.86, 7.66, 264.06
452.33, 7.85, 263.47
444.29, 7.22, 273.33
¯444.42, 7.22, 273.16
444.57, 7.23, 272.98
444.72, 7.24, 272.78
444.88, 7.24, 272.57
445.07, 7.25, 272.34
445.26, 7.26, 272.09
445.48, 7.27, 271.81
446.06, 7.15, 271.07
446.36, 7.16, 270.69
446.68, 7.17, 270.28
447.04, 7.19, 269.82
447.46, 7.20, 269.28
447.96, 7.21, 268.65
448.51, 7.23, 267.94
449.16, 7.26, 267.12
449.73, 7.33, 266.40
450.69, 7.36, 265.17
451.41, 7.46, 264.25
451.85, 7.64, 263.68
452.28, 7.83, 263.14
444.24, 7.22, 273.28
444.37, 7.22, 273.12
444.50, 7.23, 272.93
444.65, 7.24, 272.74
444.82, 7.25, 272.52
444.99, 7.25, 272.29
445.19, 7.26, 272.03
445.41, 7.27, 271.75
445.97, 7.15, 271.01
446.27, 7.16, 270.62
446.58, 7.17, 270.20
446.94, 7.19, 269.74
447.35, 7.20, 269.20
447.84, 7.21, 268.56
448.38, 7.24, 267.85
449.01, 7.26, 267.02
449.62, 7.32, 266.22
450.53, 7.35, 265.02
451.37, 7.44, 263.92
451.79, 7.62, 263.36
452.22, 7.82, 262.80
444.18, 7.22, 273.24
444.31, 7.22, 273.07
444.44, 7.23, 272.89
444.59, 7.24, 272.69
444.75, 7.25, 272.47
444.92, 7.25, 272.24
445.11, 7.26, 271.98
445.33, 7.27, 271.69
445.56, 7.28, 271.38
446.17, 7.16, 270.55
¯446.48, 7.17, 270.13
446.83, 7.19, 269.67
447.23, 7.20, 269.12
447.71, 7.22, 268.47
448.24, 7.24, 267.75
448.86, 7.26, 266.92
449.51, 7.31, 266.04
450.37, 7.35, 264.88
451.33, 7.42, 263.57
451.73, 7.60, 263.04
453.58, 7.64, 260.53
444.12, 7.22, 273.20
444.25, 7.23, 273.03
444.38, 7.23, 272.84
444.52, 7.24, 272.64
444.68, 7.25, 272.43
444.85, 7.25, 272.19
445.04, 7.26, 271.93
445.25, 7.27, 271.64
445.47, 7.28, 271.32
446.07, 7.16, 270.49
446.38, 7.17, 270.06
446.72, 7.19, 269.59
447.11, 7.21, 269.05
447.58, 7.22, 268.39
448.10, 7.24, 267.66
448.71, 7.27, 266.82
449.39, 7.30, 265.86
450.21, 7.35, 264.73
451.27, 7.40, 263.26
451.67, 7.58, 262.70
455.43, 7.40, 257.46
444.06, 7.22, 273.16
444.18, 7.23, 272.99
444.32, 7.23, 272.80
444.46, 7.24, 272.60
444.61, 7.25, 272.38
444.78, 7.26, 272.14
444.96, 7.26, 271.88
445.16, 7.27, 271.58
445.39, 7.28, 271.26
445.65, 7.29, 270.89
446.27, 7.17, 269.99
446.61, 7.19, 269.52
446.99, 7.21, 268.97
447.45, 7.22, 268.31
447.96, 7.24, 267.57
448.55, 7.27, 266.73
449.28, 7.29, 265.68
450.04, 7.35, 264.59
451.20, 7.37, 262.93
¯451.60, 7.56, 262.36
454.01, 7.54, 258.91
444.00, 7.22, 273.12
444.12, 7.23, 272.95
444.25, 7.23, 272.76
444.39, 7.24, 272.55
444.54, 7.25, 272.33
444.70, 7.26, 272.09
444.88, 7.26, 271.82
445.08, 7.27, 271.53
445.30, 7.28, 271.21
445.55, 7.29, 270.83
446.17, 7.18, 269.93
446.49, 7.19, 269.45
446.87, 7.21, 268.89
447.32, 7.22, 268.23
447.82, 7.24, 267.48
448.40, 7.27, 266.63
449.13, 7.29, 265.55
449.88, 7.35, 264.45
451.03, 7.37, 262.74
451.96, 7.48, 261.37
453.61, 7.56, 258.93
443.95, 7.22, 273.09
444.06, 7.23, 272.91
444.19, 7.23, 272.72
444.32, 7.24, 272.51
444.47, 7.25, 272.29
444.63, 7.26, 272.04
444.81, 7.26, 271.77
445.00, 7.27, 271.48
445.22, 7.28, 271.15
445.46, 7.29, 270.78
445.74, 7.30, 270.35
446.38, 7.19, 269.38
446.75, 7.21, 268.82
447.19, 7.22, 268.15
447.68, 7.24, 267.40
448.24, 7.27, 266.54
448.96, 7.29, 265.45
449.71, 7.34, 264.31
450.81, 7.37, 262.63
451.80, 7.47, 261.13
453.22, 7.57, 258.97
454.40, 8.44, 257.17
454.52, 8.77, 256.98
443.89, 7.22, 273.05
444.00, 7.23, 272.87
444.12, 7.23, 272.68
444.25, 7.24, 272.47
444.40, 7.25, 272.24
¯444.56, 7.26, 272.00
444.73, 7.27, 271.73
444.92, 7.27, 271.43
445.13, 7.28, 271.10
445.37, 7.29, 270.72
445.64, 7.30, 270.30
446.27, 7.19, 269.31
446.62, 7.21, 268.75
447.05, 7.22, 268.07
447.54, 7.24, 267.31
448.09, 7.27, 266.45
448.78, 7.30, 265.36
449.54, 7.34, 264.17
450.59, 7.38, 262.52
451.63, 7.46, 260.88
452.94, 7.57, 258.83
453.81, 8.13, 257.47
453.81, 9.11, 257.47
443.83, 7.22, 273.01
443.94, 7.23, 272.83
444.06, 7.23, 272.64
444.19, 7.24, 272.43
444.33, 7.25, 272.20
444.48, 7.26, 271.95
444.65, 7.27, 271.68
444.83, 7.28, 271.38
445.04, 7.28, 271.04
445.28, 7.29, 270.66
445.54, 7.30, 270.24
445.83, 7.32, 269.77
446.50, 7.21, 268.68
446.92, 7.23, 268.00
447.40, 7.24, 267.23
447.93, 7.27, 266.36
448.60, 7.30, 265.27
449.37, 7.34, 264.03
450.37, 7.38, 262.42
451.46, 7.46, 260.64
452.70, 7.57, 258.65
453.56, 7.79, 257.26
454.13, 9.46, 256.33
443.76, 7.22, 272.98
443.87, 7.23, 272.80
443.99, 7.24, 272.60
444.12, 7.24, 272.39
444.25, 7.25, 272.16
444.40, 7.26, 271.91
444.57, 7.27, 271.63
444.75, 7.28, 271.33
444.95, 7.28, 270.99
445.18, 7.29, 270.61
¯445.44, 7.30, 270.18
445.72, 7.32, 269.71
446.38, 7.21, 268.61
446.79, 7.23, 267.93
447.25, 7.25, 267.15
447.77, 7.27, 266.28
448.43, 7.30, 265.19
449.20, 7.34, 263.90
450.15, 7.38, 262.31
451.29, 7.45, 260.40
452.45, 7.57, 258.46
453.30, 7.79, 257.04
453.30, 9.44, 257.04
443.70, 7.22, 272.94
443.81, 7.23, 272.76
443.92, 7.24, 272.56
444.05, 7.24, 272.35
444.18, 7.25, 272.12
444.33, 7.26, 271.86
444.49, 7.27, 271.59
444.66, 7.28, 271.28
444.86, 7.29, 270.94
445.09, 7.29, 270.55
445.34, 7.30, 270.13
445.61, 7.32, 269.65
445.92, 7.33, 269.11
446.65, 7.23, 267.85
447.10, 7.25, 267.07
447.62, 7.28, 266.19
448.25, 7.30, 265.10
449.00, 7.34, 263.81
449.92, 7.38, 262.21
451.09, 7.44, 260.20
452.10, 7.58, 258.46
452.03, 7.90, 258.58
451.93, 8.21, 258.74
453.27, 9.11, 256.44
443.64, 7.22, 272.91
443.75, 7.23, 272.72
443.86, 7.24, 272.52
443.98, 7.24, 272.31
444.11, 7.25, 272.08
444.25, 7.26, 271.82
444.41, 7.27, 271.54
444.58, 7.28, 271.24
444.77, 7.29, 270.89
444.99, 7.29, 270.50
445.23, 7.30, 270.07
445.50, 7.32, 269.59
445.81, 7.33, 269.05
446.52, 7.23, 267.78
¯446.96, 7.25, 267.00
447.46, 7.28, 266.11
448.07, 7.31, 265.02
448.80, 7.34, 263.72
449.70, 7.39, 262.11
450.82, 7.45, 260.12
451.94, 7.57, 258.11
451.88, 7.88, 258.23
451.48, 8.22, 258.94
452.82, 8.45, 256.54
452.78, 8.78, 256.62
452.78, 9.11, 256.62
443.58, 7.22, 272.87
443.68, 7.23, 272.69
443.79, 7.24, 272.49
443.91, 7.24, 272.27
444.03, 7.25, 272.04
444.17, 7.26, 271.78
444.33, 7.27, 271.50
444.49, 7.28, 271.19
444.68, 7.29, 270.84
444.90, 7.29, 270.45
445.13, 7.31, 270.02
445.39, 7.32, 269.54
445.69, 7.34, 268.99
446.03, 7.35, 268.37
446.81, 7.25, 266.93
447.30, 7.28, 266.02
447.89, 7.31, 264.94
448.60, 7.34, 263.63
449.47, 7.39, 262.02
450.55, 7.45, 260.03
451.70, 7.57, 257.91
451.73, 7.87, 257.86
451.04, 8.24, 259.13
443.52, 7.22, 272.84
443.62, 7.23, 272.65
443.72, 7.24, 272.45
443.84, 7.24, 272.24
443.96, 7.25, 272.00
444.10, 7.26, 271.74
444.24, 7.27, 271.46
444.41, 7.28, 271.15
444.59, 7.29, 270.80
444.80, 7.29, 270.40
445.03, 7.31, 269.97
445.28, 7.32, 269.48
445.57, 7.34, 268.93
445.90, 7.35, 268.30
446.65, 7.25, 266.87
447.14, 7.28, 265.95
¯447.71, 7.31, 264.86
448.39, 7.35, 263.55
449.25, 7.39, 261.93
450.28, 7.46, 259.95
450.67, 7.68, 259.22
450.73, 7.95, 259.10
450.87, 8.23, 258.83
443.45, 7.22, 272.81
443.55, 7.23, 272.62
443.65, 7.24, 272.42
443.76, 7.24, 272.20
443.88, 7.25, 271.96
444.02, 7.26, 271.70
444.16, 7.27, 271.41
444.32, 7.28, 271.11
444.50, 7.29, 270.75
444.70, 7.30, 270.35
444.92, 7.31, 269.92
445.17, 7.32, 269.43
445.45, 7.34, 268.88
445.77, 7.36, 268.24
446.14, 7.38, 267.51
446.97, 7.28, 265.88
447.53, 7.31, 264.78
448.19, 7.35, 263.48
449.01, 7.40, 261.85
450.01, 7.46, 259.88
450.52, 7.66, 258.88
450.58, 7.94, 258.77
450.72, 8.22, 258.49
443.39, 7.22, 272.78
443.48, 7.23, 272.59
443.58, 7.24, 272.38
443.69, 7.25, 272.17
443.81, 7.25, 271.93
443.94, 7.26, 271.66
444.08, 7.27, 271.37
444.23, 7.28, 271.07
444.41, 7.29, 270.71
444.60, 7.30, 270.30
444.82, 7.31, 269.87
445.06, 7.32, 269.38
445.33, 7.34, 268.82
445.64, 7.36, 268.19
446.00, 7.38, 267.45
446.80, 7.28, 265.81
447.34, 7.31, 264.71
447.98, 7.35, 263.40
448.78, 7.40, 261.78
449.75, 7.47, 259.80
450.37, 7.64, 258.53
¯450.42, 7.93, 258.43
450.56, 8.21, 258.15
443.33, 7.22, 272.75
443.42, 7.23, 272.56
443.52, 7.24, 272.35
443.62, 7.25, 272.13
443.73, 7.25, 271.89
443.86, 7.26, 271.63
444.00, 7.27, 271.34
444.14, 7.28, 271.02
444.31, 7.29, 270.66
444.50, 7.30, 270.26
444.71, 7.31, 269.82
444.94, 7.32, 269.33
445.21, 7.34, 268.77
445.51, 7.36, 268.13
445.86, 7.38, 267.38
446.64, 7.28, 265.74
447.16, 7.32, 264.65
447.78, 7.36, 263.33
448.54, 7.40, 261.72
449.48, 7.47, 259.73
450.21, 7.63, 258.18
450.26, 7.92, 258.08
450.39, 8.20, 257.80
443.26, 7.23, 272.72
443.35, 7.23, 272.53
443.45, 7.24, 272.32
443.55, 7.25, 272.10
443.66, 7.25, 271.86
443.78, 7.26, 271.59
443.91, 7.27, 271.30
444.05, 7.28, 270.98
444.22, 7.29, 270.62
444.40, 7.30, 270.22
444.60, 7.31, 269.78
444.83, 7.32, 269.28
445.09, 7.34, 268.72
445.38, 7.36, 268.07
445.72, 7.38, 267.32
446.12, 7.40, 266.45
446.97, 7.32, 264.59
447.57, 7.36, 263.26
448.31, 7.41, 261.65
449.21, 7.47, 259.67
450.06, 7.61, 257.81
450.10, 7.90, 257.72
450.22, 8.19, 257.45
443.20, 7.23, 272.69
443.28, 7.23, 272.50
443.38, 7.24, 272.29
¯443.47, 7.25, 272.07
443.58, 7.25, 271.82
443.70, 7.26, 271.55
443.83, 7.27, 271.26
443.97, 7.28, 270.95
444.13, 7.29, 270.58
444.30, 7.30, 270.17
444.50, 7.31, 269.73
444.72, 7.32, 269.23
444.97, 7.34, 268.67
445.25, 7.36, 268.02
445.58, 7.38, 267.27
445.97, 7.40, 266.38
446.78, 7.32, 264.53
447.37, 7.36, 263.19
448.07, 7.41, 261.60
448.94, 7.48, 259.60
449.89, 7.59, 257.44
449.93, 7.89, 257.35
450.05, 8.18, 257.08
443.13, 7.23, 272.66
443.22, 7.23, 272.47
443.31, 7.24, 272.26
443.40, 7.25, 272.04
443.50, 7.25, 271.79
443.62, 7.26, 271.52
443.74, 7.27, 271.23
443.88, 7.28, 270.91
444.03, 7.29, 270.54
444.20, 7.30, 270.13
444.39, 7.31, 269.69
444.60, 7.33, 269.19
444.84, 7.34, 268.62
445.12, 7.36, 267.97
445.44, 7.38, 267.21
445.81, 7.40, 266.33
446.24, 7.44, 265.31
447.16, 7.36, 263.13
447.83, 7.42, 261.54
448.68, 7.48, 259.54
449.73, 7.57, 257.06
449.76, 7.88, 256.97
443.07, 7.23, 272.64
443.15, 7.23, 272.44
443.23, 7.24, 272.23
443.33, 7.25, 272.01
443.43, 7.25, 271.76
443.54, 7.26, 271.49
443.66, 7.27, 271.19
443.79, 7.28, 270.87
443.94, 7.29, 270.50
¯444.10, 7.30, 270.09
444.28, 7.31, 269.65
444.49, 7.33, 269.14
444.72, 7.34, 268.57
444.99, 7.36, 267.92
445.29, 7.38, 267.16
445.65, 7.41, 266.27
446.07, 7.44, 265.25
446.95, 7.37, 263.08
447.59, 7.42, 261.49
448.41, 7.49, 259.48
449.55, 7.55, 256.69
443.00, 7.23, 272.61
443.08, 7.23, 272.42
443.16, 7.24, 272.20
443.25, 7.25, 271.98
443.35, 7.25, 271.73
443.45, 7.26, 271.45
443.57, 7.27, 271.16
443.70, 7.28, 270.84
443.84, 7.29, 270.46
444.00, 7.30, 270.06
444.18, 7.31, 269.61
444.37, 7.33, 269.10
444.60, 7.34, 268.53
444.85, 7.36, 267.87
445.15, 7.38, 267.10
445.49, 7.41, 266.22
445.89, 7.44, 265.20
446.74, 7.37, 263.03
447.36, 7.43, 261.44
448.14, 7.49, 259.43
449.23, 7.56, 256.63
442.94, 7.23, 272.59
443.01, 7.23, 272.39
443.09, 7.24, 272.18
443.18, 7.25, 271.95
443.27, 7.25, 271.70
443.37, 7.26, 271.42
443.48, 7.27, 271.13
443.61, 7.28, 270.80
443.75, 7.29, 270.43
443.90, 7.30, 270.02
444.07, 7.31, 269.57
444.26, 7.33, 269.06
444.47, 7.34, 268.48
444.72, 7.36, 267.82
445.01, 7.38, 267.05
445.34, 7.41, 266.17
445.72, 7.44, 265.15
446.18, 7.48, 263.92
¯447.12, 7.43, 261.39
447.88, 7.49, 259.38
448.91, 7.57, 256.61
442.87, 7.23, 272.56
442.94, 7.23, 272.36
443.02, 7.24, 272.15
443.10, 7.25, 271.92
443.19, 7.25, 271.67
443.29, 7.26, 271.39
443.40, 7.27, 271.10
443.51, 7.28, 270.77
443.65, 7.29, 270.39
443.80, 7.30, 269.98
443.96, 7.31, 269.53
444.14, 7.33, 269.02
444.35, 7.34, 268.44
444.58, 7.36, 267.78
444.86, 7.38, 267.01
445.18, 7.41, 266.13
445.54, 7.45, 265.10
445.99, 7.49, 263.86
446.89, 7.43, 261.35
447.61, 7.50, 259.33
448.59, 7.57, 256.59
442.81, 7.23, 272.54
442.87, 7.23, 272.34
442.95, 7.24, 272.13
443.03, 7.25, 271.90
443.11, 7.25, 271.64
443.21, 7.26, 271.37
443.31, 7.27, 271.07
443.42, 7.28, 270.74
443.55, 7.29, 270.36
443.69, 7.30, 269.95
443.85, 7.31, 269.49
444.02, 7.33, 268.98
444.22, 7.34, 268.40
444.45, 7.36, 267.73
444.72, 7.38, 266.96
445.02, 7.41, 266.08
445.37, 7.45, 265.05
445.79, 7.49, 263.81
446.30, 7.54, 262.33
447.34, 7.50, 259.28
448.27, 7.58, 256.58
442.74, 7.23, 272.52
442.80, 7.23, 272.32
442.88, 7.24, 272.10
442.95, 7.25, 271.87
443.03, 7.25, 271.62
443.12, 7.26, 271.34
¯443.22, 7.27, 271.04
443.33, 7.28, 270.71
443.45, 7.29, 270.33
443.59, 7.30, 269.92
443.74, 7.31, 269.46
443.91, 7.33, 268.94
444.10, 7.35, 268.36
444.32, 7.36, 267.69
444.57, 7.38, 266.91
444.86, 7.41, 266.04
445.19, 7.45, 265.01
445.60, 7.49, 263.77
446.08, 7.54, 262.28
447.07, 7.51, 259.26
447.95, 7.58, 256.57
442.67, 7.23, 272.50
442.73, 7.23, 272.29
442.80, 7.24, 272.08
442.87, 7.25, 271.85
442.95, 7.25, 271.59
443.04, 7.26, 271.31
443.13, 7.27, 271.01
443.24, 7.28, 270.68
443.36, 7.29, 270.30
443.48, 7.30, 269.89
443.63, 7.31, 269.43
443.79, 7.33, 268.91
443.97, 7.35, 268.32
444.18, 7.36, 267.65
444.42, 7.39, 266.87
444.70, 7.41, 265.99
445.02, 7.45, 264.96
445.40, 7.49, 263.72
445.86, 7.55, 262.24
446.80, 7.51, 259.24
447.64, 7.59, 256.53
442.60, 7.23, 272.48
442.66, 7.23, 272.27
442.73, 7.24, 272.06
442.80, 7.25, 271.82
442.87, 7.25, 271.57
442.96, 7.26, 271.28
443.05, 7.27, 270.99
443.15, 7.28, 270.65
443.26, 7.29, 270.27
443.38, 7.30, 269.86
443.52, 7.32, 269.39
443.67, 7.33, 268.88
443.85, 7.35, 268.28
444.04, 7.36, 267.61
444.28, 7.39, 266.83
¯444.54, 7.42, 265.95
444.84, 7.45, 264.92
445.21, 7.49, 263.68
445.65, 7.55, 262.21
446.19, 7.61, 260.37
447.33, 7.59, 256.50
442.54, 7.23, 272.46
442.59, 7.23, 272.25
442.66, 7.24, 272.03
442.72, 7.25, 271.80
442.79, 7.25, 271.54
442.87, 7.26, 271.26
442.96, 7.27, 270.96
443.05, 7.28, 270.62
443.16, 7.29, 270.24
443.28, 7.30, 269.83
443.41, 7.32, 269.36
443.55, 7.33, 268.84
443.72, 7.35, 268.25
443.91, 7.37, 267.58
444.13, 7.39, 266.79
444.38, 7.42, 265.91
444.66, 7.45, 264.88
445.02, 7.49, 263.64
445.43, 7.55, 262.17
445.94, 7.62, 260.33
447.03, 7.60, 256.47
442.47, 7.23, 272.44
442.52, 7.23, 272.23
442.58, 7.24, 272.01
442.64, 7.25, 271.78
442.71, 7.25, 271.52
442.79, 7.26, 271.24
442.87, 7.27, 270.94
442.96, 7.28, 270.60
443.06, 7.29, 270.21
443.17, 7.30, 269.80
443.29, 7.32, 269.33
443.43, 7.33, 268.81
443.59, 7.35, 268.22
443.77, 7.37, 267.54
443.98, 7.39, 266.75
444.21, 7.42, 265.88
444.49, 7.45, 264.85
444.82, 7.50, 263.60
445.21, 7.55, 262.14
445.70, 7.62, 260.31
446.72, 7.60, 256.45
442.40, 7.23, 272.42
442.45, 7.23, 272.21
442.51, 7.24, 271.99
¯442.57, 7.25, 271.76
442.63, 7.25, 271.50
442.70, 7.26, 271.22
442.78, 7.27, 270.92
442.86, 7.28, 270.57
442.96, 7.29, 270.19
443.07, 7.30, 269.77
443.18, 7.32, 269.31
443.31, 7.33, 268.78
443.46, 7.35, 268.19
443.63, 7.37, 267.51
443.83, 7.39, 266.72
444.05, 7.42, 265.84
444.31, 7.46, 264.81
444.63, 7.50, 263.56
444.99, 7.56, 262.11
445.45, 7.62, 260.28
446.42, 7.60, 256.42
442.33, 7.23, 272.40
442.38, 7.23, 272.20
442.43, 7.24, 271.98
442.49, 7.25, 271.74
442.55, 7.25, 271.48
442.62, 7.26, 271.19
442.69, 7.27, 270.89
442.77, 7.28, 270.55
442.86, 7.29, 270.17
442.96, 7.30, 269.75
443.07, 7.32, 269.28
443.20, 7.33, 268.75
443.34, 7.35, 268.16
443.50, 7.37, 267.48
443.68, 7.39, 266.69
443.89, 7.42, 265.81
444.13, 7.46, 264.78
444.43, 7.50, 263.53
444.77, 7.56, 262.08
445.20, 7.63, 260.26
446.11, 7.61, 256.40
442.26, 7.23, 272.39
442.31, 7.23, 272.18
442.36, 7.24, 271.96
442.41, 7.25, 271.72
442.47, 7.25, 271.46
442.53, 7.26, 271.18
442.60, 7.27, 270.87
442.68, 7.28, 270.53
442.76, 7.29, 270.14
442.85, 7.30, 269.72
442.96, 7.32, 269.25
443.08, 7.33, 268.73
¯443.21, 7.35, 268.13
443.36, 7.37, 267.45
443.53, 7.39, 266.66
443.73, 7.42, 265.78
443.96, 7.46, 264.75
444.23, 7.50, 263.51
444.55, 7.56, 262.05
444.96, 7.63, 260.24
445.48, 7.71, 257.86
442.20, 7.22, 272.37
442.24, 7.23, 272.16
442.28, 7.24, 271.94
442.33, 7.25, 271.70
442.39, 7.25, 271.44
442.45, 7.26, 271.16
442.51, 7.27, 270.85
442.58, 7.28, 270.51
442.66, 7.29, 270.12
442.75, 7.30, 269.70
442.85, 7.32, 269.23
442.96, 7.33, 268.70
443.08, 7.35, 268.10
443.22, 7.37, 267.42
443.38, 7.39, 266.64
443.57, 7.42, 265.75
443.78, 7.46, 264.72
444.04, 7.50, 263.48
444.34, 7.56, 262.03
444.71, 7.63, 260.22
445.20, 7.72, 257.84
442.13, 7.22, 272.36
442.17, 7.23, 272.15
442.21, 7.24, 271.93
442.26, 7.25, 271.69
442.31, 7.25, 271.42
442.36, 7.26, 271.14
442.42, 7.27, 270.84
442.49, 7.28, 270.49
442.56, 7.29, 270.10
442.64, 7.30, 269.68
442.73, 7.32, 269.21
442.83, 7.33, 268.68
442.95, 7.35, 268.08
443.08, 7.37, 267.39
443.23, 7.39, 266.61
443.40, 7.42, 265.72
443.60, 7.46, 264.69
443.84, 7.51, 263.46
444.12, 7.56, 262.01
444.47, 7.64, 260.21
444.92, 7.72, 257.83
¯442.06, 7.22, 272.34
442.10, 7.23, 272.13
442.13, 7.24, 271.91
442.18, 7.25, 271.67
442.22, 7.25, 271.41
442.28, 7.26, 271.12
442.33, 7.27, 270.82
442.39, 7.28, 270.47
442.46, 7.29, 270.08
442.54, 7.30, 269.66
442.62, 7.32, 269.19
442.71, 7.33, 268.66
442.82, 7.35, 268.05
442.94, 7.37, 267.37
443.08, 7.39, 266.59
443.24, 7.42, 265.70
443.42, 7.46, 264.67
443.64, 7.51, 263.44
443.90, 7.57, 261.99
444.22, 7.64, 260.19
444.64, 7.72, 257.83
441.99, 7.22, 272.33
442.02, 7.23, 272.12
442.06, 7.24, 271.90
442.10, 7.25, 271.66
442.14, 7.25, 271.39
442.19, 7.26, 271.11
442.24, 7.27, 270.80
442.30, 7.28, 270.45
442.36, 7.29, 270.07
442.43, 7.30, 269.64
442.51, 7.32, 269.17
442.59, 7.33, 268.64
442.69, 7.35, 268.03
442.81, 7.37, 267.34
442.93, 7.39, 266.57
443.08, 7.42, 265.68
443.25, 7.46, 264.65
443.45, 7.51, 263.42
443.68, 7.57, 261.97
443.98, 7.64, 260.18
