žVERSION 0.7
FIELDS x y z
SIZE 8 8 8
TYPE F F F
COUNT 1 1 1
WIDTH 2271
HEIGHT 1
VIEWPOINT 348.84, 7.04, 367.02 1 329.67, 2.38, 373.00
POINTS 2271
DATA ascii
320.45, 2.42, 386.14
320.16, 2.70, 386.51
328.59, 0.30, 376.18
328.40, 0.30, 376.42
328.19, 0.30, 376.69
327.96, 0.29, 376.99
327.70, 0.29, 377.31
327.06, 0.14, 378.14
326.71, 0.14, 378.59
326.31, 0.13, 379.10
325.88, 0.13, 379.65
325.38, 0.13, 380.28
324.77, 0.11, 381.06
324.05, 0.10, 381.98
323.52, 0.16, 382.66
323.03, 0.26, 383.28
322.74, 0.42, 383.65
322.52, 0.60, 383.93
322.30, 0.80, 384.22
322.02, 0.99, 384.58
321.81, 1.21, 384.84
321.52, 1.43, 385.21
321.22, 1.65, 385.60
321.01, 1.90, 385.86
320.82, 2.16, 386.11
320.62, 2.42, 386.37
320.41, 2.70, 386.63
328.66, 0.30, 376.23
328.47, 0.30, 376.48
328.27, 0.30, 376.75
328.04, 0.29, 377.05
327.79, 0.29, 377.38
327.50, 0.29, 377.76
326.81, 0.14, 378.67
¯326.42, 0.13, 379.18
325.99, 0.13, 379.74
325.51, 0.13, 380.38
324.91, 0.11, 381.17
324.20, 0.10, 382.10
323.67, 0.16, 382.79
323.15, 0.25, 383.47
322.88, 0.41, 383.83
322.67, 0.60, 384.11
322.45, 0.79, 384.40
322.20, 0.99, 384.72
321.95, 1.20, 385.06
321.66, 1.42, 385.44
321.36, 1.65, 385.83
321.17, 1.90, 386.08
320.98, 2.16, 386.33
320.78, 2.42, 386.60
320.42, 2.70, 387.07
328.73, 0.30, 376.28
328.55, 0.30, 376.53
328.34, 0.30, 376.81
328.12, 0.29, 377.11
327.87, 0.29, 377.46
327.59, 0.29, 377.83
326.91, 0.14, 378.74
326.53, 0.13, 379.27
326.11, 0.13, 379.83
325.64, 0.13, 380.47
325.05, 0.11, 381.27
324.35, 0.10, 382.21
323.80, 0.15, 382.96
323.28, 0.24, 383.67
323.03, 0.41, 384.00
322.82, 0.59, 384.29
322.60, 0.79, 384.59
322.33, 0.98, 384.94
322.08, 1.20, 385.28
321.80, 1.41, 385.67
321.52, 1.65, 386.05
321.33, 1.90, 386.30
321.14, 2.16, 386.56
320.83, 2.42, 386.98
320.36, 2.71, 387.62
328.80, 0.30, 376.34
328.62, 0.30, 376.59
328.42, 0.30, 376.87
328.20, 0.29, 377.17
327.95, 0.29, 377.52
327.68, 0.28, 377.90
327.37, 0.28, 378.33
326.64, 0.13, 379.35
¯326.23, 0.13, 379.91
325.77, 0.13, 380.56
325.19, 0.11, 381.37
324.51, 0.10, 382.32
323.92, 0.14, 383.14
323.40, 0.23, 383.86
323.18, 0.40, 384.17
322.97, 0.59, 384.46
322.75, 0.78, 384.77
322.44, 0.97, 385.20
322.22, 1.19, 385.51
321.94, 1.41, 385.90
321.68, 1.64, 386.26
321.50, 1.89, 386.52
321.24, 2.15, 386.88
320.77, 2.42, 387.54
328.87, 0.30, 376.39
328.69, 0.30, 376.64
328.50, 0.29, 376.92
328.28, 0.29, 377.23
328.03, 0.29, 377.59
327.77, 0.28, 377.97
327.47, 0.28, 378.40
326.76, 0.13, 379.42
326.36, 0.13, 380.00
325.90, 0.13, 380.65
325.33, 0.11, 381.46
324.67, 0.10, 382.42
324.04, 0.13, 383.32
323.53, 0.22, 384.05
323.33, 0.39, 384.35
323.12, 0.58, 384.64
322.80, 0.76, 385.11
322.55, 0.96, 385.46
322.34, 1.18, 385.76
322.08, 1.40, 386.13
321.84, 1.64, 386.48
321.63, 1.89, 386.78
321.17, 2.15, 387.45
320.71, 2.42, 388.10
328.94, 0.30, 376.44
328.77, 0.30, 376.69
328.58, 0.29, 376.98
328.37, 0.29, 377.29
328.12, 0.28, 377.66
327.86, 0.28, 378.04
327.56, 0.28, 378.48
327.23, 0.27, 378.97
326.48, 0.13, 380.08
326.03, 0.13, 380.74
325.48, 0.12, 381.56
¯324.82, 0.10, 382.53
324.17, 0.12, 383.50
323.67, 0.21, 384.23
323.48, 0.39, 384.52
323.24, 0.57, 384.87
322.87, 0.74, 385.42
322.67, 0.95, 385.72
322.46, 1.17, 386.03
322.23, 1.40, 386.37
322.00, 1.64, 386.70
321.58, 1.88, 387.34
321.12, 2.14, 388.01
320.59, 2.43, 388.80
329.02, 0.30, 376.48
328.84, 0.30, 376.75
328.66, 0.29, 377.03
328.45, 0.29, 377.35
328.20, 0.28, 377.72
327.95, 0.28, 378.11
327.66, 0.28, 378.55
327.34, 0.27, 379.04
326.98, 0.27, 379.59
326.17, 0.13, 380.83
325.63, 0.12, 381.65
324.99, 0.10, 382.63
324.32, 0.11, 383.64
323.82, 0.20, 384.40
323.63, 0.38, 384.70
323.30, 0.54, 385.20
322.98, 0.72, 385.68
322.78, 0.93, 385.99
322.57, 1.16, 386.31
322.35, 1.39, 386.65
321.97, 1.62, 387.23
321.52, 1.86, 387.92
321.08, 2.13, 388.60
329.09, 0.30, 376.53
328.92, 0.30, 376.80
328.74, 0.29, 377.08
328.53, 0.29, 377.41
328.29, 0.28, 377.78
328.04, 0.28, 378.18
327.76, 0.27, 378.62
327.45, 0.27, 379.11
327.09, 0.27, 379.67
326.30, 0.13, 380.91
325.77, 0.12, 381.74
325.15, 0.10, 382.72
324.49, 0.11, 383.75
323.97, 0.19, 384.57
323.73, 0.36, 384.96
¯323.36, 0.51, 385.54
323.10, 0.70, 385.95
322.90, 0.92, 386.26
322.69, 1.14, 386.59
322.37, 1.37, 387.11
321.92, 1.60, 387.80
321.48, 1.85, 388.49
320.37, 2.11, 390.25
329.16, 0.30, 376.58
329.00, 0.29, 376.84
328.82, 0.29, 377.14
328.61, 0.29, 377.47
328.38, 0.28, 377.84
328.13, 0.28, 378.24
327.86, 0.27, 378.69
327.56, 0.27, 379.18
327.21, 0.27, 379.75
326.81, 0.27, 380.39
325.92, 0.12, 381.83
325.31, 0.10, 382.82
324.66, 0.11, 383.87
324.13, 0.18, 384.74
323.79, 0.33, 385.28
323.42, 0.48, 385.89
323.22, 0.69, 386.21
323.02, 0.90, 386.54
322.75, 1.12, 386.98
322.33, 1.34, 387.67
321.88, 1.58, 388.39
320.82, 1.81, 390.12
329.24, 0.30, 376.62
329.08, 0.29, 376.89
328.90, 0.29, 377.19
328.69, 0.28, 377.53
328.47, 0.28, 377.90
328.23, 0.27, 378.31
327.96, 0.27, 378.76
327.67, 0.27, 379.25
327.33, 0.27, 379.82
326.94, 0.27, 380.47
326.08, 0.12, 381.91
325.48, 0.10, 382.91
324.84, 0.11, 383.98
324.21, 0.15, 385.04
323.86, 0.29, 385.62
323.53, 0.46, 386.16
323.34, 0.67, 386.49
323.11, 0.88, 386.88
322.74, 1.09, 387.49
322.28, 1.31, 388.27
321.26, 1.51, 389.98
¯329.31, 0.30, 376.67
329.15, 0.29, 376.94
328.98, 0.29, 377.23
328.78, 0.28, 377.59
328.56, 0.28, 377.96
328.32, 0.27, 378.37
328.06, 0.27, 378.83
327.78, 0.27, 379.32
327.44, 0.27, 379.89
327.07, 0.26, 380.55
326.62, 0.26, 381.31
325.65, 0.10, 383.00
325.01, 0.11, 384.09
324.36, 0.14, 385.21
323.93, 0.26, 385.96
323.66, 0.44, 386.43
323.45, 0.65, 386.79
323.13, 0.85, 387.35
322.72, 1.06, 388.07
321.78, 1.23, 389.68
320.95, 1.46, 391.12
329.39, 0.30, 376.71
329.23, 0.29, 376.98
329.07, 0.29, 377.28
328.86, 0.28, 377.64
328.65, 0.27, 378.02
328.42, 0.27, 378.43
328.16, 0.27, 378.89
327.89, 0.27, 379.38
327.56, 0.27, 379.96
327.20, 0.26, 380.62
326.76, 0.26, 381.39
325.82, 0.10, 383.08
325.19, 0.10, 384.20
324.54, 0.13, 385.36
324.00, 0.23, 386.32
323.79, 0.42, 386.71
323.48, 0.61, 387.25
323.13, 0.81, 387.88
322.69, 1.02, 388.68
321.36, 1.15, 391.04
329.46, 0.29, 376.75
329.31, 0.29, 377.03
329.15, 0.29, 377.33
328.95, 0.28, 377.70
328.74, 0.27, 378.08
328.52, 0.27, 378.49
328.27, 0.26, 378.95
328.00, 0.27, 379.45
327.69, 0.27, 380.03
327.33, 0.26, 380.69
¯326.90, 0.26, 381.47
326.40, 0.25, 382.40
325.37, 0.10, 384.30
324.72, 0.13, 385.50
324.10, 0.19, 386.65
323.83, 0.38, 387.15
323.51, 0.57, 387.73
323.11, 0.77, 388.47
321.77, 0.85, 390.95
329.54, 0.29, 376.79
329.39, 0.29, 377.07
329.23, 0.29, 377.38
329.04, 0.27, 377.75
328.84, 0.27, 378.13
328.62, 0.27, 378.55
328.38, 0.26, 379.01
328.12, 0.27, 379.51
327.81, 0.26, 380.09
327.46, 0.26, 380.75
327.05, 0.26, 381.54
326.55, 0.25, 382.49
325.97, 0.24, 383.61
324.90, 0.12, 385.64
324.16, 0.15, 387.04
323.87, 0.34, 387.61
323.53, 0.53, 388.26
323.14, 0.73, 389.00
321.67, 0.80, 391.80
329.62, 0.29, 376.83
329.48, 0.29, 377.11
329.31, 0.29, 377.43
329.12, 0.27, 377.80
328.93, 0.27, 378.18
328.72, 0.26, 378.60
328.49, 0.26, 379.06
328.23, 0.27, 379.57
327.93, 0.26, 380.16
327.60, 0.26, 380.82
327.19, 0.26, 381.62
326.71, 0.25, 382.57
326.14, 0.24, 383.70
325.09, 0.11, 385.77
324.21, 0.10, 387.50
323.91, 0.29, 388.10
323.54, 0.48, 388.82
323.19, 0.69, 389.52
329.70, 0.29, 376.87
329.56, 0.29, 377.15
329.40, 0.28, 377.48
329.21, 0.27, 377.85
329.03, 0.27, 378.23
¯328.82, 0.26, 378.66
328.60, 0.26, 379.12
328.35, 0.27, 379.63
328.06, 0.26, 380.22
327.73, 0.26, 380.89
327.34, 0.26, 381.68
326.86, 0.24, 382.65
326.31, 0.23, 383.79
325.71, 0.24, 385.02
324.40, 0.09, 387.69
323.94, 0.23, 388.64
323.60, 0.44, 389.32
321.73, 0.37, 393.16
329.77, 0.29, 376.91
329.64, 0.29, 377.19
329.48, 0.28, 377.52
329.31, 0.27, 377.90
329.12, 0.27, 378.28
328.92, 0.26, 378.71
328.71, 0.26, 379.17
328.46, 0.26, 379.68
328.18, 0.26, 380.28
327.87, 0.26, 380.95
327.49, 0.26, 381.75
327.02, 0.24, 382.73
326.48, 0.23, 383.88
325.90, 0.24, 385.12
325.14, 0.24, 386.72
324.00, 0.19, 389.13
323.67, 0.39, 389.85
329.85, 0.29, 376.94
329.72, 0.29, 377.23
329.57, 0.28, 377.57
329.40, 0.27, 377.94
329.22, 0.26, 378.33
329.02, 0.26, 378.76
328.82, 0.26, 379.22
328.58, 0.26, 379.73
328.31, 0.26, 380.34
328.00, 0.26, 381.01
327.63, 0.26, 381.82
327.18, 0.24, 382.81
326.66, 0.23, 383.96
326.09, 0.24, 385.21
325.35, 0.24, 386.83
324.07, 0.14, 389.64
323.32, 0.25, 391.29
329.93, 0.29, 376.98
329.81, 0.29, 377.26
329.66, 0.28, 377.61
329.49, 0.27, 377.99
¯329.32, 0.26, 378.38
329.13, 0.26, 378.81
328.93, 0.26, 379.26
328.70, 0.26, 379.79
328.43, 0.26, 380.39
328.14, 0.26, 381.07
327.78, 0.26, 381.88
327.34, 0.24, 382.89
326.83, 0.23, 384.05
326.28, 0.24, 385.31
325.57, 0.23, 386.94
324.52, 0.19, 389.33
323.46, 0.21, 391.75
330.01, 0.29, 377.01
329.89, 0.29, 377.30
329.74, 0.28, 377.65
329.58, 0.27, 378.03
329.42, 0.26, 378.42
329.23, 0.26, 378.86
329.04, 0.26, 379.31
328.82, 0.26, 379.84
328.56, 0.26, 380.45
328.28, 0.26, 381.12
327.93, 0.26, 381.94
327.50, 0.24, 382.96
327.01, 0.23, 384.12
326.48, 0.23, 385.39
325.78, 0.23, 387.04
324.78, 0.19, 389.42
323.98, 0.27, 391.31
330.09, 0.29, 377.04
329.97, 0.29, 377.34
329.83, 0.27, 377.69
329.68, 0.26, 378.07
329.52, 0.26, 378.47
329.34, 0.26, 378.90
329.16, 0.26, 379.35
328.94, 0.26, 379.89
328.69, 0.26, 380.50
328.42, 0.26, 381.17
328.09, 0.25, 382.00
327.67, 0.24, 383.03
327.19, 0.22, 384.20
326.67, 0.23, 385.48
326.00, 0.23, 387.13
325.04, 0.19, 389.51
324.26, 0.27, 391.42
330.17, 0.29, 377.07
330.06, 0.29, 377.37
329.92, 0.27, 377.73
329.77, 0.26, 378.11
¯329.62, 0.26, 378.51
329.45, 0.26, 378.94
329.27, 0.26, 379.40
329.06, 0.26, 379.93
328.82, 0.26, 380.54
328.56, 0.26, 381.22
328.24, 0.25, 382.05
327.83, 0.23, 383.09
327.37, 0.22, 384.28
326.87, 0.23, 385.56
326.22, 0.22, 387.23
325.30, 0.19, 389.59
324.55, 0.26, 391.53
330.26, 0.29, 377.10
330.14, 0.29, 377.41
330.01, 0.27, 377.77
329.87, 0.26, 378.15
329.72, 0.26, 378.55
329.55, 0.25, 378.98
329.38, 0.26, 379.44
329.18, 0.26, 379.98
328.95, 0.26, 380.59
328.70, 0.26, 381.27
328.39, 0.25, 382.11
328.00, 0.23, 383.16
327.55, 0.22, 384.35
327.07, 0.23, 385.64
326.44, 0.22, 387.31
325.56, 0.19, 389.67
324.83, 0.26, 391.63
330.34, 0.29, 377.13
330.23, 0.28, 377.44
330.10, 0.27, 377.80
329.96, 0.26, 378.18
329.82, 0.26, 378.59
329.66, 0.25, 379.02
329.50, 0.26, 379.48
329.31, 0.26, 380.02
329.09, 0.26, 380.63
328.84, 0.26, 381.32
328.54, 0.25, 382.17
328.16, 0.23, 383.22
327.73, 0.22, 384.41
327.27, 0.22, 385.72
326.67, 0.22, 387.40
325.83, 0.19, 389.75
325.12, 0.26, 391.73
330.42, 0.29, 377.16
330.31, 0.28, 377.47
330.19, 0.27, 377.83
330.06, 0.26, 378.22
¯329.92, 0.25, 378.62
329.77, 0.25, 379.06
329.61, 0.26, 379.52
329.43, 0.26, 380.06
329.22, 0.26, 380.67
328.98, 0.26, 381.36
328.69, 0.25, 382.22
328.33, 0.23, 383.27
327.92, 0.22, 384.48
327.47, 0.22, 385.79
326.89, 0.22, 387.48
326.09, 0.18, 389.82
325.41, 0.26, 391.82
330.50, 0.29, 377.18
330.40, 0.28, 377.50
330.28, 0.27, 377.87
330.15, 0.26, 378.25
330.02, 0.25, 378.66
329.88, 0.25, 379.09
329.73, 0.26, 379.55
329.55, 0.26, 380.10
329.35, 0.26, 380.71
329.13, 0.26, 381.40
328.84, 0.25, 382.27
328.50, 0.23, 383.33
328.10, 0.21, 384.54
327.67, 0.22, 385.86
327.12, 0.21, 387.55
326.36, 0.18, 389.89
325.70, 0.25, 391.92
330.59, 0.29, 377.21
330.49, 0.28, 377.53
330.37, 0.27, 377.90
330.25, 0.26, 378.28
330.12, 0.25, 378.69
329.99, 0.25, 379.12
329.85, 0.26, 379.58
329.68, 0.26, 380.13
329.49, 0.26, 380.75
329.27, 0.26, 381.44
329.00, 0.25, 382.32
328.67, 0.23, 383.38
328.29, 0.21, 384.60
327.88, 0.22, 385.92
327.35, 0.21, 387.63
326.62, 0.18, 389.95
325.98, 0.25, 392.02
330.67, 0.29, 377.23
330.57, 0.28, 377.56
330.46, 0.26, 377.93
330.35, 0.25, 378.31
¯330.23, 0.25, 378.72
330.10, 0.25, 379.15
329.96, 0.26, 379.62
329.80, 0.26, 380.17
329.62, 0.26, 380.78
329.41, 0.26, 381.48
329.15, 0.24, 382.37
328.84, 0.22, 383.43
328.47, 0.21, 384.66
328.08, 0.22, 385.98
327.58, 0.21, 387.69
326.89, 0.18, 390.02
326.25, 0.24, 392.17
330.75, 0.29, 377.25
330.66, 0.28, 377.59
330.56, 0.26, 377.95
330.45, 0.25, 378.34
330.33, 0.25, 378.76
330.21, 0.25, 379.18
330.08, 0.26, 379.65
329.93, 0.26, 380.20
329.75, 0.26, 380.81
329.56, 0.26, 381.51
329.31, 0.24, 382.41
329.01, 0.22, 383.47
328.66, 0.21, 384.71
328.29, 0.21, 386.04
327.81, 0.21, 387.75
327.16, 0.18, 390.07
326.53, 0.23, 392.31
330.84, 0.29, 377.28
330.75, 0.28, 377.61
330.65, 0.26, 377.98
330.55, 0.25, 378.37
330.44, 0.25, 378.78
330.32, 0.25, 379.21
330.20, 0.26, 379.68
330.05, 0.26, 380.23
329.89, 0.26, 380.84
329.70, 0.26, 381.54
329.46, 0.24, 382.45
329.18, 0.22, 383.52
328.85, 0.20, 384.76
328.50, 0.21, 386.09
328.04, 0.20, 387.81
327.42, 0.18, 390.13
326.81, 0.22, 392.44
330.92, 0.29, 377.30
330.84, 0.27, 377.63
330.74, 0.26, 378.00
330.65, 0.25, 378.40
¯330.54, 0.25, 378.81
330.44, 0.25, 379.24
330.32, 0.26, 379.70
330.18, 0.25, 380.26
330.03, 0.26, 380.87
329.85, 0.26, 381.57
329.62, 0.24, 382.48
329.35, 0.22, 383.56
329.04, 0.20, 384.81
328.70, 0.21, 386.15
328.27, 0.20, 387.87
327.69, 0.18, 390.17
327.09, 0.21, 392.57
331.01, 0.29, 377.32
330.93, 0.27, 377.65
330.84, 0.26, 378.03
330.75, 0.25, 378.42
330.65, 0.24, 378.84
330.55, 0.25, 379.26
330.44, 0.26, 379.73
330.31, 0.25, 380.28
330.16, 0.26, 380.90
330.00, 0.26, 381.60
329.78, 0.24, 382.52
329.52, 0.22, 383.60
329.23, 0.20, 384.85
328.91, 0.21, 386.19
328.51, 0.20, 387.91
327.96, 0.18, 390.21
327.38, 0.20, 392.70
331.09, 0.29, 377.34
331.02, 0.27, 377.67
330.93, 0.26, 378.05
330.84, 0.25, 378.44
330.75, 0.24, 378.86
330.66, 0.25, 379.28
330.56, 0.25, 379.75
330.43, 0.25, 380.31
330.30, 0.26, 380.92
330.14, 0.26, 381.62
329.94, 0.24, 382.55
329.70, 0.22, 383.63
329.42, 0.20, 384.89
329.12, 0.20, 386.24
328.74, 0.20, 387.95
328.23, 0.18, 390.24
327.67, 0.19, 392.82
331.17, 0.28, 377.35
331.10, 0.27, 377.69
331.03, 0.26, 378.07
330.95, 0.25, 378.46
¯330.86, 0.24, 378.88
330.77, 0.25, 379.30
330.67, 0.25, 379.77
330.56, 0.25, 380.33
330.43, 0.26, 380.94
330.29, 0.26, 381.65
330.10, 0.24, 382.57
329.87, 0.21, 383.67
329.61, 0.20, 384.93
329.33, 0.20, 386.28
328.98, 0.20, 387.99
328.51, 0.18, 390.27
327.96, 0.18, 392.93
331.26, 0.28, 377.37
331.19, 0.27, 377.71
331.12, 0.26, 378.08
331.05, 0.25, 378.48
330.97, 0.24, 378.90
330.88, 0.25, 379.32
330.79, 0.25, 379.79
330.69, 0.25, 380.35
330.57, 0.26, 380.96
330.43, 0.26, 381.66
330.26, 0.24, 382.60
330.04, 0.21, 383.70
329.80, 0.19, 384.97
329.54, 0.20, 386.31
329.21, 0.20, 388.02
328.78, 0.18, 390.29
328.25, 0.18, 393.04
331.35, 0.28, 377.39
331.28, 0.27, 377.72
331.22, 0.26, 378.10
331.15, 0.24, 378.50
331.07, 0.24, 378.91
331.00, 0.25, 379.34
330.91, 0.25, 379.81
330.81, 0.25, 380.37
330.71, 0.25, 380.98
330.58, 0.26, 381.68
330.42, 0.24, 382.62
330.22, 0.21, 383.72
329.99, 0.19, 385.00
329.75, 0.20, 386.35
329.45, 0.20, 388.05
329.05, 0.18, 390.31
328.55, 0.17, 393.14
331.43, 0.28, 377.40
331.38, 0.27, 377.74
331.31, 0.25, 378.11
331.25, 0.24, 378.52
¯331.18, 0.24, 378.93
331.11, 0.25, 379.35
331.03, 0.25, 379.83
330.94, 0.25, 380.39
330.84, 0.25, 381.00
330.73, 0.26, 381.70
330.58, 0.24, 382.63
330.39, 0.21, 383.75
330.18, 0.19, 385.03
329.96, 0.19, 386.38
329.69, 0.19, 388.07
329.32, 0.18, 390.32
328.84, 0.16, 393.24
331.52, 0.28, 377.41
331.47, 0.27, 377.75
331.41, 0.25, 378.13
331.35, 0.24, 378.53
331.29, 0.24, 378.94
331.22, 0.25, 379.37
331.15, 0.25, 379.84
331.07, 0.25, 380.40
330.98, 0.25, 381.01
330.88, 0.26, 381.71
330.74, 0.23, 382.65
330.57, 0.21, 383.77
330.38, 0.19, 385.05
330.18, 0.19, 386.40
329.92, 0.19, 388.09
329.59, 0.18, 390.33
329.16, 0.16, 393.24
331.60, 0.28, 377.42
331.56, 0.27, 377.76
331.51, 0.25, 378.14
331.45, 0.24, 378.54
331.40, 0.24, 378.95
331.34, 0.24, 379.38
331.27, 0.25, 379.86
331.20, 0.25, 380.41
331.12, 0.25, 381.02
331.02, 0.26, 381.72
330.90, 0.23, 382.66
330.74, 0.21, 383.78
330.57, 0.18, 385.08
330.39, 0.19, 386.43
330.16, 0.19, 388.11
329.86, 0.18, 390.34
329.47, 0.16, 393.24
331.69, 0.28, 377.43
331.65, 0.27, 377.77
331.60, 0.25, 378.15
331.55, 0.24, 378.55
¯331.50, 0.24, 378.96
331.45, 0.24, 379.39
331.39, 0.25, 379.87
331.33, 0.25, 380.42
331.25, 0.25, 381.03
331.17, 0.26, 381.73
331.06, 0.23, 382.67
330.92, 0.21, 383.80
330.76, 0.18, 385.10
330.60, 0.19, 386.44
330.40, 0.19, 388.12
330.13, 0.17, 390.35
329.78, 0.16, 393.24
331.77, 0.28, 377.44
331.74, 0.27, 377.78
331.70, 0.25, 378.16
331.65, 0.24, 378.56
331.61, 0.24, 378.97
331.57, 0.24, 379.40
331.51, 0.25, 379.88
331.46, 0.25, 380.43
331.39, 0.25, 381.04
331.32, 0.26, 381.73
331.22, 0.23, 382.68
331.10, 0.20, 383.81
330.96, 0.18, 385.11
330.80, 0.17, 386.59
330.64, 0.19, 388.13
330.40, 0.17, 390.35
330.09, 0.16, 393.23
331.86, 0.28, 377.44
331.83, 0.27, 377.78
331.79, 0.25, 378.16
331.76, 0.24, 378.57
331.72, 0.24, 378.98
331.68, 0.24, 379.41
331.64, 0.25, 379.88
331.58, 0.25, 380.43
331.53, 0.25, 381.04
331.46, 0.26, 381.74
331.38, 0.23, 382.68
331.27, 0.20, 383.81
331.13, 0.14, 385.35
331.03, 0.18, 386.47
330.87, 0.19, 388.14
330.67, 0.17, 390.36
330.40, 0.16, 393.21
331.95, 0.28, 377.45
331.92, 0.27, 377.79
331.89, 0.25, 378.17
331.86, 0.24, 378.58
¯331.83, 0.24, 378.98
331.79, 0.24, 379.41
331.76, 0.25, 379.89
331.71, 0.25, 380.43
331.67, 0.25, 381.05
331.61, 0.26, 381.74
331.54, 0.23, 382.68
331.41, 0.11, 384.34
331.34, 0.18, 385.13
331.24, 0.18, 386.47
331.11, 0.18, 388.15
330.94, 0.17, 390.35
330.71, 0.15, 393.19
332.03, 0.28, 377.45
332.01, 0.27, 377.79
331.99, 0.25, 378.17
331.96, 0.24, 378.58
331.93, 0.24, 378.99
331.91, 0.24, 379.42
331.88, 0.25, 379.89
331.84, 0.25, 380.44
331.80, 0.25, 381.05
331.76, 0.26, 381.74
331.70, 0.23, 382.67
331.62, 0.19, 383.90
331.54, 0.17, 385.13
331.45, 0.18, 386.47
331.35, 0.18, 388.15
331.20, 0.17, 390.35
331.02, 0.15, 393.16
332.12, 0.28, 377.45
332.10, 0.26, 377.79
332.08, 0.25, 378.17
332.06, 0.23, 378.59
332.04, 0.23, 378.99
332.02, 0.24, 379.42
332.00, 0.24, 379.90
331.97, 0.25, 380.44
331.94, 0.25, 381.05
331.90, 0.25, 381.74
331.85, 0.19, 382.90
331.80, 0.19, 383.89
331.73, 0.17, 385.14
331.67, 0.18, 386.47
331.58, 0.18, 388.15
331.47, 0.17, 390.33
331.33, 0.15, 393.13
332.21, 0.28, 377.45
332.19, 0.26, 377.79
332.18, 0.25, 378.17
332.16, 0.23, 378.59
¯332.15, 0.23, 378.99
332.13, 0.24, 379.42
332.12, 0.24, 379.90
332.10, 0.25, 380.43
332.08, 0.25, 381.04
332.03, 0.15, 382.27
332.02, 0.24, 382.60
331.97, 0.19, 383.88
331.93, 0.17, 385.13
331.88, 0.18, 386.47
331.82, 0.18, 388.14
331.74, 0.17, 390.31
331.64, 0.15, 393.11
332.29, 0.28, 377.45
332.28, 0.26, 377.79
332.28, 0.25, 378.17
332.27, 0.23, 378.59
332.26, 0.23, 378.99
332.25, 0.24, 379.42
332.24, 0.24, 379.89
332.23, 0.25, 380.43
332.20, 0.11, 381.68
332.19, 0.23, 381.86
332.18, 0.24, 382.61
332.15, 0.19, 383.86
332.12, 0.17, 385.13
332.09, 0.18, 386.46
332.05, 0.17, 388.13
332.01, 0.16, 390.29
331.94, 0.15, 393.07
332.38, 0.28, 377.44
332.38, 0.26, 377.79
332.37, 0.25, 378.16
332.37, 0.23, 378.58
332.37, 0.23, 378.99
332.36, 0.24, 379.42
332.36, 0.24, 379.89
332.35, 0.11, 381.02
332.35, 0.19, 381.28
332.34, 0.25, 381.75
332.34, 0.24, 382.60
332.32, 0.19, 383.84
332.31, 0.17, 385.12
332.30, 0.17, 386.45
332.29, 0.17, 388.12
332.27, 0.16, 390.26
332.25, 0.15, 393.04
332.46, 0.28, 377.44
332.47, 0.26, 377.78
332.47, 0.25, 378.16
332.47, 0.23, 378.57
¯332.47, 0.23, 378.98
332.48, 0.24, 379.41
332.48, 0.10, 380.44
332.48, 0.15, 380.84
332.48, 0.24, 381.06
332.49, 0.24, 381.76
332.49, 0.24, 382.60
332.50, 0.19, 383.81
332.51, 0.17, 385.11
332.51, 0.17, 386.44
332.52, 0.17, 388.10
332.54, 0.16, 390.24
332.55, 0.15, 392.99
332.55, 0.28, 377.43
332.56, 0.26, 377.77
332.56, 0.25, 378.15
332.57, 0.23, 378.57
332.58, 0.23, 378.98
332.59, 0.23, 379.41
332.61, 0.10, 380.46
332.61, 0.21, 380.55
332.62, 0.24, 381.06
332.64, 0.24, 381.76
332.65, 0.24, 382.59
332.67, 0.19, 383.78
332.70, 0.16, 385.09
332.73, 0.17, 386.42
332.76, 0.17, 388.08
332.80, 0.16, 390.21
332.85, 0.15, 392.94
332.64, 0.28, 377.43
332.65, 0.26, 377.77
332.66, 0.25, 378.14
332.67, 0.23, 378.56
332.69, 0.23, 378.97
332.72, 0.09, 379.94
332.73, 0.18, 380.12
332.74, 0.23, 380.46
332.76, 0.23, 381.06
332.78, 0.24, 381.75
332.81, 0.23, 382.58
332.85, 0.19, 383.74
332.89, 0.16, 385.07
332.94, 0.17, 386.40
332.99, 0.17, 388.05
333.06, 0.16, 390.18
333.15, 0.15, 392.87
332.72, 0.28, 377.42
332.74, 0.26, 377.76
332.76, 0.25, 378.13
332.77, 0.23, 378.54
¯332.82, 0.09, 379.47
332.83, 0.13, 379.78
332.84, 0.22, 379.92
332.87, 0.23, 380.45
332.89, 0.23, 381.05
332.93, 0.23, 381.75
332.97, 0.23, 382.56
333.02, 0.20, 383.70
333.08, 0.16, 385.05
333.15, 0.17, 386.37
333.23, 0.16, 388.02
333.33, 0.15, 390.14
333.45, 0.15, 392.82
332.81, 0.28, 377.41
332.83, 0.26, 377.74
332.85, 0.25, 378.12
332.90, 0.08, 379.05
332.93, 0.08, 379.49
332.94, 0.19, 379.55
332.96, 0.22, 379.91
332.99, 0.23, 380.44
333.03, 0.23, 381.05
333.07, 0.23, 381.74
333.12, 0.23, 382.55
333.19, 0.20, 383.66
333.27, 0.16, 385.01
333.36, 0.16, 386.35
333.46, 0.16, 387.99
333.59, 0.15, 390.10
333.75, 0.14, 392.76
330.12, 0.24, 365.91
330.02, 0.24, 365.68
329.92, 0.24, 365.44
329.81, 0.24, 365.18
329.70, 0.24, 364.90
329.57, 0.24, 364.59
329.44, 0.25, 364.26
329.29, 0.25, 363.89
329.12, 0.25, 363.49
328.93, 0.26, 363.03
328.72, 0.26, 362.51
328.48, 0.26, 361.92
328.21, 0.26, 361.25
327.90, 0.26, 360.52
327.55, 0.27, 359.67
327.11, 0.27, 358.59
326.57, 0.26, 357.27
325.96, 0.26, 355.78
325.55, 0.38, 354.77
325.17, 0.53, 353.85
330.04, 0.24, 365.94
¯329.94, 0.24, 365.71
329.84, 0.24, 365.47
329.73, 0.24, 365.20
329.61, 0.24, 364.92
329.48, 0.24, 364.62
329.34, 0.25, 364.29
329.18, 0.25, 363.92
329.01, 0.25, 363.52
328.82, 0.26, 363.07
328.59, 0.26, 362.55
328.34, 0.26, 361.96
328.06, 0.26, 361.30
327.74, 0.26, 360.56
327.38, 0.27, 359.70
326.92, 0.27, 358.63
326.36, 0.26, 357.31
325.79, 0.29, 355.97
325.33, 0.39, 354.89
324.93, 0.53, 353.94
329.97, 0.24, 365.96
329.87, 0.24, 365.74
329.76, 0.24, 365.49
329.64, 0.24, 365.23
329.52, 0.24, 364.95
329.38, 0.24, 364.65
329.24, 0.25, 364.32
329.08, 0.25, 363.96
328.90, 0.25, 363.55
328.70, 0.26, 363.10
328.47, 0.26, 362.58
328.21, 0.26, 362.00
327.93, 0.27, 361.37
327.59, 0.26, 360.59
327.21, 0.27, 359.75
326.74, 0.27, 358.68
326.15, 0.26, 357.36
325.62, 0.31, 356.16
325.12, 0.40, 355.03
324.69, 0.54, 354.04
329.89, 0.24, 365.99
329.79, 0.24, 365.76
329.68, 0.24, 365.52
329.56, 0.24, 365.26
329.43, 0.24, 364.98
329.29, 0.24, 364.68
329.14, 0.25, 364.35
328.97, 0.25, 363.99
328.79, 0.25, 363.59
328.58, 0.26, 363.14
328.34, 0.26, 362.62
328.08, 0.26, 362.05
¯327.80, 0.27, 361.44
327.43, 0.26, 360.64
327.04, 0.27, 359.79
326.55, 0.27, 358.73
325.99, 0.27, 357.51
325.46, 0.33, 356.36
324.91, 0.41, 355.16
324.47, 0.55, 354.18
329.82, 0.24, 366.02
329.71, 0.24, 365.79
329.60, 0.24, 365.55
329.47, 0.24, 365.29
329.34, 0.24, 365.02
329.20, 0.24, 364.72
329.04, 0.25, 364.39
328.87, 0.25, 364.02
328.68, 0.25, 363.62
328.46, 0.26, 363.18
328.22, 0.26, 362.66
327.96, 0.26, 362.11
327.67, 0.28, 361.51
327.30, 0.27, 360.73
326.87, 0.27, 359.83
326.36, 0.27, 358.78
325.83, 0.29, 357.67
325.30, 0.35, 356.55
324.71, 0.42, 355.30
324.25, 0.56, 354.33
329.74, 0.24, 366.05
329.63, 0.24, 365.82
329.51, 0.24, 365.59
329.39, 0.24, 365.33
329.25, 0.24, 365.05
329.10, 0.24, 364.75
328.94, 0.25, 364.42
328.76, 0.25, 364.06
328.56, 0.25, 363.66
328.35, 0.26, 363.22
328.09, 0.26, 362.71
327.83, 0.27, 362.18
327.54, 0.28, 361.59
327.16, 0.28, 360.83
326.70, 0.27, 359.88
326.18, 0.27, 358.84
325.68, 0.31, 357.82
325.13, 0.36, 356.71
324.50, 0.43, 355.43
323.65, 0.49, 353.70
329.67, 0.24, 366.08
329.56, 0.24, 365.86
329.43, 0.24, 365.62
¯329.30, 0.24, 365.36
329.16, 0.24, 365.08
329.01, 0.24, 364.78
328.84, 0.25, 364.46
328.66, 0.25, 364.10
328.45, 0.25, 363.70
328.23, 0.26, 363.26
327.98, 0.26, 362.78
327.71, 0.28, 362.25
327.41, 0.29, 361.66
327.03, 0.29, 360.92
326.55, 0.28, 359.99
326.03, 0.28, 358.97
325.52, 0.32, 357.98
324.96, 0.38, 356.86
324.32, 0.45, 355.62
321.28, 0.05, 349.70
329.60, 0.24, 366.11
329.48, 0.24, 365.89
329.35, 0.24, 365.65
329.22, 0.24, 365.39
329.07, 0.24, 365.12
328.91, 0.24, 364.82
328.74, 0.24, 364.50
328.55, 0.25, 364.14
328.34, 0.25, 363.74
328.11, 0.26, 363.30
327.87, 0.27, 362.84
327.59, 0.28, 362.32
327.28, 0.30, 361.74
326.90, 0.30, 361.02
326.41, 0.29, 360.10
325.89, 0.30, 359.11
325.37, 0.34, 358.13
324.79, 0.39, 357.02
324.04, 0.44, 355.60
320.87, 0.03, 349.66
329.52, 0.24, 366.14
329.40, 0.24, 365.92
329.27, 0.24, 365.69
329.13, 0.24, 365.43
328.98, 0.24, 365.15
328.82, 0.24, 364.86
328.64, 0.24, 364.53
328.45, 0.25, 364.18
328.23, 0.25, 363.79
327.99, 0.26, 363.35
327.75, 0.27, 362.91
327.47, 0.29, 362.40
327.16, 0.30, 361.81
326.78, 0.31, 361.12
¯326.27, 0.30, 360.21
325.74, 0.31, 359.23
325.23, 0.35, 358.29
324.62, 0.40, 357.18
323.49, 0.37, 355.12
320.46, 0.02, 349.62
329.45, 0.24, 366.17
329.33, 0.24, 365.96
329.19, 0.24, 365.72
329.05, 0.24, 365.47
328.89, 0.24, 365.19
328.73, 0.24, 364.90
328.55, 0.24, 364.58
328.35, 0.25, 364.22
328.12, 0.25, 363.83
327.88, 0.26, 363.39
327.63, 0.27, 362.95
327.35, 0.29, 362.47
327.03, 0.31, 361.89
326.65, 0.32, 361.22
326.14, 0.31, 360.32
325.59, 0.32, 359.35
325.07, 0.37, 358.43
324.46, 0.42, 357.34
322.78, 0.27, 354.39
320.08, 0.02, 349.63
329.38, 0.24, 366.21
329.25, 0.24, 365.99
329.12, 0.24, 365.76
328.97, 0.24, 365.51
328.81, 0.24, 365.23
328.64, 0.24, 364.94
328.45, 0.24, 364.62
328.24, 0.25, 364.26
328.01, 0.25, 363.87
327.76, 0.25, 363.44
327.50, 0.27, 362.99
327.22, 0.29, 362.52
326.91, 0.31, 361.97
326.53, 0.33, 361.33
326.02, 0.33, 360.46
325.45, 0.33, 359.49
324.91, 0.38, 358.56
324.30, 0.43, 357.51
322.07, 0.17, 353.71
319.71, 0.01, 349.68
329.31, 0.24, 366.24
329.18, 0.24, 366.03
329.04, 0.24, 365.80
328.89, 0.24, 365.55
328.72, 0.24, 365.27
¯328.54, 0.24, 364.98
328.35, 0.24, 364.66
328.14, 0.25, 364.31
327.91, 0.25, 363.92
327.64, 0.25, 363.49
327.37, 0.27, 363.04
327.09, 0.29, 362.57
326.77, 0.31, 362.04
326.40, 0.34, 361.42
325.90, 0.34, 360.59
325.32, 0.35, 359.64
324.75, 0.39, 358.69
324.08, 0.43, 357.57
321.54, 0.12, 353.38
329.23, 0.24, 366.28
329.10, 0.24, 366.07
328.96, 0.24, 365.84
328.80, 0.24, 365.59
328.63, 0.24, 365.31
328.45, 0.24, 365.02
328.25, 0.24, 364.71
328.04, 0.25, 364.36
327.80, 0.25, 363.97
327.53, 0.25, 363.54
327.25, 0.27, 363.08
326.95, 0.29, 362.61
326.62, 0.31, 362.08
326.26, 0.34, 361.49
325.78, 0.35, 360.73
325.20, 0.36, 359.79
324.60, 0.40, 358.83
323.80, 0.42, 357.55
321.05, 0.08, 353.14
329.16, 0.24, 366.32
329.03, 0.24, 366.10
328.88, 0.24, 365.88
328.72, 0.24, 365.63
328.55, 0.24, 365.36
328.36, 0.24, 365.07
328.16, 0.24, 364.75
327.94, 0.25, 364.40
327.69, 0.25, 364.02
327.41, 0.25, 363.59
327.12, 0.26, 363.13
326.82, 0.29, 362.66
326.48, 0.31, 362.13
326.09, 0.34, 361.53
325.65, 0.36, 360.84
325.07, 0.38, 359.94
324.44, 0.41, 358.96
323.53, 0.41, 357.54
¯320.53, 0.04, 352.90
329.09, 0.24, 366.35
328.95, 0.24, 366.14
328.80, 0.24, 365.92
328.64, 0.24, 365.67
328.46, 0.24, 365.40
328.27, 0.24, 365.11
328.06, 0.24, 364.80
327.83, 0.25, 364.45
327.58, 0.25, 364.07
327.30, 0.25, 363.64
326.99, 0.26, 363.18
326.68, 0.28, 362.71
326.33, 0.31, 362.19
325.92, 0.33, 361.56
325.46, 0.36, 360.87
324.95, 0.39, 360.10
324.29, 0.42, 359.10
323.25, 0.39, 357.52
320.13, 0.02, 352.83
329.02, 0.24, 366.39
328.88, 0.24, 366.18
328.72, 0.24, 365.96
328.56, 0.24, 365.71
328.38, 0.24, 365.45
328.18, 0.24, 365.16
327.97, 0.24, 364.85
327.73, 0.24, 364.50
327.47, 0.25, 364.12
327.18, 0.25, 363.70
326.86, 0.26, 363.23
326.55, 0.28, 362.76
326.19, 0.31, 362.24
325.75, 0.32, 361.59
325.27, 0.35, 360.89
324.75, 0.38, 360.12
324.09, 0.42, 359.17
322.97, 0.38, 357.51
319.81, 0.01, 352.91
328.95, 0.23, 366.43
328.80, 0.24, 366.22
328.65, 0.24, 366.00
328.48, 0.24, 365.76
328.29, 0.24, 365.49
328.09, 0.24, 365.21
327.87, 0.24, 364.90
327.63, 0.24, 364.55
327.37, 0.25, 364.18
327.07, 0.25, 363.76
326.74, 0.26, 363.28
326.41, 0.28, 362.82
¯326.03, 0.30, 362.28
325.57, 0.31, 361.62
325.08, 0.34, 360.92
324.54, 0.38, 360.15
323.89, 0.41, 359.22
322.68, 0.37, 357.51
319.49, 0.01, 352.99
328.88, 0.23, 366.47
328.73, 0.23, 366.26
328.57, 0.23, 366.04
328.39, 0.24, 365.80
328.20, 0.24, 365.54
328.00, 0.24, 365.26
327.78, 0.24, 364.95
327.53, 0.24, 364.61
327.26, 0.25, 364.23
326.96, 0.25, 363.81
326.62, 0.26, 363.34
326.28, 0.28, 362.87
325.87, 0.29, 362.31
325.39, 0.30, 361.66
324.88, 0.33, 360.94
324.32, 0.37, 360.17
323.70, 0.41, 359.31
322.39, 0.35, 357.50
319.17, 0.01, 353.07
328.81, 0.23, 366.51
328.65, 0.23, 366.30
328.49, 0.23, 366.08
328.31, 0.23, 365.84
328.12, 0.23, 365.58
327.91, 0.24, 365.31
327.68, 0.24, 365.00
327.43, 0.24, 364.66
327.15, 0.25, 364.29
326.84, 0.25, 363.87
326.50, 0.26, 363.41
326.14, 0.27, 362.93
325.71, 0.28, 362.35
325.22, 0.30, 361.69
324.68, 0.32, 360.98
324.11, 0.36, 360.21
323.50, 0.41, 359.39
321.67, 0.25, 356.94
318.85, 0.00, 353.16
328.74, 0.23, 366.55
328.58, 0.23, 366.35
328.41, 0.23, 366.13
328.23, 0.23, 365.89
328.03, 0.23, 365.63
327.82, 0.24, 365.36
¯327.59, 0.24, 365.05
327.33, 0.24, 364.72
327.05, 0.25, 364.35
326.73, 0.25, 363.94
326.37, 0.25, 363.47
325.99, 0.26, 362.97
325.55, 0.27, 362.39
325.04, 0.29, 361.73
324.48, 0.31, 361.01
323.91, 0.35, 360.26
323.28, 0.41, 359.44
320.40, 0.05, 355.70
320.11, 0.28, 355.31
320.11, 0.56, 355.30
320.11, 0.84, 355.29
320.11, 1.11, 355.27
320.11, 1.39, 355.26
320.11, 1.67, 355.24
320.11, 1.95, 355.23
320.11, 2.23, 355.21
320.11, 2.51, 355.20
320.11, 2.79, 355.19
328.67, 0.23, 366.59
328.51, 0.23, 366.39
328.34, 0.23, 366.17
328.15, 0.23, 365.94
327.95, 0.23, 365.69
327.73, 0.24, 365.41
327.50, 0.24, 365.11
327.23, 0.24, 364.78
326.94, 0.25, 364.41
326.62, 0.25, 364.00
326.25, 0.25, 363.54
325.86, 0.26, 363.04
325.38, 0.27, 362.43
324.86, 0.28, 361.77
324.28, 0.30, 361.04
323.71, 0.35, 360.32
323.06, 0.40, 359.49
320.11, 0.05, 355.78
320.11, 0.32, 355.76
320.11, 0.60, 355.75
320.11, 0.87, 355.73
320.11, 1.15, 355.72
320.11, 1.42, 355.71
320.11, 1.69, 355.69
320.11, 1.97, 355.68
320.11, 2.24, 355.67
320.11, 2.52, 355.65
320.11, 2.79, 355.64
328.60, 0.23, 366.63
¯328.44, 0.23, 366.43
328.26, 0.23, 366.22
328.07, 0.23, 365.99
327.87, 0.23, 365.74
327.65, 0.24, 365.46
327.40, 0.24, 365.17
327.14, 0.24, 364.84
326.84, 0.25, 364.47
326.51, 0.25, 364.06
326.14, 0.26, 363.61
325.79, 0.28, 363.17
325.28, 0.28, 362.55
324.69, 0.27, 361.83
324.09, 0.29, 361.09
323.51, 0.34, 360.37
322.84, 0.40, 359.55
320.11, 0.09, 356.21
320.11, 0.37, 356.19
320.11, 0.64, 356.18
320.11, 0.91, 356.17
320.11, 1.17, 356.15
320.11, 1.44, 356.14
320.11, 1.71, 356.13
320.11, 1.98, 356.11
320.11, 2.25, 356.10
320.11, 2.52, 356.09
320.11, 2.79, 356.07
328.53, 0.23, 366.68
328.36, 0.23, 366.48
328.18, 0.23, 366.27
327.99, 0.23, 366.04
327.79, 0.23, 365.79
327.56, 0.24, 365.52
327.31, 0.24, 365.22
327.04, 0.24, 364.90
326.73, 0.24, 364.53
326.40, 0.25, 364.13
326.05, 0.26, 363.71
325.71, 0.30, 363.30
325.20, 0.29, 362.70
324.61, 0.29, 361.99
323.95, 0.30, 361.20
323.31, 0.33, 360.44
322.62, 0.39, 359.60
320.11, 0.14, 356.62
320.11, 0.41, 356.61
320.11, 0.67, 356.60
320.11, 0.94, 356.58
320.11, 1.20, 356.57
320.11, 1.47, 356.56
320.11, 1.73, 356.55
¯320.11, 2.00, 356.53
320.11, 2.26, 356.52
320.11, 2.53, 356.51
320.11, 2.79, 356.49
328.46, 0.23, 366.72
328.29, 0.23, 366.53
328.11, 0.23, 366.32
327.92, 0.23, 366.09
327.70, 0.23, 365.84
327.47, 0.23, 365.58
327.22, 0.24, 365.28
326.94, 0.24, 364.96
326.63, 0.24, 364.60
326.29, 0.25, 364.20
325.95, 0.27, 363.81
325.61, 0.30, 363.41
325.13, 0.31, 362.85
324.54, 0.31, 362.16
323.85, 0.31, 361.37
323.20, 0.35, 360.61
322.46, 0.40, 359.74
320.11, 0.19, 357.03
320.11, 0.45, 357.01
320.11, 0.71, 357.00
320.11, 0.97, 356.99
320.11, 1.23, 356.98
320.11, 1.49, 356.96
320.11, 1.75, 356.95
320.11, 2.01, 356.94
320.11, 2.27, 356.93
320.11, 2.53, 356.91
320.11, 2.79, 356.90
328.39, 0.23, 366.77
328.22, 0.23, 366.57
328.04, 0.23, 366.37
327.84, 0.23, 366.14
327.62, 0.23, 365.90
327.39, 0.23, 365.63
327.13, 0.24, 365.34
326.84, 0.24, 365.02
326.53, 0.24, 364.66
326.18, 0.25, 364.27
325.86, 0.28, 363.91
325.51, 0.31, 363.51
325.06, 0.33, 363.00
324.46, 0.33, 362.33
323.78, 0.33, 361.56
323.10, 0.36, 360.78
322.34, 0.41, 359.93
320.11, 0.23, 357.42
320.11, 0.49, 357.40
¯320.11, 0.74, 357.39
320.11, 1.00, 357.38
320.11, 1.26, 357.37
320.11, 1.51, 357.36
320.11, 1.77, 357.34
320.11, 2.03, 357.33
320.11, 2.28, 357.32
320.11, 2.54, 357.31
320.11, 2.80, 357.30
328.32, 0.23, 366.82
328.15, 0.23, 366.62
327.96, 0.23, 366.42
327.76, 0.23, 366.20
327.54, 0.23, 365.96
327.30, 0.23, 365.69
327.04, 0.24, 365.40
326.75, 0.24, 365.09
326.43, 0.24, 364.73
326.09, 0.25, 364.36
325.77, 0.28, 364.00
325.41, 0.32, 363.61
324.99, 0.35, 363.15
324.39, 0.35, 362.49
323.71, 0.35, 361.75
322.99, 0.38, 360.95
320.77, 0.14, 358.52
320.11, 0.27, 357.79
320.11, 0.52, 357.78
320.11, 0.78, 357.77
320.11, 1.03, 357.76
320.11, 1.28, 357.75
320.11, 1.53, 357.74
320.11, 1.79, 357.72
320.11, 2.04, 357.71
320.11, 2.29, 357.70
320.11, 2.54, 357.69
320.11, 2.80, 357.68
328.26, 0.22, 366.86
328.08, 0.22, 366.67
327.89, 0.23, 366.47
327.69, 0.23, 366.25
327.46, 0.23, 366.01
327.22, 0.23, 365.75
326.95, 0.24, 365.47
326.65, 0.24, 365.15
326.33, 0.24, 364.80
326.00, 0.26, 364.45
325.68, 0.29, 364.10
325.32, 0.32, 363.72
324.92, 0.36, 363.29
324.33, 0.37, 362.66
¯323.65, 0.37, 361.93
322.89, 0.39, 361.13
320.11, 0.06, 358.18
320.11, 0.31, 358.16
320.11, 0.56, 358.15
320.11, 0.81, 358.14
320.11, 1.06, 358.13
320.11, 1.31, 358.12
320.11, 1.56, 358.10
320.11, 1.80, 358.09
320.11, 2.05, 358.08
320.11, 2.30, 358.07
320.11, 2.55, 358.06
320.11, 2.80, 358.05
328.19, 0.22, 366.91
328.01, 0.22, 366.73
327.82, 0.23, 366.53
327.61, 0.23, 366.31
327.38, 0.23, 366.07
327.13, 0.23, 365.82
326.86, 0.24, 365.53
326.56, 0.24, 365.22
326.23, 0.24, 364.87
325.92, 0.27, 364.55
325.59, 0.30, 364.20
325.22, 0.33, 363.83
324.82, 0.37, 363.41
324.26, 0.38, 362.82
323.58, 0.39, 362.12
322.79, 0.41, 361.30
320.11, 0.10, 358.53
320.11, 0.35, 358.52
320.11, 0.59, 358.51
320.11, 0.84, 358.50
320.11, 1.08, 358.48
320.11, 1.33, 358.47
320.11, 1.57, 358.46
320.11, 1.82, 358.45
320.11, 2.06, 358.44
320.11, 2.31, 358.43
320.11, 2.56, 358.42
320.11, 2.80, 358.41
328.13, 0.22, 366.96
327.94, 0.22, 366.78
327.75, 0.23, 366.58
327.54, 0.23, 366.37
327.30, 0.23, 366.13
327.05, 0.23, 365.88
326.77, 0.23, 365.60
326.47, 0.24, 365.29
326.13, 0.24, 364.95
¯325.83, 0.27, 364.64
325.50, 0.30, 364.31
325.13, 0.34, 363.93
324.72, 0.38, 363.52
324.20, 0.40, 362.99
323.52, 0.41, 362.30
322.72, 0.43, 361.50
320.11, 0.14, 358.88
320.11, 0.38, 358.86
320.11, 0.63, 358.85
320.11, 0.87, 358.84
320.11, 1.11, 358.83
320.11, 1.35, 358.82
320.11, 1.59, 358.81
320.11, 1.84, 358.80
320.11, 2.08, 358.79
320.11, 2.32, 358.78
320.11, 2.56, 358.77
320.11, 2.80, 358.76
328.06, 0.22, 367.02
327.88, 0.22, 366.83
327.68, 0.22, 366.64
327.46, 0.23, 366.43
327.23, 0.23, 366.19
326.97, 0.23, 365.94
326.69, 0.23, 365.66
326.37, 0.24, 365.36
326.05, 0.25, 365.04
325.75, 0.28, 364.74
325.41, 0.31, 364.41
325.04, 0.34, 364.04
324.63, 0.38, 363.64
324.14, 0.42, 363.15
323.46, 0.43, 362.49
322.67, 0.45, 361.71
320.14, 0.18, 359.24
320.11, 0.42, 359.20
320.11, 0.66, 359.19
320.11, 0.90, 359.18
320.11, 1.14, 359.17
320.11, 1.37, 359.16
320.11, 1.61, 359.15
320.11, 1.85, 359.14
320.11, 2.09, 359.13
320.11, 2.33, 359.12
320.11, 2.57, 359.11
320.11, 2.80, 359.09
328.00, 0.22, 367.07
327.81, 0.22, 366.89
327.61, 0.22, 366.70
327.39, 0.23, 366.49
¯327.15, 0.23, 366.26
326.89, 0.23, 366.01
326.60, 0.23, 365.73
326.28, 0.24, 365.43
325.95, 0.25, 365.11
325.64, 0.28, 364.81
325.29, 0.31, 364.48
324.91, 0.34, 364.11
324.48, 0.38, 363.71
324.07, 0.43, 363.31
323.41, 0.45, 362.68
322.62, 0.47, 361.92
320.11, 0.21, 359.54
320.11, 0.45, 359.53
320.11, 0.69, 359.52
320.11, 0.92, 359.51
320.11, 1.16, 359.50
320.11, 1.39, 359.49
320.11, 1.63, 359.48
320.11, 1.87, 359.47
320.11, 2.10, 359.46
320.11, 2.34, 359.45
320.11, 2.57, 359.44
320.11, 2.81, 359.43
327.94, 0.22, 367.12
327.75, 0.22, 366.95
327.54, 0.22, 366.75
327.32, 0.23, 366.55
327.07, 0.23, 366.32
326.81, 0.23, 366.07
326.51, 0.23, 365.80
326.19, 0.24, 365.50
325.83, 0.24, 365.17
325.51, 0.27, 364.87
325.15, 0.30, 364.54
324.76, 0.33, 364.17
324.32, 0.37, 363.76
323.94, 0.44, 363.41
323.37, 0.47, 362.87
322.58, 0.49, 362.14
318.87, 0.03, 358.71
317.04, 0.01, 357.02
315.90, 0.14, 355.96
315.90, 0.46, 355.94
315.90, 0.77, 355.93
315.90, 1.08, 355.92
319.84, 1.63, 359.55
319.85, 1.87, 359.55
319.86, 2.11, 359.55
319.87, 2.34, 359.55
319.89, 2.58, 359.55
¯319.90, 2.82, 359.55
327.87, 0.22, 367.18
327.68, 0.22, 367.00
327.47, 0.22, 366.81
327.24, 0.23, 366.61
327.00, 0.23, 366.39
326.73, 0.23, 366.14
326.43, 0.23, 365.87
326.09, 0.23, 365.57
325.71, 0.23, 365.22
325.38, 0.26, 364.92
325.01, 0.29, 364.59
324.61, 0.32, 364.23
324.18, 0.36, 363.84
323.82, 0.44, 363.51
323.32, 0.49, 363.06
322.54, 0.52, 362.35
318.61, 0.03, 358.82
316.77, 0.00, 357.16
315.90, 0.18, 356.37
315.90, 0.49, 356.36
315.90, 0.80, 356.35
315.90, 1.11, 356.33
315.90, 1.42, 356.32
315.90, 1.72, 356.31
315.90, 2.03, 356.30
315.90, 2.34, 356.28
315.90, 2.65, 356.27
315.90, 2.96, 356.26
327.81, 0.22, 367.24
327.62, 0.22, 367.06
327.40, 0.22, 366.88
327.17, 0.22, 366.67
326.92, 0.23, 366.45
326.65, 0.23, 366.21
326.34, 0.23, 365.94
326.00, 0.23, 365.64
325.60, 0.23, 365.30
325.25, 0.25, 364.98
324.88, 0.28, 364.65
324.46, 0.31, 364.29
324.06, 0.36, 363.94
323.70, 0.44, 363.61
323.28, 0.51, 363.25
322.50, 0.54, 362.56
318.35, 0.02, 358.93
316.49, 0.00, 357.31
315.90, 0.22, 356.78
315.90, 0.52, 356.77
315.90, 0.83, 356.76
315.90, 1.13, 356.74
¯315.90, 1.44, 356.73
315.90, 1.74, 356.72
315.90, 2.05, 356.70
315.90, 2.35, 356.69
315.90, 2.66, 356.68
315.90, 2.96, 356.67
327.75, 0.22, 367.29
327.55, 0.22, 367.12
327.34, 0.22, 366.94
327.10, 0.22, 366.74
326.85, 0.23, 366.52
326.57, 0.23, 366.28
326.26, 0.23, 366.02
325.91, 0.23, 365.71
325.50, 0.22, 365.37
325.12, 0.24, 365.04
324.74, 0.27, 364.72
324.31, 0.30, 364.35
323.95, 0.36, 364.04
323.57, 0.44, 363.72
323.17, 0.52, 363.37
322.46, 0.56, 362.77
318.11, 0.02, 359.08
316.23, 0.00, 357.47
315.90, 0.25, 357.18
315.90, 0.56, 357.17
315.90, 0.86, 357.16
315.90, 1.16, 357.14
315.90, 1.46, 357.13
315.90, 1.76, 357.12
315.90, 2.06, 357.10
315.90, 2.36, 357.09
315.90, 2.66, 357.08
315.90, 2.96, 357.07
327.70, 0.22, 367.35
327.49, 0.22, 367.18
327.27, 0.22, 367.00
327.03, 0.22, 366.80
326.77, 0.23, 366.59
326.49, 0.23, 366.35
326.18, 0.23, 366.09
325.81, 0.23, 365.79
325.40, 0.22, 365.45
324.99, 0.23, 365.11
324.60, 0.26, 364.78
324.18, 0.30, 364.43
323.83, 0.36, 364.14
323.45, 0.44, 363.82
323.04, 0.52, 363.48
322.43, 0.58, 362.97
317.88, 0.01, 359.22
¯315.98, 0.00, 357.64
315.90, 0.29, 357.57
315.90, 0.59, 357.56
315.90, 0.88, 357.54
315.90, 1.18, 357.53
315.90, 1.48, 357.52
315.90, 1.78, 357.51
315.90, 2.07, 357.50
315.90, 2.37, 357.48
315.90, 2.67, 357.47
315.90, 2.97, 357.46
327.64, 0.22, 367.41
327.43, 0.22, 367.24
327.20, 0.22, 367.06
326.96, 0.22, 366.87
326.70, 0.22, 366.66
326.41, 0.23, 366.42
326.09, 0.23, 366.16
325.72, 0.22, 365.86
325.30, 0.22, 365.53
324.86, 0.22, 365.17
324.45, 0.25, 364.84
324.07, 0.30, 364.53
323.71, 0.37, 364.24
323.33, 0.44, 363.93
322.91, 0.52, 363.59
322.40, 0.60, 363.17
317.65, 0.01, 359.37
315.73, 0.00, 357.82
315.90, 0.32, 357.95
315.90, 0.62, 357.94
315.90, 0.91, 357.93
315.90, 1.20, 357.91
315.90, 1.50, 357.90
315.90, 1.79, 357.89
315.90, 2.09, 357.88
315.90, 2.38, 357.87
315.90, 2.67, 357.85
315.90, 2.97, 357.84
327.58, 0.22, 367.47
327.37, 0.22, 367.31
327.14, 0.22, 367.13
326.90, 0.22, 366.94
326.63, 0.22, 366.73
326.34, 0.23, 366.50
326.00, 0.23, 366.24
325.63, 0.22, 365.94
325.20, 0.22, 365.61
324.73, 0.21, 365.24
324.31, 0.24, 364.91
323.96, 0.30, 364.63
¯323.60, 0.37, 364.35
323.21, 0.44, 364.04
322.78, 0.52, 363.70
322.32, 0.61, 363.34
317.43, 0.01, 359.53
315.90, 0.06, 358.33
315.90, 0.35, 358.32
315.90, 0.64, 358.31
315.90, 0.94, 358.30
315.90, 1.23, 358.29
315.90, 1.52, 358.27
315.90, 1.81, 358.26
315.90, 2.10, 358.25
315.90, 2.39, 358.24
315.90, 2.68, 358.23
315.90, 2.97, 358.22
327.52, 0.22, 367.53
327.31, 0.22, 367.37
327.08, 0.22, 367.19
326.83, 0.22, 367.00
326.56, 0.22, 366.80
326.26, 0.23, 366.57
325.92, 0.22, 366.31
325.54, 0.22, 366.02
325.10, 0.21, 365.69
324.62, 0.21, 365.32
324.18, 0.23, 364.99
323.85, 0.30, 364.73
323.48, 0.37, 364.45
323.10, 0.44, 364.16
322.70, 0.53, 363.85
319.00, 0.05, 361.05
317.20, 0.01, 359.68
315.90, 0.09, 358.70
315.90, 0.38, 358.68
315.90, 0.67, 358.67
315.90, 0.96, 358.66
315.90, 1.25, 358.65
315.90, 1.54, 358.64
315.90, 1.82, 358.63
315.90, 2.11, 358.62
315.90, 2.40, 358.60
315.90, 2.69, 358.59
315.90, 2.97, 358.58
327.47, 0.22, 367.60
327.25, 0.22, 367.43
327.01, 0.22, 367.26
326.76, 0.22, 367.07
326.49, 0.22, 366.87
326.19, 0.22, 366.65
325.84, 0.22, 366.39
¯325.44, 0.22, 366.10
325.01, 0.21, 365.78
324.51, 0.21, 365.41
324.08, 0.23, 365.09
323.76, 0.30, 364.85
323.41, 0.38, 364.59
323.04, 0.46, 364.31
322.64, 0.54, 364.01
318.73, 0.04, 361.14
316.97, 0.01, 359.85
315.90, 0.13, 359.05
315.90, 0.41, 359.04
315.90, 0.70, 359.03
315.90, 0.98, 359.02
315.90, 1.27, 359.01
315.90, 1.55, 359.00
315.90, 1.84, 358.98
315.90, 2.12, 358.97
315.90, 2.41, 358.96
315.90, 2.69, 358.95
315.90, 2.98, 358.94
327.41, 0.22, 367.66
327.19, 0.22, 367.50
326.95, 0.22, 367.33
326.70, 0.22, 367.14
326.42, 0.22, 366.94
326.11, 0.22, 366.72
325.75, 0.22, 366.47
325.36, 0.21, 366.18
324.91, 0.21, 365.86
324.42, 0.21, 365.51
324.02, 0.24, 365.22
323.70, 0.31, 364.99
323.35, 0.39, 364.74
322.98, 0.47, 364.47
322.58, 0.56, 364.17
318.46, 0.02, 361.24
316.75, 0.00, 360.01
315.94, 0.16, 359.42
315.90, 0.44, 359.39
315.90, 0.72, 359.38
315.90, 1.01, 359.37
315.90, 1.29, 359.36
315.90, 1.57, 359.34
315.90, 1.85, 359.33
315.90, 2.13, 359.32
315.90, 2.42, 359.31
315.90, 2.70, 359.30
315.90, 2.98, 359.29
327.36, 0.22, 367.72
327.14, 0.22, 367.57
¯326.89, 0.22, 367.40
326.63, 0.22, 367.22
326.35, 0.22, 367.02
326.03, 0.22, 366.80
325.67, 0.22, 366.55
325.27, 0.21, 366.27
324.83, 0.21, 365.96
324.35, 0.21, 365.63
323.98, 0.26, 365.37
323.65, 0.32, 365.13
323.30, 0.40, 364.89
322.92, 0.48, 364.62
322.52, 0.57, 364.34
318.23, 0.02, 361.37
316.52, 0.00, 360.18
315.65, 0.16, 359.57
315.64, 0.44, 359.55
315.65, 0.72, 359.55
315.67, 1.01, 359.55
315.69, 1.29, 359.55
315.70, 1.58, 359.55
315.72, 1.86, 359.55
315.73, 2.14, 359.55
315.75, 2.42, 359.55
315.76, 2.71, 359.55
315.78, 2.99, 359.55
327.31, 0.22, 367.79
327.08, 0.22, 367.63
326.84, 0.22, 367.47
326.57, 0.22, 367.29
326.28, 0.22, 367.09
325.95, 0.22, 366.87
325.59, 0.22, 366.63
325.20, 0.22, 366.37
324.77, 0.22, 366.07
324.28, 0.22, 365.74
323.94, 0.27, 365.51
323.60, 0.34, 365.27
323.24, 0.41, 365.03
322.87, 0.49, 364.78
322.46, 0.58, 364.50
318.04, 0.02, 361.53
316.31, 0.00, 360.36
314.24, 0.00, 358.96
327.25, 0.22, 367.85
327.02, 0.22, 367.70
326.78, 0.22, 367.54
326.51, 0.22, 367.36
326.21, 0.22, 367.17
325.89, 0.22, 366.96
325.53, 0.22, 366.72
¯325.14, 0.22, 366.47
324.71, 0.22, 366.18
324.22, 0.23, 365.86
323.90, 0.29, 365.65
323.56, 0.35, 365.42
323.19, 0.42, 365.18
322.81, 0.50, 364.93
322.41, 0.59, 364.66
317.85, 0.01, 361.69
316.10, 0.00, 360.54
314.00, 0.00, 359.17
327.20, 0.22, 367.92
326.97, 0.22, 367.77
326.72, 0.22, 367.61
326.45, 0.22, 367.44
326.15, 0.22, 367.25
325.83, 0.22, 367.05
325.48, 0.23, 366.82
325.08, 0.23, 366.57
324.64, 0.23, 366.29
324.18, 0.24, 365.99
323.86, 0.30, 365.79
323.52, 0.37, 365.57
323.15, 0.44, 365.33
322.76, 0.52, 365.08
322.35, 0.60, 364.82
317.66, 0.01, 361.86
315.90, 0.00, 360.73
313.76, 0.00, 359.38
327.15, 0.22, 367.99
326.92, 0.22, 367.84
326.66, 0.22, 367.69
326.38, 0.22, 367.51
326.09, 0.22, 367.33
325.78, 0.23, 367.14
325.42, 0.23, 366.92
325.03, 0.23, 366.68
324.58, 0.23, 366.40
324.14, 0.25, 366.13
323.82, 0.31, 365.93
323.48, 0.38, 365.72
323.11, 0.45, 365.49
322.71, 0.53, 365.24
322.30, 0.61, 364.98
317.48, 0.01, 362.03
315.69, 0.00, 360.93
313.52, 0.00, 359.59
327.10, 0.22, 368.05
326.86, 0.22, 367.91
326.60, 0.22, 367.76
326.32, 0.22, 367.59
¯326.03, 0.22, 367.41
325.73, 0.23, 367.23
325.37, 0.24, 367.02
324.97, 0.24, 366.78
324.53, 0.24, 366.51
324.11, 0.26, 366.26
323.79, 0.33, 366.07
323.44, 0.39, 365.86
323.07, 0.46, 365.64
322.68, 0.54, 365.40
319.32, 0.11, 363.41
317.29, 0.01, 362.20
315.49, 0.00, 361.12
313.29, 0.00, 359.80
327.05, 0.22, 368.12
326.81, 0.22, 367.98
326.55, 0.22, 367.83
326.26, 0.22, 367.67
325.97, 0.22, 367.50
325.66, 0.23, 367.32
325.32, 0.24, 367.12
324.92, 0.24, 366.89
324.47, 0.25, 366.63
324.07, 0.28, 366.39
323.75, 0.34, 366.21
323.41, 0.40, 366.01
323.04, 0.48, 365.79
322.64, 0.55, 365.56
319.06, 0.09, 363.50
317.11, 0.01, 362.37
315.29, 0.00, 361.32
313.05, 0.00, 360.03
327.00, 0.22, 368.19
326.76, 0.22, 368.05
326.49, 0.22, 367.90
326.20, 0.21, 367.74
325.91, 0.22, 367.58
325.60, 0.23, 367.41
325.27, 0.24, 367.22
324.86, 0.25, 366.99
324.41, 0.25, 366.74
324.04, 0.29, 366.53
323.72, 0.35, 366.35
323.38, 0.42, 366.15
323.01, 0.49, 365.94
322.50, 0.55, 365.66
318.80, 0.07, 363.60
316.93, 0.00, 362.55
315.09, 0.00, 361.52
312.82, 0.00, 360.25
326.95, 0.22, 368.26
¯326.70, 0.22, 368.13
326.43, 0.21, 367.98
326.15, 0.21, 367.82
325.86, 0.22, 367.67
325.55, 0.23, 367.50
325.20, 0.25, 367.31
324.81, 0.25, 367.10
324.36, 0.26, 366.85
324.00, 0.30, 366.66
323.69, 0.36, 366.48
323.34, 0.43, 366.30
322.87, 0.48, 366.04
322.32, 0.53, 365.74
318.34, 0.02, 363.60
316.75, 0.00, 362.73
314.90, 0.00, 361.73
312.59, 0.00, 360.48
326.90, 0.22, 368.33
326.65, 0.21, 368.20
326.38, 0.21, 368.06
326.09, 0.22, 367.91
325.80, 0.22, 367.75
325.49, 0.24, 367.59
325.14, 0.25, 367.40
324.76, 0.26, 367.21
324.31, 0.26, 366.97
323.97, 0.31, 366.79
323.65, 0.38, 366.62
323.20, 0.42, 366.38
322.70, 0.47, 366.12
321.94, 0.48, 365.72
318.19, 0.02, 363.77
316.57, 0.00, 362.92
314.70, 0.00, 361.94
312.36, 0.00, 360.71
326.85, 0.21, 368.40
326.60, 0.21, 368.27
326.33, 0.21, 368.13
326.04, 0.22, 367.99
325.75, 0.23, 367.84
325.43, 0.24, 367.68
325.08, 0.25, 367.50
324.70, 0.26, 367.31
324.26, 0.27, 367.08
323.94, 0.32, 366.92
323.51, 0.36, 366.70
323.05, 0.40, 366.46
322.53, 0.45, 366.20
321.44, 0.41, 365.65
318.05, 0.02, 363.95
316.40, 0.00, 363.11
¯314.51, 0.00, 362.16
312.13, 0.00, 360.95
326.81, 0.21, 368.47
326.55, 0.21, 368.35
326.27, 0.21, 368.21
325.99, 0.22, 368.07
325.70, 0.23, 367.93
325.37, 0.24, 367.77
325.02, 0.25, 367.60
324.63, 0.26, 367.41
324.20, 0.27, 367.20
323.80, 0.31, 367.00
323.37, 0.35, 366.78
322.89, 0.39, 366.55
322.36, 0.43, 366.29
320.90, 0.33, 365.58
317.91, 0.02, 364.13
316.23, 0.00, 363.31
314.32, 0.00, 362.37
311.91, 0.00, 361.19
326.76, 0.21, 368.54
326.50, 0.21, 368.42
326.22, 0.21, 368.29
325.94, 0.22, 368.16
325.64, 0.23, 368.02
325.32, 0.24, 367.86
324.96, 0.25, 367.69
324.57, 0.26, 367.51
324.12, 0.27, 367.30
323.67, 0.29, 367.08
323.22, 0.33, 366.87
322.73, 0.37, 366.64
322.06, 0.40, 366.32
320.58, 0.29, 365.62
317.78, 0.02, 364.31
316.07, 0.00, 363.51
314.14, 0.00, 362.59
311.69, 0.00, 361.44
326.71, 0.21, 368.61
326.45, 0.21, 368.50
326.17, 0.21, 368.37
325.89, 0.22, 368.24
325.59, 0.23, 368.10
325.27, 0.24, 367.95
324.91, 0.25, 367.79
324.50, 0.26, 367.61
324.05, 0.27, 367.40
323.53, 0.28, 367.17
323.08, 0.32, 366.96
322.57, 0.36, 366.73
321.60, 0.32, 366.28
¯320.50, 0.30, 365.79
317.64, 0.02, 364.49
315.91, 0.00, 363.71
313.95, 0.00, 362.82
311.47, 0.00, 361.68
326.67, 0.21, 368.69
326.41, 0.21, 368.57
326.13, 0.21, 368.45
325.85, 0.22, 368.33
325.54, 0.23, 368.19
325.21, 0.24, 368.05
324.85, 0.25, 367.89
324.43, 0.26, 367.71
323.97, 0.27, 367.50
323.44, 0.27, 367.27
322.93, 0.30, 367.05
322.41, 0.34, 366.82
321.31, 0.29, 366.34
320.43, 0.30, 365.95
317.49, 0.02, 364.67
315.76, 0.00, 363.91
313.77, 0.00, 363.04
311.25, 0.00, 361.94
326.63, 0.21, 368.76
326.36, 0.21, 368.65
326.08, 0.21, 368.53
325.80, 0.22, 368.41
325.49, 0.23, 368.28
325.16, 0.24, 368.14
324.78, 0.25, 367.98
324.36, 0.26, 367.81
323.89, 0.26, 367.61
323.35, 0.27, 367.38
322.78, 0.28, 367.14
322.21, 0.32, 366.90
321.24, 0.29, 366.49
320.35, 0.31, 366.11
317.34, 0.02, 364.85
315.61, 0.00, 364.12
313.59, 0.00, 363.27
311.04, 0.00, 362.20
326.58, 0.21, 368.84
326.32, 0.21, 368.73
326.04, 0.21, 368.62
