ŸVERSION 0.7
FIELDS x y z
SIZE 8 8 8
TYPE F F F
COUNT 1 1 1
WIDTH 2268
HEIGHT 1
VIEWPOINT 428.20, 15.01, 245.59 1 444.59, 9.93, 257.02
POINTS 2268
DATA ascii
440.32, 7.24, 266.84
440.22, 7.21, 267.79
440.11, 7.18, 268.86
439.99, 7.14, 270.11
439.82, 7.08, 271.71
439.74, 7.20, 272.50
439.53, 7.14, 274.65
439.26, 7.08, 277.26
440.95, 7.61, 261.49
440.91, 7.56, 261.91
440.84, 7.42, 262.65
440.81, 7.40, 263.07
440.77, 7.37, 263.56
440.72, 7.35, 264.07
440.67, 7.33, 264.63
440.62, 7.30, 265.28
440.55, 7.27, 266.02
440.48, 7.24, 266.85
440.40, 7.21, 267.81
440.30, 7.18, 268.87
440.19, 7.14, 270.13
440.12, 7.20, 271.03
439.99, 7.20, 272.49
439.80, 7.14, 274.65
439.57, 7.08, 277.26
441.03, 7.61, 261.50
441.01, 7.59, 261.83
440.98, 7.58, 262.19
440.95, 7.53, 262.66
440.88, 7.37, 263.57
440.85, 7.35, 264.08
440.80, 7.33, 264.65
440.76, 7.30, 265.29
440.70, 7.27, 266.03
440.64, 7.24, 266.87
440.57, 7.21, 267.82
440.49, 7.18, 268.88
440.45, 7.26, 269.52
440.36, 7.26, 270.71
440.23, 7.20, 272.49
440.08, 7.14, 274.64
439.89, 7.08, 277.25
440.94, 9.05, 262.83
440.94, 9.16, 262.84
440.94, 9.27, 262.84
440.94, 9.38, 262.85
³440.94, 9.48, 262.85
440.94, 9.59, 262.85
440.94, 9.70, 262.86
440.95, 9.81, 262.86
440.95, 9.91, 262.87
440.95, 10.02, 262.87
440.95, 10.13, 262.88
441.12, 7.61, 261.51
441.10, 7.59, 261.84
441.08, 7.58, 262.20
441.06, 7.56, 262.59
441.03, 7.54, 263.04
441.00, 7.51, 263.53
440.97, 7.48, 264.09
440.93, 7.44, 264.79
440.88, 7.39, 265.56
440.84, 7.36, 266.35
440.79, 7.35, 267.18
440.73, 7.34, 268.09
440.66, 7.31, 269.28
440.58, 7.26, 270.70
440.48, 7.21, 272.48
440.35, 7.15, 274.63
440.20, 7.09, 277.23
441.06, 9.06, 262.76
441.06, 9.17, 262.77
441.06, 9.28, 262.77
441.06, 9.38, 262.78
441.06, 9.49, 262.78
441.06, 9.59, 262.79
441.06, 9.70, 262.79
441.06, 9.81, 262.80
441.06, 9.91, 262.80
441.06, 10.02, 262.81
441.06, 10.13, 262.81
441.21, 7.61, 261.52
441.20, 7.59, 261.84
441.18, 7.58, 262.20
441.16, 7.56, 262.60
441.14, 7.54, 263.04
441.12, 7.51, 263.53
441.10, 7.49, 264.08
441.07, 7.47, 264.68
441.04, 7.44, 265.37
441.15, 8.14, 262.99
441.15, 8.25, 262.99
441.15, 8.36, 263.03
440.86, 7.31, 269.28
440.80, 7.27, 270.70
440.72, 7.21, 272.47
440.62, 7.15, 274.62
³441.16, 8.96, 262.69
441.16, 9.07, 262.70
441.16, 9.18, 262.70
441.16, 9.28, 262.71
441.17, 9.39, 262.71
441.17, 9.49, 262.72
441.17, 9.60, 262.72
441.17, 9.70, 262.73
441.17, 9.81, 262.73
441.17, 9.91, 262.74
441.17, 10.02, 262.74
441.17, 10.12, 262.74
441.30, 7.61, 261.52
441.29, 7.59, 261.85
441.28, 7.57, 262.21
441.27, 7.56, 262.61
441.25, 7.53, 263.05
441.24, 7.51, 263.54
441.22, 7.49, 264.09
441.20, 7.47, 264.69
441.18, 7.44, 265.37
441.26, 8.15, 262.92
441.26, 8.26, 262.93
441.26, 8.37, 262.95
441.26, 8.47, 263.02
441.02, 7.27, 270.69
440.96, 7.21, 272.46
440.89, 7.15, 274.60
441.27, 8.97, 262.63
441.27, 9.08, 262.63
441.27, 9.18, 262.64
441.27, 9.29, 262.64
441.27, 9.39, 262.65
441.27, 9.50, 262.65
441.27, 9.60, 262.66
441.27, 9.70, 262.66
441.27, 9.81, 262.67
441.27, 9.91, 262.67
441.27, 10.02, 262.67
441.27, 10.12, 262.68
441.39, 7.60, 261.53
441.38, 7.59, 261.85
441.38, 7.57, 262.21
441.37, 7.56, 262.61
441.36, 7.53, 263.05
441.35, 7.51, 263.54
441.34, 7.49, 264.09
441.33, 7.46, 264.69
441.32, 7.44, 265.37
441.37, 8.17, 262.86
441.37, 8.28, 262.86
³441.37, 8.39, 262.89
441.37, 8.49, 262.92
441.37, 8.59, 263.01
441.20, 7.21, 272.44
441.17, 7.15, 274.58
441.38, 8.98, 262.57
441.38, 9.08, 262.57
441.38, 9.19, 262.57
441.38, 9.29, 262.58
441.38, 9.40, 262.58
441.38, 9.50, 262.59
441.38, 9.60, 262.59
441.38, 9.71, 262.60
441.38, 9.81, 262.60
441.38, 9.91, 262.61
441.38, 10.02, 262.61
441.38, 10.12, 262.61
441.48, 7.60, 261.53
441.48, 7.59, 261.85
441.47, 7.57, 262.22
441.47, 7.55, 262.61
441.47, 7.53, 263.05
441.47, 7.51, 263.54
441.47, 7.49, 264.09
441.47, 7.46, 264.69
441.46, 7.44, 265.37
441.48, 8.18, 262.79
441.48, 8.29, 262.80
441.48, 8.40, 262.83
441.48, 8.50, 262.86
441.48, 8.61, 262.89
441.48, 8.70, 263.00
441.48, 8.73, 263.58
441.48, 8.99, 262.50
441.48, 9.09, 262.51
441.48, 9.19, 262.51
441.48, 9.30, 262.52
441.48, 9.40, 262.52
441.48, 9.50, 262.53
441.48, 9.60, 262.53
441.48, 9.71, 262.53
441.48, 9.81, 262.54
441.48, 9.91, 262.54
441.48, 10.02, 262.55
441.48, 10.12, 262.55
441.56, 7.60, 261.53
441.57, 7.59, 261.85
441.57, 7.57, 262.22
441.58, 7.55, 262.61
441.58, 7.53, 263.05
441.59, 7.51, 263.54
³441.59, 7.49, 264.09
441.60, 7.46, 264.69
441.61, 7.44, 265.37
441.58, 8.20, 262.73
441.58, 8.30, 262.74
441.58, 8.41, 262.77
441.58, 8.51, 262.80
441.58, 8.62, 262.83
441.58, 8.72, 262.87
441.59, 8.78, 263.21
441.58, 9.00, 262.44
441.58, 9.10, 262.45
441.58, 9.20, 262.45
441.58, 9.30, 262.45
441.58, 9.40, 262.46
441.58, 9.51, 262.46
441.58, 9.61, 262.47
441.58, 9.71, 262.47
441.59, 9.81, 262.48
441.59, 9.91, 262.48
441.59, 10.01, 262.49
441.59, 10.12, 262.49
441.65, 7.60, 261.53
441.66, 7.59, 261.85
441.67, 7.57, 262.22
441.68, 7.55, 262.61
441.69, 7.53, 263.05
441.70, 7.51, 263.54
441.72, 7.49, 264.09
441.73, 7.46, 264.68
441.75, 7.44, 265.36
441.68, 8.21, 262.67
441.69, 8.32, 262.68
441.69, 8.42, 262.71
441.69, 8.52, 262.74
441.69, 8.63, 262.77
441.69, 8.73, 262.79
441.69, 8.83, 262.86
441.68, 9.00, 262.38
441.68, 9.10, 262.39
441.68, 9.21, 262.39
441.68, 9.31, 262.39
441.68, 9.41, 262.40
441.68, 9.51, 262.40
441.68, 9.61, 262.41
441.68, 9.71, 262.41
441.69, 9.81, 262.42
441.69, 9.91, 262.42
441.69, 10.01, 262.42
441.69, 10.11, 262.43
441.74, 7.60, 261.53
±441.75, 7.59, 261.85
441.77, 7.57, 262.21
441.78, 7.55, 262.61
441.80, 7.53, 263.05
441.82, 7.51, 263.53
441.84, 7.49, 264.08
441.86, 7.46, 264.68
441.79, 8.11, 262.60
441.79, 8.22, 262.61
441.79, 8.33, 262.62
441.79, 8.43, 262.65
441.79, 8.53, 262.68
441.79, 8.64, 262.71
441.79, 8.74, 262.73
441.80, 8.84, 262.76
441.78, 9.01, 262.32
441.78, 9.11, 262.33
441.78, 9.21, 262.33
441.78, 9.31, 262.33
441.78, 9.41, 262.34
441.78, 9.51, 262.34
441.78, 9.61, 262.35
441.78, 9.71, 262.35
441.78, 9.81, 262.36
441.78, 9.91, 262.36
441.79, 10.01, 262.36
441.79, 10.11, 262.37
441.83, 7.60, 261.52
441.85, 7.59, 261.85
441.87, 7.57, 262.21
441.89, 7.55, 262.60
441.91, 7.53, 263.04
441.94, 7.51, 263.53
441.97, 7.49, 264.07
442.00, 7.46, 264.67
441.89, 8.13, 262.54
441.89, 8.24, 262.54
441.89, 8.34, 262.56
441.89, 8.44, 262.59
441.89, 8.54, 262.62
441.90, 8.65, 262.65
441.90, 8.75, 262.68
441.90, 8.85, 262.70
441.88, 9.02, 262.26
441.88, 9.12, 262.27
441.88, 9.22, 262.27
441.88, 9.31, 262.28
441.88, 9.41, 262.28
441.88, 9.51, 262.28
441.88, 9.61, 262.29
441.88, 9.71, 262.29
³441.88, 9.81, 262.30
441.88, 9.91, 262.30
441.88, 10.01, 262.31
441.88, 10.11, 262.31
441.92, 7.60, 261.52
441.94, 7.59, 261.84
441.97, 7.57, 262.20
441.99, 7.55, 262.59
442.02, 7.53, 263.04
442.05, 7.51, 263.52
442.09, 7.49, 264.06
442.13, 7.46, 264.66
441.99, 8.14, 262.48
441.99, 8.25, 262.49
441.99, 8.35, 262.51
441.99, 8.45, 262.54
441.99, 8.55, 262.56
442.00, 8.65, 262.59
442.00, 8.76, 262.62
442.00, 8.86, 262.64
441.97, 9.02, 262.21
441.97, 9.12, 262.21
441.97, 9.22, 262.21
441.97, 9.32, 262.22
441.97, 9.42, 262.22
441.98, 9.52, 262.23
441.98, 9.62, 262.23
441.98, 9.71, 262.23
441.98, 9.81, 262.24
441.98, 9.91, 262.24
441.98, 10.01, 262.25
441.98, 10.11, 262.25
442.01, 7.60, 261.51
442.03, 7.59, 261.84
442.06, 7.57, 262.20
442.09, 7.55, 262.59
442.13, 7.53, 263.03
442.17, 7.51, 263.51
442.21, 7.49, 264.05
442.26, 7.47, 264.64
442.08, 8.15, 262.42
442.08, 8.26, 262.43
442.09, 8.36, 262.45
442.09, 8.46, 262.48
442.09, 8.56, 262.51
442.10, 8.66, 262.53
442.10, 8.76, 262.56
442.10, 8.87, 262.59
442.07, 9.03, 262.15
442.07, 9.13, 262.15
442.07, 9.22, 262.16
³442.07, 9.32, 262.16
442.07, 9.42, 262.17
442.07, 9.52, 262.17
442.07, 9.62, 262.17
442.07, 9.71, 262.18
442.07, 9.81, 262.18
442.07, 9.91, 262.19
442.07, 10.01, 262.19
442.07, 10.11, 262.19
442.10, 7.60, 261.50
442.13, 7.59, 261.83
442.16, 7.57, 262.19
442.20, 7.55, 262.58
442.24, 7.53, 263.02
442.29, 7.51, 263.50
442.34, 7.49, 264.04
442.39, 7.47, 264.63
442.18, 8.16, 262.36
442.18, 8.27, 262.37
442.18, 8.37, 262.40
442.19, 8.47, 262.42
442.19, 8.57, 262.45
442.19, 8.67, 262.48
442.20, 8.77, 262.50
442.16, 8.94, 262.09
442.16, 9.03, 262.09
442.16, 9.13, 262.10
442.16, 9.23, 262.10
442.16, 9.33, 262.11
442.16, 9.42, 262.11
442.16, 9.52, 262.11
442.16, 9.62, 262.12
442.16, 9.72, 262.12
442.16, 9.81, 262.13
442.17, 9.91, 262.13
442.17, 10.01, 262.13
442.17, 10.11, 262.14
442.18, 7.60, 261.49
442.22, 7.59, 261.82
442.26, 7.57, 262.18
442.30, 7.55, 262.56
442.35, 7.53, 263.00
442.40, 7.51, 263.48
442.46, 7.49, 264.02
442.52, 7.47, 264.61
442.28, 8.18, 262.31
442.28, 8.28, 262.32
442.28, 8.38, 262.34
442.28, 8.48, 262.37
442.29, 8.58, 262.39
442.29, 8.68, 262.42
³442.29, 8.78, 262.45
442.25, 8.94, 262.03
442.25, 9.04, 262.04
442.25, 9.14, 262.04
442.25, 9.23, 262.05
442.25, 9.33, 262.05
442.25, 9.43, 262.05
442.25, 9.52, 262.06
442.25, 9.62, 262.06
442.26, 9.72, 262.07
442.26, 9.81, 262.07
442.26, 9.91, 262.07
442.26, 10.01, 262.08
442.26, 10.10, 262.08
442.27, 7.60, 261.48
442.31, 7.59, 261.81
442.36, 7.57, 262.16
442.40, 7.55, 262.55
442.46, 7.53, 262.99
442.52, 7.51, 263.47
442.58, 7.49, 264.00
442.66, 7.47, 264.59
442.37, 8.19, 262.25
442.37, 8.29, 262.26
442.37, 8.39, 262.29
442.38, 8.49, 262.31
442.38, 8.59, 262.34
442.39, 8.68, 262.36
442.39, 8.78, 262.39
442.34, 8.95, 261.98
442.34, 9.04, 261.98
442.34, 9.14, 261.99
442.34, 9.24, 261.99
442.34, 9.33, 262.00
442.34, 9.43, 262.00
442.34, 9.53, 262.00
442.35, 9.62, 262.01
442.35, 9.72, 262.01
442.35, 9.81, 262.01
442.35, 9.91, 262.02
442.35, 10.01, 262.02
442.35, 10.10, 262.03
442.36, 7.60, 261.47
442.40, 7.59, 261.79
442.45, 7.57, 262.15
442.51, 7.55, 262.54
442.57, 7.53, 262.97
442.63, 7.51, 263.45
442.71, 7.49, 263.98
442.46, 8.09, 262.19
442.46, 8.20, 262.19
³442.46, 8.30, 262.21
442.47, 8.40, 262.23
442.47, 8.49, 262.26
442.48, 8.59, 262.28
442.48, 8.69, 262.31
442.48, 8.79, 262.33
442.43, 8.95, 261.93
442.43, 9.05, 261.93
442.43, 9.15, 261.93
442.43, 9.24, 261.94
442.43, 9.34, 261.94
442.43, 9.43, 261.95
442.43, 9.53, 261.95
442.43, 9.62, 261.95
442.44, 9.72, 261.96
442.44, 9.81, 261.96
442.44, 9.91, 261.96
442.44, 10.01, 261.97
442.44, 10.10, 261.97
442.45, 7.60, 261.46
442.50, 7.59, 261.78
442.55, 7.57, 262.13
442.61, 7.55, 262.52
442.68, 7.53, 262.96
442.75, 7.51, 263.43
442.83, 7.49, 263.96
442.55, 8.10, 262.14
442.55, 8.21, 262.14
442.56, 8.31, 262.15
442.56, 8.40, 262.18
442.57, 8.50, 262.20
442.57, 8.60, 262.23
442.57, 8.70, 262.26
442.58, 8.80, 262.28
442.52, 8.96, 261.87
442.52, 9.05, 261.88
442.52, 9.15, 261.88
442.52, 9.25, 261.88
442.52, 9.34, 261.89
442.52, 9.44, 261.89
442.52, 9.53, 261.90
442.52, 9.62, 261.90
442.52, 9.72, 261.90
442.53, 9.81, 261.91
442.53, 9.91, 261.91
442.53, 10.00, 261.91
442.53, 10.10, 261.92
442.54, 7.60, 261.44
442.59, 7.59, 261.76
442.65, 7.57, 262.12
442.71, 7.55, 262.50
²442.78, 7.53, 262.94
442.86, 7.51, 263.41
442.95, 7.49, 263.94
442.64, 8.11, 262.08
442.64, 8.22, 262.09
442.65, 8.31, 262.10
442.65, 8.41, 262.13
442.66, 8.51, 262.15
442.66, 8.61, 262.18
442.67, 8.70, 262.20
442.67, 8.80, 262.23
442.60, 8.96, 261.82
442.60, 9.06, 261.82
442.61, 9.15, 261.83
442.61, 9.25, 261.83
442.61, 9.34, 261.84
442.61, 9.44, 261.84
442.61, 9.53, 261.84
442.61, 9.63, 261.85
442.61, 9.72, 261.85
442.61, 9.81, 261.85
442.61, 9.91, 261.86
442.61, 10.00, 261.86
442.62, 10.10, 261.87
442.62, 7.60, 261.43
442.68, 7.59, 261.75
442.74, 7.57, 262.10
442.81, 7.55, 262.48
442.89, 7.53, 262.92
442.98, 7.51, 263.38
443.07, 7.49, 263.92
442.73, 8.12, 262.03
442.73, 8.22, 262.03
442.74, 8.32, 262.05
442.74, 8.42, 262.07
442.75, 8.52, 262.10
442.75, 8.61, 262.12
442.76, 8.71, 262.15
442.76, 8.81, 262.17
442.69, 8.97, 261.77
442.69, 9.06, 261.77
442.69, 9.16, 261.78
442.69, 9.25, 261.78
442.69, 9.35, 261.78
442.69, 9.44, 261.79
442.70, 9.53, 261.79
442.70, 9.63, 261.79
442.70, 9.72, 261.80
442.70, 9.82, 261.80
442.70, 9.91, 261.81
442.70, 10.00, 261.81
²442.70, 10.10, 261.81
442.71, 7.60, 261.41
442.77, 7.59, 261.73
442.84, 7.57, 262.08
442.91, 7.55, 262.46
443.00, 7.53, 262.89
443.09, 7.51, 263.36
443.19, 7.49, 263.89
442.82, 8.13, 261.97
442.82, 8.23, 261.98
442.83, 8.33, 262.00
442.83, 8.43, 262.02
442.84, 8.52, 262.05
442.84, 8.62, 262.07
442.85, 8.72, 262.10
442.86, 8.81, 262.14
442.77, 8.97, 261.72
442.78, 9.07, 261.72
442.78, 9.16, 261.72
442.78, 9.26, 261.73
442.78, 9.35, 261.73
442.78, 9.44, 261.74
442.78, 9.54, 261.74
442.78, 9.63, 261.74
442.78, 9.72, 261.75
442.78, 9.82, 261.75
442.79, 9.91, 261.75
442.79, 10.00, 261.76
442.79, 10.10, 261.76
442.80, 7.60, 261.39
442.86, 7.59, 261.71
442.94, 7.57, 262.06
443.02, 7.55, 262.44
443.11, 7.53, 262.87
443.20, 7.51, 263.33
443.31, 7.49, 263.86
442.91, 8.14, 261.92
442.91, 8.24, 261.92
442.92, 8.34, 261.95
442.92, 8.43, 261.97
442.93, 8.53, 262.00
442.93, 8.63, 262.02
442.94, 8.72, 262.07
442.96, 8.80, 262.15
442.86, 8.98, 261.67
442.86, 9.07, 261.67
442.86, 9.16, 261.67
442.86, 9.26, 261.68
442.86, 9.35, 261.68
442.86, 9.44, 261.68
442.87, 9.54, 261.69
³442.87, 9.63, 261.69
442.87, 9.72, 261.69
442.87, 9.82, 261.70
442.87, 9.91, 261.70
442.87, 10.00, 261.71
442.87, 10.09, 261.71
442.88, 7.60, 261.37
442.95, 7.59, 261.69
443.03, 7.57, 262.04
443.12, 7.55, 262.41
443.21, 7.53, 262.84
443.32, 7.51, 263.30
443.43, 7.49, 263.83
443.00, 8.15, 261.87
443.00, 8.25, 261.87
443.00, 8.34, 261.90
443.01, 8.44, 261.92
443.01, 8.53, 261.94
443.03, 8.63, 262.00
443.04, 8.72, 262.06
443.07, 8.79, 262.20
442.94, 8.98, 261.62
442.94, 9.08, 261.62
442.95, 9.17, 261.62
442.95, 9.26, 261.63
442.95, 9.35, 261.63
442.95, 9.45, 261.63
442.95, 9.54, 261.64
442.95, 9.63, 261.64
442.95, 9.72, 261.64
442.95, 9.82, 261.65
442.95, 9.91, 261.65
442.96, 10.00, 261.65
442.96, 10.09, 261.66
442.97, 7.60, 261.35
443.04, 7.59, 261.66
443.13, 7.57, 262.01
443.22, 7.55, 262.38
443.32, 7.53, 262.81
443.43, 7.52, 263.27
443.55, 7.49, 263.80
443.08, 8.16, 261.82
443.08, 8.25, 261.82
443.09, 8.35, 261.85
443.10, 8.45, 261.87
443.11, 8.53, 261.92
443.12, 8.62, 261.98
443.15, 8.71, 262.09
443.19, 8.78, 262.25
443.03, 8.99, 261.57
443.03, 9.08, 261.57
³443.03, 9.17, 261.57
443.03, 9.26, 261.58
443.03, 9.36, 261.58
443.03, 9.45, 261.58
443.03, 9.54, 261.59
443.03, 9.63, 261.59
443.04, 9.72, 261.59
443.04, 9.82, 261.60
443.04, 9.91, 261.60
443.04, 10.00, 261.60
443.04, 10.09, 261.61
443.05, 7.60, 261.33
443.13, 7.59, 261.64
443.22, 7.57, 261.99
443.32, 7.56, 262.36
443.42, 7.53, 262.78
443.54, 7.52, 263.24
443.67, 7.49, 263.76
443.17, 8.16, 261.77
443.17, 8.26, 261.77
443.18, 8.36, 261.80
443.19, 8.44, 261.85
443.21, 8.53, 261.91
443.22, 8.62, 261.98
443.26, 8.69, 262.13
443.30, 8.77, 262.29
443.11, 8.99, 261.52
443.11, 9.08, 261.52
443.11, 9.17, 261.52
443.11, 9.27, 261.53
443.11, 9.36, 261.53
443.11, 9.45, 261.53
443.11, 9.54, 261.54
443.12, 9.63, 261.54
443.12, 9.72, 261.54
443.12, 9.82, 261.55
443.12, 9.91, 261.55
443.12, 10.00, 261.55
443.12, 10.09, 261.56
443.14, 7.60, 261.30
443.22, 7.59, 261.61
443.32, 7.57, 261.96
443.41, 7.56, 262.33
443.53, 7.54, 262.75
443.65, 7.52, 263.21
443.25, 8.07, 261.71
443.25, 8.17, 261.71
443.26, 8.27, 261.72
443.27, 8.35, 261.78
443.29, 8.44, 261.86
443.32, 8.52, 261.95
³443.34, 8.60, 262.05
443.38, 8.68, 262.18
443.42, 8.76, 262.34
443.19, 8.99, 261.47
443.19, 9.09, 261.47
443.19, 9.18, 261.47
443.19, 9.27, 261.48
443.19, 9.36, 261.48
443.20, 9.45, 261.48
443.20, 9.54, 261.49
443.20, 9.63, 261.49
443.20, 9.73, 261.49
443.20, 9.82, 261.50
443.20, 9.91, 261.50
443.20, 10.00, 261.50
443.20, 10.09, 261.51
443.22, 7.60, 261.28
443.31, 7.59, 261.58
443.41, 7.57, 261.93
443.51, 7.56, 262.30
443.63, 7.54, 262.72
443.76, 7.52, 263.17
443.91, 7.49, 263.69
443.40, 8.12, 261.88
443.40, 8.22, 261.87
443.40, 8.32, 261.90
443.43, 8.40, 261.99
443.46, 8.48, 262.09
443.49, 8.57, 262.19
443.52, 8.65, 262.29
443.53, 8.75, 262.33
443.27, 9.00, 261.42
443.27, 9.09, 261.42
443.27, 9.18, 261.43
443.27, 9.27, 261.43
443.27, 9.36, 261.43
443.28, 9.45, 261.44
443.28, 9.54, 261.44
443.28, 9.63, 261.44
443.28, 9.73, 261.45
443.28, 9.82, 261.45
443.28, 9.91, 261.45
443.28, 10.00, 261.46
443.29, 10.09, 261.46
443.31, 7.60, 261.25
443.40, 7.59, 261.56
443.50, 7.57, 261.90
443.61, 7.56, 262.27
443.74, 7.54, 262.68
443.87, 7.52, 263.13
444.02, 7.50, 263.65
³444.19, 7.48, 264.20
443.60, 8.13, 262.20
443.59, 8.24, 262.19
443.60, 8.34, 262.21
443.61, 8.44, 262.24
443.62, 8.55, 262.27
443.62, 8.65, 262.27
443.62, 8.76, 262.28
443.41, 8.97, 261.58
443.41, 9.06, 261.57
443.41, 9.16, 261.57
443.41, 9.25, 261.56
443.41, 9.35, 261.55
443.40, 9.44, 261.55
443.40, 9.54, 261.54
443.40, 9.63, 261.53
443.40, 9.72, 261.53
443.40, 9.81, 261.52
443.40, 9.91, 261.52
443.39, 10.00, 261.51
443.39, 10.09, 261.50
443.39, 7.60, 261.22
443.49, 7.59, 261.53
443.60, 7.57, 261.87
443.71, 7.56, 262.23
443.84, 7.54, 262.64
443.98, 7.52, 263.10
444.14, 7.50, 263.60
444.31, 7.48, 264.15
443.82, 8.03, 262.58
443.82, 8.14, 262.56
443.81, 8.26, 262.55
443.77, 8.40, 262.42
443.77, 8.51, 262.41
443.77, 8.62, 262.40
443.77, 8.73, 262.40
443.62, 8.91, 261.92
443.61, 9.01, 261.91
443.61, 9.11, 261.90
443.61, 9.21, 261.89
443.61, 9.31, 261.89
443.61, 9.41, 261.88
443.60, 9.51, 261.87
443.60, 9.61, 261.87
443.60, 9.71, 261.86
443.60, 9.81, 261.85
443.60, 9.90, 261.85
443.59, 10.00, 261.84
443.59, 10.10, 261.83
443.48, 7.60, 261.19
443.58, 7.59, 261.49
±443.69, 7.57, 261.83
443.81, 7.56, 262.20
443.94, 7.54, 262.61
444.09, 7.52, 263.05
444.26, 7.50, 263.56
444.44, 7.48, 264.11
444.64, 7.46, 264.73
444.07, 8.03, 262.98
444.06, 8.16, 262.97
444.06, 8.28, 262.95
444.02, 8.42, 262.82
444.01, 8.54, 262.81
444.01, 8.66, 262.80
444.01, 8.77, 262.79
443.84, 8.96, 262.29
443.84, 9.06, 262.28
443.84, 9.17, 262.27
443.83, 9.28, 262.26
443.83, 9.38, 262.25
443.83, 9.49, 262.25
443.83, 9.59, 262.24
443.83, 9.70, 262.23
443.82, 9.80, 262.22
443.82, 9.90, 262.21
443.82, 10.01, 262.21
443.82, 10.11, 262.20
443.56, 7.60, 261.16
443.66, 7.59, 261.46
443.78, 7.57, 261.80
443.90, 7.56, 262.16
444.04, 7.54, 262.57
444.20, 7.52, 263.01
444.37, 7.50, 263.51
444.56, 7.48, 264.06
444.77, 7.46, 264.68
445.02, 7.44, 265.39
444.34, 8.04, 263.43
444.34, 8.17, 263.42
444.34, 8.30, 263.41
444.29, 8.45, 263.27
444.29, 8.57, 263.26
444.28, 8.70, 263.25
444.10, 8.89, 262.71
444.10, 9.01, 262.70
444.09, 9.12, 262.69
444.09, 9.23, 262.69
444.09, 9.35, 262.68
444.09, 9.46, 262.67
444.08, 9.57, 262.66
444.08, 9.68, 262.65
444.08, 9.79, 262.64
³444.07, 9.90, 262.63
444.07, 10.01, 262.62
444.07, 10.12, 262.61
443.64, 7.60, 261.13
443.75, 7.59, 261.43
443.87, 7.58, 261.76
444.00, 7.56, 262.12
444.14, 7.54, 262.52
444.30, 7.52, 262.97
444.48, 7.50, 263.47
444.68, 7.48, 264.01
444.90, 7.46, 264.62
445.15, 7.44, 265.32
445.44, 7.41, 266.12
444.66, 8.05, 263.95
444.65, 8.19, 263.93
444.61, 8.35, 263.80
444.60, 8.48, 263.78
444.60, 8.61, 263.77
444.59, 8.74, 263.76
444.39, 8.94, 263.19
444.39, 9.06, 263.18
444.38, 9.18, 263.17
444.38, 9.30, 263.16
444.38, 9.42, 263.15
444.37, 9.54, 263.14
444.37, 9.66, 263.13
444.37, 9.78, 263.12
444.36, 9.90, 263.11
444.36, 10.02, 263.10
444.36, 10.13, 263.09
443.72, 7.60, 261.10
443.83, 7.59, 261.39
443.96, 7.58, 261.73
444.09, 7.56, 262.08
444.24, 7.54, 262.48
444.41, 7.52, 262.92
444.60, 7.50, 263.42
444.80, 7.48, 263.96
445.03, 7.46, 264.57
445.29, 7.44, 265.26
445.59, 7.41, 266.06
445.93, 7.39, 266.95
445.02, 8.06, 264.54
445.02, 8.20, 264.52
444.96, 8.37, 264.39
444.96, 8.51, 264.37
444.96, 8.65, 264.36
444.73, 8.87, 263.75
444.72, 9.00, 263.73
444.72, 9.13, 263.72
³444.71, 9.26, 263.71
444.71, 9.39, 263.70
444.71, 9.51, 263.69
444.70, 9.64, 263.67
444.70, 9.77, 263.66
444.69, 9.89, 263.65
444.69, 10.02, 263.64
444.69, 10.15, 263.63
443.80, 7.61, 261.06
443.92, 7.59, 261.36
444.05, 7.58, 261.69
444.19, 7.56, 262.04
444.34, 7.55, 262.44
444.52, 7.53, 262.88
444.71, 7.51, 263.36
444.92, 7.49, 263.90
445.16, 7.47, 264.51
445.43, 7.44, 265.20
445.74, 7.42, 265.99
446.09, 7.39, 266.87
445.30, 7.98, 264.86
445.30, 8.13, 264.87
445.30, 8.28, 264.87
445.30, 8.42, 264.88
445.31, 8.57, 264.88
445.12, 8.78, 264.39
445.11, 8.92, 264.38
445.11, 9.06, 264.37
445.10, 9.20, 264.35
445.10, 9.34, 264.34
445.09, 9.48, 264.32
445.09, 9.62, 264.31
445.08, 9.75, 264.30
445.08, 9.89, 264.28
445.07, 10.03, 264.27
445.07, 10.16, 264.26
443.89, 7.61, 261.03
444.01, 7.59, 261.32
444.14, 7.58, 261.65
444.28, 7.56, 262.00
444.44, 7.55, 262.39
444.62, 7.53, 262.83
444.82, 7.51, 263.31
445.04, 7.49, 263.85
445.28, 7.47, 264.45
445.56, 7.44, 265.13
445.88, 7.42, 265.91
446.24, 7.39, 266.80
446.97, 7.21, 268.58
445.71, 8.00, 265.49
445.70, 8.16, 265.47
³445.70, 8.33, 265.45
445.69, 8.49, 265.43
445.79, 8.61, 265.68
445.57, 8.83, 265.14
445.57, 8.98, 265.12
445.56, 9.14, 265.11
445.55, 9.29, 265.09
445.55, 9.44, 265.08
445.54, 9.59, 265.06
445.53, 9.74, 265.04
445.53, 9.89, 265.03
445.52, 10.04, 265.01
445.52, 10.18, 265.00
443.97, 7.61, 260.99
444.09, 7.59, 261.28
444.23, 7.58, 261.60
444.38, 7.56, 261.96
444.54, 7.55, 262.34
444.73, 7.53, 262.78
444.93, 7.51, 263.25
445.16, 7.49, 263.79
445.41, 7.47, 264.38
445.70, 7.45, 265.06
446.03, 7.42, 265.84
446.71, 7.24, 267.44
447.15, 7.22, 268.49
447.67, 7.19, 269.70
446.54, 7.88, 267.04
446.51, 8.08, 266.98
446.50, 8.26, 266.95
446.49, 8.45, 266.93
446.12, 8.72, 266.05
446.11, 8.89, 266.03
446.11, 9.06, 266.01
446.10, 9.23, 265.99
446.09, 9.39, 265.97
446.08, 9.56, 265.95
446.07, 9.72, 265.93
446.07, 9.88, 265.91
446.06, 10.05, 265.89
446.05, 10.21, 265.88
444.05, 7.61, 260.95
444.17, 7.60, 261.24
444.31, 7.58, 261.56
444.47, 7.57, 261.91
444.64, 7.55, 262.29
444.83, 7.53, 262.73
445.04, 7.51, 263.20
445.27, 7.49, 263.73
445.53, 7.47, 264.32
445.83, 7.45, 264.99
¯446.17, 7.42, 265.76
446.87, 7.24, 267.35
447.33, 7.22, 268.39
447.87, 7.20, 269.61
448.49, 7.18, 271.01
449.24, 7.15, 272.72
449.49, 7.35, 273.28
450.05, 7.47, 274.54
444.12, 7.61, 260.91
444.26, 7.60, 261.20
444.40, 7.58, 261.52
444.56, 7.57, 261.86
444.73, 7.55, 262.24
444.93, 7.53, 262.67
445.15, 7.51, 263.14
445.39, 7.49, 263.67
445.65, 7.47, 264.25
445.96, 7.45, 264.92
446.31, 7.43, 265.68
447.03, 7.24, 267.26
447.51, 7.22, 268.30
448.06, 7.20, 269.51
448.69, 7.18, 270.87
449.30, 7.22, 272.19
449.54, 7.41, 272.72
449.79, 7.61, 273.27
450.58, 7.70, 274.98
444.20, 7.61, 260.87
444.34, 7.60, 261.16
444.49, 7.58, 261.47
444.65, 7.57, 261.82
444.83, 7.55, 262.19
445.03, 7.53, 262.62
445.25, 7.52, 263.08
445.50, 7.49, 263.61
445.78, 7.48, 264.18
446.09, 7.45, 264.85
446.76, 7.27, 266.26
447.20, 7.24, 267.17
447.69, 7.22, 268.20
448.26, 7.20, 269.40
448.90, 7.18, 270.76
449.35, 7.28, 271.69
449.58, 7.47, 272.19
449.83, 7.67, 272.71
450.10, 7.88, 273.27
444.28, 7.61, 260.83
444.42, 7.60, 261.11
444.57, 7.59, 261.42
444.74, 7.57, 261.77
444.93, 7.55, 262.14
¯445.13, 7.54, 262.56
445.36, 7.52, 263.02
445.62, 7.50, 263.54
445.90, 7.48, 264.11
446.22, 7.46, 264.77
446.91, 7.27, 266.17
447.35, 7.25, 267.07
447.86, 7.22, 268.10
448.45, 7.20, 269.29
449.12, 7.19, 270.64
449.53, 7.29, 271.49
449.69, 7.51, 271.82
449.87, 7.72, 272.18
450.13, 7.93, 272.70
450.41, 8.15, 273.26
444.36, 7.61, 260.79
444.50, 7.60, 261.07
444.66, 7.59, 261.37
444.83, 7.57, 261.72
445.02, 7.56, 262.09
445.23, 7.54, 262.50
445.47, 7.52, 262.96
445.73, 7.50, 263.48
446.02, 7.48, 264.04
446.35, 7.46, 264.69
447.06, 7.28, 266.08
447.51, 7.25, 266.96
448.03, 7.23, 267.98
448.64, 7.20, 269.18
449.27, 7.21, 270.42
449.64, 7.33, 271.15
449.91, 7.51, 271.67
450.08, 7.73, 272.00
450.25, 7.96, 272.34
450.44, 8.19, 272.70
450.72, 8.42, 273.25
444.43, 7.61, 260.75
444.58, 7.60, 261.02
444.74, 7.59, 261.33
444.92, 7.57, 261.66
445.11, 7.56, 262.03
445.33, 7.54, 262.44
445.57, 7.52, 262.90
445.84, 7.50, 263.41
446.14, 7.48, 263.97
446.79, 7.30, 265.21
447.20, 7.28, 265.99
447.66, 7.26, 266.86
448.19, 7.23, 267.87
448.82, 7.21, 269.06
449.37, 7.24, 270.09
¯449.74, 7.37, 270.79
450.12, 7.51, 271.52
450.30, 7.73, 271.84
450.48, 7.96, 272.18
450.66, 8.20, 272.54
450.86, 8.44, 272.90
451.06, 8.69, 273.28
444.51, 7.61, 260.70
444.66, 7.60, 260.98
444.82, 7.59, 261.28
445.01, 7.57, 261.61
445.21, 7.56, 261.97
445.43, 7.54, 262.38
445.67, 7.52, 262.83
445.95, 7.50, 263.34
446.25, 7.48, 263.90
446.93, 7.31, 265.13
447.35, 7.28, 265.89
447.81, 7.26, 266.75
448.36, 7.24, 267.75
449.00, 7.21, 268.93
449.46, 7.28, 269.78
449.83, 7.41, 270.45
450.24, 7.54, 271.19
450.51, 7.74, 271.69
450.69, 7.96, 272.03
450.89, 8.20, 272.37
451.09, 8.44, 272.74
451.27, 8.70, 273.08
451.45, 8.97, 273.40
444.58, 7.62, 260.65
444.74, 7.60, 260.93
444.91, 7.59, 261.22
445.09, 7.58, 261.56
445.30, 7.56, 261.92
445.52, 7.54, 262.32
445.78, 7.53, 262.77
446.06, 7.51, 263.27
446.68, 7.33, 264.38
447.06, 7.31, 265.04
447.49, 7.28, 265.80
447.96, 7.27, 266.64
448.52, 7.24, 267.62
449.17, 7.22, 268.79
449.65, 7.29, 269.62
449.95, 7.43, 270.17
450.33, 7.58, 270.83
450.73, 7.74, 271.54
450.91, 7.97, 271.87
451.11, 8.20, 272.21
451.29, 8.45, 272.53
¯451.46, 8.71, 272.83
451.64, 8.97, 273.15
451.92, 9.24, 273.65
444.66, 7.62, 260.61
444.82, 7.60, 260.88
444.99, 7.59, 261.17
445.18, 7.58, 261.50
445.39, 7.56, 261.86
445.62, 7.55, 262.25
445.88, 7.53, 262.70
446.17, 7.51, 263.19
446.81, 7.33, 264.30
447.20, 7.31, 264.96
447.63, 7.29, 265.70
448.11, 7.27, 266.53
448.68, 7.25, 267.50
449.30, 7.24, 268.57
449.80, 7.30, 269.43
450.14, 7.44, 270.01
450.47, 7.60, 270.58
450.85, 7.76, 271.23
451.13, 7.97, 271.71
451.30, 8.21, 272.00
451.47, 8.46, 272.29
451.65, 8.71, 272.59
451.83, 8.98, 272.90
452.02, 9.25, 273.22
452.53, 9.52, 274.10
444.73, 7.62, 260.56
444.89, 7.61, 260.83
445.07, 7.59, 261.12
445.26, 7.58, 261.44
445.48, 7.56, 261.80
445.71, 7.55, 262.19
445.98, 7.53, 262.63
446.27, 7.51, 263.12
446.93, 7.33, 264.22
447.33, 7.31, 264.87
447.77, 7.29, 265.61
448.26, 7.27, 266.42
448.83, 7.25, 267.37
449.41, 7.26, 268.33
449.91, 7.33, 269.16
450.32, 7.45, 269.85
450.66, 7.60, 270.41
451.03, 7.77, 271.03
451.29, 7.98, 271.45
451.48, 8.22, 271.77
451.66, 8.46, 272.06
451.83, 8.72, 272.35
452.02, 8.98, 272.66
¯452.21, 9.26, 272.97
452.40, 9.54, 273.30
444.80, 7.62, 260.51
444.97, 7.61, 260.77
445.15, 7.60, 261.06
445.35, 7.58, 261.38
445.57, 7.57, 261.73
445.81, 7.55, 262.12
446.08, 7.53, 262.56
446.70, 7.35, 263.56
447.06, 7.33, 264.14
447.45, 7.31, 264.78
447.91, 7.29, 265.50
448.41, 7.28, 266.31
448.99, 7.26, 267.25
449.51, 7.29, 268.09
450.01, 7.36, 268.90
450.50, 7.45, 269.69
450.85, 7.61, 270.25
451.20, 7.78, 270.80
451.38, 8.01, 271.09
451.56, 8.24, 271.39
451.76, 8.48, 271.70
451.96, 8.73, 272.03
452.18, 8.99, 272.38
452.39, 9.26, 272.73
452.59, 9.54, 273.04
452.80, 9.83, 273.38
444.87, 7.62, 260.46
445.04, 7.61, 260.72
445.23, 7.60, 261.01
445.43, 7.58, 261.32
445.65, 7.57, 261.67
445.90, 7.55, 262.05
446.17, 7.53, 262.48
446.81, 7.35, 263.48
447.18, 7.33, 264.05
447.58, 7.31, 264.68
448.04, 7.29, 265.40
448.56, 7.28, 266.21
449.15, 7.26, 267.13
449.63, 7.31, 267.88
450.12, 7.38, 268.64
450.68, 7.46, 269.52
451.04, 7.61, 270.08
451.28, 7.81, 270.46
451.46, 8.03, 270.74
451.65, 8.26, 271.03
451.84, 8.50, 271.32
452.04, 8.75, 271.64
452.25, 9.00, 271.97
¯452.47, 9.27, 272.31
452.70, 9.54, 272.67
452.94, 9.83, 273.04
444.94, 7.62, 260.40
445.12, 7.61, 260.67
445.31, 7.60, 260.95
445.51, 7.59, 261.26
445.74, 7.57, 261.61
445.99, 7.55, 261.99
446.27, 7.54, 262.41
446.92, 7.36, 263.40
447.30, 7.33, 263.97
447.71, 7.32, 264.59
448.17, 7.30, 265.30
448.70, 7.28, 266.10
449.28, 7.27, 266.98
449.77, 7.32, 267.72
450.24, 7.40, 268.43
450.78, 7.48, 269.24
451.20, 7.62, 269.87
451.37, 7.84, 270.13
451.54, 8.06, 270.40
451.73, 8.28, 270.67
451.92, 8.52, 270.96
452.11, 8.76, 271.26
452.32, 9.02, 271.57
452.54, 9.28, 271.90
452.77, 9.55, 272.24
453.00, 9.83, 272.60
445.01, 7.63, 260.35
445.19, 7.61, 260.61
445.38, 7.60, 260.89
445.59, 7.59, 261.20
445.82, 7.57, 261.54
446.08, 7.56, 261.92
446.69, 7.38, 262.81
447.03, 7.36, 263.31
447.41, 7.34, 263.87
447.83, 7.32, 264.49
448.31, 7.30, 265.19
448.85, 7.28, 265.98
449.40, 7.29, 266.79
449.91, 7.33, 267.55
450.39, 7.41, 268.25
450.92, 7.50, 269.03
451.29, 7.65, 269.57
451.45, 7.86, 269.80
451.63, 8.08, 270.06
451.81, 8.31, 270.33
452.00, 8.54, 270.61
452.19, 8.78, 270.89
¯452.39, 9.03, 271.19
452.60, 9.29, 271.50
452.83, 9.55, 271.83
453.06, 9.83, 272.17
445.08, 7.63, 260.30
445.26, 7.61, 260.56
445.46, 7.60, 260.83
445.67, 7.59, 261.14
445.91, 7.57, 261.47
446.17, 7.56, 261.84
446.79, 7.38, 262.73
447.14, 7.36, 263.23
447.53, 7.34, 263.78
447.95, 7.32, 264.39
448.44, 7.30, 265.08
448.99, 7.28, 265.87
449.51, 7.30, 266.61
450.03, 7.35, 267.35
450.54, 7.42, 268.07
451.07, 7.51, 268.84
451.36, 7.68, 269.24
451.58, 7.88, 269.56
451.75, 8.10, 269.80
451.92, 8.32, 270.04
452.10, 8.55, 270.30
452.28, 8.79, 270.56
452.47, 9.04, 270.83
452.68, 9.29, 271.12
452.89, 9.56, 271.43
453.12, 9.83, 271.76
445.15, 7.63, 260.24
445.34, 7.62, 260.50
445.53, 7.60, 260.77
445.75, 7.59, 261.07
445.99, 7.58, 261.41
446.26, 7.56, 261.77
446.89, 7.39, 262.65
447.24, 7.36, 263.14
447.64, 7.34, 263.69
448.07, 7.33, 264.28
448.56, 7.31, 264.97
449.13, 7.29, 265.75
449.62, 7.32, 266.43
450.14, 7.36, 267.15
450.68, 7.43, 267.90
451.19, 7.52, 268.60
451.41, 7.71, 268.91
451.64, 7.90, 269.23
451.88, 8.11, 269.55
452.05, 8.33, 269.79
452.23, 8.56, 270.04
¯452.41, 8.80, 270.29
452.60, 9.05, 270.55
452.80, 9.30, 270.83
453.00, 9.56, 271.11
445.22, 7.63, 260.19
445.41, 7.62, 260.44
445.61, 7.61, 260.71
445.83, 7.59, 261.01
446.07, 7.58, 261.34
446.66, 7.41, 262.13
446.99, 7.39, 262.56
447.35, 7.37, 263.05
447.75, 7.35, 263.59
448.19, 7.33, 264.18
448.69, 7.31, 264.86
449.27, 7.29, 265.63
449.72, 7.33, 266.25
450.25, 7.38, 266.95
450.82, 7.44, 267.72
451.25, 7.56, 268.29
451.47, 7.74, 268.59
451.69, 7.93, 268.89
451.93, 8.13, 269.21
452.18, 8.34, 269.54
452.36, 8.57, 269.78
452.54, 8.81, 270.03
452.73, 9.05, 270.29
452.93, 9.30, 270.55
453.16, 9.56, 270.86
445.29, 7.63, 260.13
445.48, 7.62, 260.38
445.68, 7.61, 260.65
445.91, 7.59, 260.94
446.15, 7.58, 261.26
446.75, 7.41, 262.05
447.08, 7.39, 262.48
447.45, 7.37, 262.95
447.85, 7.35, 263.48
448.30, 7.33, 264.07
448.82, 7.31, 264.74
449.38, 7.30, 265.49
449.86, 7.34, 266.10
450.36, 7.39, 266.76
450.95, 7.45, 267.53
451.30, 7.59, 267.98
451.52, 7.77, 268.27
451.74, 7.96, 268.56
451.98, 8.16, 268.87
452.23, 8.36, 269.20
452.49, 8.58, 269.53
452.67, 8.81, 269.77
¯452.86, 9.06, 270.02
453.06, 9.31, 270.28
453.61, 9.56, 271.00
445.35, 7.63, 260.08
445.54, 7.62, 260.32
445.75, 7.61, 260.58
445.98, 7.60, 260.87
446.23, 7.58, 261.19
446.84, 7.41, 261.97
447.18, 7.39, 262.39
447.55, 7.37, 262.86
447.96, 7.35, 263.38
448.42, 7.33, 263.97
448.94, 7.32, 264.63
449.50, 7.31, 265.34
450.01, 7.34, 265.99
450.52, 7.39, 266.63
451.09, 7.46, 267.36
451.35, 7.61, 267.69
451.57, 7.80, 267.96
451.79, 7.98, 268.25
452.03, 8.18, 268.54
452.27, 8.38, 268.85
452.53, 8.60, 269.18
452.79, 8.82, 269.52
452.99, 9.06, 269.76
453.35, 9.30, 270.21
454.08, 9.55, 271.15
445.42, 7.63, 260.02
445.61, 7.62, 260.26
445.82, 7.61, 260.52
446.06, 7.60, 260.80
446.63, 7.43, 261.51
446.93, 7.41, 261.89
447.27, 7.39, 262.30
447.64, 7.38, 262.76
448.06, 7.36, 263.28
448.53, 7.34, 263.86
449.06, 7.32, 264.51
449.62, 7.32, 265.19
450.16, 7.34, 265.87
450.68, 7.39, 266.51
451.20, 7.47, 267.15
451.42, 7.64, 267.41
451.63, 7.82, 267.68
451.85, 8.01, 267.95
452.08, 8.20, 268.24
452.32, 8.40, 268.53
452.57, 8.62, 268.84
452.84, 8.84, 269.16
453.11, 9.07, 269.50
¯453.79, 9.29, 270.34
454.57, 9.54, 271.30
445.48, 7.64, 259.96
445.68, 7.63, 260.19
445.89, 7.61, 260.45
446.13, 7.60, 260.73
446.71, 7.43, 261.43
447.02, 7.42, 261.80
447.36, 7.40, 262.21
447.74, 7.38, 262.66
448.16, 7.36, 263.17
448.64, 7.34, 263.75
449.18, 7.32, 264.39
449.73, 7.32, 265.05
450.32, 7.34, 265.75
450.84, 7.39, 266.38
451.26, 7.50, 266.88
451.47, 7.67, 267.14
451.69, 7.84, 267.40
451.92, 8.03, 267.67
452.15, 8.22, 267.95
452.39, 8.42, 268.23
452.63, 8.63, 268.53
452.89, 8.85, 268.84
453.21, 9.08, 269.21
453.97, 9.29, 270.12
455.03, 9.53, 271.40
445.55, 7.64, 259.90
445.74, 7.63, 260.13
445.96, 7.62, 260.39
446.20, 7.60, 260.66
446.79, 7.43, 261.35
447.11, 7.42, 261.72
447.45, 7.40, 262.12
447.83, 7.38, 262.56
448.26, 7.37, 263.07
448.75, 7.34, 263.64
449.29, 7.33, 264.26
449.84, 7.33, 264.90
450.46, 7.34, 265.63
451.00, 7.39, 266.25
451.32, 7.52, 266.62
451.53, 7.69, 266.87
451.75, 7.87, 267.12
451.97, 8.05, 267.39
452.21, 8.24, 267.66
452.45, 8.44, 267.94
452.69, 8.64, 268.22
452.95, 8.86, 268.52
453.31, 9.08, 268.95
453.93, 9.30, 269.67
¯454.98, 9.54, 270.88
445.61, 7.64, 259.84
445.81, 7.63, 260.07
446.03, 7.62, 260.32
446.59, 7.45, 260.95
446.88, 7.44, 261.27
447.19, 7.42, 261.63
447.54, 7.40, 262.03
447.93, 7.39, 262.46
448.36, 7.37, 262.96
448.86, 7.35, 263.52
449.39, 7.34, 264.12
449.94, 7.34, 264.75
450.58, 7.34, 265.47
451.16, 7.39, 266.13
451.37, 7.55, 266.36
451.58, 7.71, 266.60
451.80, 7.89, 266.85
452.02, 8.07, 267.11
452.26, 8.26, 267.37
452.50, 8.45, 267.65
452.75, 8.66, 267.93
453.01, 8.87, 268.22
453.42, 9.09, 268.69
454.00, 9.31, 269.34
454.92, 9.55, 270.38
445.67, 7.64, 259.78
445.87, 7.63, 260.00
446.10, 7.62, 260.25
446.66, 7.45, 260.87
446.95, 7.44, 261.19
447.28, 7.42, 261.55
447.63, 7.41, 261.93
448.02, 7.39, 262.36
448.46, 7.37, 262.85
448.96, 7.35, 263.40
449.49, 7.34, 263.98
450.05, 7.35, 264.60
450.69, 7.35, 265.31
451.22, 7.41, 265.89
451.42, 7.57, 266.11
451.63, 7.74, 266.34
451.85, 7.91, 266.58
452.07, 8.09, 266.83
452.31, 8.27, 267.09
452.55, 8.47, 267.36
452.81, 8.67, 267.63
453.06, 8.88, 267.91
453.53, 9.09, 268.43
454.10, 9.31, 269.06
454.86, 9.55, 269.90
¯445.73, 7.64, 259.71
445.94, 7.63, 259.94
446.16, 7.62, 260.18
446.74, 7.46, 260.79
447.03, 7.44, 261.11
447.36, 7.43, 261.46
447.72, 7.41, 261.84
448.11, 7.39, 262.27
448.56, 7.38, 262.75
449.07, 7.36, 263.29
449.61, 7.34, 263.87
450.17, 7.35, 264.47
450.81, 7.36, 265.16
451.29, 7.43, 265.67
451.49, 7.59, 265.88
451.69, 7.76, 266.10
451.90, 7.93, 266.33
452.12, 8.11, 266.56
452.35, 8.29, 266.81
452.60, 8.48, 267.07
452.85, 8.68, 267.34
453.11, 8.89, 267.62
453.63, 9.10, 268.17
454.21, 9.32, 268.79
454.84, 9.56, 269.47
445.79, 7.64, 259.65
446.00, 7.63, 259.87
446.54, 7.47, 260.43
446.81, 7.46, 260.72
447.11, 7.44, 261.03
447.44, 7.43, 261.37
447.81, 7.41, 261.75
448.21, 7.39, 262.17
448.66, 7.38, 262.64
449.17, 7.36, 263.17
449.73, 7.34, 263.76
450.30, 7.35, 264.35
450.95, 7.36, 265.03
451.36, 7.45, 265.45
451.61, 7.60, 265.71
451.82, 7.76, 265.93
452.03, 7.93, 266.15
452.25, 8.11, 266.38
452.48, 8.30, 266.62
452.72, 8.49, 266.87
452.97, 8.69, 267.13
453.27, 8.90, 267.43
453.73, 9.10, 267.91
454.31, 9.32, 268.52
454.94, 9.56, 269.18
445.85, 7.65, 259.59
¯446.06, 7.64, 259.80
446.61, 7.47, 260.36
446.88, 7.46, 260.64
447.18, 7.45, 260.94
447.52, 7.43, 261.28
447.89, 7.41, 261.66
448.30, 7.40, 262.07
448.75, 7.38, 262.53
449.27, 7.36, 263.06
449.85, 7.34, 263.64
450.43, 7.35, 264.23
451.09, 7.35, 264.90
451.41, 7.47, 265.22
451.70, 7.61, 265.51
451.94, 7.77, 265.75
452.15, 7.94, 265.97
452.38, 8.12, 266.20
452.61, 8.30, 266.44
452.85, 8.49, 266.68
453.11, 8.69, 266.94
453.44, 8.90, 267.27
453.82, 9.11, 267.66
454.40, 9.33, 268.24
455.03, 9.56, 268.89
445.90, 7.65, 259.52
446.12, 7.64, 259.73
446.68, 7.48, 260.28
446.95, 7.46, 260.55
447.26, 7.45, 260.85
447.59, 7.43, 261.19
447.97, 7.42, 261.56
448.39, 7.40, 261.97
448.85, 7.38, 262.42
449.37, 7.36, 262.94
449.95, 7.35, 263.51
450.56, 7.35, 264.11
451.19, 7.36, 264.73
451.46, 7.49, 265.00
451.74, 7.63, 265.27
452.04, 7.78, 265.56
452.28, 7.94, 265.80
452.50, 8.12, 266.02
452.74, 8.30, 266.25
452.98, 8.50, 266.49
453.27, 8.69, 266.77
453.61, 8.89, 267.11
453.97, 9.11, 267.46
454.49, 9.33, 267.97
445.96, 7.65, 259.45
446.49, 7.49, 259.96
446.74, 7.48, 260.20
¯447.02, 7.47, 260.47
447.33, 7.45, 260.77
447.67, 7.44, 261.09
448.05, 7.42, 261.46
448.47, 7.40, 261.86
448.94, 7.38, 262.31
449.47, 7.37, 262.81
450.06, 7.35, 263.38
450.69, 7.35, 263.98
451.24, 7.39, 264.52
451.51, 7.52, 264.77
451.79, 7.65, 265.04
452.09, 7.80, 265.32
452.40, 7.95, 265.62
452.63, 8.12, 265.84
452.87, 8.31, 266.07
453.11, 8.50, 266.30
453.44, 8.69, 266.61
453.78, 8.89, 266.94
454.15, 9.11, 267.29
454.58, 9.33, 267.71
446.01, 7.65, 259.39
446.55, 7.49, 259.89
446.81, 7.48, 260.13
447.09, 7.47, 260.39
447.40, 7.45, 260.68
447.75, 7.44, 261.00
448.13, 7.42, 261.36
448.56, 7.40, 261.76
449.04, 7.39, 262.20
449.56, 7.37, 262.69
450.16, 7.35, 263.25
450.81, 7.34, 263.86
451.29, 7.41, 264.30
451.56, 7.54, 264.55
451.84, 7.67, 264.81
452.13, 7.81, 265.08
452.44, 7.97, 265.37
452.75, 8.13, 265.66
452.99, 8.31, 265.88
453.27, 8.50, 266.14
453.60, 8.69, 266.45
453.95, 8.89, 266.78
454.32, 9.11, 267.12
454.72, 9.33, 267.49
446.37, 7.50, 259.59
446.61, 7.49, 259.81
446.87, 7.48, 260.05
447.16, 7.47, 260.30
447.47, 7.46, 260.59
447.82, 7.44, 260.91
¯448.21, 7.42, 261.26
448.64, 7.41, 261.65
449.13, 7.39, 262.09
449.65, 7.37, 262.57
450.26, 7.36, 263.11
450.94, 7.34, 263.73
451.34, 7.43, 264.09
451.60, 7.56, 264.33
451.88, 7.69, 264.58
452.17, 7.83, 264.85
452.48, 7.98, 265.13
452.81, 8.14, 265.42
453.12, 8.31, 265.70
453.43, 8.50, 265.99
453.77, 8.69, 266.29
454.12, 8.89, 266.61
454.48, 9.11, 266.94
454.87, 9.34, 267.29
446.43, 7.51, 259.52
446.67, 7.50, 259.73
446.93, 7.49, 259.97
447.22, 7.47, 260.22
447.54, 7.46, 260.50
447.89, 7.44, 260.81
448.28, 7.43, 261.16
448.72, 7.41, 261.54
449.21, 7.39, 261.97
449.75, 7.38, 262.44
450.35, 7.36, 262.98
451.05, 7.35, 263.59
451.38, 7.45, 263.88
451.65, 7.57, 264.12
451.93, 7.71, 264.37
452.22, 7.85, 264.62
452.53, 8.00, 264.90
452.86, 8.16, 265.18
453.19, 8.32, 265.48
453.50, 8.51, 265.75
453.83, 8.70, 266.03
454.17, 8.90, 266.33
454.53, 9.11, 266.65
454.91, 9.34, 266.99
446.48, 7.51, 259.45
446.73, 7.50, 259.66
446.99, 7.49, 259.88
447.28, 7.48, 260.13
447.60, 7.46, 260.41
447.96, 7.45, 260.71
448.36, 7.43, 261.05
448.80, 7.41, 261.43
449.30, 7.39, 261.86
¯449.83, 7.38, 262.32
450.45, 7.37, 262.84
451.15, 7.35, 263.44
451.44, 7.46, 263.69
451.71, 7.59, 263.92
451.99, 7.72, 264.16
452.28, 7.86, 264.41
452.59, 8.01, 264.68
452.92, 8.17, 264.96
453.24, 8.34, 265.23
453.55, 8.52, 265.50
453.87, 8.71, 265.77
454.21, 8.91, 266.06
454.57, 9.12, 266.37
454.95, 9.35, 266.69
446.54, 7.51, 259.37
446.78, 7.50, 259.58
447.05, 7.49, 259.80
447.35, 7.48, 260.05
447.67, 7.47, 260.32
448.03, 7.45, 260.62
448.43, 7.43, 260.95
448.88, 7.42, 261.32
449.38, 7.40, 261.74
449.92, 7.38, 262.19
450.54, 7.37, 262.70
451.20, 7.37, 263.25
451.48, 7.48, 263.49
451.77, 7.60, 263.73
452.05, 7.74, 263.96
452.34, 7.88, 264.20
452.65, 8.02, 264.46
452.97, 8.18, 264.73
453.29, 8.35, 264.99
453.59, 8.53, 265.25
453.92, 8.72, 265.51
454.25, 8.92, 265.79
454.61, 9.13, 266.09
454.99, 9.35, 266.40
446.59, 7.51, 259.30
446.84, 7.50, 259.50
447.11, 7.49, 259.72
447.41, 7.48, 259.96
447.73, 7.47, 260.22
448.10, 7.45, 260.52
448.50, 7.44, 260.84
448.95, 7.42, 261.21
449.46, 7.40, 261.62
450.01, 7.39, 262.06
450.63, 7.37, 262.56
451.23, 7.39, 263.05
¯451.51, 7.50, 263.28
451.81, 7.62, 263.52
452.10, 7.75, 263.76
452.40, 7.89, 263.99
452.70, 8.04, 264.24
453.03, 8.19, 264.51
453.33, 8.36, 264.75
453.64, 8.54, 265.00
453.96, 8.73, 265.26
454.30, 8.93, 265.53
454.65, 9.14, 265.82
455.02, 9.36, 266.12
446.64, 7.52, 259.22
446.89, 7.51, 259.42
447.17, 7.49, 259.64
447.47, 7.48, 259.87
447.80, 7.47, 260.13
448.16, 7.46, 260.42
448.57, 7.44, 260.74
449.02, 7.42, 261.10
449.53, 7.41, 261.49
450.09, 7.39, 261.93
450.72, 7.38, 262.43
451.27, 7.41, 262.86
451.54, 7.52, 263.08
451.84, 7.64, 263.30
452.14, 7.77, 263.55
452.45, 7.90, 263.79
452.76, 8.05, 264.03
453.08, 8.20, 264.29
453.38, 8.37, 264.52
453.68, 8.55, 264.76
454.00, 8.74, 265.01
454.34, 8.93, 265.27
454.69, 9.14, 265.55
455.06, 9.36, 265.84
446.69, 7.52, 259.15
446.95, 7.51, 259.34
447.22, 7.50, 259.55
447.52, 7.49, 259.78
447.86, 7.47, 260.04
448.22, 7.46, 260.32
448.64, 7.44, 260.63
449.10, 7.43, 260.98
449.60, 7.41, 261.37
450.17, 7.40, 261.80
450.80, 7.38, 262.28
451.30, 7.43, 262.66
451.57, 7.54, 262.87
451.86, 7.66, 263.10
452.17, 7.78, 263.33
¯452.49, 7.92, 263.58
452.81, 8.06, 263.82
453.14, 8.21, 264.07
453.42, 8.38, 264.29
453.73, 8.56, 264.52
454.04, 8.75, 264.76
454.38, 8.94, 265.01
454.73, 9.15, 265.28
446.75, 7.52, 259.07
447.00, 7.51, 259.26
447.28, 7.50, 259.47
447.58, 7.49, 259.69
447.92, 7.48, 259.94
448.29, 7.46, 260.22
448.70, 7.45, 260.52
449.16, 7.43, 260.87
449.67, 7.42, 261.24
450.25, 7.40, 261.67
450.88, 7.39, 262.14
451.33, 7.44, 262.47
451.60, 7.56, 262.68
451.89, 7.68, 262.89
452.20, 7.80, 263.11
452.52, 7.93, 263.35
452.86, 8.07, 263.61
453.18, 8.22, 263.84
453.47, 8.39, 264.06
453.80, 8.57, 264.31
454.21, 8.74, 264.61
454.64, 8.93, 264.92
446.80, 7.52, 259.00
447.06, 7.51, 259.18
447.34, 7.50, 259.39
447.64, 7.49, 259.60
447.97, 7.48, 259.84
448.35, 7.47, 260.11
448.76, 7.45, 260.41
449.23, 7.43, 260.75
449.74, 7.42, 261.12
450.32, 7.40, 261.53
450.97, 7.39, 262.00
451.36, 7.46, 262.28
451.63, 7.57, 262.48
451.92, 7.69, 262.69
452.22, 7.82, 262.90
452.54, 7.95, 263.13
452.91, 8.08, 263.40
453.36, 8.22, 263.73
453.74, 8.37, 264.00
454.13, 8.54, 264.28
454.55, 8.72, 264.58
¯455.00, 8.91, 264.91
446.85, 7.52, 258.92
447.11, 7.51, 259.10
447.39, 7.50, 259.30
447.69, 7.49, 259.51
448.03, 7.48, 259.75
448.41, 7.47, 260.01
448.83, 7.45, 260.31
449.29, 7.44, 260.63
449.81, 7.43, 260.99
450.39, 7.41, 261.40
451.04, 7.39, 261.86
451.39, 7.48, 262.09
451.66, 7.59, 262.28
451.95, 7.71, 262.49
452.31, 7.82, 262.74
452.69, 7.94, 263.01
453.11, 8.07, 263.30
453.67, 8.19, 263.69
454.06, 8.35, 263.96
454.47, 8.52, 264.25
454.91, 8.70, 264.56
446.90, 7.52, 258.84
447.16, 7.51, 259.02
447.44, 7.50, 259.22
447.75, 7.49, 259.42
448.09, 7.48, 259.65
448.46, 7.47, 259.91
448.89, 7.46, 260.19
449.36, 7.44, 260.51
449.87, 7.43, 260.86
450.45, 7.42, 261.26
451.12, 7.40, 261.71
451.44, 7.49, 261.93
451.77, 7.59, 262.15
452.12, 7.69, 262.39
452.49, 7.81, 262.64
452.88, 7.93, 262.91
453.36, 8.05, 263.23
453.97, 8.16, 263.65
454.39, 8.32, 263.93
454.82, 8.50, 264.22
446.94, 7.52, 258.77
447.21, 7.51, 258.94
447.49, 7.51, 259.13
447.80, 7.50, 259.33
448.14, 7.49, 259.56
448.52, 7.48, 259.80
448.94, 7.46, 260.08
449.41, 7.45, 260.39
449.93, 7.43, 260.73
¯450.52, 7.42, 261.12
451.19, 7.40, 261.56
451.60, 7.47, 261.83
451.93, 7.57, 262.05
452.29, 7.68, 262.29
452.67, 7.79, 262.54
453.07, 7.91, 262.80
453.63, 8.02, 263.17
454.26, 8.14, 263.59
454.74, 8.29, 263.90
446.99, 7.52, 258.69
447.26, 7.52, 258.86
447.54, 7.51, 259.04
447.85, 7.50, 259.24
448.20, 7.49, 259.46
448.58, 7.48, 259.70
449.00, 7.47, 259.97
449.47, 7.45, 260.27
449.99, 7.44, 260.61
450.59, 7.42, 260.99
451.24, 7.41, 261.40
451.76, 7.46, 261.73
452.10, 7.56, 261.95
452.46, 7.66, 262.18
452.85, 7.78, 262.43
453.31, 7.89, 262.72
453.91, 7.99, 263.10
454.56, 8.11, 263.52
456.42, 8.10, 264.71
447.03, 7.53, 258.61
447.30, 7.52, 258.78
447.59, 7.51, 258.95
447.91, 7.50, 259.15
448.25, 7.49, 259.36
448.63, 7.48, 259.60
449.06, 7.47, 259.86
449.53, 7.46, 260.15
450.06, 7.44, 260.48
450.66, 7.43, 260.85
451.29, 7.42, 261.24
451.82, 7.46, 261.57
452.27, 7.54, 261.85
452.64, 7.65, 262.08
453.04, 7.76, 262.32
453.57, 7.86, 262.65
454.19, 7.97, 263.04
454.86, 8.09, 263.46
447.08, 7.53, 258.53
447.35, 7.52, 258.69
447.64, 7.51, 258.86
447.95, 7.50, 259.05
¯448.30, 7.49, 259.26
448.68, 7.48, 259.49
449.11, 7.47, 259.75
449.58, 7.46, 260.03
450.12, 7.45, 260.35
450.72, 7.43, 260.72
451.34, 7.43, 261.09
451.87, 7.47, 261.40
452.43, 7.52, 261.74
452.82, 7.63, 261.97
453.25, 7.74, 262.23
453.83, 7.83, 262.58
454.40, 7.95, 262.92
454.88, 8.10, 263.21
447.12, 7.53, 258.45
447.39, 7.52, 258.61
447.68, 7.51, 258.78
448.00, 7.51, 258.96
448.35, 7.50, 259.16
448.74, 7.49, 259.39
449.16, 7.48, 259.64
449.64, 7.46, 259.91
450.18, 7.45, 260.23
450.79, 7.43, 260.58
451.39, 7.44, 260.93
451.92, 7.48, 261.24
452.51, 7.53, 261.58
452.99, 7.61, 261.86
453.50, 7.71, 262.16
453.96, 7.83, 262.42
454.41, 7.97, 262.68
454.89, 8.11, 262.96
447.16, 7.53, 258.37
447.44, 7.52, 258.52
447.73, 7.52, 258.69
448.05, 7.51, 258.87
448.40, 7.50, 259.06
448.79, 7.49, 259.28
449.22, 7.48, 259.52
449.70, 7.47, 259.79
450.24, 7.45, 260.10
450.85, 7.44, 260.44
451.43, 7.45, 260.77
451.96, 7.49, 261.07
452.55, 7.54, 261.40
453.17, 7.60, 261.75
453.56, 7.72, 261.97
453.98, 7.84, 262.20
454.43, 7.98, 262.45
454.90, 8.13, 262.72
447.20, 7.53, 258.29
¯447.48, 7.52, 258.43
447.77, 7.52, 258.60
448.09, 7.51, 258.77
448.45, 7.50, 258.96
448.84, 7.49, 259.18
449.27, 7.48, 259.41
449.75, 7.47, 259.67
450.30, 7.46, 259.97
450.91, 7.44, 260.30
451.47, 7.46, 260.61
452.01, 7.50, 260.90
452.60, 7.55, 261.22
453.23, 7.60, 261.57
453.58, 7.73, 261.76
454.00, 7.86, 261.98
454.44, 7.99, 262.23
454.91, 8.14, 262.48
447.24, 7.53, 258.20
447.52, 7.53, 258.35
447.81, 7.52, 258.50
448.14, 7.51, 258.67
448.49, 7.50, 258.86
448.88, 7.49, 259.07
449.32, 7.48, 259.30
449.81, 7.47, 259.55
450.35, 7.46, 259.84
450.97, 7.44, 260.17
451.52, 7.47, 260.45
452.05, 7.51, 260.73
452.72, 7.54, 261.09
453.29, 7.61, 261.39
453.63, 7.74, 261.57
454.01, 7.87, 261.77
454.45, 8.01, 262.00
454.92, 8.15, 262.25
447.28, 7.54, 258.12
447.55, 7.53, 258.26
447.85, 7.52, 258.41
448.18, 7.51, 258.58
448.54, 7.51, 258.76
447.98, 7.81, 258.48
447.94, 7.93, 258.46
447.93, 8.04, 258.45
447.93, 8.15, 258.45
447.93, 8.25, 258.45
447.93, 8.36, 258.45
447.93, 8.47, 258.45
447.93, 8.57, 258.45
447.93, 8.67, 258.45
447.93, 8.78, 258.45
447.93, 8.88, 258.45
¯447.93, 8.98, 258.45
447.93, 9.09, 258.46
447.93, 9.19, 258.46
447.93, 9.29, 258.46
447.95, 9.39, 258.46
448.00, 9.49, 258.49
447.32, 7.54, 258.04
447.59, 7.53, 258.17
447.89, 7.52, 258.32
448.22, 7.52, 258.48
448.00, 7.71, 258.37
447.91, 7.84, 258.33
447.90, 7.96, 258.32
447.90, 8.06, 258.32
447.90, 8.17, 258.32
447.90, 8.28, 258.32
447.90, 8.38, 258.32
447.90, 8.48, 258.32
447.90, 8.59, 258.32
447.90, 8.69, 258.32
447.90, 8.79, 258.32
447.90, 8.89, 258.32
447.90, 9.00, 258.32
447.90, 9.10, 258.32
447.90, 9.20, 258.32
447.90, 9.30, 258.32
447.91, 9.40, 258.33
447.94, 9.49, 258.35
448.03, 9.59, 258.39
447.35, 7.54, 257.95
447.63, 7.53, 258.09
447.93, 7.53, 258.23
448.26, 7.52, 258.38
447.97, 7.73, 258.25
447.91, 7.86, 258.22
447.90, 7.97, 258.21
447.90, 8.08, 258.21
447.90, 8.18, 258.21
447.90, 8.29, 258.21
447.90, 8.39, 258.21
447.90, 8.49, 258.21
447.90, 8.60, 258.21
447.90, 8.70, 258.21
447.90, 8.80, 258.22
447.90, 8.90, 258.22
447.90, 9.00, 258.22
447.90, 9.10, 258.22
447.90, 9.20, 258.22
447.90, 9.30, 258.22
447.91, 9.40, 258.22
447.94, 9.50, 258.24
¯448.01, 9.59, 258.27
448.16, 9.69, 258.34
447.38, 7.54, 257.87
447.66, 7.54, 258.00
447.96, 7.53, 258.14
448.30, 7.52, 258.29
447.99, 7.74, 258.15
447.94, 7.86, 258.12
447.93, 7.97, 258.12
447.93, 8.08, 258.12
447.93, 8.19, 258.12
447.93, 8.29, 258.12
447.93, 8.39, 258.12
447.93, 8.50, 258.12
447.93, 8.60, 258.12
447.93, 8.70, 258.12
447.93, 8.80, 258.12
447.93, 8.90, 258.12
447.93, 9.00, 258.12
447.93, 9.10, 258.12
447.93, 9.20, 258.12
447.93, 9.30, 258.12
447.94, 9.40, 258.12
447.97, 9.50, 258.14
448.03, 9.59, 258.17
448.16, 9.69, 258.23
447.42, 7.54, 257.79
447.70, 7.54, 257.91
448.00, 7.53, 258.04
448.33, 7.52, 258.19
448.04, 7.74, 258.06
447.99, 7.86, 258.04
447.98, 7.97, 258.03
447.98, 8.08, 258.03
447.98, 8.18, 258.03
447.98, 8.29, 258.03
447.98, 8.39, 258.03
447.98, 8.49, 258.03
447.98, 8.60, 258.03
447.98, 8.70, 258.03
447.98, 8.80, 258.03
447.98, 8.90, 258.03
447.98, 9.00, 258.03
447.98, 9.10, 258.03
447.98, 9.20, 258.03
447.98, 9.30, 258.03
447.99, 9.40, 258.04
448.02, 9.50, 258.05
448.09, 9.59, 258.08
448.23, 9.69, 258.15
447.44, 7.55, 257.70
¯447.73, 7.54, 257.82
448.03, 7.53, 257.95
448.37, 7.53, 258.09
448.15, 7.71, 258.00
448.07, 7.85, 257.96
448.05, 7.96, 257.96
448.05, 8.07, 257.96
448.05, 8.17, 257.96
448.05, 8.28, 257.96
448.05, 8.38, 257.96
448.05, 8.49, 257.96
448.05, 8.59, 257.96
448.05, 8.69, 257.96
448.05, 8.79, 257.96
448.05, 8.90, 257.96
448.05, 9.00, 257.96
448.05, 9.10, 257.96
448.05, 9.20, 257.96
448.05, 9.30, 257.96
448.06, 9.40, 257.96
448.10, 9.49, 257.98
448.18, 9.59, 258.01
447.47, 7.55, 257.61
447.76, 7.54, 257.73
448.06, 7.54, 257.85
448.40, 7.53, 257.99
448.77, 7.52, 258.14
448.20, 7.82, 257.91
448.17, 7.94, 257.90
