žVERSION 0.7
FIELDS x y z
SIZE 8 8 8
TYPE F F F
COUNT 1 1 1
WIDTH 2271
HEIGHT 1
VIEWPOINT 325.44, 7.24, 390.88 1 330.72, 2.34, 371.57
POINTS 2271
DATA ascii
341.20, 0.14, 370.04
342.13, 0.14, 369.68
¯343.22, 0.14, 369.26
345.41, 0.00, 368.42
347.08, 0.00, 367.77
349.16, 0.00, 366.98
351.81, 0.00, 365.96
335.84, 0.12, 372.01
335.89, 0.19, 371.99
335.96, 0.26, 371.96
336.19, 0.28, 371.87
336.47, 0.28, 371.76
336.82, 0.28, 371.62
337.20, 0.27, 371.46
337.63, 0.26, 371.29
338.17, 0.24, 371.08
338.81, 0.21, 370.82
339.47, 0.19, 370.56
340.26, 0.16, 370.24
341.16, 0.14, 369.88
342.08, 0.14, 369.51
343.16, 0.14, 369.07
345.34, 0.00, 368.20
347.01, 0.00, 367.53
349.08, 0.00, 366.70
351.72, 0.00, 365.64
335.79, 0.12, 371.94
335.94, 0.16, 371.87
335.98, 0.24, 371.86
336.14, 0.28, 371.79
336.43, 0.28, 371.67
336.78, 0.28, 371.53
337.16, 0.27, 371.37
337.59, 0.26, 371.19
338.14, 0.24, 370.96
338.76, 0.21, 370.70
339.44, 0.18, 370.42
340.20, 0.16, 370.10
341.10, 0.14, 369.72
342.03, 0.14, 369.34
343.04, 0.15, 368.92
345.27, 0.00, 367.98
346.93, 0.00, 367.29
349.00, 0.00, 366.43
351.63, 0.00, 365.33
335.74, 0.13, 371.87
335.95, 0.14, 371.78
336.00, 0.22, 371.76
336.09, 0.29, 371.72
336.39, 0.29, 371.59
336.73, 0.28, 371.44
337.11, 0.28, 371.27
337.54, 0.27, 371.09
¯338.10, 0.23, 370.84
338.71, 0.21, 370.58
339.41, 0.18, 370.28
340.14, 0.17, 369.96
341.05, 0.14, 369.57
341.97, 0.14, 369.17
342.96, 0.15, 368.74
345.20, 0.00, 367.77
346.85, 0.00, 367.05
348.91, 0.00, 366.16
351.53, 0.00, 365.02
335.69, 0.14, 371.80
335.90, 0.15, 371.70
336.05, 0.19, 371.64
336.10, 0.27, 371.61
336.35, 0.29, 371.50
336.69, 0.28, 371.35
337.06, 0.28, 371.18
337.51, 0.26, 370.98
338.07, 0.23, 370.73
338.65, 0.21, 370.47
339.38, 0.18, 370.14
340.11, 0.16, 369.81
340.99, 0.14, 369.41
341.90, 0.14, 369.00
342.87, 0.15, 368.57
344.24, 0.14, 367.95
346.77, 0.00, 366.81
348.82, 0.00, 365.89
351.43, 0.00, 364.71
335.64, 0.15, 371.73
335.85, 0.16, 371.63
336.07, 0.17, 371.53
336.13, 0.25, 371.50
336.30, 0.29, 371.42
336.64, 0.29, 371.26
337.01, 0.28, 371.09
337.47, 0.26, 370.87
338.04, 0.23, 370.61
338.61, 0.21, 370.34
339.34, 0.17, 370.00
340.09, 0.15, 369.65
340.93, 0.14, 369.26
341.84, 0.14, 368.83
342.78, 0.16, 368.39
344.15, 0.14, 367.75
346.68, 0.00, 366.57
348.72, 0.00, 365.62
351.33, 0.00, 364.40
335.59, 0.15, 371.66
335.79, 0.17, 371.56
¯336.02, 0.18, 371.46
336.18, 0.22, 371.38
336.26, 0.29, 371.34
336.59, 0.29, 371.18
336.96, 0.28, 371.00
337.44, 0.26, 370.77
338.00, 0.23, 370.50
338.58, 0.21, 370.21
339.28, 0.18, 369.88
340.06, 0.15, 369.50
340.87, 0.14, 369.11
341.77, 0.14, 368.67
342.69, 0.16, 368.22
344.06, 0.14, 367.56
346.59, 0.00, 366.33
348.62, 0.00, 365.35
351.22, 0.00, 364.09
335.53, 0.16, 371.60
335.74, 0.17, 371.49
335.96, 0.19, 371.38
336.24, 0.19, 371.24
336.29, 0.27, 371.22
336.55, 0.29, 371.09
336.92, 0.29, 370.90
337.40, 0.26, 370.66
337.95, 0.23, 370.38
338.54, 0.20, 370.09
339.22, 0.18, 369.75
340.03, 0.14, 369.34
340.80, 0.14, 368.95
341.70, 0.14, 368.51
342.60, 0.16, 368.05
344.01, 0.14, 367.35
346.50, 0.00, 366.10
348.52, 0.00, 365.08
351.11, 0.00, 363.78
335.48, 0.17, 371.53
335.68, 0.18, 371.43
335.90, 0.19, 371.31
336.18, 0.19, 371.17
336.32, 0.25, 371.10
336.50, 0.29, 371.01
336.88, 0.28, 370.81
337.36, 0.25, 370.55
337.89, 0.23, 370.28
338.50, 0.20, 369.96
339.15, 0.18, 369.62
339.97, 0.14, 369.20
340.74, 0.14, 368.80
341.58, 0.15, 368.37
342.50, 0.17, 367.88
¯343.93, 0.14, 367.15
346.40, 0.00, 365.86
348.41, 0.00, 364.82
350.99, 0.00, 363.48
335.43, 0.17, 371.46
335.63, 0.19, 371.36
335.84, 0.20, 371.24
336.12, 0.20, 371.09
336.38, 0.21, 370.96
336.45, 0.29, 370.92
336.84, 0.28, 370.71
337.32, 0.25, 370.45
337.84, 0.23, 370.17
338.46, 0.19, 369.84
339.11, 0.17, 369.49
339.90, 0.14, 369.06
340.67, 0.14, 368.65
341.45, 0.16, 368.23
342.44, 0.17, 367.70
343.84, 0.14, 366.95
345.35, 0.14, 366.14
348.30, 0.00, 364.55
350.87, 0.00, 363.17
335.37, 0.18, 371.40
335.57, 0.19, 371.29
335.78, 0.21, 371.17
336.06, 0.21, 371.02
336.45, 0.17, 370.80
336.49, 0.27, 370.78
336.80, 0.28, 370.61
337.28, 0.25, 370.35
337.80, 0.23, 370.06
338.41, 0.19, 369.71
339.07, 0.17, 369.35
339.83, 0.14, 368.92
340.60, 0.14, 368.50
341.33, 0.17, 368.09
342.38, 0.16, 367.51
343.75, 0.14, 366.75
345.24, 0.14, 365.93
348.19, 0.00, 364.29
350.74, 0.00, 362.87
335.32, 0.19, 371.34
335.51, 0.20, 371.23
335.72, 0.22, 371.11
336.00, 0.21, 370.95
336.43, 0.16, 370.70
336.53, 0.24, 370.64
336.75, 0.28, 370.51
337.23, 0.25, 370.24
337.75, 0.22, 369.94
¯338.37, 0.19, 369.59
339.03, 0.16, 369.21
339.76, 0.14, 368.79
340.53, 0.14, 368.35
341.21, 0.18, 367.96
342.30, 0.16, 367.33
343.66, 0.14, 366.55
345.12, 0.14, 365.71
348.07, 0.00, 364.02
350.61, 0.00, 362.57
335.27, 0.19, 371.27
335.46, 0.21, 371.16
335.68, 0.22, 371.03
335.94, 0.22, 370.88
336.36, 0.17, 370.63
336.61, 0.20, 370.48
336.71, 0.28, 370.42
337.18, 0.25, 370.14
337.70, 0.22, 369.83
338.31, 0.19, 369.47
338.99, 0.16, 369.07
339.70, 0.14, 368.65
340.46, 0.14, 368.20
341.09, 0.18, 367.83
342.20, 0.16, 367.16
343.56, 0.14, 366.36
345.01, 0.14, 365.50
347.95, 0.00, 363.76
350.47, 0.00, 362.27
335.21, 0.20, 371.21
335.40, 0.21, 371.10
335.63, 0.22, 370.95
335.89, 0.22, 370.80
336.29, 0.18, 370.55
336.70, 0.15, 370.30
336.75, 0.25, 370.27
337.14, 0.25, 370.04
337.66, 0.22, 369.72
338.24, 0.19, 369.36
338.94, 0.15, 368.93
339.63, 0.14, 368.51
340.38, 0.14, 368.05
340.96, 0.19, 367.70
342.10, 0.16, 367.00
343.46, 0.14, 366.17
344.89, 0.15, 365.30
346.79, 0.14, 364.14
350.33, 0.00, 361.97
335.15, 0.21, 371.15
335.36, 0.21, 371.02
335.59, 0.22, 370.88
¯335.84, 0.22, 370.72
336.22, 0.19, 370.48
336.69, 0.14, 370.18
336.80, 0.21, 370.11
337.08, 0.25, 369.94
337.61, 0.21, 369.60
338.19, 0.19, 369.24
338.89, 0.15, 368.79
339.55, 0.14, 368.37
340.27, 0.14, 367.92
340.85, 0.20, 367.56
342.00, 0.17, 366.83
343.36, 0.14, 365.97
344.77, 0.15, 365.09
346.66, 0.14, 363.89
350.19, 0.00, 361.67
335.10, 0.21, 371.09
335.31, 0.22, 370.95
335.54, 0.22, 370.80
335.80, 0.22, 370.64
336.14, 0.20, 370.41
336.61, 0.14, 370.11
336.88, 0.17, 369.93
337.03, 0.24, 369.83
337.55, 0.21, 369.49
338.14, 0.18, 369.11
338.84, 0.14, 368.66
339.48, 0.14, 368.24
340.15, 0.15, 367.80
340.75, 0.20, 367.42
341.90, 0.17, 366.67
343.26, 0.14, 365.78
344.64, 0.15, 364.88
346.54, 0.14, 363.65
348.87, 0.14, 362.13
335.06, 0.21, 371.02
335.27, 0.22, 370.88
335.49, 0.22, 370.73
335.75, 0.22, 370.56
336.07, 0.21, 370.34
336.52, 0.15, 370.04
336.99, 0.12, 369.72
337.05, 0.22, 369.68
337.50, 0.21, 369.38
338.08, 0.18, 368.99
338.76, 0.14, 368.54
339.40, 0.14, 368.10
340.04, 0.16, 367.68
340.64, 0.21, 367.28
341.81, 0.17, 366.49
343.15, 0.14, 365.59
¯344.52, 0.15, 364.68
346.41, 0.14, 363.41
348.73, 0.14, 361.85
335.01, 0.21, 370.95
335.22, 0.22, 370.81
335.45, 0.22, 370.65
335.70, 0.22, 370.48
335.99, 0.21, 370.28
336.44, 0.16, 369.96
336.96, 0.10, 369.60
337.11, 0.18, 369.50
337.44, 0.21, 369.27
338.03, 0.17, 368.87
338.69, 0.14, 368.41
339.33, 0.14, 367.97
339.92, 0.17, 367.56
340.54, 0.21, 367.13
341.75, 0.16, 366.30
343.05, 0.14, 365.40
344.42, 0.15, 364.45
346.28, 0.14, 363.17
348.58, 0.14, 361.58
334.97, 0.21, 370.88
335.17, 0.22, 370.74
335.40, 0.22, 370.58
335.65, 0.22, 370.40
335.92, 0.22, 370.20
336.36, 0.17, 369.89
336.87, 0.11, 369.53
337.22, 0.13, 369.28
337.39, 0.20, 369.16
337.98, 0.17, 368.74
338.61, 0.14, 368.29
339.25, 0.14, 367.84
339.80, 0.17, 367.45
340.44, 0.21, 366.99
341.69, 0.15, 366.10
342.93, 0.14, 365.21
344.32, 0.14, 364.23
346.14, 0.14, 362.93
348.43, 0.14, 361.30
334.67, 0.33, 371.00
335.13, 0.22, 370.67
335.35, 0.22, 370.51
335.60, 0.22, 370.32
335.87, 0.22, 370.12
336.27, 0.18, 369.83
336.77, 0.13, 369.46
337.34, 0.07, 369.04
337.41, 0.18, 368.99
337.92, 0.17, 368.62
¯338.54, 0.14, 368.17
339.16, 0.14, 367.71
339.68, 0.18, 367.33
340.35, 0.21, 366.84
341.63, 0.14, 365.90
342.82, 0.14, 365.03
344.21, 0.14, 364.01
346.00, 0.14, 362.69
348.28, 0.14, 361.03
334.62, 0.33, 370.94
335.08, 0.22, 370.60
335.30, 0.22, 370.43
335.54, 0.22, 370.25
335.81, 0.22, 370.04
336.19, 0.19, 369.76
336.68, 0.14, 369.39
337.25, 0.07, 368.96
337.49, 0.13, 368.78
337.86, 0.16, 368.50
338.46, 0.14, 368.05
339.08, 0.14, 367.58
339.56, 0.19, 367.22
340.27, 0.21, 366.68
341.55, 0.14, 365.71
342.70, 0.14, 364.85
344.07, 0.14, 363.81
345.86, 0.14, 362.46
348.12, 0.14, 360.76
334.57, 0.33, 370.88
335.03, 0.22, 370.53
335.24, 0.22, 370.36
335.49, 0.22, 370.17
335.76, 0.22, 369.96
336.10, 0.20, 369.70
336.58, 0.15, 369.32
337.14, 0.09, 368.89
337.63, 0.07, 368.50
337.79, 0.16, 368.38
338.38, 0.14, 367.93
338.98, 0.14, 367.46
339.44, 0.19, 367.10
340.18, 0.20, 366.53
341.44, 0.14, 365.55
342.56, 0.14, 364.68
343.94, 0.14, 363.61
345.72, 0.14, 362.23
347.95, 0.14, 360.49
334.52, 0.33, 370.83
334.70, 0.34, 370.68
335.19, 0.22, 370.29
335.43, 0.22, 370.10
¯335.70, 0.22, 369.88
336.01, 0.21, 369.63
336.48, 0.16, 369.25
337.02, 0.10, 368.82
337.69, 0.02, 368.29
337.85, 0.12, 368.16
338.29, 0.14, 367.81
338.86, 0.15, 367.35
339.32, 0.20, 366.99
340.08, 0.20, 366.38
341.33, 0.14, 365.38
342.42, 0.15, 364.51
343.80, 0.14, 363.41
345.57, 0.14, 361.99
347.79, 0.14, 360.22
334.47, 0.34, 370.77
334.65, 0.34, 370.62
335.14, 0.22, 370.22
335.38, 0.22, 370.02
335.64, 0.22, 369.81
335.93, 0.22, 369.57
336.39, 0.17, 369.19
336.91, 0.11, 368.76
337.56, 0.04, 368.23
337.97, 0.06, 367.88
338.21, 0.14, 367.69
338.75, 0.15, 367.25
339.19, 0.21, 366.88
339.99, 0.20, 366.23
341.22, 0.14, 365.22
342.27, 0.15, 364.35
343.66, 0.14, 363.21
345.41, 0.14, 361.76
347.61, 0.14, 359.96
334.42, 0.34, 370.71
334.59, 0.34, 370.56
334.78, 0.35, 370.40
335.32, 0.22, 369.95
335.58, 0.22, 369.73
335.86, 0.22, 369.49
336.29, 0.18, 369.13
336.80, 0.13, 368.69
337.43, 0.06, 368.16
338.08, 0.00, 367.60
338.23, 0.11, 367.48
338.63, 0.16, 367.15
339.07, 0.21, 366.77
339.89, 0.20, 366.08
341.10, 0.14, 365.06
342.12, 0.15, 364.19
343.53, 0.14, 363.00
¯345.26, 0.14, 361.54
347.44, 0.14, 359.69
334.36, 0.34, 370.66
334.54, 0.35, 370.51
334.73, 0.35, 370.34
335.26, 0.22, 369.87
335.52, 0.22, 369.65
335.80, 0.22, 369.41
336.18, 0.19, 369.07
336.68, 0.14, 368.63
337.29, 0.07, 368.10
338.00, 0.00, 367.49
338.39, 0.04, 367.15
338.52, 0.16, 367.04
338.95, 0.22, 366.67
339.79, 0.20, 365.93
340.98, 0.14, 364.90
341.98, 0.16, 364.03
343.39, 0.14, 362.80
345.10, 0.14, 361.31
347.26, 0.14, 359.43
334.31, 0.34, 370.60
334.48, 0.35, 370.45
334.67, 0.35, 370.28
334.88, 0.36, 370.09
335.45, 0.22, 369.58
335.73, 0.22, 369.33
336.08, 0.20, 369.02
336.57, 0.15, 368.58
337.16, 0.09, 368.05
337.91, 0.00, 367.38
338.34, 0.03, 366.99
338.65, 0.11, 366.72
338.82, 0.23, 366.56
339.68, 0.20, 365.79
340.86, 0.14, 364.74
341.83, 0.16, 363.87
343.25, 0.14, 362.60
344.94, 0.14, 361.09
347.08, 0.14, 359.17
334.26, 0.34, 370.55
334.43, 0.35, 370.39
334.61, 0.36, 370.22
334.82, 0.36, 370.03
335.39, 0.22, 369.50
335.67, 0.22, 369.25
335.98, 0.22, 368.96
336.46, 0.17, 368.52
337.03, 0.10, 367.99
337.76, 0.02, 367.31
338.21, 0.04, 366.90
¯338.62, 0.09, 366.53
338.93, 0.17, 366.24
339.58, 0.20, 365.65
340.73, 0.14, 364.58
341.68, 0.16, 363.71
343.10, 0.14, 362.40
344.77, 0.14, 360.87
346.89, 0.14, 358.91
334.20, 0.35, 370.50
334.37, 0.35, 370.34
334.56, 0.36, 370.16
334.77, 0.36, 369.96
335.33, 0.22, 369.43
335.60, 0.22, 369.17
335.89, 0.22, 368.89
336.34, 0.18, 368.47
336.90, 0.12, 367.94
337.61, 0.03, 367.26
338.08, 0.05, 366.82
338.47, 0.10, 366.45
339.16, 0.09, 365.80
339.47, 0.19, 365.50
340.61, 0.14, 364.43
341.52, 0.17, 363.56
342.95, 0.14, 362.21
344.60, 0.14, 360.65
346.70, 0.14, 358.66
334.15, 0.35, 370.44
334.31, 0.35, 370.28
334.50, 0.36, 370.10
334.71, 0.36, 369.90
334.93, 0.36, 369.68
335.53, 0.22, 369.09
335.82, 0.22, 368.81
336.22, 0.19, 368.42
336.76, 0.14, 367.89
337.46, 0.05, 367.21
337.94, 0.06, 366.74
338.33, 0.11, 366.36
338.93, 0.12, 365.78
339.70, 0.11, 365.03
340.48, 0.14, 364.27
341.37, 0.17, 363.41
342.80, 0.14, 362.01
344.43, 0.14, 360.43
346.50, 0.14, 358.41
334.09, 0.35, 370.39
334.26, 0.35, 370.22
334.44, 0.36, 370.04
334.65, 0.36, 369.83
334.87, 0.36, 369.61
¯335.46, 0.22, 369.02
335.74, 0.22, 368.73
336.11, 0.21, 368.37
336.63, 0.15, 367.84
337.31, 0.07, 367.17
337.81, 0.07, 366.66
338.19, 0.12, 366.28
338.70, 0.15, 365.77
340.06, 0.00, 364.41
340.37, 0.13, 364.09
341.21, 0.17, 363.26
342.65, 0.14, 361.82
344.25, 0.14, 360.21
341.58, 0.78, 362.90
341.54, 1.01, 362.94
341.68, 1.23, 362.80
341.62, 1.46, 362.87
341.60, 1.68, 362.89
341.63, 1.91, 362.86
341.65, 2.13, 362.85
334.03, 0.35, 370.34
334.20, 0.36, 370.17
334.38, 0.36, 369.98
334.59, 0.36, 369.77
334.81, 0.36, 369.54
335.05, 0.36, 369.29
335.66, 0.22, 368.66
335.99, 0.22, 368.32
336.50, 0.17, 367.80
337.15, 0.09, 367.13
337.67, 0.08, 366.59
338.05, 0.13, 366.20
338.47, 0.18, 365.76
339.93, 0.00, 364.26
340.84, 0.00, 363.33
341.09, 0.17, 363.07
342.49, 0.14, 361.63
341.77, 0.50, 362.38
341.26, 0.81, 362.90
341.26, 1.03, 362.91
341.35, 1.24, 362.82
341.31, 1.47, 362.86
341.32, 1.69, 362.85
341.33, 1.92, 362.85
341.34, 2.14, 362.84
341.39, 2.36, 362.80
341.44, 2.59, 362.75
341.50, 2.81, 362.69
333.98, 0.35, 370.29
334.14, 0.36, 370.11
334.33, 0.36, 369.92
¯334.52, 0.36, 369.71
334.74, 0.36, 369.48
334.98, 0.36, 369.23
335.59, 0.22, 368.58
335.89, 0.23, 368.26
336.37, 0.18, 367.75
337.00, 0.11, 367.09
337.54, 0.09, 366.51
337.90, 0.14, 366.13
338.30, 0.19, 365.70
339.75, 0.01, 364.17
340.65, 0.01, 363.21
341.72, 0.01, 362.08
342.36, 0.13, 361.41
341.92, 0.45, 361.88
340.97, 0.83, 362.89
340.97, 1.05, 362.89
341.06, 1.26, 362.80
341.05, 1.48, 362.81
341.05, 1.70, 362.82
341.05, 1.92, 362.83
341.05, 2.14, 362.82
341.10, 2.36, 362.78
341.15, 2.58, 362.73
341.20, 2.81, 362.68
333.92, 0.35, 370.23
334.09, 0.36, 370.06
334.27, 0.36, 369.86
334.46, 0.36, 369.65
334.68, 0.36, 369.41
334.91, 0.36, 369.16
335.17, 0.36, 368.88
335.81, 0.23, 368.18
336.24, 0.20, 367.71
336.84, 0.13, 367.05
337.40, 0.10, 366.44
337.76, 0.15, 366.05
338.15, 0.21, 365.63
339.46, 0.05, 364.20
340.45, 0.02, 363.12
341.21, 0.08, 362.29
341.75, 0.21, 361.70
341.62, 0.48, 361.85
340.69, 0.85, 362.87
340.69, 1.06, 362.87
340.78, 1.27, 362.78
340.77, 1.49, 362.80
340.77, 1.71, 362.80
340.77, 1.93, 362.80
340.77, 2.15, 362.80
340.82, 2.36, 362.76
¯340.86, 2.58, 362.71
340.91, 2.81, 362.66
333.87, 0.35, 370.18
334.03, 0.36, 370.00
334.21, 0.36, 369.80
334.40, 0.36, 369.59
334.61, 0.36, 369.35
334.84, 0.36, 369.09
335.09, 0.36, 368.81
335.73, 0.23, 368.10
336.11, 0.21, 367.67
336.69, 0.15, 367.02
337.27, 0.11, 366.37
337.62, 0.16, 365.98
338.00, 0.22, 365.55
339.18, 0.09, 364.22
340.25, 0.04, 363.03
340.84, 0.13, 362.37
341.65, 0.20, 361.47
340.70, 0.60, 362.54
340.42, 0.87, 362.85
340.42, 1.08, 362.85
340.50, 1.29, 362.77
340.48, 1.51, 362.79
340.49, 1.72, 362.79
340.50, 1.94, 362.78
340.50, 2.15, 362.78
340.54, 2.37, 362.74
340.59, 2.58, 362.69
340.63, 2.80, 362.64
333.81, 0.35, 370.13
333.97, 0.36, 369.95
334.14, 0.36, 369.74
334.33, 0.36, 369.53
334.54, 0.36, 369.29
334.77, 0.36, 369.03
335.02, 0.36, 368.74
335.30, 0.36, 368.42
335.98, 0.23, 367.63
336.54, 0.17, 366.99
337.13, 0.12, 366.30
337.47, 0.17, 365.91
337.85, 0.22, 365.48
338.91, 0.12, 364.26
340.05, 0.05, 362.94
340.62, 0.14, 362.28
341.67, 0.17, 361.07
340.34, 0.64, 362.62
340.15, 0.88, 362.84
340.15, 1.10, 362.83
340.23, 1.30, 362.75
¯340.21, 1.52, 362.78
340.22, 1.73, 362.77
340.22, 1.94, 362.78
340.23, 2.16, 362.76
340.27, 2.37, 362.72
340.31, 2.58, 362.67
340.36, 2.80, 362.62
333.75, 0.36, 370.08
333.91, 0.36, 369.89
334.08, 0.36, 369.69
334.27, 0.36, 369.47
334.47, 0.36, 369.23
334.70, 0.36, 368.96
334.94, 0.36, 368.67
335.22, 0.36, 368.35
335.87, 0.23, 367.56
336.38, 0.19, 366.96
337.00, 0.13, 366.23
337.33, 0.18, 365.84
337.70, 0.23, 365.40
338.64, 0.16, 364.29
339.85, 0.06, 362.86
340.41, 0.15, 362.19
342.37, 0.00, 359.87
339.99, 0.67, 362.69
339.87, 0.90, 362.84
339.90, 1.11, 362.81
339.95, 1.32, 362.75
339.92, 1.53, 362.79
339.94, 1.74, 362.78
339.95, 1.95, 362.76
339.97, 2.16, 362.75
340.00, 2.37, 362.70
340.05, 2.58, 362.66
340.09, 2.80, 362.61
333.69, 0.36, 370.03
333.85, 0.36, 369.84
334.02, 0.36, 369.63
334.20, 0.36, 369.41
334.40, 0.36, 369.16
334.62, 0.36, 368.90
334.87, 0.36, 368.60
335.13, 0.37, 368.28
335.78, 0.24, 367.48
336.23, 0.20, 366.93
336.86, 0.13, 366.17
337.19, 0.19, 365.77
337.55, 0.24, 365.33
338.37, 0.19, 364.33
339.64, 0.07, 362.77
340.19, 0.16, 362.11
¯342.18, 0.00, 359.68
339.67, 0.70, 362.75
339.64, 0.92, 362.80
339.64, 1.13, 362.80
339.70, 1.33, 362.72
339.67, 1.54, 362.76
339.67, 1.75, 362.77
339.71, 1.95, 362.73
339.74, 2.16, 362.68
339.77, 2.37, 362.66
339.80, 2.58, 362.62
339.84, 2.80, 362.58
333.64, 0.36, 369.98
333.79, 0.36, 369.79
333.96, 0.36, 369.58
334.14, 0.36, 369.35
334.33, 0.36, 369.10
334.55, 0.36, 368.83
334.79, 0.36, 368.53
335.05, 0.37, 368.21
335.34, 0.37, 367.84
336.08, 0.22, 366.91
336.69, 0.16, 366.15
337.05, 0.20, 365.70
337.40, 0.25, 365.26
338.11, 0.23, 364.37
339.45, 0.08, 362.69
339.98, 0.18, 362.02
341.99, 0.00, 359.50
339.50, 0.71, 362.63
339.49, 0.92, 362.65
339.49, 1.13, 362.65
339.53, 1.33, 362.60
339.52, 1.54, 362.62
339.52, 1.75, 362.62
339.53, 1.96, 362.61
339.55, 2.17, 362.59
339.57, 2.37, 362.57
339.59, 2.58, 362.54
339.64, 2.80, 362.49
333.58, 0.36, 369.93
333.73, 0.36, 369.74
333.89, 0.36, 369.53
334.07, 0.36, 369.30
334.26, 0.36, 369.05
334.48, 0.36, 368.77
334.71, 0.36, 368.47
334.97, 0.37, 368.14
335.25, 0.37, 367.77
335.93, 0.24, 366.89
336.52, 0.18, 366.13
¯336.90, 0.20, 365.63
337.26, 0.26, 365.17
337.87, 0.26, 364.39
339.25, 0.09, 362.61
339.76, 0.19, 361.94
339.54, 0.45, 362.23
339.45, 0.69, 362.35
339.65, 0.87, 362.10
339.44, 1.11, 362.37
339.84, 1.28, 361.86
339.52, 1.53, 362.28
339.53, 1.74, 362.27
339.54, 1.95, 362.26
339.55, 2.16, 362.25
339.57, 2.38, 362.24
339.58, 2.59, 362.22
339.60, 2.80, 362.20
333.52, 0.36, 369.89
333.66, 0.36, 369.69
333.83, 0.36, 369.47
334.00, 0.36, 369.24
334.19, 0.36, 368.99
334.40, 0.36, 368.71
334.63, 0.36, 368.41
334.88, 0.37, 368.07
335.16, 0.37, 367.70
335.48, 0.37, 367.28
336.35, 0.20, 366.12
336.76, 0.21, 365.57
337.14, 0.26, 365.07
337.74, 0.26, 364.27
339.00, 0.12, 362.59
339.55, 0.20, 361.86
339.43, 0.45, 362.03
339.46, 0.66, 361.99
339.54, 0.86, 361.89
339.45, 1.09, 362.01
339.61, 1.29, 361.81
339.54, 1.51, 361.90
339.55, 1.73, 361.90
339.56, 1.95, 361.88
339.57, 2.16, 361.87
339.59, 2.38, 361.86
339.60, 2.60, 361.84
339.61, 2.82, 361.82
333.46, 0.36, 369.84
333.60, 0.36, 369.64
333.76, 0.36, 369.42
333.93, 0.36, 369.19
334.12, 0.36, 368.93
334.32, 0.36, 368.65
¯334.55, 0.36, 368.34
334.80, 0.37, 368.00
335.07, 0.37, 367.63
335.38, 0.37, 367.20
336.18, 0.22, 366.11
336.62, 0.22, 365.51
337.02, 0.26, 364.96
337.61, 0.26, 364.16
338.69, 0.16, 362.68
339.34, 0.21, 361.79
339.52, 0.39, 361.54
339.51, 0.62, 361.56
339.52, 0.84, 361.55
339.53, 1.06, 361.53
339.44, 1.29, 361.67
339.57, 1.50, 361.50
339.56, 1.72, 361.50
339.58, 1.94, 361.49
339.59, 2.16, 361.47
339.61, 2.38, 361.46
339.62, 2.61, 361.44
339.63, 2.83, 361.43
333.39, 0.36, 369.79
333.54, 0.36, 369.59
333.69, 0.36, 369.37
333.86, 0.36, 369.13
334.05, 0.36, 368.88
334.25, 0.36, 368.59
334.47, 0.37, 368.28
334.71, 0.37, 367.94
334.98, 0.37, 367.56
335.29, 0.37, 367.13
335.63, 0.38, 366.65
336.48, 0.23, 365.45
336.89, 0.26, 364.86
337.47, 0.26, 364.05
338.38, 0.20, 362.76
339.13, 0.22, 361.71
339.53, 0.36, 361.15
339.51, 0.59, 361.18
339.52, 0.81, 361.17
339.55, 1.03, 361.14
339.75, 1.24, 360.85
339.48, 1.49, 361.25
339.59, 1.71, 361.09
339.60, 1.93, 361.08
339.61, 2.16, 361.06
339.62, 2.39, 361.05
341.89, 2.68, 357.86
341.47, 2.94, 358.46
333.33, 0.36, 369.75
¯333.47, 0.36, 369.54
333.63, 0.36, 369.32
333.79, 0.36, 369.08
333.97, 0.36, 368.82
334.17, 0.36, 368.53
334.38, 0.37, 368.22
334.62, 0.37, 367.87
334.89, 0.37, 367.49
335.19, 0.38, 367.06
335.52, 0.38, 366.57
336.34, 0.24, 365.39
336.76, 0.26, 364.76
337.33, 0.26, 363.94
338.09, 0.23, 362.84
338.92, 0.23, 361.64
339.70, 0.28, 360.51
339.58, 0.54, 360.68
339.58, 0.77, 360.68
339.57, 1.01, 360.70
339.54, 1.24, 360.75
339.64, 1.46, 360.62
339.64, 1.70, 360.62
342.48, 2.11, 356.50
342.01, 2.40, 357.19
341.57, 2.68, 357.84
341.16, 2.94, 358.44
333.27, 0.36, 369.70
333.41, 0.36, 369.50
333.56, 0.36, 369.27
333.72, 0.36, 369.03
333.90, 0.36, 368.77
334.09, 0.36, 368.48
334.30, 0.37, 368.16
334.53, 0.37, 367.81
334.80, 0.37, 367.42
335.09, 0.38, 366.99
335.42, 0.38, 366.49
335.79, 0.38, 365.93
336.64, 0.26, 364.67
337.19, 0.26, 363.83
337.84, 0.26, 362.87
338.71, 0.24, 361.56
339.52, 0.28, 360.36
341.10, 0.21, 357.99
342.10, 0.31, 356.50
339.91, 0.93, 359.79
339.91, 1.18, 359.79
339.79, 1.43, 359.97
341.00, 1.59, 358.17
342.13, 2.11, 356.49
341.67, 2.41, 357.18
¯341.24, 2.68, 357.82
340.85, 2.93, 358.41
333.21, 0.36, 369.66
333.34, 0.36, 369.45
333.49, 0.36, 369.23
333.65, 0.36, 368.98
333.82, 0.36, 368.71
334.01, 0.36, 368.42
334.22, 0.37, 368.10
334.45, 0.37, 367.75
334.70, 0.37, 367.36
334.99, 0.38, 366.92
335.31, 0.38, 366.41
335.68, 0.38, 365.85
336.51, 0.26, 364.57
337.05, 0.26, 363.73
337.68, 0.26, 362.76
338.50, 0.25, 361.49
339.33, 0.28, 360.21
340.83, 0.22, 357.91
339.45, 0.73, 360.04
339.45, 0.97, 360.05
339.45, 1.21, 360.05
339.69, 1.43, 359.68
340.75, 1.59, 358.05
342.26, 1.80, 355.73
341.78, 2.12, 356.48
341.34, 2.41, 357.16
340.93, 2.68, 357.80
340.55, 2.93, 358.39
333.14, 0.36, 369.62
333.28, 0.36, 369.41
333.42, 0.36, 369.18
333.57, 0.36, 368.93
333.74, 0.36, 368.66
333.93, 0.36, 368.37
334.13, 0.37, 368.05
334.36, 0.37, 367.69
334.61, 0.37, 367.29
334.89, 0.38, 366.85
335.21, 0.38, 366.34
335.56, 0.39, 365.77
335.98, 0.39, 365.11
336.91, 0.26, 363.62
337.53, 0.26, 362.65
338.29, 0.26, 361.43
339.15, 0.28, 360.07
340.55, 0.23, 357.83
339.48, 0.70, 359.54
339.48, 0.94, 359.55
339.48, 1.18, 359.55
¯339.67, 1.41, 359.25
340.78, 1.58, 357.49
341.89, 1.81, 355.73
341.43, 2.12, 356.47
341.01, 2.41, 357.15
340.62, 2.68, 357.78
340.25, 2.93, 358.36
333.08, 0.36, 369.57
333.21, 0.36, 369.36
333.35, 0.36, 369.13
333.50, 0.36, 368.88
333.67, 0.36, 368.61
333.85, 0.36, 368.32
334.04, 0.37, 367.99
334.26, 0.37, 367.63
334.51, 0.37, 367.23
334.78, 0.38, 366.78
335.10, 0.38, 366.27
335.45, 0.39, 365.69
335.85, 0.39, 365.03
336.77, 0.26, 363.52
337.37, 0.26, 362.54
338.09, 0.27, 361.36
338.96, 0.28, 359.93
340.28, 0.24, 357.76
339.52, 0.65, 359.02
339.52, 0.91, 359.02
339.52, 1.16, 359.03
339.65, 1.39, 358.81
340.65, 1.57, 357.18
341.54, 1.81, 355.72
341.10, 2.13, 356.45
340.69, 2.41, 357.13
340.31, 2.68, 357.76
339.96, 2.93, 358.34
333.01, 0.36, 369.53
333.14, 0.36, 369.32
333.28, 0.36, 369.09
333.43, 0.36, 368.84
333.59, 0.36, 368.56
333.76, 0.37, 368.27
333.96, 0.37, 367.94
334.17, 0.37, 367.57
334.41, 0.37, 367.17
334.68, 0.38, 366.71
334.99, 0.38, 366.19
335.33, 0.39, 365.61
335.73, 0.39, 364.94
336.20, 0.39, 364.15
337.20, 0.26, 362.44
337.90, 0.27, 361.27
¯338.77, 0.28, 359.79
339.83, 0.29, 358.00
339.78, 0.57, 358.09
339.77, 0.83, 358.10
339.70, 1.11, 358.22
339.70, 1.37, 358.23
340.64, 1.56, 356.64
341.19, 1.82, 355.72
340.77, 2.13, 356.44
340.37, 2.42, 357.11
340.01, 2.68, 357.74
339.67, 2.93, 358.32
332.95, 0.36, 369.49
333.07, 0.36, 369.28
333.21, 0.36, 369.04
333.35, 0.36, 368.79
333.51, 0.36, 368.51
333.68, 0.37, 368.22
333.87, 0.37, 367.88
334.08, 0.37, 367.52
334.31, 0.38, 367.11
334.58, 0.38, 366.65
334.88, 0.38, 366.12
335.21, 0.39, 365.54
335.60, 0.39, 364.86
336.06, 0.39, 364.06
337.04, 0.27, 362.34
337.72, 0.27, 361.15
338.58, 0.28, 359.65
339.61, 0.29, 357.85
339.76, 0.53, 357.59
339.75, 0.80, 357.61
339.68, 1.08, 357.75
339.67, 1.35, 357.75
340.69, 1.54, 355.99
340.85, 1.83, 355.71
340.44, 2.13, 356.43
340.06, 2.42, 357.10
339.71, 2.68, 357.72
339.54, 2.94, 358.02
332.88, 0.36, 369.45
333.00, 0.36, 369.24
333.13, 0.36, 369.00
333.28, 0.36, 368.75
333.43, 0.36, 368.47
333.60, 0.37, 368.17
333.78, 0.37, 367.83
333.99, 0.37, 367.46
334.21, 0.38, 367.05
334.47, 0.38, 366.58
334.76, 0.38, 366.06
¯335.09, 0.39, 365.46
335.47, 0.39, 364.78
335.92, 0.39, 363.97
336.46, 0.40, 363.00
337.55, 0.27, 361.03
338.39, 0.28, 359.51
339.39, 0.29, 357.70
340.05, 0.43, 356.51
339.96, 0.73, 356.67
339.72, 1.05, 357.12
339.72, 1.32, 357.13
340.46, 1.54, 355.79
340.51, 1.83, 355.71
340.12, 2.14, 356.42
339.75, 2.42, 357.08
339.58, 2.69, 357.40
339.58, 2.96, 357.41
332.82, 0.36, 369.42
332.93, 0.36, 369.20
333.06, 0.36, 368.96
333.20, 0.36, 368.70
333.35, 0.36, 368.42
333.51, 0.37, 368.12
333.69, 0.37, 367.78
333.89, 0.37, 367.41
334.11, 0.38, 366.99
334.37, 0.38, 366.52
334.65, 0.38, 365.99
334.97, 0.39, 365.39
335.34, 0.39, 364.70
335.78, 0.39, 363.88
336.30, 0.40, 362.90
337.37, 0.27, 360.92
338.19, 0.28, 359.38
339.17, 0.29, 357.55
339.87, 0.42, 356.25
339.84, 0.71, 356.30
339.85, 1.00, 356.29
339.76, 1.30, 356.47
340.19, 1.54, 355.67
340.18, 1.84, 355.70
339.80, 2.14, 356.41
339.62, 2.42, 356.74
339.62, 2.70, 356.75
339.62, 2.98, 356.76
332.75, 0.36, 369.38
332.86, 0.36, 369.16
332.99, 0.36, 368.92
333.12, 0.36, 368.66
333.27, 0.36, 368.38
333.43, 0.37, 368.07
¯333.60, 0.37, 367.73
333.80, 0.37, 367.36
334.01, 0.38, 366.94
334.26, 0.38, 366.46
334.54, 0.38, 365.92
334.85, 0.39, 365.32
335.21, 0.39, 364.63
335.64, 0.39, 363.79
336.15, 0.40, 362.81
336.74, 0.41, 361.67
337.99, 0.28, 359.25
338.95, 0.29, 357.41
340.22, 0.30, 354.94
340.27, 0.91, 354.87
339.81, 1.27, 355.76
339.92, 1.55, 355.56
339.85, 1.85, 355.69
339.67, 2.14, 356.04
339.67, 2.43, 356.05
339.67, 2.72, 356.06
339.67, 3.00, 356.07
332.68, 0.36, 369.34
332.79, 0.36, 369.12
332.91, 0.36, 368.88
333.05, 0.36, 368.62
333.19, 0.36, 368.33
333.34, 0.37, 368.03
333.51, 0.37, 367.68
333.70, 0.37, 367.30
333.91, 0.38, 366.88
334.15, 0.38, 366.40
334.42, 0.38, 365.86
334.73, 0.39, 365.25
335.08, 0.39, 364.55
335.50, 0.39, 363.71
335.99, 0.40, 362.72
336.57, 0.41, 361.57
337.79, 0.28, 359.13
338.72, 0.29, 357.26
339.97, 0.30, 354.77
339.94, 0.92, 354.84
341.39, 1.06, 351.94
339.90, 1.53, 354.93
339.72, 1.84, 355.30
339.72, 2.14, 355.31
339.72, 2.43, 355.31
339.72, 2.73, 355.32
339.72, 3.03, 355.33
332.61, 0.36, 369.31
332.72, 0.36, 369.08
332.84, 0.36, 368.84
¯332.97, 0.36, 368.58
333.10, 0.36, 368.29
333.25, 0.37, 367.98
333.42, 0.37, 367.64
333.60, 0.37, 367.25
333.81, 0.38, 366.83
334.05, 0.38, 366.34
334.31, 0.38, 365.80
334.60, 0.39, 365.19
334.94, 0.39, 364.48
335.35, 0.39, 363.63
335.83, 0.40, 362.64
336.39, 0.41, 361.48
337.10, 0.41, 360.02
338.49, 0.29, 357.13
339.71, 0.30, 354.61
340.66, 0.44, 352.64
340.79, 0.75, 352.37
340.71, 1.10, 352.55
339.77, 1.83, 354.51
339.77, 2.14, 354.52
339.77, 2.44, 354.52
339.77, 2.75, 354.53
339.77, 3.05, 354.54
332.55, 0.36, 369.27
332.65, 0.36, 369.05
332.76, 0.36, 368.80
332.89, 0.36, 368.54
333.02, 0.37, 368.25
333.17, 0.37, 367.94
333.33, 0.37, 367.59
333.51, 0.37, 367.21
333.71, 0.38, 366.78
333.94, 0.38, 366.28
334.19, 0.38, 365.74
334.48, 0.39, 365.12
334.81, 0.39, 364.41
335.21, 0.39, 363.55
335.67, 0.40, 362.55
336.22, 0.41, 361.38
336.90, 0.41, 359.91
338.26, 0.29, 356.99
339.44, 0.30, 354.46
340.57, 0.40, 352.04
340.72, 0.72, 351.72
340.66, 1.08, 351.86
332.48, 0.36, 369.24
332.58, 0.36, 369.01
332.69, 0.36, 368.76
332.81, 0.36, 368.50
332.94, 0.37, 368.21
¯333.08, 0.37, 367.90
333.24, 0.37, 367.55
333.41, 0.37, 367.16
333.60, 0.38, 366.72
333.83, 0.38, 366.22
334.07, 0.38, 365.68
334.35, 0.39, 365.06
334.68, 0.39, 364.34
335.06, 0.39, 363.47
335.51, 0.40, 362.47
336.04, 0.41, 361.29
336.71, 0.41, 359.80
337.53, 0.42, 357.98
339.17, 0.30, 354.32
339.90, 0.47, 352.69
339.81, 0.82, 352.91
339.89, 1.14, 352.72
332.41, 0.36, 369.21
332.51, 0.36, 368.98
332.61, 0.36, 368.73
332.73, 0.36, 368.46
332.85, 0.37, 368.17
332.99, 0.37, 367.85
333.14, 0.37, 367.50
333.31, 0.38, 367.11
333.50, 0.38, 366.67
333.72, 0.38, 366.17
333.96, 0.38, 365.62
334.23, 0.39, 364.99
334.54, 0.39, 364.27
334.92, 0.39, 363.40
335.35, 0.40, 362.39
335.86, 0.41, 361.20
336.51, 0.41, 359.70
337.31, 0.42, 357.87
338.90, 0.31, 354.18
339.86, 0.42, 351.96
339.74, 0.78, 352.25
339.81, 1.11, 352.09
332.34, 0.36, 369.17
332.43, 0.36, 368.94
332.54, 0.36, 368.69
332.65, 0.36, 368.43
332.77, 0.37, 368.13
332.90, 0.37, 367.81
333.05, 0.37, 367.46
333.21, 0.38, 367.07
333.40, 0.38, 366.62
333.61, 0.38, 366.12
333.84, 0.38, 365.56
334.10, 0.39, 364.93
¯334.40, 0.39, 364.20
334.77, 0.39, 363.33
335.19, 0.40, 362.31
335.69, 0.41, 361.12
336.32, 0.41, 359.60
337.08, 0.43, 357.76
338.10, 0.43, 355.31
339.66, 0.75, 351.56
339.72, 1.09, 351.43
332.27, 0.36, 369.14
332.36, 0.36, 368.91
332.46, 0.36, 368.66
332.57, 0.36, 368.39
332.68, 0.37, 368.10
332.81, 0.37, 367.78
332.95, 0.37, 367.42
333.11, 0.38, 367.03
333.29, 0.38, 366.58
333.49, 0.38, 366.07
333.72, 0.38, 365.51
333.97, 0.39, 364.87
334.27, 0.39, 364.14
334.62, 0.39, 363.25
335.02, 0.40, 362.24
335.51, 0.41, 361.03
336.12, 0.41, 359.50
336.86, 0.43, 357.65
337.84, 0.43, 355.18
332.19, 0.36, 369.11
332.28, 0.36, 368.88
332.38, 0.36, 368.63
332.48, 0.36, 368.36
332.60, 0.37, 368.06
332.72, 0.37, 367.74
332.86, 0.37, 367.38
333.01, 0.38, 366.98
333.19, 0.38, 366.53
333.38, 0.38, 366.02
333.60, 0.38, 365.46
333.84, 0.39, 364.82
334.13, 0.39, 364.07
334.47, 0.39, 363.19
334.86, 0.40, 362.16
335.32, 0.41, 360.95
335.92, 0.41, 359.40
336.63, 0.43, 357.55
337.58, 0.43, 355.06
332.12, 0.36, 369.09
332.21, 0.36, 368.85
332.30, 0.36, 368.60
332.40, 0.36, 368.33
¯332.51, 0.37, 368.03
332.63, 0.37, 367.70
332.76, 0.37, 367.34
332.91, 0.38, 366.94
333.08, 0.38, 366.48
333.27, 0.38, 365.97
333.47, 0.38, 365.41
333.71, 0.39, 364.76
333.99, 0.39, 364.01
334.31, 0.39, 363.12
334.69, 0.40, 362.09
335.14, 0.41, 360.87
335.71, 0.41, 359.31
336.40, 0.43, 357.45
337.32, 0.44, 354.94
338.52, 0.45, 351.66
332.05, 0.36, 369.06
332.13, 0.36, 368.82
332.22, 0.36, 368.57
332.32, 0.36, 368.29
332.42, 0.37, 368.00
332.54, 0.37, 367.67
332.67, 0.37, 367.31
332.81, 0.38, 366.90
332.97, 0.38, 366.44
333.15, 0.38, 365.93
333.35, 0.38, 365.36
333.58, 0.39, 364.71
333.85, 0.39, 363.95
334.16, 0.40, 363.06
334.52, 0.40, 362.02
334.96, 0.41, 360.79
335.51, 0.41, 359.23
336.17, 0.43, 357.35
337.05, 0.44, 354.83
338.22, 0.45, 351.51
331.98, 0.36, 369.03
332.06, 0.36, 368.79
332.14, 0.36, 368.54
332.24, 0.36, 368.26
332.34, 0.37, 367.96
332.45, 0.37, 367.63
332.57, 0.37, 367.27
332.71, 0.38, 366.86
332.86, 0.38, 366.40
333.04, 0.38, 365.88
333.23, 0.38, 365.31
333.45, 0.39, 364.66
333.70, 0.39, 363.90
334.01, 0.40, 363.00
334.36, 0.40, 361.96
¯334.77, 0.41, 360.71
335.30, 0.42, 359.14
335.94, 0.43, 357.25
336.79, 0.44, 354.72
337.91, 0.45, 351.37
331.91, 0.36, 369.01
331.98, 0.36, 368.77
332.06, 0.36, 368.51
332.15, 0.37, 368.24
332.25, 0.37, 367.93
332.36, 0.37, 367.60
332.47, 0.37, 367.24
332.61, 0.38, 366.83
332.75, 0.38, 366.36
332.92, 0.38, 365.84
333.11, 0.38, 365.26
333.32, 0.39, 364.61
333.56, 0.39, 363.84
333.85, 0.40, 362.94
334.19, 0.40, 361.89
334.59, 0.41, 360.64
335.09, 0.42, 359.06
335.70, 0.43, 357.15
336.52, 0.44, 354.61
337.60, 0.45, 351.22
331.83, 0.36, 368.98
331.91, 0.36, 368.74
331.98, 0.36, 368.49
332.07, 0.37, 368.21
332.16, 0.37, 367.90
332.26, 0.37, 367.57
332.38, 0.37, 367.20
332.50, 0.38, 366.79
332.65, 0.38, 366.32
332.80, 0.38, 365.80
332.98, 0.38, 365.22
333.18, 0.39, 364.56
333.42, 0.39, 363.79
333.69, 0.40, 362.88
334.02, 0.40, 361.83
334.40, 0.41, 360.57
334.88, 0.42, 358.99
335.47, 0.43, 357.06
336.25, 0.44, 354.51
337.29, 0.45, 351.08
331.76, 0.36, 368.96
331.83, 0.36, 368.72
331.90, 0.36, 368.46
331.99, 0.37, 368.18
332.07, 0.37, 367.88
332.17, 0.37, 367.54
¯332.28, 0.37, 367.17
332.40, 0.38, 366.75
332.54, 0.38, 366.28
332.69, 0.38, 365.76
332.86, 0.38, 365.18
333.05, 0.39, 364.51
333.27, 0.39, 363.74
333.54, 0.40, 362.83
333.84, 0.40, 361.77
334.21, 0.41, 360.50
334.67, 0.42, 358.91
335.24, 0.43, 356.97
335.98, 0.44, 354.41
336.98, 0.45, 350.95
331.69, 0.36, 368.94
331.75, 0.36, 368.69
331.82, 0.36, 368.44
331.90, 0.37, 368.16
331.98, 0.37, 367.85
332.08, 0.37, 367.51
332.18, 0.38, 367.14
332.29, 0.38, 366.72
332.43, 0.38, 366.25
332.57, 0.38, 365.72
332.73, 0.38, 365.13
332.91, 0.39, 364.47
333.13, 0.39, 363.69
333.38, 0.40, 362.77
333.67, 0.40, 361.71
334.02, 0.41, 360.44
334.46, 0.42, 358.84
335.00, 0.43, 356.88
335.70, 0.44, 354.32
336.66, 0.45, 350.82
331.61, 0.36, 368.91
331.67, 0.36, 368.67
331.74, 0.36, 368.41
331.82, 0.37, 368.13
331.90, 0.37, 367.82
331.98, 0.37, 367.49
332.08, 0.38, 367.11
332.19, 0.38, 366.69
332.31, 0.38, 366.21
332.45, 0.38, 365.68
332.60, 0.38, 365.10
332.78, 0.39, 364.43
332.98, 0.39, 363.64
333.22, 0.40, 362.72
333.50, 0.40, 361.66
333.83, 0.41, 360.37
334.25, 0.42, 358.78
¯334.76, 0.43, 356.80
335.43, 0.44, 354.23
336.35, 0.45, 350.69
331.54, 0.36, 368.89
331.60, 0.36, 368.65
331.66, 0.36, 368.39
331.73, 0.37, 368.11
331.81, 0.37, 367.80
331.89, 0.37, 367.46
331.98, 0.38, 367.08
332.09, 0.38, 366.66
332.20, 0.38, 366.18
332.33, 0.38, 365.65
332.48, 0.38, 365.06
332.64, 0.39, 364.39
332.84, 0.39, 363.60
333.06, 0.40, 362.68
333.32, 0.40, 361.60
333.64, 0.41, 360.31
334.03, 0.42, 358.71
334.52, 0.43, 356.72
335.15, 0.44, 354.14
336.03, 0.45, 350.58
331.46, 0.36, 368.87
331.52, 0.36, 368.63
331.58, 0.36, 368.37
331.64, 0.37, 368.09
331.72, 0.37, 367.78
331.79, 0.37, 367.43
331.88, 0.38, 367.06
331.98, 0.38, 366.63
332.09, 0.38, 366.15
332.21, 0.38, 365.61
332.35, 0.38, 365.02
332.51, 0.39, 364.35
332.69, 0.39, 363.55
332.90, 0.40, 362.63
333.15, 0.40, 361.55
333.45, 0.41, 360.25
333.82, 0.42, 358.65
334.28, 0.43, 356.64
334.88, 0.44, 354.06
335.70, 0.45, 350.47
331.39, 0.36, 368.86
331.44, 0.36, 368.61
331.50, 0.36, 368.35
331.56, 0.37, 368.07
331.63, 0.37, 367.75
331.70, 0.37, 367.41
331.78, 0.38, 367.03
331.87, 0.38, 366.60
¯331.98, 0.38, 366.12
332.09, 0.38, 365.58
332.22, 0.38, 364.99
332.37, 0.39, 364.31
332.54, 0.39, 363.51
332.74, 0.40, 362.59
332.97, 0.40, 361.51
333.25, 0.41, 360.20
333.60, 0.42, 358.59
334.04, 0.43, 356.57
334.60, 0.44, 353.98
335.38, 0.45, 350.36
331.31, 0.36, 368.84
331.36, 0.36, 368.59
331.41, 0.36, 368.33
331.47, 0.37, 368.05
331.53, 0.37, 367.73
331.60, 0.37, 367.39
331.68, 0.38, 367.01
331.77, 0.38, 366.58
331.86, 0.38, 366.09
331.97, 0.38, 365.55
332.09, 0.38, 364.96
332.23, 0.39, 364.28
332.39, 0.39, 363.48
332.58, 0.40, 362.55
332.80, 0.40, 361.46
333.06, 0.41, 360.15
333.38, 0.42, 358.53
333.79, 0.43, 356.50
334.32, 0.44, 353.90
335.05, 0.45, 350.25
331.24, 0.36, 368.82
331.28, 0.36, 368.58
331.33, 0.36, 368.31
331.39, 0.37, 368.03
331.44, 0.37, 367.71
331.51, 0.37, 367.37
331.58, 0.38, 366.99
331.66, 0.38, 366.55
331.75, 0.38, 366.06
331.85, 0.38, 365.52
331.96, 0.38, 364.93
332.09, 0.39, 364.24
332.24, 0.39, 363.44
332.41, 0.40, 362.51
332.62, 0.40, 361.42
332.86, 0.41, 360.10
333.17, 0.42, 358.48
333.55, 0.43, 356.44
334.04, 0.44, 353.82
¯334.72, 0.45, 350.16
331.16, 0.36, 368.81
331.20, 0.36, 368.56
331.25, 0.36, 368.30
331.30, 0.37, 368.01
331.35, 0.37, 367.70
331.41, 0.37, 367.35
331.48, 0.38, 366.96
331.55, 0.38, 366.53
331.64, 0.38, 366.04
331.73, 0.38, 365.50
331.83, 0.38, 364.90
331.95, 0.39, 364.21
332.09, 0.39, 363.41
332.25, 0.40, 362.47
332.44, 0.40, 361.37
332.67, 0.41, 360.05
332.95, 0.42, 358.43
333.30, 0.43, 356.37
333.75, 0.44, 353.74
334.39, 0.45, 350.06
331.09, 0.36, 368.79
331.12, 0.36, 368.55
331.17, 0.36, 368.28
331.21, 0.37, 367.99
331.26, 0.37, 367.68
331.32, 0.37, 367.33
331.38, 0.38, 366.94
331.45, 0.38, 366.51
331.52, 0.38, 366.02
331.61, 0.38, 365.47
331.70, 0.38, 364.87
331.81, 0.39, 364.18
331.94, 0.39, 363.38
332.09, 0.40, 362.44
332.26, 0.40, 361.33
332.47, 0.41, 360.01
332.73, 0.42, 358.38
333.05, 0.43, 356.31
333.47, 0.44, 353.67
334.06, 0.45, 349.97
331.01, 0.36, 368.78
331.04, 0.36, 368.53
331.08, 0.36, 368.27
331.12, 0.37, 367.98
331.17, 0.37, 367.66
331.22, 0.37, 367.32
331.28, 0.38, 366.93
331.34, 0.38, 366.49
331.41, 0.38, 366.00
331.49, 0.38, 365.45
¯331.57, 0.38, 364.84
331.67, 0.39, 364.15
331.79, 0.39, 363.35
331.92, 0.40, 362.41
332.08, 0.40, 361.30
332.27, 0.41, 359.96
332.51, 0.42, 358.34
332.81, 0.43, 356.26
333.19, 0.44, 353.61
333.72, 0.45, 349.88
330.93, 0.36, 368.77
330.96, 0.36, 368.52
331.00, 0.36, 368.26
331.04, 0.37, 367.96
331.08, 0.37, 367.65
331.12, 0.37, 367.30
331.17, 0.38, 366.91
331.23, 0.38, 366.47
331.29, 0.38, 365.98
331.36, 0.38, 365.43
331.44, 0.38, 364.82
331.53, 0.39, 364.13
331.64, 0.39, 363.32
331.76, 0.40, 362.38
331.90, 0.40, 361.26
332.08, 0.41, 359.93
332.29, 0.42, 358.30
332.56, 0.43, 356.21
333.09, 0.31, 352.08
330.86, 0.36, 368.76
330.88, 0.36, 368.51
330.92, 0.36, 368.24
330.95, 0.37, 367.95
330.99, 0.37, 367.63
331.03, 0.37, 367.29
331.07, 0.38, 366.89
331.12, 0.38, 366.45
331.18, 0.38, 365.96
331.24, 0.38, 365.41
331.31, 0.38, 364.80
331.39, 0.39, 364.11
331.48, 0.39, 363.29
331.59, 0.40, 362.35
331.72, 0.40, 361.23
331.88, 0.41, 359.89
332.06, 0.42, 358.26
332.45, 0.30, 354.90
332.78, 0.31, 352.02
330.78, 0.36, 368.75
330.80, 0.36, 368.50
330.83, 0.37, 368.23
¯330.86, 0.37, 367.94
330.89, 0.37, 367.62
330.93, 0.37, 367.27
330.97, 0.38, 366.88
331.01, 0.38, 366.44
331.06, 0.38, 365.94
331.12, 0.38, 365.39
331.18, 0.38, 364.78
331.25, 0.39, 364.08
331.33, 0.39, 363.27
331.43, 0.40, 362.32
331.54, 0.40, 361.20
331.78, 0.28, 358.86
331.95, 0.29, 357.13
332.18, 0.30, 354.86
332.47, 0.31, 351.96
330.70, 0.36, 368.74
330.72, 0.36, 368.49
330.75, 0.37, 368.22
330.77, 0.37, 367.93
330.80, 0.37, 367.61
330.83, 0.37, 367.26
330.86, 0.38, 366.87
330.90, 0.38, 366.42
330.95, 0.38, 365.93
330.99, 0.38, 365.37
331.05, 0.38, 364.76
331.11, 0.39, 364.06
331.18, 0.39, 363.25
331.26, 0.40, 362.30
331.44, 0.27, 360.30
331.56, 0.28, 358.83
331.71, 0.29, 357.09
331.91, 0.30, 354.81
332.16, 0.31, 351.91
330.63, 0.36, 368.73
330.64, 0.36, 368.48
330.66, 0.37, 368.21
330.68, 0.37, 367.92
330.71, 0.37, 367.60
330.73, 0.37, 367.25
330.76, 0.38, 366.86
330.79, 0.38, 366.41
330.83, 0.38, 365.91
330.87, 0.38, 365.36
330.92, 0.38, 364.75
330.97, 0.39, 364.05
331.03, 0.39, 363.23
331.15, 0.27, 361.46
331.24, 0.27, 360.27
331.35, 0.28, 358.81
¯331.47, 0.29, 357.06
331.64, 0.30, 354.75
331.85, 0.31, 351.86
330.55, 0.36, 368.73
330.56, 0.36, 368.48
330.58, 0.37, 368.21
330.60, 0.37, 367.91
330.61, 0.37, 367.59
330.64, 0.37, 367.24
330.66, 0.38, 366.85
330.68, 0.38, 366.40
330.71, 0.38, 365.90
330.75, 0.38, 365.35
330.78, 0.38, 364.73
330.82, 0.39, 364.03
330.92, 0.26, 362.44
330.98, 0.26, 361.43
331.05, 0.27, 360.25
331.13, 0.28, 358.78
331.24, 0.29, 357.03
331.37, 0.29, 354.69
331.54, 0.31, 351.81
330.47, 0.36, 368.72
330.48, 0.36, 368.47
330.49, 0.37, 368.20
330.51, 0.37, 367.91
330.52, 0.37, 367.59
330.54, 0.37, 367.24
330.56, 0.38, 366.84
330.58, 0.38, 366.39
330.60, 0.38, 365.89
330.62, 0.38, 365.34
330.65, 0.38, 364.72
330.71, 0.26, 363.33
330.75, 0.26, 362.42
330.80, 0.26, 361.40
330.85, 0.27, 360.23
330.92, 0.28, 358.76
331.00, 0.29, 357.00
331.10, 0.29, 354.65
331.23, 0.31, 351.77
331.25, 0.60, 351.38
331.25, 0.92, 351.43
331.25, 1.24, 351.43
331.25, 1.56, 351.43
331.26, 1.88, 351.43
331.26, 2.20, 351.40
330.39, 0.36, 368.72
330.40, 0.36, 368.47
330.41, 0.37, 368.20
330.42, 0.37, 367.90
¯330.43, 0.37, 367.58
330.44, 0.37, 367.23
330.45, 0.38, 366.83
330.47, 0.38, 366.38
330.48, 0.38, 365.88
330.50, 0.38, 365.33
330.54, 0.25, 364.06
330.56, 0.26, 363.31
330.59, 0.26, 362.41
330.62, 0.26, 361.38
330.66, 0.27, 360.20
330.70, 0.28, 358.74
330.75, 0.29, 356.98
330.83, 0.29, 354.62
330.92, 0.31, 351.74
330.92, 0.62, 351.56
330.92, 0.94, 351.59
330.93, 1.25, 351.59
330.93, 1.57, 351.59
330.93, 1.89, 351.59
330.93, 2.21, 351.58
330.32, 0.36, 368.71
330.32, 0.36, 368.46
330.32, 0.37, 368.19
330.33, 0.37, 367.90
330.34, 0.37, 367.58
330.34, 0.37, 367.23
330.35, 0.38, 366.82
330.36, 0.38, 366.38
330.36, 0.38, 365.88
330.38, 0.24, 364.71
330.39, 0.25, 364.05
330.41, 0.26, 363.31
330.42, 0.26, 362.40
330.44, 0.26, 361.36
330.46, 0.27, 360.17
330.48, 0.28, 358.73
330.51, 0.29, 356.96
330.55, 0.29, 354.60
330.60, 0.31, 351.71
330.61, 0.60, 351.38
330.61, 0.93, 351.43
330.61, 1.25, 351.43
330.61, 1.57, 351.44
330.62, 1.89, 351.44
330.62, 2.21, 351.42
330.24, 0.36, 368.71
330.24, 0.36, 368.46
330.24, 0.37, 368.19
330.24, 0.37, 367.90
330.24, 0.37, 367.58
¯330.24, 0.37, 367.22
330.24, 0.38, 366.82
330.25, 0.38, 366.37
330.25, 0.24, 365.28
330.25, 0.24, 364.70
330.25, 0.25, 364.05
330.25, 0.26, 363.30
330.26, 0.26, 362.39
330.26, 0.26, 361.34
330.26, 0.27, 360.15
330.27, 0.28, 358.72
330.27, 0.29, 356.94
330.27, 0.68, 358.29
330.27, 0.90, 358.29
330.27, 1.13, 358.29
330.27, 1.35, 358.29
330.28, 1.58, 358.29
330.28, 1.80, 358.29
330.28, 2.02, 358.28
330.28, 2.25, 358.23
330.16, 0.36, 368.71
330.16, 0.36, 368.46
330.16, 0.37, 368.19
330.15, 0.37, 367.90
330.15, 0.37, 367.57
330.14, 0.37, 367.22
330.14, 0.36, 366.76
330.13, 0.24, 365.82
330.12, 0.24, 365.28
330.12, 0.24, 364.70
330.11, 0.25, 364.04
330.10, 0.26, 363.30
330.09, 0.26, 362.39
330.08, 0.26, 361.32
330.07, 0.27, 360.13
330.05, 0.28, 358.71
330.05, 0.45, 358.28
330.05, 0.69, 358.40
330.05, 0.91, 358.41
330.05, 1.14, 358.40
330.05, 1.36, 358.40
330.05, 1.58, 358.40
330.06, 1.80, 358.40
330.06, 2.03, 358.40
330.06, 2.25, 358.37
330.06, 2.47, 358.12
330.08, 0.36, 368.71
330.08, 0.36, 368.46
330.07, 0.37, 368.19
330.06, 0.37, 367.89
330.05, 0.37, 367.57
¯330.04, 0.35, 367.12
330.02, 0.24, 366.30
330.01, 0.24, 365.82
330.00, 0.24, 365.28
329.98, 0.24, 364.70
329.97, 0.25, 364.04
329.95, 0.26, 363.29
329.92, 0.26, 362.39
329.90, 0.26, 361.32
329.87, 0.27, 360.13
329.83, 0.28, 358.69
329.82, 0.45, 358.23
329.83, 0.69, 358.37
329.83, 0.91, 358.38
329.83, 1.14, 358.38
329.83, 1.36, 358.38
329.83, 1.58, 358.38
329.83, 1.80, 358.38
329.83, 2.03, 358.38
329.84, 2.25, 358.35
330.01, 0.36, 368.71
330.00, 0.36, 368.46
329.99, 0.37, 368.19
329.97, 0.37, 367.90
329.96, 0.34, 367.46
329.93, 0.24, 366.73
329.91, 0.24, 366.30
329.89, 0.24, 365.82
329.87, 0.24, 365.28
329.85, 0.24, 364.70
329.82, 0.25, 364.04
329.79, 0.26, 363.29
329.76, 0.26, 362.39
329.72, 0.26, 361.32
329.67, 0.27, 360.13
329.61, 0.28, 358.67
329.55, 0.29, 356.92
329.59, 0.66, 358.06
329.60, 0.89, 358.12
329.60, 1.12, 358.12
329.60, 1.35, 358.13
329.60, 1.57, 358.13
329.60, 1.80, 358.14
329.60, 2.02, 358.14
329.93, 0.36, 368.71
329.91, 0.36, 368.46
329.90, 0.37, 368.19
329.88, 0.33, 367.78
329.84, 0.24, 367.12
329.82, 0.24, 366.73
329.80, 0.24, 366.30
¯329.77, 0.24, 365.82
329.75, 0.24, 365.28
329.71, 0.24, 364.70
329.68, 0.25, 364.04
329.64, 0.26, 363.30
329.59, 0.26, 362.39
329.54, 0.26, 361.32
329.47, 0.27, 360.13
329.39, 0.28, 358.65
329.30, 0.29, 356.90
329.18, 0.30, 354.62
329.04, 0.35, 352.01
329.85, 0.36, 368.72
329.83, 0.36, 368.47
329.81, 0.34, 368.11
329.77, 0.23, 367.46
329.74, 0.24, 367.12
329.72, 0.24, 366.74
329.69, 0.24, 366.30
329.66, 0.24, 365.83
329.62, 0.24, 365.29
329.58, 0.24, 364.71
329.54, 0.25, 364.05
329.49, 0.26, 363.30
329.43, 0.26, 362.39
329.35, 0.26, 361.33
329.27, 0.27, 360.13
329.18, 0.27, 358.65
329.06, 0.29, 356.88
328.91, 0.30, 354.62
328.74, 0.36, 352.13
329.77, 0.36, 368.72
329.75, 0.35, 368.43
329.70, 0.23, 367.78
329.67, 0.23, 367.46
329.64, 0.23, 367.12
329.61, 0.24, 366.74
329.58, 0.24, 366.31
329.54, 0.24, 365.83
329.49, 0.24, 365.29
329.45, 0.24, 364.71
329.39, 0.25, 364.05
329.33, 0.26, 363.31
329.26, 0.26, 362.40
329.17, 0.26, 361.33
329.08, 0.27, 360.14
328.96, 0.27, 358.66
328.81, 0.29, 356.87
328.63, 0.30, 354.62
328.43, 0.36, 352.16
329.70, 0.36, 368.73
¯329.63, 0.23, 368.07
329.61, 0.23, 367.78
329.58, 0.23, 367.47
329.54, 0.23, 367.12
329.51, 0.24, 366.74
329.47, 0.24, 366.32
329.42, 0.24, 365.84
329.37, 0.24, 365.30
329.31, 0.24, 364.72
329.25, 0.25, 364.06
329.18, 0.26, 363.31
329.09, 0.26, 362.41
328.99, 0.26, 361.34
328.88, 0.27, 360.15
328.74, 0.27, 358.67
328.57, 0.28, 356.86
328.35, 0.30, 354.63
328.12, 0.36, 352.19
329.58, 0.22, 368.35
329.55, 0.22, 368.08
329.51, 0.23, 367.79
329.48, 0.23, 367.47
329.44, 0.23, 367.13
329.40, 0.24, 366.75
329.35, 0.24, 366.33
329.30, 0.24, 365.85
329.24, 0.24, 365.31
329.18, 0.24, 364.73
329.11, 0.25, 364.07
329.03, 0.26, 363.33
328.93, 0.26, 362.42
328.81, 0.26, 361.35
328.68, 0.27, 360.16
328.52, 0.27, 358.68
328.32, 0.28, 356.86
328.08, 0.30, 354.68
327.84, 0.38, 352.43
329.49, 0.22, 368.35
329.46, 0.22, 368.08
329.42, 0.23, 367.79
329.38, 0.23, 367.48
329.34, 0.23, 367.13
329.30, 0.23, 366.76
329.24, 0.24, 366.34
329.18, 0.24, 365.86
329.12, 0.24, 365.32
329.05, 0.24, 364.74
328.97, 0.25, 364.09
328.87, 0.26, 363.34
328.76, 0.26, 362.43
328.63, 0.26, 361.37
¯328.48, 0.27, 360.17
328.30, 0.27, 358.70
328.07, 0.28, 356.85
327.83, 0.33, 354.90
327.56, 0.40, 352.67
329.41, 0.22, 368.36
329.37, 0.22, 368.09
329.33, 0.23, 367.80
329.29, 0.23, 367.49
329.24, 0.23, 367.14
329.19, 0.23, 366.76
329.13, 0.24, 366.35
329.07, 0.24, 365.87
328.99, 0.24, 365.34
328.91, 0.24, 364.75
328.82, 0.25, 364.10
328.72, 0.26, 363.35
328.60, 0.26, 362.45
328.45, 0.26, 361.39
328.29, 0.27, 360.19
328.08, 0.27, 358.72
327.82, 0.27, 356.81
327.58, 0.34, 355.02
327.28, 0.42, 352.90
329.33, 0.22, 368.37
329.29, 0.22, 368.10
329.24, 0.22, 367.81
329.19, 0.23, 367.50
329.14, 0.23, 367.15
329.08, 0.23, 366.77
329.02, 0.24, 366.36
328.95, 0.24, 365.89
328.87, 0.24, 365.35
328.78, 0.24, 364.77
328.68, 0.25, 364.12
328.57, 0.26, 363.37
328.43, 0.26, 362.47
328.27, 0.26, 361.41
328.09, 0.27, 360.21
327.86, 0.27, 358.73
327.57, 0.27, 356.78
327.30, 0.33, 355.00
327.01, 0.44, 353.10
329.24, 0.22, 368.38
329.20, 0.22, 368.11
329.15, 0.22, 367.82
329.10, 0.23, 367.51
329.04, 0.23, 367.16
328.98, 0.23, 366.78
328.91, 0.23, 366.37
328.83, 0.24, 365.90
¯328.74, 0.24, 365.37
328.65, 0.24, 364.79
328.54, 0.25, 364.13
328.42, 0.26, 363.39
328.27, 0.26, 362.49
328.09, 0.26, 361.44
327.89, 0.27, 360.24
327.64, 0.27, 358.74
327.32, 0.26, 356.77
327.02, 0.33, 354.98
326.74, 0.45, 353.31
326.23, 0.52, 350.23
329.16, 0.22, 368.39
329.11, 0.22, 368.12
329.06, 0.22, 367.83
329.00, 0.22, 367.52
328.94, 0.23, 367.17
328.87, 0.23, 366.80
328.80, 0.23, 366.38
328.72, 0.24, 365.92
328.62, 0.24, 365.39
328.51, 0.24, 364.81
328.40, 0.25, 364.15
328.26, 0.26, 363.41
328.10, 0.26, 362.52
327.92, 0.27, 361.52
327.69, 0.27, 360.26
327.42, 0.27, 358.76
327.07, 0.26, 356.79
326.74, 0.32, 354.96
326.48, 0.47, 353.51
325.92, 0.53, 350.46
329.08, 0.22, 368.41
329.03, 0.22, 368.13
328.97, 0.22, 367.84
328.91, 0.22, 367.53
328.84, 0.23, 367.19
328.77, 0.23, 366.81
328.69, 0.23, 366.39
328.60, 0.24, 365.93
328.50, 0.24, 365.41
328.38, 0.24, 364.83
328.26, 0.25, 364.18
328.11, 0.25, 363.43
327.95, 0.26, 362.59
327.75, 0.27, 361.59
327.50, 0.27, 360.29
327.21, 0.27, 358.79
326.82, 0.26, 356.80
326.46, 0.31, 354.95
326.21, 0.48, 353.66
¯325.58, 0.53, 350.45
329.00, 0.22, 368.42
328.94, 0.22, 368.15
328.88, 0.22, 367.86
328.81, 0.22, 367.54
328.74, 0.23, 367.20
328.66, 0.23, 366.83
328.58, 0.23, 366.41
328.48, 0.23, 365.95
328.37, 0.24, 365.43
328.25, 0.24, 364.85
328.11, 0.25, 364.20
327.96, 0.25, 363.46
327.79, 0.27, 362.66
327.58, 0.28, 361.67
327.30, 0.27, 360.32
326.99, 0.27, 358.83
326.57, 0.25, 356.83
326.17, 0.31, 354.93
325.93, 0.48, 353.76
325.24, 0.53, 350.47
328.92, 0.22, 368.44
328.86, 0.22, 368.17
328.79, 0.22, 367.87
328.72, 0.22, 367.56
328.64, 0.22, 367.22
328.56, 0.23, 366.84
328.47, 0.23, 366.43
328.36, 0.23, 365.97
328.25, 0.24, 365.45
328.12, 0.24, 364.88
327.97, 0.25, 364.23
327.81, 0.25, 363.49
327.64, 0.28, 362.73
327.42, 0.29, 361.75
327.11, 0.27, 360.37
326.77, 0.27, 358.87
326.32, 0.25, 356.85
325.91, 0.31, 355.04
325.65, 0.49, 353.87
324.89, 0.52, 350.49
328.84, 0.22, 368.46
328.77, 0.22, 368.19
328.70, 0.22, 367.89
328.63, 0.22, 367.58
328.54, 0.22, 367.24
328.45, 0.23, 366.86
328.35, 0.23, 366.45
328.25, 0.23, 365.99
328.12, 0.24, 365.47
327.99, 0.24, 364.90
¯327.83, 0.25, 364.26
327.66, 0.25, 363.52
327.48, 0.28, 362.77
327.25, 0.30, 361.84
326.93, 0.28, 360.50
326.56, 0.27, 358.92
326.09, 0.26, 356.97
325.66, 0.32, 355.17
325.38, 0.49, 353.98
324.56, 0.52, 350.53
328.75, 0.22, 368.48
328.69, 0.22, 368.21
328.61, 0.22, 367.91
328.53, 0.22, 367.60
328.44, 0.22, 367.25
328.35, 0.22, 366.88
328.24, 0.23, 366.47
328.13, 0.23, 366.01
328.00, 0.24, 365.50
327.85, 0.24, 364.93
327.69, 0.25, 364.29
327.50, 0.25, 363.55
327.31, 0.28, 362.80
327.09, 0.30, 361.92
326.76, 0.29, 360.63
