žVERSION 0.7
FIELDS x y z
SIZE 8 8 8
TYPE F F F
COUNT 1 1 1
WIDTH 2271
HEIGHT 1
VIEWPOINT 369.14, 8.94, 335.99 1 383.34, 2.19, 349.33
POINTS 2271
DATA ascii
390.37, 0.05, 352.77
391.09, 0.05, 353.14
391.92, 0.05, 353.57
392.89, 0.05, 354.06
387.87, 1.13, 351.54
387.84, 1.25, 351.53
387.82, 1.37, 351.52
387.80, 1.49, 351.52
387.79, 1.61, 351.52
387.77, 1.72, 351.52
387.76, 1.84, 351.52
387.75, 1.95, 351.52
384.93, 0.14, 349.90
385.11, 0.13, 349.99
385.30, 0.13, 350.08
385.50, 0.12, 350.18
385.72, 0.12, 350.29
385.95, 0.11, 350.40
386.21, 0.10, 350.53
386.49, 0.09, 350.67
386.79, 0.09, 350.82
387.11, 0.08, 350.98
387.46, 0.07, 351.15
387.86, 0.07, 351.35
388.29, 0.06, 351.56
388.75, 0.05, 351.79
389.26, 0.05, 352.04
389.83, 0.05, 352.33
390.47, 0.05, 352.64
391.20, 0.05, 353.01
392.04, 0.05, 353.42
393.02, 0.05, 353.91
394.18, 0.05, 354.49
¯395.57, 0.05, 355.18
397.23, 0.06, 356.00
399.26, 0.07, 357.01
401.74, 0.09, 358.24
384.97, 0.14, 349.84
385.14, 0.13, 349.92
385.34, 0.13, 350.01
385.54, 0.12, 350.11
385.76, 0.12, 350.22
386.00, 0.11, 350.33
386.26, 0.10, 350.45
386.54, 0.09, 350.59
386.84, 0.09, 350.73
387.17, 0.08, 350.89
387.53, 0.08, 351.06
387.92, 0.07, 351.25
388.36, 0.06, 351.46
388.83, 0.05, 351.68
389.34, 0.05, 351.93
389.92, 0.05, 352.21
390.57, 0.05, 352.52
391.31, 0.05, 352.87
392.16, 0.05, 353.28
393.16, 0.05, 353.76
394.33, 0.05, 354.32
395.74, 0.05, 355.00
397.44, 0.06, 355.81
399.51, 0.07, 356.80
402.02, 0.09, 358.01
385.00, 0.14, 349.77
385.18, 0.13, 349.86
385.38, 0.13, 349.95
385.58, 0.12, 350.04
385.81, 0.12, 350.14
386.05, 0.11, 350.25
386.31, 0.10, 350.37
386.59, 0.10, 350.51
386.89, 0.09, 350.65
387.22, 0.08, 350.80
387.58, 0.08, 350.96
387.98, 0.07, 351.15
388.43, 0.06, 351.35
388.91, 0.05, 351.58
389.43, 0.05, 351.82
390.01, 0.05, 352.08
390.67, 0.05, 352.39
391.42, 0.05, 352.74
392.28, 0.05, 353.14
393.29, 0.05, 353.60
394.49, 0.05, 354.15
395.91, 0.06, 354.81
¯397.66, 0.06, 355.62
399.75, 0.07, 356.59
402.30, 0.09, 357.77
385.04, 0.14, 349.71
385.22, 0.13, 349.79
385.41, 0.13, 349.88
385.62, 0.12, 349.97
385.85, 0.12, 350.07
386.09, 0.11, 350.18
386.35, 0.10, 350.30
386.64, 0.10, 350.42
386.95, 0.09, 350.56
387.28, 0.08, 350.71
387.64, 0.08, 350.87
388.05, 0.07, 351.05
388.49, 0.06, 351.25
388.98, 0.06, 351.46
389.51, 0.05, 351.70
390.10, 0.05, 351.96
390.77, 0.05, 352.26
391.53, 0.05, 352.60
392.40, 0.05, 352.99
393.43, 0.05, 353.44
394.64, 0.05, 353.98
396.06, 0.06, 354.62
397.87, 0.06, 355.42
399.98, 0.07, 356.36
402.57, 0.10, 357.52
385.07, 0.14, 349.65
385.26, 0.14, 349.73
385.45, 0.13, 349.81
385.66, 0.12, 349.90
385.89, 0.12, 350.00
386.14, 0.11, 350.10
386.40, 0.10, 350.22
386.69, 0.10, 350.34
387.00, 0.09, 350.47
387.33, 0.09, 350.61
387.70, 0.08, 350.77
388.11, 0.07, 350.95
388.56, 0.06, 351.14
389.05, 0.06, 351.35
389.59, 0.05, 351.58
390.19, 0.05, 351.84
390.86, 0.05, 352.13
391.63, 0.05, 352.46
392.52, 0.05, 352.84
393.56, 0.05, 353.28
394.79, 0.05, 353.81
396.22, 0.06, 354.42
398.06, 0.06, 355.21
¯400.20, 0.07, 356.13
402.80, 0.10, 357.25
385.10, 0.14, 349.58
385.29, 0.14, 349.66
385.49, 0.13, 349.74
385.70, 0.12, 349.83
385.93, 0.12, 349.92
386.18, 0.11, 350.03
386.45, 0.11, 350.14
386.74, 0.10, 350.25
387.05, 0.09, 350.38
387.39, 0.09, 350.52
387.76, 0.08, 350.67
388.17, 0.07, 350.84
388.62, 0.07, 351.03
389.12, 0.06, 351.23
389.67, 0.06, 351.46
390.28, 0.05, 351.71
390.96, 0.05, 351.99
391.74, 0.05, 352.32
392.64, 0.05, 352.69
393.70, 0.05, 353.12
394.93, 0.06, 353.63
396.37, 0.07, 354.23
398.19, 0.07, 354.98
400.43, 0.07, 355.90
403.03, 0.11, 356.98
385.14, 0.14, 349.52
385.33, 0.14, 349.59
385.53, 0.13, 349.67
385.74, 0.13, 349.76
385.97, 0.12, 349.85
386.22, 0.11, 349.95
386.49, 0.11, 350.05
386.78, 0.10, 350.17
387.10, 0.09, 350.29
387.44, 0.09, 350.43
387.81, 0.08, 350.58
388.23, 0.07, 350.74
388.69, 0.07, 350.92
389.18, 0.06, 351.12
389.74, 0.06, 351.34
390.37, 0.05, 351.59
391.06, 0.05, 351.86
391.85, 0.05, 352.17
392.76, 0.05, 352.54
393.83, 0.05, 352.96
395.06, 0.06, 353.45
396.53, 0.07, 354.03
398.31, 0.08, 354.73
400.66, 0.08, 355.67
¯403.27, 0.12, 356.70
385.17, 0.14, 349.45
385.36, 0.14, 349.53
385.56, 0.13, 349.60
385.78, 0.13, 349.69
386.01, 0.12, 349.77
386.26, 0.11, 349.87
386.54, 0.11, 349.97
386.83, 0.10, 350.08
387.14, 0.09, 350.20
387.49, 0.09, 350.33
387.87, 0.08, 350.48
388.29, 0.08, 350.64
388.75, 0.07, 350.81
389.25, 0.07, 351.00
389.81, 0.06, 351.22
390.45, 0.06, 351.46
391.15, 0.05, 351.73
391.96, 0.05, 352.03
392.88, 0.05, 352.38
393.96, 0.05, 352.79
395.21, 0.06, 353.27
396.69, 0.07, 353.83
398.42, 0.09, 354.49
400.89, 0.08, 355.43
403.43, 0.13, 356.39
385.19, 0.15, 349.39
385.39, 0.14, 349.46
385.59, 0.13, 349.53
385.81, 0.13, 349.61
386.05, 0.12, 349.70
386.30, 0.11, 349.79
386.58, 0.11, 349.89
386.87, 0.10, 350.00
387.19, 0.10, 350.11
387.54, 0.09, 350.24
387.92, 0.08, 350.38
388.34, 0.08, 350.53
388.81, 0.07, 350.70
389.31, 0.07, 350.88
389.88, 0.06, 351.09
390.53, 0.06, 351.33
391.25, 0.05, 351.59
392.06, 0.05, 351.88
393.00, 0.05, 352.23
394.10, 0.05, 352.63
395.35, 0.06, 353.08
396.81, 0.08, 353.61
398.54, 0.10, 354.25
401.12, 0.08, 355.19
403.46, 0.16, 356.04
¯385.22, 0.15, 349.32
385.42, 0.14, 349.39
385.62, 0.14, 349.46
385.85, 0.13, 349.54
386.09, 0.12, 349.62
386.34, 0.12, 349.71
386.62, 0.11, 349.81
386.92, 0.10, 349.91
387.24, 0.10, 350.02
387.59, 0.09, 350.14
387.97, 0.09, 350.28
388.40, 0.08, 350.42
388.87, 0.07, 350.59
389.38, 0.07, 350.77
389.95, 0.07, 350.96
390.61, 0.06, 351.19
391.34, 0.06, 351.45
392.17, 0.05, 351.74
393.12, 0.05, 352.07
394.23, 0.05, 352.46
395.49, 0.06, 352.90
396.85, 0.10, 353.37
398.67, 0.11, 354.01
401.36, 0.08, 354.94
403.50, 0.19, 355.69
385.25, 0.15, 349.25
385.45, 0.14, 349.32
385.65, 0.14, 349.39
385.88, 0.13, 349.46
386.12, 0.12, 349.54
386.38, 0.12, 349.63
386.66, 0.11, 349.72
386.96, 0.10, 349.82
387.28, 0.10, 349.93
387.64, 0.09, 350.05
388.03, 0.09, 350.18
388.46, 0.08, 350.32
388.93, 0.08, 350.47
389.44, 0.07, 350.65
390.02, 0.07, 350.84
390.69, 0.06, 351.06
391.43, 0.06, 351.31
392.27, 0.05, 351.59
393.23, 0.05, 351.91
394.36, 0.05, 352.28
395.64, 0.07, 352.71
396.86, 0.12, 353.12
398.83, 0.12, 353.78
401.58, 0.09, 354.69
403.54, 0.21, 355.35
385.28, 0.15, 349.19
¯385.47, 0.15, 349.25
385.68, 0.14, 349.32
385.91, 0.13, 349.39
386.15, 0.13, 349.46
386.42, 0.12, 349.55
386.70, 0.11, 349.64
387.00, 0.10, 349.73
387.33, 0.10, 349.84
387.69, 0.09, 349.95
388.08, 0.09, 350.07
388.51, 0.08, 350.21
388.98, 0.08, 350.36
389.50, 0.07, 350.52
390.10, 0.07, 350.71
390.77, 0.06, 350.93
391.52, 0.06, 351.16
392.37, 0.06, 351.43
393.35, 0.05, 351.75
394.50, 0.05, 352.11
395.66, 0.09, 352.48
396.86, 0.14, 352.87
399.10, 0.11, 353.58
401.63, 0.11, 354.38
403.57, 0.24, 355.00
385.30, 0.15, 349.12
385.50, 0.15, 349.18
385.71, 0.14, 349.24
385.94, 0.14, 349.31
386.19, 0.13, 349.38
386.45, 0.12, 349.46
386.74, 0.11, 349.55
387.04, 0.11, 349.64
387.37, 0.10, 349.74
387.73, 0.10, 349.85
388.13, 0.09, 349.97
388.57, 0.08, 350.10
389.04, 0.08, 350.24
389.57, 0.08, 350.40
390.17, 0.07, 350.59
390.85, 0.06, 350.79
391.60, 0.06, 351.02
392.44, 0.06, 351.27
393.47, 0.05, 351.58
394.62, 0.06, 351.93
395.67, 0.11, 352.25
396.86, 0.17, 352.61
399.27, 0.11, 353.34
401.67, 0.13, 354.06
403.63, 0.26, 354.67
385.33, 0.16, 349.05
385.53, 0.15, 349.11
¯385.74, 0.14, 349.17
385.97, 0.14, 349.23
386.22, 0.13, 349.31
386.48, 0.12, 349.38
386.78, 0.11, 349.47
387.08, 0.11, 349.55
387.42, 0.10, 349.65
387.78, 0.10, 349.75
388.18, 0.09, 349.87
388.62, 0.08, 349.99
389.09, 0.08, 350.13
389.63, 0.08, 350.28
390.25, 0.07, 350.46
390.93, 0.06, 350.65
391.69, 0.06, 350.87
392.49, 0.07, 351.10
393.54, 0.06, 351.41
394.74, 0.06, 351.75
395.67, 0.13, 352.02
396.86, 0.19, 352.37
399.40, 0.13, 353.09
401.71, 0.16, 353.75
403.73, 0.28, 354.34
385.35, 0.16, 348.98
385.55, 0.15, 349.04
385.77, 0.15, 349.10
386.00, 0.14, 349.16
386.25, 0.13, 349.22
386.52, 0.12, 349.30
386.81, 0.12, 349.38
387.12, 0.11, 349.46
387.46, 0.10, 349.55
387.82, 0.10, 349.65
388.23, 0.09, 349.76
388.67, 0.09, 349.88
389.15, 0.08, 350.01
389.70, 0.08, 350.16
390.32, 0.07, 350.33
391.01, 0.06, 350.52
391.77, 0.06, 350.72
392.54, 0.08, 350.93
393.61, 0.07, 351.23
394.75, 0.08, 351.54
395.67, 0.15, 351.79
396.86, 0.21, 352.12
399.52, 0.14, 352.84
401.72, 0.18, 353.44
403.84, 0.30, 354.02
385.38, 0.16, 348.91
385.58, 0.16, 348.97
385.79, 0.15, 349.02
¯386.02, 0.14, 349.08
386.28, 0.14, 349.14
386.55, 0.13, 349.21
386.85, 0.12, 349.29
387.16, 0.11, 349.37
387.49, 0.11, 349.46
387.87, 0.10, 349.55
388.27, 0.09, 349.66
388.72, 0.09, 349.77
389.21, 0.08, 349.90
389.77, 0.08, 350.04
390.39, 0.07, 350.20
391.08, 0.07, 350.38
391.81, 0.07, 350.56
392.59, 0.09, 350.77
393.68, 0.08, 351.05
394.80, 0.09, 351.33
395.68, 0.17, 351.56
396.88, 0.23, 351.88
399.55, 0.16, 352.56
401.67, 0.21, 353.11
403.94, 0.32, 353.70
385.40, 0.16, 348.85
385.60, 0.16, 348.89
385.82, 0.15, 348.95
386.05, 0.15, 349.00
386.31, 0.14, 349.06
386.58, 0.13, 349.13
386.88, 0.12, 349.20
387.19, 0.11, 349.28
387.53, 0.11, 349.36
387.91, 0.10, 349.45
388.32, 0.10, 349.55
388.77, 0.09, 349.66
389.27, 0.08, 349.78
389.83, 0.08, 349.91
390.46, 0.07, 350.07
391.16, 0.07, 350.23
391.86, 0.08, 350.41
392.65, 0.10, 350.60
393.75, 0.09, 350.86
394.85, 0.10, 351.13
395.73, 0.19, 351.35
396.96, 0.25, 351.65
399.50, 0.19, 352.26
401.61, 0.25, 352.78
403.97, 0.34, 353.36
385.42, 0.17, 348.78
385.62, 0.16, 348.82
385.84, 0.15, 348.87
386.08, 0.15, 348.92
¯386.34, 0.14, 348.98
386.62, 0.13, 349.05
386.91, 0.12, 349.11
387.22, 0.12, 349.18
387.57, 0.11, 349.26
387.94, 0.11, 349.35
388.36, 0.10, 349.44
388.82, 0.09, 349.55
389.33, 0.08, 349.66
389.89, 0.08, 349.79
390.53, 0.07, 349.93
391.21, 0.07, 350.09
391.90, 0.09, 350.25
392.71, 0.11, 350.43
393.82, 0.09, 350.68
394.90, 0.12, 350.93
395.78, 0.20, 351.14
397.06, 0.26, 351.43
399.44, 0.22, 351.97
401.55, 0.28, 352.46
403.88, 0.38, 352.99
385.44, 0.17, 348.71
385.65, 0.16, 348.75
385.86, 0.16, 348.80
386.10, 0.15, 348.85
386.36, 0.14, 348.90
386.65, 0.13, 348.96
386.94, 0.12, 349.02
387.26, 0.12, 349.09
387.60, 0.11, 349.16
387.98, 0.11, 349.24
388.40, 0.10, 349.33
388.87, 0.09, 349.43
389.38, 0.09, 349.54
389.96, 0.08, 349.66
390.60, 0.07, 349.80
391.25, 0.08, 349.94
391.95, 0.10, 350.09
392.77, 0.12, 350.26
393.90, 0.10, 350.50
394.95, 0.13, 350.73
395.83, 0.21, 350.92
397.17, 0.26, 351.21
399.38, 0.25, 351.68
401.49, 0.31, 352.13
403.80, 0.41, 352.63
385.46, 0.17, 348.64
385.67, 0.16, 348.68
385.89, 0.16, 348.72
386.13, 0.15, 348.77
386.39, 0.14, 348.82
¯386.68, 0.13, 348.87
386.97, 0.13, 348.93
387.29, 0.12, 349.00
387.64, 0.12, 349.06
388.02, 0.11, 349.14
388.44, 0.10, 349.22
388.92, 0.09, 349.32
389.43, 0.09, 349.42
390.01, 0.08, 349.53
390.67, 0.07, 349.66
391.29, 0.09, 349.79
391.99, 0.11, 349.93
392.82, 0.12, 350.09
393.97, 0.11, 350.32
395.00, 0.14, 350.53
395.89, 0.23, 350.71
397.29, 0.27, 350.99
399.47, 0.26, 351.42
401.43, 0.34, 351.82
403.71, 0.45, 352.28
385.48, 0.17, 348.57
385.69, 0.17, 348.60
385.91, 0.16, 348.64
386.16, 0.15, 348.69
386.42, 0.14, 348.74
386.70, 0.13, 348.79
387.00, 0.13, 348.84
387.32, 0.12, 348.90
387.67, 0.12, 348.96
388.05, 0.11, 349.04
388.49, 0.10, 349.11
388.96, 0.10, 349.20
389.48, 0.09, 349.30
390.07, 0.08, 349.40
390.72, 0.08, 349.52
391.33, 0.10, 349.64
392.03, 0.12, 349.77
392.87, 0.13, 349.92
394.05, 0.11, 350.14
395.05, 0.15, 350.32
395.94, 0.24, 350.49
397.40, 0.28, 350.77
399.67, 0.27, 351.18
401.40, 0.37, 351.51
403.63, 0.48, 351.93
385.50, 0.17, 348.49
385.71, 0.17, 348.53
385.93, 0.16, 348.57
386.18, 0.15, 348.61
386.44, 0.14, 348.65
386.73, 0.14, 348.70
¯387.03, 0.13, 348.75
387.35, 0.13, 348.81
387.70, 0.12, 348.86
388.09, 0.12, 348.93
388.53, 0.11, 349.00
389.01, 0.10, 349.08
389.53, 0.09, 349.17
390.12, 0.08, 349.27
390.77, 0.08, 349.38
391.38, 0.10, 349.49
392.07, 0.13, 349.61
392.94, 0.14, 349.75
394.12, 0.12, 349.95
395.09, 0.17, 350.12
395.99, 0.25, 350.28
397.60, 0.27, 350.55
399.84, 0.27, 350.93
401.48, 0.39, 351.22
403.55, 0.52, 351.58
385.52, 0.18, 348.42
385.73, 0.17, 348.46
385.96, 0.16, 348.49
386.20, 0.15, 348.53
386.47, 0.15, 348.57
386.76, 0.14, 348.61
387.05, 0.13, 348.66
387.38, 0.13, 348.71
387.73, 0.12, 348.76
388.13, 0.12, 348.83
388.57, 0.11, 348.89
389.05, 0.10, 348.97
389.58, 0.09, 349.05
390.18, 0.09, 349.14
390.82, 0.08, 349.24
391.44, 0.11, 349.34
392.13, 0.13, 349.45
393.00, 0.14, 349.58
394.20, 0.13, 349.77
395.14, 0.18, 349.92
396.04, 0.27, 350.06
398.02, 0.24, 350.37
399.91, 0.29, 350.67
401.57, 0.40, 350.93
403.62, 0.54, 351.26
385.53, 0.18, 348.35
385.75, 0.17, 348.38
385.98, 0.16, 348.41
386.23, 0.16, 348.45
386.49, 0.15, 348.49
386.78, 0.14, 348.53
387.08, 0.14, 348.57
¯387.41, 0.13, 348.61
387.76, 0.13, 348.66
388.17, 0.12, 348.72
388.61, 0.11, 348.78
389.09, 0.10, 348.85
389.63, 0.10, 348.92
390.24, 0.09, 349.01
390.88, 0.09, 349.10
391.50, 0.11, 349.19
392.20, 0.14, 349.29
393.03, 0.16, 349.41
394.26, 0.13, 349.58
395.18, 0.19, 349.71
396.08, 0.28, 349.85
398.45, 0.21, 350.18
399.98, 0.30, 350.40
401.64, 0.42, 350.64
403.70, 0.56, 350.94
385.55, 0.18, 348.28
385.77, 0.17, 348.31
386.00, 0.17, 348.34
386.25, 0.16, 348.37
386.52, 0.15, 348.40
386.80, 0.14, 348.44
387.11, 0.14, 348.48
387.43, 0.13, 348.52
387.80, 0.13, 348.56
388.20, 0.12, 348.61
388.65, 0.11, 348.67
389.14, 0.10, 348.73
389.67, 0.10, 348.80
390.30, 0.09, 348.88
390.93, 0.09, 348.96
391.55, 0.11, 349.04
392.23, 0.15, 349.12
393.06, 0.17, 349.23
394.30, 0.14, 349.39
395.21, 0.21, 349.51
396.13, 0.29, 349.63
398.62, 0.21, 349.94
400.05, 0.32, 350.13
401.70, 0.44, 350.35
403.75, 0.58, 350.62
385.57, 0.18, 348.21
385.78, 0.17, 348.23
386.02, 0.17, 348.26
386.27, 0.16, 348.29
386.54, 0.15, 348.32
386.83, 0.14, 348.35
387.13, 0.14, 348.38
387.46, 0.14, 348.42
¯387.83, 0.13, 348.46
388.24, 0.12, 348.51
388.69, 0.11, 348.56
389.18, 0.11, 348.61
389.72, 0.10, 348.67
390.35, 0.09, 348.74
390.98, 0.09, 348.81
391.61, 0.12, 348.88
392.24, 0.16, 348.96
393.09, 0.18, 349.06
394.30, 0.16, 349.19
395.21, 0.22, 349.30
396.14, 0.31, 349.41
398.72, 0.22, 349.69
400.12, 0.33, 349.86
401.76, 0.46, 350.05
403.80, 0.60, 350.29
385.59, 0.18, 348.14
385.80, 0.18, 348.16
386.04, 0.17, 348.18
386.29, 0.16, 348.20
386.56, 0.15, 348.23
386.85, 0.15, 348.26
387.15, 0.14, 348.29
387.49, 0.14, 348.32
387.86, 0.13, 348.36
388.27, 0.12, 348.40
388.73, 0.11, 348.44
389.21, 0.11, 348.49
389.77, 0.10, 348.54
390.41, 0.09, 348.61
391.03, 0.10, 348.67
391.67, 0.12, 348.73
392.26, 0.17, 348.79
393.11, 0.19, 348.88
394.31, 0.18, 349.00
395.21, 0.24, 349.09
396.28, 0.31, 349.20
398.78, 0.24, 349.44
400.18, 0.35, 349.59
401.82, 0.48, 349.76
403.85, 0.62, 349.97
385.60, 0.18, 348.06
385.82, 0.18, 348.08
386.05, 0.17, 348.10
386.31, 0.16, 348.12
386.58, 0.15, 348.15
386.87, 0.15, 348.17
387.17, 0.15, 348.19
387.51, 0.14, 348.22
387.89, 0.13, 348.25
¯388.30, 0.12, 348.29
388.76, 0.11, 348.33
389.25, 0.11, 348.37
389.82, 0.10, 348.41
390.47, 0.09, 348.47
391.08, 0.10, 348.52
391.69, 0.13, 348.57
392.27, 0.18, 348.63
393.14, 0.20, 348.70
394.31, 0.19, 348.80
395.21, 0.26, 348.88
396.75, 0.27, 349.01
398.82, 0.25, 349.19
400.24, 0.37, 349.31
401.88, 0.50, 349.46
403.90, 0.65, 349.64
385.61, 0.19, 347.99
385.83, 0.18, 348.01
386.07, 0.17, 348.02
386.32, 0.17, 348.04
386.60, 0.16, 348.06
386.89, 0.15, 348.08
387.20, 0.15, 348.10
387.54, 0.14, 348.12
387.92, 0.13, 348.15
388.34, 0.12, 348.18
388.79, 0.12, 348.21
389.29, 0.11, 348.24
389.87, 0.10, 348.28
390.52, 0.09, 348.33
391.12, 0.10, 348.37
391.70, 0.14, 348.42
392.29, 0.19, 348.46
393.16, 0.21, 348.52
394.31, 0.21, 348.61
395.21, 0.28, 348.67
397.27, 0.22, 348.81
398.87, 0.27, 348.93
400.31, 0.38, 349.04
401.97, 0.51, 349.17
404.03, 0.66, 349.32
385.63, 0.19, 347.92
385.85, 0.18, 347.93
386.08, 0.17, 347.94
386.34, 0.17, 347.96
386.62, 0.16, 347.97
386.91, 0.15, 347.99
387.22, 0.15, 348.01
387.57, 0.14, 348.02
387.95, 0.13, 348.05
388.37, 0.13, 348.07
¯388.83, 0.12, 348.09
389.33, 0.11, 348.12
389.92, 0.10, 348.15
390.57, 0.09, 348.19
391.17, 0.11, 348.22
391.71, 0.15, 348.26
392.30, 0.21, 348.30
393.18, 0.22, 348.35
394.31, 0.23, 348.41
395.21, 0.30, 348.47
397.56, 0.20, 348.59
398.91, 0.29, 348.67
400.38, 0.40, 348.76
402.09, 0.53, 348.87
404.16, 0.68, 349.00
385.64, 0.19, 347.85
385.86, 0.18, 347.85
386.10, 0.18, 347.86
386.36, 0.17, 347.87
386.63, 0.16, 347.88
386.92, 0.16, 347.90
387.24, 0.15, 347.91
387.59, 0.14, 347.92
387.97, 0.14, 347.94
388.40, 0.13, 347.96
388.86, 0.12, 347.98
389.37, 0.11, 348.00
389.96, 0.10, 348.02
390.63, 0.09, 348.05
391.18, 0.12, 348.07
391.72, 0.17, 348.10
392.31, 0.22, 348.13
393.19, 0.24, 348.17
394.31, 0.24, 348.22
395.35, 0.29, 348.26
397.61, 0.21, 348.35
398.96, 0.30, 348.42
400.44, 0.41, 348.49
402.21, 0.54, 348.57
404.30, 0.70, 348.67
385.65, 0.19, 347.77
385.87, 0.19, 347.78
386.11, 0.18, 347.78
386.37, 0.17, 347.79
386.65, 0.16, 347.80
386.94, 0.16, 347.81
387.26, 0.15, 347.81
387.61, 0.14, 347.82
388.00, 0.14, 347.83
388.42, 0.13, 347.84
388.89, 0.12, 347.86
¯389.41, 0.11, 347.87
390.01, 0.10, 347.89
390.67, 0.09, 347.91
391.19, 0.13, 347.92
391.73, 0.18, 347.94
392.32, 0.23, 347.96
393.19, 0.25, 347.99
394.31, 0.26, 348.02
395.73, 0.26, 348.06
397.65, 0.23, 348.11
399.01, 0.32, 348.16
400.51, 0.43, 348.21
402.33, 0.56, 348.27
404.45, 0.71, 348.34
385.66, 0.19, 347.70
385.89, 0.19, 347.70
386.12, 0.18, 347.70
386.38, 0.17, 347.71
386.66, 0.16, 347.71
386.96, 0.16, 347.71
387.28, 0.15, 347.72
387.63, 0.15, 347.72
388.02, 0.14, 347.73
388.45, 0.13, 347.73
388.92, 0.12, 347.74
389.45, 0.11, 347.75
390.05, 0.10, 347.75
390.71, 0.09, 347.76
391.20, 0.14, 347.77
391.74, 0.19, 347.78
392.33, 0.24, 347.80
393.19, 0.27, 347.81
394.30, 0.28, 347.83
396.12, 0.22, 347.85
397.69, 0.24, 347.87
399.06, 0.33, 347.90
400.57, 0.44, 347.93
402.44, 0.57, 347.97
404.59, 0.73, 348.01
385.67, 0.20, 347.62
385.89, 0.19, 347.62
386.14, 0.18, 347.62
386.39, 0.18, 347.62
386.68, 0.17, 347.62
386.97, 0.16, 347.62
387.30, 0.16, 347.62
387.65, 0.15, 347.62
388.04, 0.14, 347.62
388.47, 0.13, 347.62
388.95, 0.13, 347.62
389.48, 0.12, 347.62
¯390.08, 0.10, 347.62
390.71, 0.10, 347.62
391.21, 0.15, 347.62
391.74, 0.20, 347.63
392.33, 0.25, 347.63
393.18, 0.28, 347.63
394.29, 0.29, 347.63
396.49, 0.18, 347.63
397.74, 0.25, 347.63
399.12, 0.34, 347.64
400.65, 0.46, 347.65
402.56, 0.58, 347.66
404.55, 0.76, 347.67
385.68, 0.20, 347.55
385.90, 0.19, 347.55
386.14, 0.19, 347.54
386.40, 0.18, 347.54
386.69, 0.17, 347.53
386.99, 0.16, 347.53
387.31, 0.16, 347.52
387.67, 0.15, 347.52
388.06, 0.15, 347.51
388.49, 0.14, 347.51
388.95, 0.13, 347.50
389.49, 0.12, 347.49
390.09, 0.11, 347.48
390.72, 0.11, 347.47
391.21, 0.16, 347.47
391.74, 0.21, 347.47
392.34, 0.27, 347.46
393.15, 0.30, 347.45
394.26, 0.31, 347.44
396.54, 0.19, 347.40
397.80, 0.26, 347.39
399.20, 0.36, 347.38
400.35, 0.51, 347.37
402.11, 0.64, 347.36
404.14, 0.81, 347.34
385.68, 0.20, 347.47
385.91, 0.19, 347.47
386.15, 0.19, 347.46
386.41, 0.18, 347.45
386.70, 0.17, 347.44
387.00, 0.17, 347.44
387.32, 0.16, 347.43
387.68, 0.16, 347.42
388.07, 0.15, 347.40
388.50, 0.14, 347.39
388.96, 0.14, 347.38
389.49, 0.13, 347.36
390.09, 0.12, 347.35
¯390.72, 0.12, 347.33
391.21, 0.17, 347.32
391.74, 0.22, 347.31
392.33, 0.28, 347.30
393.12, 0.32, 347.28
394.76, 0.25, 347.23
396.60, 0.20, 347.17
397.87, 0.28, 347.14
399.29, 0.37, 347.11
400.21, 0.54, 347.10
401.70, 0.70, 347.07
403.59, 0.87, 347.03
405.28, 1.11, 347.00
385.69, 0.20, 347.40
385.91, 0.20, 347.39
386.16, 0.19, 347.38
386.42, 0.18, 347.37
386.70, 0.18, 347.35
387.00, 0.17, 347.34
387.33, 0.17, 347.33
387.69, 0.16, 347.31
388.08, 0.15, 347.30
388.50, 0.15, 347.28
388.96, 0.15, 347.26
389.49, 0.14, 347.24
390.10, 0.13, 347.21
390.71, 0.14, 347.18
391.21, 0.18, 347.17
391.74, 0.23, 347.15
392.31, 0.30, 347.13
393.10, 0.34, 347.10
395.07, 0.22, 347.01
396.65, 0.21, 346.94
397.95, 0.28, 346.89
399.37, 0.38, 346.84
400.08, 0.58, 346.83
401.29, 0.76, 346.79
403.06, 0.93, 346.73
404.89, 1.15, 346.68
385.69, 0.21, 347.32
385.92, 0.20, 347.31
386.16, 0.19, 347.30
386.43, 0.19, 347.28
386.71, 0.18, 347.27
387.01, 0.17, 347.25
387.34, 0.17, 347.23
387.70, 0.16, 347.21
388.09, 0.16, 347.19
388.50, 0.16, 347.16
388.96, 0.16, 347.14
389.50, 0.15, 347.11
¯390.10, 0.14, 347.07
390.71, 0.15, 347.04
391.20, 0.19, 347.02
391.74, 0.25, 346.99
392.29, 0.31, 346.96
393.06, 0.35, 346.93
395.39, 0.19, 346.78
396.71, 0.22, 346.71
398.03, 0.29, 346.64
399.37, 0.40, 346.58
399.95, 0.61, 346.56
400.89, 0.81, 346.53
402.54, 0.99, 346.45
404.50, 1.20, 346.36
385.70, 0.21, 347.25
385.92, 0.20, 347.23
386.17, 0.20, 347.22
386.43, 0.19, 347.20
386.72, 0.18, 347.18
387.02, 0.18, 347.15
387.35, 0.17, 347.13
387.71, 0.17, 347.11
388.10, 0.16, 347.08
388.50, 0.17, 347.05
388.96, 0.16, 347.02
389.50, 0.16, 346.98
390.09, 0.15, 346.94
390.71, 0.16, 346.89
391.20, 0.20, 346.86
391.74, 0.26, 346.83
392.27, 0.33, 346.80
393.03, 0.37, 346.75
395.55, 0.18, 346.56
396.76, 0.23, 346.48
398.11, 0.30, 346.39
399.24, 0.43, 346.32
399.82, 0.64, 346.30
400.50, 0.86, 346.27
402.09, 1.04, 346.17
404.04, 1.25, 346.05
385.70, 0.21, 347.17
385.93, 0.21, 347.15
386.17, 0.20, 347.13
386.43, 0.19, 347.11
386.72, 0.19, 347.09
387.02, 0.18, 347.06
387.35, 0.18, 347.03
387.71, 0.17, 347.00
388.10, 0.17, 346.97
388.49, 0.17, 346.94
388.96, 0.17, 346.90
¯389.49, 0.17, 346.85
390.09, 0.16, 346.80
390.70, 0.17, 346.75
391.20, 0.22, 346.71
391.72, 0.27, 346.67
392.25, 0.34, 346.63
393.00, 0.39, 346.58
395.60, 0.19, 346.34
396.81, 0.24, 346.24
398.19, 0.31, 346.13
399.12, 0.46, 346.07
399.69, 0.68, 346.04
400.29, 0.90, 346.01
401.69, 1.09, 345.91
403.50, 1.30, 345.77
385.70, 0.21, 347.10
385.93, 0.21, 347.08
386.17, 0.20, 347.05
386.44, 0.20, 347.02
386.72, 0.19, 347.00
387.03, 0.18, 346.97
387.36, 0.18, 346.93
387.72, 0.17, 346.90
388.10, 0.18, 346.86
388.49, 0.18, 346.82
388.95, 0.18, 346.78
389.49, 0.17, 346.72
390.08, 0.17, 346.67
390.70, 0.18, 346.61
391.19, 0.23, 346.56
391.70, 0.29, 346.52
392.23, 0.36, 346.47
392.96, 0.41, 346.40
395.64, 0.19, 346.12
396.87, 0.25, 346.01
398.27, 0.32, 345.88
399.00, 0.50, 345.82
399.56, 0.71, 345.78
400.16, 0.93, 345.74
401.16, 1.15, 345.66
402.30, 1.38, 345.57
403.60, 1.65, 345.46
405.02, 1.94, 345.35
385.70, 0.22, 347.02
385.93, 0.21, 347.00
386.17, 0.21, 346.97
386.44, 0.20, 346.94
386.73, 0.19, 346.91
387.03, 0.19, 346.87
387.36, 0.18, 346.83
387.72, 0.18, 346.79
¯388.09, 0.18, 346.75
388.49, 0.19, 346.71
388.95, 0.19, 346.66
389.49, 0.18, 346.60
390.07, 0.18, 346.53
390.69, 0.19, 346.46
391.18, 0.24, 346.41
391.68, 0.30, 346.36
392.21, 0.37, 346.31
392.93, 0.43, 346.23
395.69, 0.20, 345.90
396.93, 0.26, 345.77
398.13, 0.35, 345.64
398.73, 0.54, 345.59
399.23, 0.76, 345.55
399.76, 0.98, 345.51
400.30, 1.22, 345.47
401.30, 1.45, 345.38
402.23, 1.72, 345.30
403.45, 2.00, 345.18
385.70, 0.22, 346.95
385.93, 0.21, 346.92
386.17, 0.21, 346.89
386.44, 0.20, 346.85
386.73, 0.20, 346.81
387.03, 0.19, 346.78
387.36, 0.19, 346.73
387.73, 0.18, 346.69
388.09, 0.19, 346.64
388.48, 0.20, 346.59
388.94, 0.20, 346.54
389.48, 0.19, 346.47
390.06, 0.19, 346.39
390.68, 0.20, 346.32
391.18, 0.25, 346.26
391.66, 0.31, 346.20
392.19, 0.38, 346.14
392.89, 0.44, 346.06
395.74, 0.21, 345.68
396.60, 0.32, 345.58
397.60, 0.43, 345.46
398.36, 0.60, 345.38
398.83, 0.81, 345.34
399.34, 1.03, 345.29
399.88, 1.27, 345.25
400.36, 1.52, 345.21
401.46, 1.76, 345.09
402.17, 2.05, 345.02
385.70, 0.22, 346.87
385.93, 0.22, 346.84
386.17, 0.21, 346.80
¯386.44, 0.21, 346.77
386.73, 0.20, 346.72
387.03, 0.20, 346.68
387.37, 0.19, 346.63
387.72, 0.19, 346.58
388.08, 0.20, 346.53
388.47, 0.20, 346.48
388.93, 0.20, 346.41
389.47, 0.20, 346.34
390.04, 0.20, 346.26
390.67, 0.21, 346.17
391.15, 0.26, 346.11
391.64, 0.33, 346.04
392.17, 0.40, 345.98
394.68, 0.17, 345.60
395.82, 0.21, 345.45
396.38, 0.36, 345.38
397.10, 0.51, 345.29
398.01, 0.65, 345.18
398.45, 0.86, 345.13
398.94, 1.08, 345.08
399.45, 1.31, 345.03
399.94, 1.56, 344.98
400.45, 1.82, 344.93
401.53, 2.08, 344.81
385.70, 0.23, 346.79
385.92, 0.22, 346.76
386.17, 0.22, 346.72
386.44, 0.21, 346.68
386.73, 0.20, 346.63
387.03, 0.20, 346.59
387.37, 0.19, 346.53
387.71, 0.20, 346.48
388.07, 0.20, 346.42
388.47, 0.21, 346.36
388.92, 0.21, 346.29
389.45, 0.21, 346.21
390.03, 0.21, 346.12
390.66, 0.22, 346.02
391.13, 0.27, 345.96
391.62, 0.34, 345.89
392.15, 0.41, 345.81
394.75, 0.17, 345.39
395.89, 0.22, 345.21
396.24, 0.39, 345.18
396.62, 0.58, 345.13
397.62, 0.71, 344.99
398.10, 0.91, 344.93
398.54, 1.13, 344.88
399.04, 1.36, 344.83
399.54, 1.60, 344.77
¯400.00, 1.85, 344.72
400.59, 2.12, 344.65
385.69, 0.23, 346.72
385.92, 0.22, 346.68
386.17, 0.22, 346.64
386.43, 0.21, 346.59
386.72, 0.21, 346.54
387.03, 0.20, 346.49
387.36, 0.20, 346.43
387.70, 0.20, 346.38
388.06, 0.21, 346.32
388.46, 0.22, 346.25
388.91, 0.22, 346.17
389.44, 0.22, 346.08
390.01, 0.22, 345.99
390.65, 0.23, 345.88
391.11, 0.29, 345.81
391.59, 0.35, 345.73
392.12, 0.43, 345.65
394.81, 0.18, 345.17
395.83, 0.24, 345.00
396.10, 0.43, 344.97
396.38, 0.62, 344.94
397.12, 0.77, 344.83
397.76, 0.96, 344.74
398.18, 1.17, 344.69
398.64, 1.40, 344.63
399.14, 1.64, 344.57
399.60, 1.89, 344.51
400.06, 2.15, 344.46
385.69, 0.23, 346.64
385.92, 0.23, 346.60
386.16, 0.22, 346.55
386.43, 0.22, 346.50
386.72, 0.21, 346.45
387.03, 0.21, 346.39
387.36, 0.20, 346.33
387.69, 0.21, 346.27
388.05, 0.22, 346.21
388.44, 0.23, 346.14
388.90, 0.23, 346.05
389.42, 0.23, 345.96
390.00, 0.23, 345.85
390.64, 0.24, 345.73
391.09, 0.30, 345.66
391.57, 0.37, 345.57
392.10, 0.44, 345.48
394.87, 0.18, 344.95
395.70, 0.27, 344.81
395.97, 0.46, 344.77
396.24, 0.65, 344.74
¯396.64, 0.84, 344.68
397.43, 1.00, 344.55
397.84, 1.22, 344.50
398.27, 1.44, 344.44
398.74, 1.67, 344.37
399.21, 1.92, 344.31
399.65, 2.18, 344.25
385.68, 0.23, 346.57
385.91, 0.23, 346.52
386.16, 0.23, 346.47
386.42, 0.22, 346.42
386.71, 0.21, 346.36
387.02, 0.21, 346.30
387.35, 0.21, 346.23
387.68, 0.22, 346.17
388.04, 0.22, 346.10
388.43, 0.23, 346.02
388.89, 0.24, 345.93
389.40, 0.24, 345.83
389.98, 0.24, 345.72
390.61, 0.25, 345.59
391.06, 0.31, 345.51
391.54, 0.38, 345.42
392.07, 0.45, 345.32
394.94, 0.18, 344.73
395.57, 0.30, 344.61
395.83, 0.49, 344.58
396.10, 0.68, 344.54
396.39, 0.88, 344.50
397.12, 1.05, 344.37
397.51, 1.26, 344.31
397.93, 1.48, 344.25
398.36, 1.71, 344.18
398.83, 1.95, 344.11
399.26, 2.21, 344.05
385.68, 0.24, 346.49
385.90, 0.23, 346.44
386.15, 0.23, 346.39
386.42, 0.22, 346.33
386.71, 0.22, 346.27
387.02, 0.21, 346.20
387.34, 0.22, 346.13
387.67, 0.22, 346.07
388.03, 0.23, 345.99
388.42, 0.24, 345.91
388.87, 0.25, 345.81
389.38, 0.25, 345.70
389.96, 0.25, 345.58
390.58, 0.26, 345.45
391.04, 0.32, 345.36
391.52, 0.39, 345.26
¯392.10, 0.46, 345.14
395.00, 0.18, 344.50
395.43, 0.33, 344.42
395.70, 0.52, 344.38
395.97, 0.71, 344.34
396.25, 0.91, 344.30
396.65, 1.10, 344.23
397.19, 1.30, 344.13
397.59, 1.51, 344.07
398.01, 1.74, 344.00
398.45, 1.98, 343.93
398.89, 2.23, 343.86
385.67, 0.24, 346.41
385.90, 0.24, 346.36
386.14, 0.23, 346.30
386.41, 0.23, 346.24
386.70, 0.22, 346.18
387.01, 0.22, 346.11
387.32, 0.22, 346.04
387.65, 0.23, 345.96
388.01, 0.24, 345.88
388.40, 0.25, 345.79
388.85, 0.26, 345.69
389.37, 0.26, 345.57
389.94, 0.26, 345.44
390.55, 0.28, 345.31
391.01, 0.34, 345.21
391.49, 0.41, 345.10
393.71, 0.20, 344.58
395.06, 0.18, 344.27
395.31, 0.36, 344.23
395.56, 0.55, 344.19
395.83, 0.74, 344.15
396.11, 0.93, 344.10
396.39, 1.14, 344.06
396.88, 1.33, 343.96
397.27, 1.55, 343.89
397.67, 1.77, 343.82
398.09, 2.01, 343.75
398.47, 2.26, 343.68
385.66, 0.24, 346.34
385.89, 0.24, 346.28
386.13, 0.24, 346.22
386.40, 0.23, 346.16
386.69, 0.22, 346.08
387.00, 0.22, 346.01
387.31, 0.23, 345.94
387.64, 0.24, 345.86
387.99, 0.25, 345.77
388.39, 0.26, 345.68
388.83, 0.26, 345.57
¯389.35, 0.27, 345.45
389.93, 0.27, 345.31
390.51, 0.29, 345.17
390.98, 0.35, 345.06
391.46, 0.42, 344.95
393.79, 0.19, 344.36
394.93, 0.22, 344.09
395.18, 0.39, 344.05
395.43, 0.58, 344.00
395.70, 0.77, 343.95
395.97, 0.96, 343.91
396.25, 1.16, 343.86
396.58, 1.37, 343.79
396.93, 1.58, 343.73
397.25, 1.81, 343.67
397.59, 2.04, 343.61
397.93, 2.29, 343.55
385.65, 0.25, 346.26
385.88, 0.24, 346.20
386.13, 0.24, 346.14
386.39, 0.23, 346.07
386.68, 0.23, 345.99
386.99, 0.23, 345.91
387.29, 0.23, 345.84
387.62, 0.24, 345.75
387.98, 0.25, 345.66
388.38, 0.26, 345.56
388.81, 0.27, 345.45
389.33, 0.28, 345.32
389.91, 0.28, 345.17
390.47, 0.30, 345.03
390.95, 0.36, 344.91
391.43, 0.43, 344.79
393.86, 0.19, 344.14
394.81, 0.24, 343.91
395.05, 0.42, 343.86
395.30, 0.61, 343.81
395.56, 0.80, 343.76
395.78, 0.99, 343.72
396.00, 1.20, 343.69
396.21, 1.41, 343.65
396.48, 1.63, 343.60
396.79, 1.85, 343.54
397.11, 2.07, 343.48
397.44, 2.31, 343.42
385.64, 0.25, 346.18
385.87, 0.25, 346.12
386.11, 0.24, 346.05
386.38, 0.24, 345.98
386.67, 0.23, 345.90
386.97, 0.23, 345.82
¯387.27, 0.24, 345.74
387.60, 0.25, 345.65
387.96, 0.26, 345.55
388.36, 0.27, 345.45
388.79, 0.28, 345.33
389.31, 0.28, 345.19
389.89, 0.29, 345.03
390.43, 0.32, 344.89
390.92, 0.37, 344.76
391.40, 0.44, 344.63
393.93, 0.19, 343.92
394.66, 0.28, 343.73
394.84, 0.46, 343.70
395.03, 0.65, 343.67
395.23, 0.84, 343.63
395.43, 1.04, 343.60
395.63, 1.24, 343.56
395.84, 1.45, 343.52
396.05, 1.66, 343.48
396.32, 1.88, 343.43
396.65, 2.10, 343.36
396.96, 2.33, 343.30
385.63, 0.25, 346.11
385.86, 0.25, 346.04
386.10, 0.25, 345.97
386.37, 0.24, 345.89
386.66, 0.24, 345.81
386.95, 0.24, 345.73
387.26, 0.25, 345.64
387.59, 0.26, 345.55
387.95, 0.26, 345.44
388.34, 0.27, 345.33
388.77, 0.29, 345.21
389.28, 0.29, 345.06
389.86, 0.30, 344.90
390.39, 0.33, 344.75
390.89, 0.38, 344.61
391.46, 0.44, 344.45
393.86, 0.21, 343.74
394.22, 0.35, 343.65
394.52, 0.52, 343.58
394.70, 0.70, 343.54
394.89, 0.89, 343.51
395.08, 1.09, 343.47
395.28, 1.29, 343.43
395.48, 1.49, 343.40
395.68, 1.70, 343.36
395.89, 1.91, 343.32
396.15, 2.13, 343.26
396.51, 2.36, 343.18
385.61, 0.26, 346.03
¯385.84, 0.25, 345.96
386.09, 0.25, 345.89
386.36, 0.24, 345.81
386.65, 0.24, 345.72
386.94, 0.24, 345.63
387.24, 0.25, 345.54
387.57, 0.26, 345.44
387.93, 0.27, 345.33
388.32, 0.28, 345.22
388.75, 0.30, 345.09
389.26, 0.30, 344.93
389.82, 0.31, 344.77
390.35, 0.34, 344.61
390.86, 0.40, 344.46
392.18, 0.32, 344.05
393.35, 0.30, 343.70
393.68, 0.44, 343.61
394.04, 0.59, 343.52
394.34, 0.76, 343.44
394.56, 0.94, 343.39
394.75, 1.13, 343.35
394.94, 1.33, 343.31
395.13, 1.53, 343.27
395.32, 1.73, 343.23
395.52, 1.94, 343.19
395.73, 2.16, 343.15
395.99, 2.38, 343.09
385.60, 0.26, 345.96
385.83, 0.26, 345.88
386.07, 0.25, 345.80
386.34, 0.25, 345.72
386.63, 0.24, 345.63
386.92, 0.25, 345.54
387.22, 0.26, 345.44
387.55, 0.27, 345.34
387.91, 0.28, 345.22
388.30, 0.29, 345.10
388.72, 0.30, 344.97
389.24, 0.31, 344.80
389.78, 0.32, 344.63
390.31, 0.36, 344.47
390.83, 0.41, 344.31
392.57, 0.25, 343.74
392.87, 0.39, 343.66
393.18, 0.53, 343.57
393.51, 0.67, 343.48
393.85, 0.83, 343.39
394.17, 0.99, 343.30
394.40, 1.18, 343.25
394.61, 1.37, 343.20
394.79, 1.56, 343.16
¯394.98, 1.76, 343.12
395.17, 1.97, 343.08
395.37, 2.18, 343.03
395.58, 2.40, 342.99
385.58, 0.26, 345.88
385.81, 0.26, 345.80
386.06, 0.26, 345.72
386.32, 0.25, 345.63
386.61, 0.25, 345.54
386.90, 0.25, 345.44
387.20, 0.26, 345.34
387.53, 0.27, 345.23
387.89, 0.28, 345.11
388.28, 0.30, 344.99
388.70, 0.31, 344.85
389.21, 0.32, 344.68
389.74, 0.34, 344.50
390.26, 0.37, 344.33
390.79, 0.42, 344.16
392.44, 0.28, 343.60
392.53, 0.45, 343.58
392.71, 0.61, 343.54
393.02, 0.75, 343.45
393.34, 0.90, 343.36
393.67, 1.06, 343.26
394.00, 1.22, 343.17
394.22, 1.41, 343.11
394.45, 1.60, 343.05
394.65, 1.80, 343.01
394.84, 2.00, 342.96
395.03, 2.21, 342.92
395.22, 2.42, 342.88
385.57, 0.27, 345.80
385.80, 0.26, 345.72
386.04, 0.26, 345.64
386.31, 0.26, 345.55
386.59, 0.25, 345.45
386.88, 0.26, 345.35
387.18, 0.27, 345.24
387.51, 0.28, 345.13
387.87, 0.29, 345.00
388.25, 0.30, 344.87
388.67, 0.32, 344.73
389.18, 0.33, 344.55
389.69, 0.35, 344.37
390.22, 0.38, 344.19
390.76, 0.43, 344.01
392.31, 0.31, 343.45
392.40, 0.48, 343.44
392.48, 0.65, 343.43
392.57, 0.82, 343.41
¯392.85, 0.97, 343.33
393.17, 1.12, 343.23
393.50, 1.28, 343.14
393.83, 1.45, 343.03
394.05, 1.64, 342.98
394.27, 1.83, 342.92
394.50, 2.03, 342.86
394.69, 2.23, 342.81
394.88, 2.44, 342.77
385.55, 0.27, 345.73
385.78, 0.27, 345.64
386.02, 0.26, 345.56
386.29, 0.26, 345.46
386.57, 0.26, 345.36
386.86, 0.26, 345.25
387.16, 0.27, 345.14
387.49, 0.28, 345.02
387.85, 0.29, 344.89
388.23, 0.31, 344.76
388.64, 0.33, 344.61
389.15, 0.34, 344.42
389.65, 0.36, 344.24
390.17, 0.40, 344.05
390.72, 0.44, 343.86
392.18, 0.34, 343.31
392.27, 0.51, 343.30
392.35, 0.67, 343.29
392.44, 0.84, 343.27
392.52, 1.01, 343.26
392.69, 1.18, 343.21
393.00, 1.34, 343.12
393.32, 1.50, 343.01
393.66, 1.67, 342.91
393.88, 1.86, 342.85
394.10, 2.05, 342.78
394.32, 2.25, 342.72
394.55, 2.46, 342.66
385.53, 0.27, 345.65
385.76, 0.27, 345.57
386.00, 0.27, 345.47
386.26, 0.27, 345.37
386.54, 0.27, 345.27
386.83, 0.27, 345.16
387.14, 0.28, 345.04
387.46, 0.29, 344.92
387.82, 0.30, 344.78
388.20, 0.32, 344.64
388.62, 0.34, 344.48
389.12, 0.34, 344.29
389.60, 0.37, 344.11
390.12, 0.41, 343.92
¯390.93, 0.40, 343.61
392.06, 0.37, 343.18
392.14, 0.53, 343.16
392.22, 0.70, 343.15
392.31, 0.87, 343.13
392.39, 1.04, 343.12
392.48, 1.21, 343.10
392.57, 1.38, 343.08
392.83, 1.55, 343.00
393.15, 1.72, 342.90
393.48, 1.89, 342.79
393.71, 2.08, 342.72
393.93, 2.28, 342.65
394.15, 2.48, 342.59
385.51, 0.28, 345.58
385.74, 0.28, 345.49
385.98, 0.27, 345.39
386.24, 0.27, 345.29
386.52, 0.27, 345.18
386.81, 0.28, 345.06
387.11, 0.28, 344.94
387.44, 0.29, 344.81
387.79, 0.31, 344.67
388.17, 0.32, 344.53
388.59, 0.34, 344.36
389.09, 0.35, 344.17
389.56, 0.39, 343.98
390.08, 0.42, 343.78
391.04, 0.39, 343.39
391.93, 0.39, 343.04
392.01, 0.56, 343.03
392.09, 0.73, 343.01
392.18, 0.89, 342.99
392.26, 1.06, 342.98
392.35, 1.23, 342.96
392.43, 1.41, 342.94
392.52, 1.58, 342.93
392.67, 1.75, 342.88
392.98, 1.93, 342.78
393.30, 2.11, 342.67
393.55, 2.30, 342.59
393.76, 2.49, 342.53
385.49, 0.28, 345.50
385.71, 0.28, 345.41
385.96, 0.28, 345.31
386.22, 0.28, 345.20
386.49, 0.28, 345.09
386.79, 0.28, 344.97
387.09, 0.29, 344.84
387.41, 0.30, 344.71
387.77, 0.31, 344.56
¯388.14, 0.33, 344.41
388.56, 0.35, 344.24
389.04, 0.36, 344.04
389.51, 0.40, 343.85
390.01, 0.44, 343.65
391.15, 0.37, 343.17
391.81, 0.42, 342.91
391.89, 0.59, 342.89
391.97, 0.75, 342.87
392.05, 0.92, 342.86
392.13, 1.09, 342.84
392.21, 1.26, 342.82
392.30, 1.43, 342.80
392.38, 1.60, 342.79
392.47, 1.78, 342.77
392.56, 1.96, 342.75
392.81, 2.13, 342.66
393.12, 2.32, 342.55
393.39, 2.51, 342.46
385.47, 0.29, 345.43
385.69, 0.28, 345.33
385.93, 0.28, 345.23
386.19, 0.28, 345.12
386.47, 0.28, 345.00
386.76, 0.29, 344.87
387.06, 0.30, 344.74
387.39, 0.31, 344.60
387.74, 0.32, 344.46
388.11, 0.34, 344.30
388.52, 0.36, 344.12
388.99, 0.38, 343.92
389.45, 0.41, 343.73
389.93, 0.46, 343.53
391.26, 0.35, 342.95
391.68, 0.45, 342.77
391.76, 0.61, 342.76
391.84, 0.78, 342.74
391.92, 0.94, 342.72
392.00, 1.11, 342.70
392.09, 1.28, 342.68
392.17, 1.45, 342.67
392.25, 1.62, 342.65
392.34, 1.80, 342.63
392.42, 1.98, 342.61
392.51, 2.16, 342.59
392.65, 2.34, 342.55
392.95, 2.52, 342.44
385.44, 0.29, 345.35
385.67, 0.29, 345.25
385.91, 0.29, 345.15
386.16, 0.29, 345.03
¯386.44, 0.29, 344.91
386.73, 0.29, 344.78
387.03, 0.30, 344.64
387.36, 0.31, 344.50
387.70, 0.33, 344.35
388.08, 0.35, 344.18
388.49, 0.36, 344.00
388.94, 0.39, 343.80
389.38, 0.43, 343.61
389.85, 0.47, 343.40
391.36, 0.33, 342.72
391.56, 0.47, 342.64
391.64, 0.64, 342.62
391.72, 0.80, 342.60
391.80, 0.97, 342.59
391.88, 1.13, 342.57
391.96, 1.30, 342.55
392.04, 1.47, 342.53
392.12, 1.64, 342.51
392.20, 1.82, 342.49
392.29, 2.00, 342.47
392.38, 2.17, 342.45
392.46, 2.36, 342.43
392.55, 2.54, 342.41
385.42, 0.29, 345.28
385.64, 0.29, 345.18
385.88, 0.29, 345.06
386.14, 0.29, 344.95
386.41, 0.29, 344.82
386.70, 0.30, 344.68
387.00, 0.31, 344.55
387.33, 0.32, 344.40
387.67, 0.33, 344.24
388.05, 0.35, 344.07
388.46, 0.37, 343.88
388.88, 0.40, 343.68
389.31, 0.44, 343.49
389.77, 0.49, 343.28
391.36, 0.34, 342.53
391.44, 0.50, 342.51
391.51, 0.66, 342.49
391.59, 0.82, 342.47
391.67, 0.99, 342.45
391.75, 1.15, 342.43
391.83, 1.32, 342.41
391.91, 1.49, 342.39
391.99, 1.66, 342.37
392.07, 1.84, 342.35
392.16, 2.01, 342.33
392.24, 2.19, 342.31
392.33, 2.37, 342.29
¯392.41, 2.56, 342.27
385.39, 0.30, 345.20
385.61, 0.30, 345.10
385.85, 0.30, 344.98
386.11, 0.30, 344.86
386.38, 0.30, 344.73
386.67, 0.30, 344.59
386.97, 0.31, 344.45
387.30, 0.32, 344.29
387.64, 0.34, 344.13
388.01, 0.36, 343.95
388.42, 0.38, 343.76
388.81, 0.42, 343.57
389.23, 0.46, 343.38
389.69, 0.51, 343.16
391.24, 0.36, 342.40
391.32, 0.52, 342.38
391.39, 0.68, 342.36
391.47, 0.85, 342.34
391.55, 1.01, 342.32
391.62, 1.18, 342.30
391.70, 1.34, 342.28
391.78, 1.51, 342.26
391.86, 1.68, 342.24
391.94, 1.86, 342.22
392.03, 2.03, 342.20
392.11, 2.21, 342.18
392.19, 2.39, 342.15
392.28, 2.57, 342.13
385.37, 0.30, 345.13
385.59, 0.30, 345.02
385.82, 0.30, 344.90
386.07, 0.30, 344.78
386.34, 0.30, 344.64
386.64, 0.31, 344.50
386.94, 0.32, 344.35
387.26, 0.33, 344.19
387.60, 0.35, 344.02
387.97, 0.37, 343.84
388.38, 0.39, 343.64
388.74, 0.43, 343.46
389.16, 0.48, 343.26
389.61, 0.52, 343.04
391.12, 0.39, 342.27
391.20, 0.55, 342.25
391.27, 0.71, 342.23
391.35, 0.87, 342.21
391.42, 1.03, 342.19
391.50, 1.20, 342.17
391.58, 1.37, 342.15
391.66, 1.53, 342.13
¯391.74, 1.70, 342.11
391.82, 1.88, 342.09
391.90, 2.05, 342.06
391.98, 2.23, 342.04
392.06, 2.41, 342.02
392.15, 2.59, 342.00
385.34, 0.31, 345.06
385.56, 0.31, 344.94
385.79, 0.31, 344.82
386.04, 0.31, 344.69
386.31, 0.31, 344.55
386.60, 0.31, 344.40
386.91, 0.32, 344.25
387.23, 0.34, 344.09
387.57, 0.35, 343.91
387.94, 0.37, 343.72
388.33, 0.40, 343.52
388.67, 0.45, 343.35
389.08, 0.49, 343.15
389.53, 0.54, 342.92
391.01, 0.41, 342.15
391.08, 0.57, 342.13
391.15, 0.73, 342.10
391.23, 0.89, 342.08
391.30, 1.05, 342.06
391.38, 1.22, 342.04
391.45, 1.39, 342.02
391.53, 1.55, 342.00
391.61, 1.72, 341.97
391.69, 1.90, 341.95
391.77, 2.07, 341.93
391.85, 2.25, 341.91
391.93, 2.42, 341.88
392.01, 2.60, 341.86
385.31, 0.31, 344.98
385.53, 0.31, 344.87
385.76, 0.31, 344.74
386.01, 0.31, 344.61
386.28, 0.32, 344.47
386.57, 0.32, 344.31
386.88, 0.33, 344.15
387.19, 0.34, 343.98
387.53, 0.36, 343.80
387.89, 0.38, 343.61
388.28, 0.41, 343.41
388.61, 0.46, 343.24
389.01, 0.51, 343.03
389.45, 0.56, 342.80
390.89, 0.43, 342.02
390.96, 0.59, 342.00
391.03, 0.75, 341.98
¯391.11, 0.91, 341.96
391.18, 1.08, 341.93
391.25, 1.24, 341.91
391.33, 1.41, 341.89
391.41, 1.57, 341.87
391.48, 1.74, 341.84
391.56, 1.91, 341.82
391.64, 2.09, 341.80
391.71, 2.26, 341.78
391.79, 2.44, 341.76
391.87, 2.62, 341.73
385.28, 0.32, 344.91
385.50, 0.32, 344.79
385.73, 0.32, 344.66
385.98, 0.32, 344.53
386.24, 0.32, 344.38
386.53, 0.32, 344.22
386.84, 0.33, 344.05
387.15, 0.35, 343.88
387.49, 0.37, 343.70
387.84, 0.39, 343.50
388.23, 0.42, 343.29
388.55, 0.47, 343.12
388.93, 0.52, 342.92
389.37, 0.57, 342.68
390.77, 0.46, 341.90
390.84, 0.61, 341.87
390.91, 0.77, 341.85
390.99, 0.93, 341.83
391.06, 1.10, 341.81
391.13, 1.26, 341.79
391.20, 1.43, 341.77
391.27, 1.59, 341.74
391.34, 1.76, 341.72
391.41, 1.93, 341.70
391.48, 2.11, 341.68
391.56, 2.28, 341.66
391.63, 2.46, 341.64
391.71, 2.64, 341.62
385.25, 0.32, 344.84
385.46, 0.32, 344.71
385.70, 0.32, 344.58
385.94, 0.32, 344.44
386.20, 0.33, 344.29
386.49, 0.33, 344.13
386.80, 0.34, 343.95
387.11, 0.35, 343.78
387.44, 0.37, 343.59
387.80, 0.40, 343.39
388.17, 0.43, 343.18
388.48, 0.48, 343.01
¯388.85, 0.54, 342.81
389.29, 0.59, 342.56
390.65, 0.48, 341.78
390.72, 0.64, 341.76
390.78, 0.80, 341.74
390.85, 0.96, 341.72
390.92, 1.12, 341.69
390.98, 1.28, 341.67
391.05, 1.45, 341.65
391.12, 1.62, 341.63
391.19, 1.78, 341.61
391.26, 1.95, 341.59
391.33, 2.13, 341.57
391.40, 2.30, 341.55
391.48, 2.47, 341.52
391.55, 2.65, 341.50
385.22, 0.32, 344.77
385.43, 0.32, 344.64
385.66, 0.33, 344.50
385.90, 0.33, 344.36
386.17, 0.33, 344.21
386.45, 0.34, 344.04
386.77, 0.34, 343.85
387.07, 0.36, 343.68
387.39, 0.38, 343.49
387.75, 0.41, 343.28
388.11, 0.44, 343.07
388.42, 0.50, 342.90
388.77, 0.56, 342.70
389.20, 0.61, 342.45
390.38, 0.53, 341.75
390.53, 0.67, 341.68
390.64, 0.82, 341.63
390.71, 0.98, 341.61
390.77, 1.14, 341.59
390.84, 1.31, 341.56
390.90, 1.47, 341.54
390.97, 1.64, 341.52
391.04, 1.80, 341.50
391.11, 1.97, 341.48
391.18, 2.14, 341.46
391.25, 2.32, 341.43
391.32, 2.49, 341.41
391.39, 2.67, 341.39
385.18, 0.33, 344.69
385.40, 0.33, 344.56
385.62, 0.33, 344.42
385.87, 0.33, 344.28
386.13, 0.34, 344.12
386.41, 0.34, 343.95
386.73, 0.35, 343.76
¯387.02, 0.37, 343.58
387.35, 0.39, 343.39
387.70, 0.41, 343.17
388.05, 0.45, 342.97
388.36, 0.51, 342.78
388.69, 0.57, 342.59
389.12, 0.62, 342.33
390.08, 0.59, 341.74
390.23, 0.73, 341.67
390.37, 0.87, 341.60
390.50, 1.01, 341.54
390.63, 1.17, 341.48
390.69, 1.33, 341.46
390.76, 1.49, 341.43
390.83, 1.66, 341.41
390.89, 1.82, 341.39
390.96, 1.99, 341.37
391.03, 2.16, 341.34
391.10, 2.33, 341.32
391.17, 2.51, 341.30
391.24, 2.68, 341.27
385.15, 0.33, 344.62
385.36, 0.33, 344.49
385.59, 0.34, 344.35
385.83, 0.34, 344.20
386.09, 0.34, 344.03
386.37, 0.35, 343.86
386.68, 0.35, 343.66
386.98, 0.38, 343.48
387.30, 0.40, 343.28
387.65, 0.42, 343.06
387.98, 0.46, 342.86
388.29, 0.52, 342.67
388.62, 0.58, 342.47
389.03, 0.64, 342.22
389.80, 0.64, 341.74
389.93, 0.78, 341.67
390.07, 0.92, 341.60
390.22, 1.06, 341.52
390.35, 1.21, 341.45
390.48, 1.36, 341.39
390.61, 1.51, 341.33
390.68, 1.68, 341.30
390.75, 1.84, 341.28
390.81, 2.01, 341.26
390.88, 2.18, 341.23
390.95, 2.35, 341.21
391.02, 2.52, 341.19
391.09, 2.70, 341.16
385.11, 0.34, 344.55
385.32, 0.34, 344.41
¯385.55, 0.34, 344.27
385.79, 0.34, 344.11
386.05, 0.35, 343.95
386.33, 0.35, 343.76
386.63, 0.36, 343.57
386.93, 0.38, 343.38
387.24, 0.41, 343.18
387.59, 0.43, 342.96
387.92, 0.47, 342.75
388.22, 0.53, 342.56
388.55, 0.60, 342.36
388.95, 0.65, 342.11
389.52, 0.69, 341.74
389.65, 0.83, 341.67
389.79, 0.96, 341.60
389.92, 1.10, 341.53
390.06, 1.25, 341.45
390.21, 1.39, 341.37
390.33, 1.55, 341.31
390.45, 1.70, 341.25
390.58, 1.86, 341.19
390.67, 2.03, 341.15
390.73, 2.20, 341.13
390.80, 2.37, 341.10
390.87, 2.54, 341.08
390.94, 2.71, 341.05
376.79, 0.19, 352.27
376.65, 0.19, 352.45
376.49, 0.19, 352.65
376.31, 0.19, 352.86
376.13, 0.19, 353.10
375.93, 0.19, 353.34
375.73, 0.20, 353.59
375.49, 0.20, 353.89
375.21, 0.19, 354.24
374.53, 0.04, 355.06
374.19, 0.04, 355.49
373.80, 0.04, 355.98
373.35, 0.04, 356.53
372.85, 0.04, 357.15
372.27, 0.04, 357.88
371.59, 0.04, 358.72
370.82, 0.04, 359.68
369.88, 0.04, 360.86
368.97, 0.09, 361.99
368.14, 0.20, 363.04
365.29, 0.02, 366.57
376.87, 0.19, 352.30
376.72, 0.19, 352.49
376.57, 0.19, 352.68
376.40, 0.19, 352.90
¯376.22, 0.19, 353.13
376.02, 0.18, 353.39
375.82, 0.19, 353.64
375.60, 0.20, 353.93
375.32, 0.19, 354.28
374.66, 0.04, 355.10
374.33, 0.04, 355.53
373.95, 0.04, 356.02
373.52, 0.04, 356.57
373.03, 0.04, 357.19
372.47, 0.04, 357.91
371.81, 0.04, 358.75
371.07, 0.04, 359.71
370.19, 0.05, 360.83
369.27, 0.09, 362.02
368.50, 0.20, 363.02
365.76, 0.03, 366.50
376.95, 0.20, 352.32
376.80, 0.19, 352.52
376.65, 0.19, 352.72
376.48, 0.19, 352.93
376.31, 0.19, 353.17
376.11, 0.19, 353.42
375.90, 0.18, 353.70
375.69, 0.19, 353.98
375.43, 0.19, 354.32
374.79, 0.04, 355.14
374.47, 0.04, 355.57
374.10, 0.04, 356.06
373.68, 0.04, 356.61
373.21, 0.04, 357.23
372.66, 0.04, 357.95
372.03, 0.04, 358.79
371.39, 0.06, 359.63
370.51, 0.06, 360.80
369.58, 0.09, 362.03
368.86, 0.20, 363.00
366.23, 0.03, 366.44
377.04, 0.21, 352.34
376.88, 0.19, 352.55
376.73, 0.19, 352.75
376.57, 0.19, 352.97
376.40, 0.19, 353.20
376.21, 0.19, 353.46
376.00, 0.18, 353.73
375.79, 0.19, 354.03
375.55, 0.19, 354.35
374.92, 0.04, 355.18
374.60, 0.04, 355.61
374.25, 0.04, 356.10
373.84, 0.04, 356.65
¯373.38, 0.04, 357.27
372.86, 0.04, 357.99
372.25, 0.04, 358.82
371.63, 0.06, 359.65
370.78, 0.06, 360.81
369.89, 0.09, 362.03
369.16, 0.19, 363.03
370.09, 0.61, 361.83
370.13, 0.86, 361.81
370.16, 1.10, 361.81
370.19, 1.34, 361.81
370.22, 1.58, 361.81
370.25, 1.81, 361.82
370.27, 2.05, 361.82
370.24, 2.29, 361.89
377.12, 0.22, 352.35
376.97, 0.20, 352.56
376.81, 0.19, 352.78
376.66, 0.19, 353.00
376.49, 0.19, 353.23
376.30, 0.19, 353.49
376.10, 0.19, 353.77
375.89, 0.18, 354.07
375.66, 0.19, 354.39
375.05, 0.04, 355.21
374.74, 0.04, 355.65
374.39, 0.04, 356.14
374.00, 0.04, 356.68
373.56, 0.04, 357.30
373.05, 0.04, 358.02
372.46, 0.04, 358.84
371.88, 0.07, 359.66
371.05, 0.06, 360.82
370.22, 0.10, 361.99
370.20, 0.33, 362.05
370.36, 0.60, 361.87
370.39, 0.84, 361.87
370.41, 1.08, 361.88
370.43, 1.32, 361.89
370.44, 1.56, 361.91
370.46, 1.79, 361.92
370.48, 2.03, 361.94
370.46, 2.27, 362.01
377.21, 0.22, 352.36
377.06, 0.21, 352.58
376.89, 0.19, 352.81
376.74, 0.19, 353.03
376.58, 0.19, 353.26
376.40, 0.19, 353.52
376.21, 0.19, 353.80
375.99, 0.18, 354.10
¯375.76, 0.18, 354.44
375.18, 0.04, 355.25
374.88, 0.04, 355.69
374.54, 0.04, 356.17
374.16, 0.04, 356.72
373.73, 0.04, 357.34
373.24, 0.04, 358.05
372.67, 0.04, 358.87
372.11, 0.07, 359.68
371.41, 0.09, 360.70
370.54, 0.10, 361.95
369.81, 0.19, 363.01
370.53, 0.57, 362.05
370.55, 0.82, 362.05
370.56, 1.05, 362.08
370.57, 1.29, 362.10
370.58, 1.53, 362.13
370.58, 1.77, 362.16
370.59, 2.01, 362.20
370.52, 2.24, 362.33
377.29, 0.23, 352.38
377.15, 0.22, 352.59
376.99, 0.20, 352.82
376.83, 0.19, 353.06
376.67, 0.19, 353.29
376.50, 0.19, 353.55
376.31, 0.19, 353.83
376.10, 0.18, 354.13
375.87, 0.18, 354.47
375.31, 0.04, 355.28
375.02, 0.04, 355.72
374.69, 0.04, 356.20
374.32, 0.04, 356.75
373.91, 0.04, 357.37
373.43, 0.04, 358.08
372.88, 0.04, 358.90
372.35, 0.07, 359.69
371.77, 0.12, 360.55
370.85, 0.11, 361.91
370.13, 0.19, 363.00
367.86, 0.02, 366.34
377.37, 0.24, 352.39
377.23, 0.23, 352.60
377.08, 0.21, 352.82
376.92, 0.20, 353.07
376.76, 0.19, 353.32
376.59, 0.19, 353.58
376.41, 0.19, 353.86
376.21, 0.19, 354.16
375.99, 0.18, 354.50
375.44, 0.04, 355.31
¯375.16, 0.04, 355.75
374.84, 0.04, 356.24
374.48, 0.04, 356.78
374.08, 0.04, 357.40
373.62, 0.04, 358.10
373.08, 0.04, 358.92
372.58, 0.07, 359.70
372.12, 0.14, 360.41
371.16, 0.11, 361.88
370.44, 0.19, 362.99
368.27, 0.02, 366.29
377.46, 0.25, 352.40
377.32, 0.24, 352.60
377.18, 0.22, 352.83
377.02, 0.21, 353.08
376.85, 0.19, 353.35
376.69, 0.19, 353.60
376.51, 0.19, 353.88
376.31, 0.19, 354.19
376.10, 0.18, 354.53
375.57, 0.04, 355.33
375.29, 0.04, 355.77
374.98, 0.04, 356.27
374.64, 0.04, 356.81
374.25, 0.04, 357.42
373.80, 0.04, 358.13
373.29, 0.04, 358.94
372.80, 0.07, 359.71
372.37, 0.14, 360.41
371.43, 0.11, 361.89
370.75, 0.19, 362.97
368.65, 0.01, 366.26
367.51, 0.44, 368.14
377.54, 0.26, 352.40
377.41, 0.24, 352.61
377.27, 0.23, 352.84
377.12, 0.22, 353.08
376.95, 0.20, 353.35
376.78, 0.19, 353.63
376.61, 0.19, 353.91
376.42, 0.19, 354.22
376.21, 0.18, 354.55
375.70, 0.04, 355.36
375.43, 0.04, 355.80
375.13, 0.04, 356.29
374.79, 0.04, 356.84
374.42, 0.04, 357.45
373.99, 0.04, 358.15
373.49, 0.04, 358.96
373.03, 0.07, 359.72
372.61, 0.14, 360.42
¯371.72, 0.12, 361.86
371.08, 0.19, 362.92
369.02, 0.01, 366.23
368.77, 0.26, 366.69
368.80, 0.57, 366.69
368.84, 0.88, 366.69
368.87, 1.18, 366.69
368.88, 1.49, 366.72
368.88, 1.79, 366.78
368.88, 2.10, 366.83
377.62, 0.26, 352.41
377.50, 0.25, 352.62
377.36, 0.24, 352.84
377.22, 0.23, 353.09
377.05, 0.21, 353.36
376.88, 0.19, 353.65
376.71, 0.19, 353.93
376.53, 0.19, 354.24
376.33, 0.19, 354.58
375.83, 0.04, 355.38
375.57, 0.04, 355.82
375.28, 0.04, 356.31
374.95, 0.04, 356.86
374.59, 0.04, 357.47
374.17, 0.04, 358.17
373.69, 0.04, 358.97
373.22, 0.06, 359.77
372.85, 0.14, 360.42
372.14, 0.16, 361.61
371.37, 0.19, 362.91
369.40, 0.01, 366.18
367.79, 0.00, 368.89
367.94, 0.36, 368.71
368.32, 0.74, 368.14
368.35, 1.07, 368.14
377.69, 0.26, 352.44
377.58, 0.26, 352.63
377.45, 0.25, 352.85
377.31, 0.24, 353.09
377.16, 0.22, 353.36
376.99, 0.20, 353.65
376.81, 0.19, 353.96
376.63, 0.19, 354.26
376.44, 0.19, 354.60
375.96, 0.05, 355.41
