žVERSION 0.7
FIELDS x y z
SIZE 8 8 8
TYPE F F F
COUNT 1 1 1
WIDTH 2271
HEIGHT 1
VIEWPOINT 329.03, 7.36, 377.88 1 334.28, 2.44, 358.56
POINTS 2271
DATA ascii
340.30, 0.22, 358.93
340.83, 0.14, 358.81
339.51, 0.68, 359.10
339.51, 0.76, 359.10
339.51, 0.85, 359.10
339.51, 0.93, 359.10
339.51, 1.02, 359.10
339.51, 1.10, 359.10
339.51, 1.18, 359.11
339.51, 1.26, 359.11
339.57, 1.33, 359.09
339.66, 1.40, 359.07
339.75, 1.46, 359.05
340.22, 1.47, 358.95
340.61, 1.51, 358.87
341.30, 1.52, 358.71
354.41, 0.14, 355.83
357.39, 0.14, 355.17
339.83, 0.29, 358.95
340.27, 0.23, 358.84
340.79, 0.15, 358.72
339.52, 0.67, 359.02
339.52, 0.76, 359.02
339.52, 0.84, 359.02
339.52, 0.93, 359.02
339.52, 1.01, 359.02
339.52, 1.09, 359.02
339.52, 1.18, 359.02
339.52, 1.26, 359.02
339.56, 1.33, 359.01
339.65, 1.39, 358.99
339.75, 1.46, 358.97
340.18, 1.48, 358.87
340.57, 1.51, 358.78
341.25, 1.52, 358.62
354.36, 0.14, 355.54
357.33, 0.14, 354.84
339.81, 0.29, 358.87
340.24, 0.23, 358.76
340.76, 0.16, 358.63
339.52, 0.66, 358.94
339.52, 0.75, 358.94
¯339.52, 0.84, 358.94
339.52, 0.92, 358.94
339.52, 1.00, 358.94
339.52, 1.09, 358.94
339.52, 1.17, 358.94
339.52, 1.25, 358.94
339.56, 1.33, 358.93
339.65, 1.39, 358.91
339.74, 1.46, 358.89
340.15, 1.48, 358.79
340.53, 1.52, 358.69
341.20, 1.52, 358.53
354.30, 0.14, 355.25
357.27, 0.14, 354.52
339.79, 0.29, 358.79
340.20, 0.24, 358.68
340.72, 0.16, 358.54
339.53, 0.66, 358.86
339.53, 0.74, 358.86
339.53, 0.83, 358.86
339.53, 0.91, 358.86
339.53, 1.00, 358.86
339.53, 1.08, 358.86
339.53, 1.17, 358.86
339.53, 1.25, 358.86
339.56, 1.32, 358.85
339.65, 1.39, 358.83
339.74, 1.46, 358.80
340.11, 1.48, 358.71
340.51, 1.51, 358.60
341.15, 1.53, 358.43
354.24, 0.14, 354.97
357.20, 0.14, 354.19
339.77, 0.29, 358.71
340.16, 0.25, 358.60
340.67, 0.17, 358.45
339.53, 0.65, 358.77
339.53, 0.73, 358.77
339.53, 0.82, 358.77
339.53, 0.91, 358.77
339.53, 0.99, 358.77
339.53, 1.08, 358.77
339.53, 1.16, 358.78
339.53, 1.24, 358.78
339.55, 1.32, 358.77
339.65, 1.39, 358.74
339.74, 1.45, 358.72
340.07, 1.49, 358.63
340.52, 1.51, 358.50
341.10, 1.53, 358.34
354.17, 0.14, 354.69
¯357.12, 0.14, 353.86
339.75, 0.29, 358.63
340.12, 0.25, 358.52
340.63, 0.18, 358.37
340.98, 0.17, 358.26
339.54, 0.73, 358.69
339.54, 0.81, 358.69
339.54, 0.90, 358.69
339.54, 0.98, 358.69
339.54, 1.07, 358.69
339.54, 1.15, 358.69
339.54, 1.24, 358.69
339.55, 1.32, 358.69
339.64, 1.38, 358.66
339.74, 1.45, 358.63
340.53, 1.41, 358.40
340.53, 1.51, 358.40
341.05, 1.53, 358.25
354.10, 0.14, 354.40
357.04, 0.14, 353.54
342.20, 2.69, 357.91
339.72, 0.29, 358.55
340.08, 0.26, 358.44
340.58, 0.18, 358.28
340.91, 0.18, 358.18
339.54, 0.72, 358.60
339.54, 0.80, 358.60
339.54, 0.89, 358.60
339.54, 0.98, 358.60
339.54, 1.06, 358.61
339.54, 1.15, 358.61
339.54, 1.23, 358.61
339.55, 1.31, 358.61
339.75, 1.36, 358.54
339.98, 1.40, 358.47
340.54, 1.40, 358.30
340.53, 1.50, 358.30
340.77, 1.57, 358.23
354.03, 0.14, 354.12
356.96, 0.14, 353.21
341.92, 2.69, 357.88
339.70, 0.29, 358.47
340.04, 0.26, 358.36
340.53, 0.19, 358.20
340.84, 0.19, 358.10
341.14, 0.21, 358.00
341.47, 0.22, 357.89
341.82, 0.24, 357.78
341.89, 0.34, 357.76
341.51, 0.56, 357.88
339.72, 1.10, 358.46
¯339.75, 1.18, 358.45
339.75, 1.27, 358.45
339.75, 1.35, 358.45
340.32, 1.34, 358.27
340.31, 1.44, 358.27
340.54, 1.50, 358.20
340.64, 1.58, 358.17
353.95, 0.14, 353.84
356.87, 0.14, 352.89
342.28, 2.58, 357.64
341.65, 2.68, 357.84
339.68, 0.29, 358.39
339.99, 0.27, 358.28
340.48, 0.20, 358.11
340.78, 0.20, 358.01
341.07, 0.22, 357.91
341.39, 0.24, 357.80
341.74, 0.25, 357.69
341.23, 0.51, 357.86
341.22, 0.63, 357.86
340.11, 1.00, 358.24
340.10, 1.10, 358.25
340.09, 1.19, 358.25
340.08, 1.29, 358.25
340.08, 1.38, 358.26
340.22, 1.45, 358.21
340.55, 1.49, 358.10
340.64, 1.58, 358.06
342.32, 1.48, 357.49
356.78, 0.14, 352.57
341.99, 2.57, 357.61
341.40, 2.67, 357.81
339.65, 0.29, 358.31
339.94, 0.28, 358.20
340.43, 0.21, 358.03
340.71, 0.22, 357.93
341.00, 0.23, 357.83
341.31, 0.25, 357.72
341.65, 0.27, 357.60
340.96, 0.57, 357.84
340.95, 0.69, 357.85
339.88, 1.05, 358.23
339.87, 1.14, 358.23
339.86, 1.23, 358.24
339.86, 1.32, 358.24
339.85, 1.41, 358.24
340.17, 1.45, 358.13
340.56, 1.49, 357.99
340.65, 1.57, 357.96
341.21, 1.60, 357.76
356.68, 0.14, 352.25
¯342.36, 2.46, 357.35
341.72, 2.57, 357.58
341.17, 2.67, 357.78
339.62, 0.29, 358.23
339.90, 0.29, 358.13
340.37, 0.21, 357.95
340.64, 0.23, 357.85
340.02, 0.54, 358.09
339.97, 0.65, 358.10
339.96, 0.74, 358.11
339.96, 0.84, 358.11
339.67, 1.00, 358.22
339.67, 1.09, 358.22
339.66, 1.18, 358.22
339.65, 1.27, 358.22
339.64, 1.36, 358.23
339.65, 1.44, 358.22
340.13, 1.45, 358.05
340.56, 1.48, 357.89
340.76, 1.55, 357.81
341.11, 1.61, 357.68
356.58, 0.14, 351.93
342.07, 2.46, 357.33
341.46, 2.57, 357.56
340.94, 2.66, 357.75
339.59, 0.29, 358.15
339.85, 0.29, 358.06
340.31, 0.22, 357.88
339.95, 0.45, 358.01
339.76, 0.61, 358.09
339.76, 0.70, 358.09
339.76, 0.79, 358.09
339.76, 0.88, 358.09
339.65, 1.00, 358.13
339.65, 1.09, 358.13
339.65, 1.18, 358.14
339.65, 1.27, 358.14
339.65, 1.35, 358.14
339.65, 1.44, 358.14
340.08, 1.45, 357.97
340.57, 1.47, 357.78
340.72, 1.55, 357.72
341.01, 1.62, 357.61
356.47, 0.14, 351.61
342.45, 2.33, 357.05
341.78, 2.46, 357.31
341.22, 2.56, 357.53
340.73, 2.66, 357.72
339.56, 0.29, 358.08
339.81, 0.29, 357.98
339.90, 0.36, 357.94
¯339.76, 0.50, 358.00
339.76, 0.60, 358.00
339.76, 0.69, 358.00
339.76, 0.78, 358.00
339.76, 0.88, 358.00
339.66, 0.99, 358.04
339.66, 1.08, 358.04
339.66, 1.17, 358.04
339.66, 1.26, 358.04
339.66, 1.35, 358.04
339.66, 1.43, 358.04
340.03, 1.46, 357.89
340.58, 1.47, 357.67
340.66, 1.56, 357.64
340.91, 1.63, 357.54
356.36, 0.14, 351.29
342.14, 2.34, 357.04
341.52, 2.46, 357.30
340.99, 2.56, 357.51
340.52, 2.65, 357.70
339.53, 0.29, 358.00
339.78, 0.29, 357.89
339.77, 0.39, 357.90
339.76, 0.49, 357.90
339.75, 0.59, 357.91
339.75, 0.68, 357.91
339.75, 0.78, 357.91
339.75, 0.87, 357.91
339.76, 0.96, 357.91
339.66, 1.07, 357.95
339.66, 1.16, 357.95
339.66, 1.25, 357.95
339.66, 1.34, 357.95
339.66, 1.43, 357.95
339.98, 1.46, 357.82
340.52, 1.47, 357.59
340.61, 1.56, 357.55
340.81, 1.64, 357.47
350.44, 0.74, 353.42
350.67, 0.97, 353.32
341.85, 2.34, 357.03
341.27, 2.46, 357.28
340.77, 2.56, 357.49
340.33, 2.65, 357.67
339.50, 0.29, 357.92
339.75, 0.29, 357.81
339.77, 0.38, 357.81
339.76, 0.48, 357.81
339.75, 0.58, 357.81
339.75, 0.67, 357.82
339.75, 0.77, 357.82
¯339.75, 0.86, 357.82
339.76, 0.95, 357.81
339.67, 1.06, 357.85
339.67, 1.15, 357.85
339.67, 1.24, 357.85
339.67, 1.33, 357.85
339.67, 1.42, 357.85
339.93, 1.46, 357.74
340.47, 1.47, 357.50
340.59, 1.56, 357.45
340.79, 1.63, 357.36
350.15, 0.76, 353.27
350.42, 0.98, 353.16
342.22, 2.21, 356.74
341.58, 2.35, 357.02
341.03, 2.46, 357.26
340.56, 2.56, 357.47
340.15, 2.64, 357.65
339.47, 0.29, 357.85
339.71, 0.29, 357.73
339.77, 0.37, 357.71
339.76, 0.47, 357.71
339.75, 0.57, 357.72
339.75, 0.66, 357.72
339.75, 0.76, 357.72
339.75, 0.85, 357.72
339.75, 0.94, 357.72
339.67, 1.05, 357.76
339.67, 1.14, 357.76
339.67, 1.23, 357.76
339.67, 1.32, 357.76
339.67, 1.41, 357.76
339.88, 1.47, 357.66
340.41, 1.48, 357.42
340.60, 1.55, 357.34
340.80, 1.63, 357.25
341.23, 1.69, 357.05
350.17, 1.00, 352.99
341.92, 2.22, 356.74
341.32, 2.35, 357.01
340.81, 2.46, 357.25
340.36, 2.55, 357.45
339.97, 2.64, 357.63
339.43, 0.29, 357.77
339.68, 0.29, 357.66
339.78, 0.35, 357.61
339.77, 0.46, 357.62
339.76, 0.55, 357.62
339.75, 0.65, 357.62
339.75, 0.75, 357.62
339.75, 0.84, 357.62
¯339.76, 0.93, 357.62
339.68, 1.04, 357.66
339.68, 1.13, 357.66
339.68, 1.23, 357.66
339.68, 1.32, 357.66
339.68, 1.40, 357.66
339.83, 1.47, 357.59
340.35, 1.48, 357.34
340.61, 1.54, 357.22
340.81, 1.62, 357.13
341.12, 1.69, 356.98
349.93, 1.01, 352.84
342.31, 2.08, 356.43
341.64, 2.23, 356.74
341.08, 2.35, 357.00
340.60, 2.46, 357.23
340.17, 2.55, 357.43
339.80, 2.63, 357.61
339.40, 0.29, 357.70
339.64, 0.29, 357.58
339.78, 0.34, 357.51
339.77, 0.44, 357.51
339.76, 0.54, 357.52
339.76, 0.64, 357.52
339.75, 0.74, 357.52
339.76, 0.83, 357.52
339.76, 0.92, 357.52
339.69, 1.03, 357.56
339.69, 1.12, 357.56
339.69, 1.22, 357.56
339.69, 1.31, 357.56
339.69, 1.40, 357.56
339.78, 1.47, 357.52
340.29, 1.48, 357.26
340.61, 1.54, 357.11
340.81, 1.62, 357.01
341.01, 1.70, 356.92
349.69, 1.03, 352.68
342.00, 2.09, 356.43
341.38, 2.23, 356.74
340.85, 2.35, 357.00
340.39, 2.46, 357.22
339.99, 2.55, 357.42
339.64, 2.63, 357.59
339.36, 0.29, 357.62
339.60, 0.29, 357.50
339.80, 0.32, 357.40
339.79, 0.42, 357.41
339.78, 0.52, 357.41
339.77, 0.62, 357.42
339.77, 0.72, 357.42
¯339.77, 0.81, 357.42
339.77, 0.91, 357.42
339.69, 1.02, 357.46
339.69, 1.11, 357.46
339.69, 1.21, 357.46
339.69, 1.30, 357.46
339.69, 1.39, 357.46
339.72, 1.47, 357.44
340.23, 1.49, 357.19
340.62, 1.53, 356.99
340.82, 1.61, 356.89
340.90, 1.71, 356.85
349.45, 1.04, 352.53
353.92, 0.94, 350.27
342.40, 1.94, 356.09
341.71, 2.10, 356.44
341.13, 2.24, 356.74
340.63, 2.36, 356.99
340.20, 2.46, 357.21
339.82, 2.55, 357.40
339.57, 2.63, 357.52
339.33, 0.29, 357.55
339.57, 0.29, 357.42
339.81, 0.30, 357.29
339.80, 0.40, 357.30
339.79, 0.50, 357.30
339.78, 0.60, 357.31
339.78, 0.70, 357.31
339.78, 0.80, 357.31
339.78, 0.89, 357.31
339.79, 0.99, 357.31
339.70, 1.10, 357.35
339.70, 1.20, 357.35
339.70, 1.29, 357.35
339.70, 1.38, 357.35
339.70, 1.47, 357.36
340.17, 1.49, 357.11
340.63, 1.52, 356.87
340.92, 1.59, 356.72
342.42, 1.54, 355.93
349.21, 1.05, 352.38
353.44, 0.97, 350.17
342.08, 1.96, 356.11
341.44, 2.11, 356.45
340.90, 2.25, 356.73
340.43, 2.36, 356.98
340.02, 2.46, 357.19
339.66, 2.55, 357.38
339.58, 2.63, 357.42
339.29, 0.29, 357.47
339.53, 0.29, 357.34
¯339.78, 0.29, 357.20
339.82, 0.38, 357.19
339.81, 0.48, 357.19
339.80, 0.59, 357.20
339.80, 0.68, 357.20
339.80, 0.78, 357.20
339.80, 0.88, 357.20
339.81, 0.97, 357.20
339.71, 1.09, 357.25
339.71, 1.19, 357.25
339.71, 1.28, 357.25
339.71, 1.37, 357.25
339.71, 1.46, 357.25
340.11, 1.49, 357.03
340.64, 1.52, 356.75
340.84, 1.60, 356.64
342.33, 1.54, 355.83
348.98, 1.06, 352.23
342.50, 1.80, 355.74
341.79, 1.97, 356.13
341.19, 2.12, 356.45
340.67, 2.25, 356.73
340.23, 2.36, 356.97
339.84, 2.46, 357.18
339.59, 2.55, 357.32
339.59, 2.63, 357.32
339.25, 0.29, 357.40
339.48, 0.29, 357.27
339.74, 0.29, 357.12
340.02, 0.29, 356.97
340.32, 0.29, 356.80
339.82, 0.57, 357.08
339.82, 0.67, 357.08
339.82, 0.76, 357.08
339.82, 0.86, 357.08
339.82, 0.96, 357.08
339.71, 1.08, 357.14
339.71, 1.18, 357.14
339.71, 1.27, 357.14
339.71, 1.36, 357.14
339.71, 1.45, 357.14
340.05, 1.49, 356.96
340.65, 1.51, 356.62
340.77, 1.60, 356.55
342.24, 1.55, 355.73
351.45, 0.82, 350.59
342.17, 1.82, 355.77
341.51, 1.99, 356.14
340.94, 2.13, 356.46
340.46, 2.26, 356.73
340.04, 2.36, 356.97
¯339.67, 2.46, 357.17
339.59, 2.55, 357.22
339.59, 2.64, 357.22
339.21, 0.29, 357.33
339.44, 0.29, 357.19
339.70, 0.29, 357.05
339.97, 0.29, 356.89
340.28, 0.29, 356.71
340.61, 0.29, 356.52
339.95, 0.61, 356.90
339.95, 0.71, 356.90
339.95, 0.81, 356.90
339.95, 0.91, 356.90
339.72, 1.07, 357.03
339.72, 1.16, 357.03
339.72, 1.26, 357.03
339.72, 1.35, 357.03
339.72, 1.45, 357.03
339.99, 1.50, 356.88
340.57, 1.51, 356.55
340.70, 1.60, 356.47
341.50, 1.62, 356.01
351.51, 0.81, 350.23
341.87, 1.84, 355.80
341.24, 2.00, 356.16
340.72, 2.14, 356.46
340.26, 2.26, 356.73
339.86, 2.37, 356.96
339.60, 2.46, 357.11
339.60, 2.55, 357.11
339.60, 2.64, 357.11
339.17, 0.29, 357.26
339.40, 0.29, 357.12
339.65, 0.29, 356.97
339.93, 0.29, 356.80
340.23, 0.29, 356.62
340.56, 0.29, 356.43
339.95, 0.59, 356.79
339.95, 0.70, 356.79
339.95, 0.80, 356.79
339.95, 0.90, 356.79
339.73, 1.06, 356.92
339.73, 1.15, 356.92
339.73, 1.25, 356.92
339.73, 1.34, 356.92
339.73, 1.44, 356.92
339.93, 1.50, 356.81
340.50, 1.51, 356.47
340.66, 1.60, 356.37
341.41, 1.63, 355.92
342.27, 1.66, 355.41
¯341.58, 1.85, 355.82
341.00, 2.01, 356.17
340.50, 2.15, 356.47
340.07, 2.26, 356.73
339.69, 2.37, 356.95
339.61, 2.46, 357.00
339.61, 2.55, 357.00
339.61, 2.64, 357.00
339.12, 0.29, 357.18
339.35, 0.29, 357.04
339.60, 0.29, 356.89
339.88, 0.29, 356.72
340.18, 0.29, 356.54
340.50, 0.29, 356.34
339.96, 0.58, 356.67
339.96, 0.68, 356.67
339.96, 0.78, 356.67
339.96, 0.89, 356.67
339.74, 1.04, 356.81
339.74, 1.14, 356.81
339.74, 1.24, 356.81
339.74, 1.33, 356.81
339.74, 1.43, 356.81
339.86, 1.50, 356.73
340.43, 1.52, 356.39
340.67, 1.59, 356.24
341.33, 1.63, 355.83
341.96, 1.69, 355.45
341.31, 1.87, 355.85
340.76, 2.02, 356.18
340.29, 2.15, 356.47
339.88, 2.27, 356.72
339.61, 2.37, 356.89
339.61, 2.46, 356.89
339.61, 2.55, 356.89
339.61, 2.64, 356.89
339.08, 0.29, 357.11
339.31, 0.29, 356.97
339.56, 0.29, 356.81
339.83, 0.29, 356.64
340.12, 0.29, 356.45
340.03, 0.43, 356.51
339.86, 0.60, 356.62
339.85, 0.70, 356.62
339.85, 0.80, 356.62
339.85, 0.90, 356.63
339.86, 1.00, 356.62
339.74, 1.13, 356.70
339.74, 1.22, 356.70
339.74, 1.32, 356.70
339.74, 1.42, 356.70
¯339.80, 1.51, 356.66
340.35, 1.52, 356.31
340.68, 1.58, 356.10
341.24, 1.63, 355.75
341.66, 1.71, 355.48
341.05, 1.89, 355.87
340.54, 2.03, 356.19
340.09, 2.16, 356.48
339.71, 2.27, 356.72
339.62, 2.37, 356.78
339.62, 2.46, 356.78
339.62, 2.55, 356.78
339.62, 2.64, 356.78
339.04, 0.29, 357.04
339.26, 0.29, 356.89
339.51, 0.29, 356.73
339.78, 0.29, 356.56
340.07, 0.29, 356.37
339.86, 0.47, 356.50
339.86, 0.58, 356.51
339.85, 0.68, 356.51
339.85, 0.79, 356.51
339.85, 0.89, 356.51
339.85, 0.99, 356.51
339.75, 1.11, 356.58
339.75, 1.21, 356.58
339.75, 1.31, 356.58
339.75, 1.41, 356.58
339.75, 1.50, 356.58
340.28, 1.52, 356.23
340.69, 1.58, 355.97
341.15, 1.63, 355.66
341.38, 1.73, 355.51
340.81, 1.90, 355.89
340.33, 2.04, 356.21
339.91, 2.17, 356.48
339.63, 2.27, 356.66
339.63, 2.37, 356.66
339.63, 2.46, 356.66
339.63, 2.55, 356.66
339.63, 2.65, 356.66
338.99, 0.29, 356.97
339.22, 0.29, 356.82
339.46, 0.29, 356.66
339.72, 0.29, 356.48
339.87, 0.35, 356.38
339.86, 0.45, 356.39
339.85, 0.56, 356.39
339.85, 0.67, 356.40
339.85, 0.77, 356.40
339.85, 0.88, 356.40
¯339.85, 0.98, 356.40
339.76, 1.10, 356.46
339.76, 1.20, 356.46
339.76, 1.30, 356.46
339.76, 1.40, 356.46
339.76, 1.49, 356.46
340.21, 1.53, 356.16
340.70, 1.57, 355.83
341.06, 1.64, 355.58
341.12, 1.75, 355.54
340.58, 1.91, 355.91
340.13, 2.05, 356.22
339.73, 2.17, 356.48
339.64, 2.27, 356.55
339.64, 2.37, 356.55
339.64, 2.46, 356.55
339.64, 2.55, 356.55
339.64, 2.65, 356.55
338.94, 0.29, 356.90
339.17, 0.29, 356.75
339.41, 0.29, 356.58
339.67, 0.29, 356.40
339.88, 0.32, 356.26
339.87, 0.43, 356.26
339.85, 0.54, 356.27
339.85, 0.65, 356.28
339.84, 0.76, 356.28
339.84, 0.86, 356.28
339.85, 0.96, 356.28
339.77, 1.08, 356.33
339.77, 1.19, 356.34
339.77, 1.29, 356.34
339.77, 1.39, 356.34
339.77, 1.48, 356.34
340.13, 1.53, 356.08
340.71, 1.56, 355.68
340.97, 1.64, 355.50
340.87, 1.77, 355.57
340.37, 1.93, 355.92
339.93, 2.06, 356.22
339.65, 2.18, 356.42
339.65, 2.27, 356.43
339.65, 2.37, 356.43
339.65, 2.46, 356.43
339.65, 2.56, 356.43
339.65, 2.65, 356.43
338.90, 0.29, 356.84
339.12, 0.29, 356.68
339.36, 0.29, 356.51
339.62, 0.29, 356.32
339.88, 0.30, 356.13
¯339.87, 0.41, 356.14
339.86, 0.52, 356.15
339.85, 0.63, 356.15
339.85, 0.74, 356.16
339.84, 0.85, 356.16
339.85, 0.95, 356.16
339.78, 1.07, 356.21
339.78, 1.17, 356.21
339.78, 1.27, 356.21
339.78, 1.37, 356.21
339.78, 1.47, 356.21
340.06, 1.53, 356.01
340.69, 1.55, 355.55
340.89, 1.64, 355.42
340.63, 1.79, 355.60
340.16, 1.94, 355.94
339.75, 2.07, 356.23
339.65, 2.17, 356.30
339.65, 2.27, 356.30
339.65, 2.37, 356.30
339.65, 2.46, 356.30
339.65, 2.56, 356.30
339.65, 2.65, 356.30
338.85, 0.29, 356.77
339.07, 0.29, 356.61
339.30, 0.29, 356.43
339.56, 0.29, 356.24
339.84, 0.29, 356.03
339.89, 0.39, 356.00
339.87, 0.50, 356.01
339.86, 0.61, 356.02
339.86, 0.72, 356.03
339.85, 0.83, 356.03
339.86, 0.93, 356.03
339.86, 1.03, 356.02
339.79, 1.16, 356.08
339.79, 1.26, 356.08
339.78, 1.36, 356.08
339.78, 1.46, 356.08
339.98, 1.53, 355.94
340.73, 1.54, 355.39
340.80, 1.65, 355.34
340.41, 1.80, 355.62
339.96, 1.95, 355.95
339.66, 2.07, 356.18
339.66, 2.17, 356.18
339.66, 2.27, 356.18
339.66, 2.37, 356.18
339.66, 2.46, 356.18
339.66, 2.56, 356.18
339.66, 2.66, 356.18
¯338.80, 0.29, 356.70
339.02, 0.29, 356.54
339.25, 0.29, 356.36
339.51, 0.29, 356.17
339.78, 0.29, 355.95
339.90, 0.36, 355.86
339.89, 0.47, 355.87
339.88, 0.59, 355.88
339.87, 0.70, 355.89
339.87, 0.81, 355.89
339.87, 0.91, 355.89
339.88, 1.02, 355.88
339.79, 1.14, 355.95
339.79, 1.25, 355.95
339.79, 1.35, 355.95
339.79, 1.45, 355.95
339.91, 1.54, 355.87
340.74, 1.53, 355.24
340.69, 1.65, 355.27
340.20, 1.82, 355.65
339.77, 1.96, 355.97
339.67, 2.07, 356.05
339.67, 2.17, 356.05
339.67, 2.27, 356.05
339.67, 2.36, 356.05
339.67, 2.46, 356.05
339.67, 2.56, 356.05
339.67, 2.66, 356.05
338.75, 0.29, 356.64
338.96, 0.29, 356.47
339.20, 0.29, 356.29
339.45, 0.29, 356.09
339.72, 0.29, 355.87
340.03, 0.29, 355.64
339.91, 0.45, 355.73
339.91, 0.56, 355.73
339.90, 0.67, 355.74
339.90, 0.78, 355.74
339.90, 0.89, 355.74
339.90, 1.00, 355.74
339.80, 1.13, 355.82
339.80, 1.23, 355.82
339.80, 1.34, 355.82
339.80, 1.44, 355.82
339.83, 1.54, 355.80
340.75, 1.52, 355.08
340.46, 1.67, 355.30
340.00, 1.83, 355.67
339.68, 1.96, 355.92
339.68, 2.06, 355.92
339.68, 2.16, 355.92
¯339.68, 2.26, 355.92
339.68, 2.36, 355.92
339.68, 2.46, 355.92
339.68, 2.56, 355.92
339.68, 2.66, 355.92
338.70, 0.29, 356.57
338.91, 0.29, 356.40
339.14, 0.29, 356.21
339.39, 0.29, 356.01
339.66, 0.29, 355.79
339.96, 0.29, 355.55
340.28, 0.30, 355.30
340.63, 0.30, 355.02
339.92, 0.64, 355.59
339.92, 0.76, 355.59
339.92, 0.87, 355.59
339.92, 0.98, 355.59
339.81, 1.11, 355.68
339.81, 1.22, 355.68
339.81, 1.32, 355.68
339.81, 1.43, 355.68
339.81, 1.53, 355.68
340.76, 1.50, 354.92
340.24, 1.69, 355.33
339.80, 1.85, 355.69
339.69, 1.96, 355.78
339.69, 2.06, 355.78
339.69, 2.16, 355.78
339.69, 2.26, 355.78
339.69, 2.36, 355.78
339.69, 2.46, 355.78
339.69, 2.57, 355.78
339.69, 2.67, 355.78
338.65, 0.29, 356.50
338.86, 0.29, 356.33
339.08, 0.29, 356.14
339.33, 0.29, 355.94
339.60, 0.29, 355.72
339.90, 0.29, 355.47
340.21, 0.30, 355.21
340.55, 0.30, 354.93
340.94, 0.31, 354.61
341.39, 0.31, 354.24
342.02, 0.28, 353.72
340.55, 0.80, 354.94
339.82, 1.09, 355.54
339.82, 1.20, 355.54
339.82, 1.31, 355.54
339.82, 1.41, 355.54
339.82, 1.52, 355.54
340.52, 1.53, 354.96
¯340.03, 1.71, 355.36
339.70, 1.85, 355.64
339.70, 1.95, 355.64
339.70, 2.06, 355.64
339.70, 2.16, 355.64
339.70, 2.26, 355.64
339.70, 2.36, 355.64
339.70, 2.46, 355.64
339.70, 2.57, 355.64
339.70, 2.67, 355.65
338.59, 0.29, 356.44
338.80, 0.29, 356.26
339.03, 0.29, 356.07
339.27, 0.29, 355.87
339.54, 0.29, 355.64
339.83, 0.29, 355.39
340.14, 0.30, 355.13
340.48, 0.30, 354.84
340.86, 0.31, 354.52
341.30, 0.31, 354.13
341.83, 0.31, 353.69
340.38, 0.83, 354.93
340.45, 0.93, 354.86
340.17, 1.11, 355.10
340.17, 1.23, 355.10
343.62, 0.72, 352.17
343.72, 0.88, 352.08
340.29, 1.55, 355.00
339.84, 1.72, 355.39
339.71, 1.84, 355.50
339.71, 1.95, 355.50
339.71, 2.05, 355.50
339.71, 2.15, 355.50
339.71, 2.26, 355.50
339.71, 2.36, 355.50
339.71, 2.47, 355.50
339.71, 2.57, 355.50
339.71, 2.67, 355.50
338.54, 0.29, 356.38
338.74, 0.29, 356.20
338.97, 0.29, 356.00
339.21, 0.29, 355.79
339.47, 0.29, 355.56
339.76, 0.29, 355.31
340.06, 0.30, 355.04
340.40, 0.30, 354.75
340.78, 0.31, 354.42
341.22, 0.31, 354.03
341.72, 0.31, 353.59
340.21, 0.85, 354.92
342.95, 0.31, 352.51
¯340.04, 1.12, 355.06
340.04, 1.24, 355.06
343.57, 0.71, 351.98
343.67, 0.87, 351.89
340.08, 1.57, 355.03
339.72, 1.73, 355.35
339.72, 1.83, 355.35
339.72, 1.94, 355.35
339.72, 2.05, 355.35
339.72, 2.15, 355.35
339.72, 2.26, 355.36
339.72, 2.36, 355.36
339.72, 2.47, 355.36
339.72, 2.57, 355.36
339.72, 2.68, 355.36
338.49, 0.29, 356.31
338.69, 0.29, 356.13
338.91, 0.29, 355.94
339.14, 0.29, 355.72
339.41, 0.29, 355.49
339.69, 0.30, 355.23
339.99, 0.30, 354.96
340.32, 0.31, 354.66
340.69, 0.31, 354.33
341.13, 0.31, 353.93
341.63, 0.31, 353.49
340.07, 0.87, 354.89
342.85, 0.31, 352.39
343.50, 0.33, 351.80
343.50, 0.52, 351.80
343.52, 0.70, 351.78
341.71, 1.18, 353.42
339.87, 1.59, 355.07
339.73, 1.72, 355.20
339.73, 1.83, 355.20
339.73, 1.93, 355.20
339.73, 2.04, 355.20
339.73, 2.15, 355.20
339.73, 2.25, 355.20
339.73, 2.36, 355.21
339.73, 2.47, 355.21
339.73, 2.57, 355.21
339.73, 2.68, 355.21
338.43, 0.29, 356.25
338.63, 0.29, 356.07
338.85, 0.29, 355.87
339.08, 0.29, 355.65
339.34, 0.29, 355.41
339.61, 0.30, 355.16
339.92, 0.30, 354.88
340.25, 0.31, 354.57
¯340.61, 0.31, 354.23
341.04, 0.31, 353.83
339.90, 0.78, 354.89
339.93, 0.88, 354.87
342.74, 0.31, 352.26
343.46, 0.32, 351.59
343.46, 0.50, 351.59
341.83, 0.99, 353.10
340.13, 1.42, 354.68
339.74, 1.60, 355.05
339.74, 1.71, 355.05
339.74, 1.82, 355.05
339.74, 1.93, 355.05
339.74, 2.03, 355.05
339.74, 2.14, 355.05
339.74, 2.25, 355.05
339.74, 2.36, 355.05
339.74, 2.47, 355.05
339.74, 2.58, 355.05
339.74, 2.68, 355.05
338.37, 0.29, 356.19
338.57, 0.29, 356.00
338.78, 0.29, 355.80
339.02, 0.29, 355.58
339.27, 0.29, 355.34
339.54, 0.30, 355.08
339.84, 0.30, 354.79
340.17, 0.31, 354.49
340.53, 0.31, 354.14
340.95, 0.31, 353.74
341.44, 0.31, 353.28
341.99, 0.31, 352.75
342.63, 0.31, 352.14
343.37, 0.31, 351.44
343.42, 0.49, 351.39
341.71, 0.99, 353.02
339.92, 1.45, 354.72
339.75, 1.59, 354.89
339.75, 1.70, 354.89
339.75, 1.81, 354.89
339.75, 1.92, 354.89
339.75, 2.03, 354.89
339.75, 2.14, 354.89
339.75, 2.25, 354.89
339.75, 2.36, 354.89
339.75, 2.47, 354.89
339.75, 2.58, 354.89
339.75, 2.69, 354.89
338.32, 0.29, 356.13
338.51, 0.29, 355.94
338.72, 0.29, 355.73
¯338.95, 0.29, 355.51
339.20, 0.29, 355.27
339.47, 0.30, 355.00
339.76, 0.30, 354.71
340.08, 0.31, 354.40
340.44, 0.31, 354.05
340.86, 0.31, 353.64
341.34, 0.31, 353.17
341.88, 0.31, 352.64
342.51, 0.31, 352.02
343.24, 0.31, 351.31
341.84, 0.79, 352.68
341.59, 1.00, 352.93
339.76, 1.46, 354.72
339.76, 1.57, 354.72
339.76, 1.69, 354.72
339.76, 1.80, 354.73
339.76, 1.91, 354.73
339.76, 2.02, 354.73
339.76, 2.13, 354.73
339.76, 2.25, 354.73
339.76, 2.36, 354.73
339.76, 2.47, 354.73
339.76, 2.58, 354.73
339.76, 2.69, 354.73
338.26, 0.29, 356.07
338.45, 0.29, 355.88
338.66, 0.29, 355.67
338.88, 0.29, 355.44
339.13, 0.30, 355.20
339.39, 0.30, 354.93
339.68, 0.30, 354.64
340.00, 0.31, 354.32
340.35, 0.31, 353.96
340.77, 0.31, 353.54
341.24, 0.31, 353.07
341.78, 0.31, 352.53
342.40, 0.31, 351.90
343.11, 0.31, 351.19
341.71, 0.80, 352.59
341.52, 0.99, 352.79
341.42, 1.16, 352.89
341.34, 1.32, 352.98
339.77, 1.68, 354.56
339.77, 1.79, 354.56
339.77, 1.90, 354.56
339.77, 2.02, 354.56
339.77, 2.13, 354.56
339.77, 2.24, 354.56
339.77, 2.36, 354.56
339.77, 2.47, 354.56
¯339.77, 2.58, 354.56
339.77, 2.70, 354.56
337.93, 0.43, 356.29
338.39, 0.29, 355.82
338.59, 0.29, 355.61
338.81, 0.29, 355.38
339.05, 0.30, 355.13
339.31, 0.30, 354.86
339.60, 0.30, 354.56
339.92, 0.31, 354.23
340.27, 0.31, 353.87
340.68, 0.31, 353.45
341.14, 0.31, 352.97
341.67, 0.31, 352.42
342.28, 0.31, 351.79
341.85, 0.58, 352.23
341.59, 0.80, 352.50
341.48, 0.98, 352.62
341.39, 1.15, 352.71
341.32, 1.31, 352.78
341.32, 1.45, 352.79
341.31, 1.60, 352.80
341.38, 1.74, 352.73
341.52, 1.88, 352.58
339.78, 2.13, 354.38
339.78, 2.24, 354.38
339.78, 2.36, 354.38
339.78, 2.47, 354.38
339.78, 2.59, 354.38
339.78, 2.70, 354.38
337.87, 0.43, 356.24
338.32, 0.29, 355.76
338.53, 0.29, 355.54
338.74, 0.29, 355.31
338.98, 0.30, 355.06
339.24, 0.30, 354.79
339.52, 0.30, 354.48
339.83, 0.31, 354.15
340.18, 0.31, 353.79
340.58, 0.31, 353.36
341.04, 0.31, 352.87
341.56, 0.31, 352.31
342.16, 0.31, 351.67
341.72, 0.59, 352.14
341.54, 0.79, 352.33
341.45, 0.96, 352.44
341.35, 1.13, 352.54
341.34, 1.29, 352.55
341.33, 1.44, 352.56
341.35, 1.58, 352.54
341.50, 1.72, 352.38
¯348.37, 1.35, 345.06
348.37, 1.64, 345.06
348.58, 1.93, 344.85
339.79, 2.47, 354.20
339.79, 2.59, 354.20
339.79, 2.71, 354.20
337.82, 0.43, 356.18
337.99, 0.43, 356.00
338.46, 0.29, 355.48
338.67, 0.30, 355.25
338.90, 0.30, 354.99
339.16, 0.30, 354.72
339.44, 0.30, 354.41
339.75, 0.31, 354.07
340.09, 0.31, 353.70
340.48, 0.31, 353.26
340.93, 0.31, 352.77
341.45, 0.31, 352.21
340.84, 0.63, 352.88
340.85, 0.78, 352.87
340.85, 0.92, 352.87
340.84, 1.06, 352.88
341.36, 1.11, 352.31
341.36, 1.27, 352.31
341.35, 1.42, 352.32
341.48, 1.56, 352.18
348.21, 1.05, 344.81
348.37, 1.33, 344.63
348.37, 1.63, 344.63
348.57, 1.92, 344.42
337.76, 0.43, 356.13
337.93, 0.43, 355.94
338.39, 0.29, 355.42
338.60, 0.30, 355.18
338.83, 0.30, 354.93
339.08, 0.30, 354.65
339.35, 0.30, 354.34
339.66, 0.31, 353.99
339.99, 0.31, 353.62
340.39, 0.31, 353.17
340.63, 0.37, 352.90
340.72, 0.49, 352.80
340.80, 0.62, 352.71
340.83, 0.76, 352.68
340.83, 0.90, 352.68
340.77, 1.06, 352.75
340.66, 1.22, 352.87
341.37, 1.25, 352.06
341.45, 1.39, 351.98
345.80, 1.02, 347.08
348.16, 1.04, 344.42
¯348.37, 1.32, 344.18
348.37, 1.62, 344.18
348.57, 1.91, 343.97
337.70, 0.43, 356.08
337.87, 0.43, 355.89
338.05, 0.43, 355.68
338.53, 0.30, 355.12
338.75, 0.30, 354.86
339.00, 0.30, 354.58
339.27, 0.30, 354.26
339.57, 0.31, 353.92
339.90, 0.31, 353.53
340.29, 0.31, 353.09
340.55, 0.37, 352.78
340.69, 0.47, 352.62
340.77, 0.60, 352.53
340.80, 0.73, 352.49
340.80, 0.88, 352.49
340.76, 1.04, 352.54
340.65, 1.20, 352.67
341.43, 1.22, 351.77
341.58, 1.36, 351.59
345.81, 1.00, 346.69
348.11, 1.02, 344.03
348.37, 1.30, 343.72
348.37, 1.61, 343.72
337.64, 0.43, 356.03
337.81, 0.43, 355.83
337.98, 0.43, 355.62
338.46, 0.30, 355.06
338.68, 0.30, 354.80
338.92, 0.30, 354.51
339.18, 0.30, 354.19
339.48, 0.31, 353.84
339.81, 0.31, 353.45
340.19, 0.31, 353.00
340.49, 0.35, 352.64
340.65, 0.45, 352.45
340.73, 0.58, 352.35
340.78, 0.71, 352.29
340.78, 0.86, 352.29
340.75, 1.02, 352.33
340.64, 1.19, 352.46
340.33, 1.38, 352.83
343.47, 1.06, 349.09
345.82, 0.97, 346.29
349.59, 0.84, 341.80
346.87, 1.40, 345.04
346.87, 1.68, 345.03
348.10, 1.91, 343.58
337.58, 0.43, 355.98
¯337.74, 0.43, 355.78
337.92, 0.43, 355.57
338.11, 0.43, 355.34
338.60, 0.30, 354.73
338.84, 0.30, 354.44
339.10, 0.31, 354.12
339.39, 0.31, 353.77
339.71, 0.31, 353.37
340.08, 0.31, 352.91
340.43, 0.34, 352.49
340.61, 0.43, 352.26
340.70, 0.55, 352.16
340.76, 0.69, 352.08
340.76, 0.84, 352.09
340.74, 0.99, 352.11
340.05, 1.28, 352.96
340.28, 1.37, 352.67
345.63, 0.72, 346.12
345.85, 0.95, 345.84
344.88, 1.31, 347.04
344.43, 1.59, 347.59
344.74, 1.80, 347.21
345.87, 1.99, 345.82
337.52, 0.43, 355.93
337.68, 0.43, 355.73
337.85, 0.43, 355.51
338.04, 0.43, 355.28
338.52, 0.30, 354.67
338.75, 0.30, 354.38
339.01, 0.31, 354.05
339.29, 0.31, 353.70
339.61, 0.31, 353.29
339.98, 0.31, 352.83
339.93, 0.47, 352.90
339.86, 0.63, 352.98
339.86, 0.76, 352.98
339.86, 0.90, 352.98
339.86, 1.03, 352.98
339.92, 1.15, 352.90
340.00, 1.27, 352.81
340.24, 1.36, 352.51
345.70, 0.68, 345.61
343.90, 1.17, 347.89
346.87, 1.08, 344.14
344.32, 2.04, 347.36
337.46, 0.43, 355.88
337.62, 0.43, 355.68
337.79, 0.43, 355.46
337.97, 0.43, 355.22
338.16, 0.43, 354.97
338.67, 0.30, 354.31
¯338.92, 0.31, 353.99
339.20, 0.31, 353.63
339.52, 0.31, 353.21
339.88, 0.31, 352.74
339.93, 0.43, 352.68
339.82, 0.61, 352.83
339.80, 0.75, 352.85
339.80, 0.89, 352.85
339.82, 1.02, 352.82
339.89, 1.13, 352.73
339.97, 1.25, 352.63
340.19, 1.35, 352.35
345.82, 0.63, 345.04
344.61, 1.06, 346.61
346.08, 1.14, 344.69
347.07, 1.33, 343.41
347.39, 1.61, 343.00
343.74, 2.06, 347.73
337.40, 0.43, 355.83
337.55, 0.43, 355.63
337.72, 0.43, 355.41
337.90, 0.43, 355.17
338.09, 0.44, 354.91
338.58, 0.30, 354.25
338.83, 0.31, 353.92
339.10, 0.31, 353.56
339.42, 0.31, 353.14
339.77, 0.31, 352.66
339.93, 0.40, 352.45
339.82, 0.58, 352.60
339.78, 0.73, 352.65
339.78, 0.86, 352.65
339.79, 1.00, 352.65
339.86, 1.12, 352.55
339.94, 1.24, 352.44
340.13, 1.34, 352.18
345.95, 0.57, 344.41
344.03, 1.11, 346.98
345.01, 1.24, 345.67
345.64, 1.44, 344.83
345.64, 1.71, 344.83
343.58, 2.06, 347.58
337.34, 0.43, 355.79
337.49, 0.43, 355.58
337.65, 0.43, 355.36
337.82, 0.43, 355.12
338.01, 0.44, 354.86
338.22, 0.44, 354.57
338.74, 0.31, 353.86
339.01, 0.31, 353.49
339.32, 0.31, 353.06
¯339.67, 0.31, 352.58
339.94, 0.36, 352.21
339.82, 0.54, 352.37
339.76, 0.70, 352.46
339.76, 0.84, 352.46
339.76, 0.98, 352.46
339.83, 1.10, 352.36
339.91, 1.22, 352.25
340.08, 1.33, 352.01
343.02, 1.01, 347.97
343.46, 1.16, 347.37
343.99, 1.33, 346.64
344.25, 1.54, 346.28
344.02, 1.80, 346.60
337.27, 0.43, 355.74
337.42, 0.43, 355.53
337.58, 0.43, 355.31
337.75, 0.43, 355.07
337.94, 0.44, 354.80
338.14, 0.44, 354.51
338.65, 0.31, 353.79
338.91, 0.31, 353.42
339.22, 0.31, 352.99
339.56, 0.31, 352.50
339.94, 0.31, 351.96
339.82, 0.50, 352.13
339.74, 0.67, 352.25
339.74, 0.81, 352.25
339.74, 0.95, 352.25
339.79, 1.08, 352.17
339.87, 1.21, 352.06
340.03, 1.32, 351.84
342.82, 1.01, 347.89
346.30, 0.74, 342.95
343.26, 1.39, 347.27
343.26, 1.61, 347.27
337.21, 0.43, 355.70
337.35, 0.43, 355.49
337.51, 0.43, 355.26
337.68, 0.43, 355.02
337.86, 0.44, 354.75
338.06, 0.44, 354.46
338.28, 0.44, 354.14
338.82, 0.31, 353.35
339.12, 0.31, 352.92
339.45, 0.31, 352.43
339.83, 0.31, 351.87
339.82, 0.46, 351.88
339.71, 0.64, 352.04
339.71, 0.79, 352.04
339.71, 0.93, 352.04
¯339.76, 1.06, 351.98
339.84, 1.19, 351.86
339.97, 1.31, 351.67
342.81, 0.98, 347.52
346.41, 0.69, 342.27
346.71, 0.97, 341.83
337.15, 0.43, 355.65
337.29, 0.43, 355.44
337.44, 0.43, 355.21
337.60, 0.43, 354.97
337.78, 0.44, 354.70
337.98, 0.44, 354.40
338.19, 0.44, 354.08
338.43, 0.44, 353.72
339.01, 0.31, 352.84
339.34, 0.31, 352.35
339.71, 0.31, 351.79
339.82, 0.42, 351.62
339.71, 0.61, 351.80
339.69, 0.76, 351.83
339.69, 0.91, 351.83
339.72, 1.04, 351.78
339.80, 1.17, 351.66
339.92, 1.30, 351.49
342.93, 0.93, 346.94
343.70, 1.05, 345.80
337.08, 0.43, 355.61
337.22, 0.43, 355.40
337.37, 0.43, 355.17
337.53, 0.44, 354.92
337.70, 0.44, 354.65
337.89, 0.44, 354.35
338.10, 0.44, 354.02
338.34, 0.45, 353.66
338.91, 0.31, 352.78
339.23, 0.31, 352.28
339.59, 0.31, 351.71
339.83, 0.38, 351.35
339.71, 0.57, 351.54
339.67, 0.73, 351.60
339.67, 0.88, 351.60
339.69, 1.02, 351.57
339.77, 1.15, 351.45
339.86, 1.28, 351.31
340.13, 1.39, 350.88
343.78, 1.01, 345.21
337.02, 0.43, 355.57
337.15, 0.43, 355.35
337.29, 0.43, 355.12
337.45, 0.44, 354.87
337.62, 0.44, 354.60
¯337.81, 0.44, 354.30
338.01, 0.44, 353.97
338.24, 0.45, 353.60
338.50, 0.45, 353.20
339.12, 0.31, 352.21
339.47, 0.31, 351.64
339.86, 0.32, 351.01
339.71, 0.53, 351.26
339.64, 0.70, 351.37
339.64, 0.85, 351.37
339.65, 1.00, 351.36
339.73, 1.13, 351.23
339.81, 1.27, 351.09
340.07, 1.37, 350.68
343.88, 0.96, 344.59
347.10, 0.82, 339.43
336.95, 0.43, 355.53
337.08, 0.43, 355.31
337.22, 0.43, 355.08
337.37, 0.44, 354.83
337.54, 0.44, 354.55
337.72, 0.44, 354.25
337.93, 0.44, 353.92
338.15, 0.45, 353.55
338.40, 0.45, 353.14
339.00, 0.31, 352.14
339.35, 0.31, 351.56
339.73, 0.32, 350.93
339.71, 0.48, 350.98
339.62, 0.67, 351.13
339.62, 0.82, 351.13
339.62, 0.98, 351.13
339.69, 1.11, 351.00
339.78, 1.25, 350.87
340.01, 1.36, 350.48
344.23, 0.87, 343.52
345.12, 1.04, 342.04
346.94, 1.15, 339.03
336.88, 0.43, 355.49
337.01, 0.43, 355.27
337.15, 0.43, 355.03
337.30, 0.44, 354.78
337.46, 0.44, 354.50
337.64, 0.44, 354.20
337.84, 0.44, 353.86
338.05, 0.45, 353.49
338.30, 0.45, 353.08
338.58, 0.45, 352.60
339.23, 0.31, 351.49
339.60, 0.32, 350.86
339.71, 0.44, 350.67
¯339.59, 0.64, 350.88
339.59, 0.79, 350.88
339.59, 0.95, 350.88
339.65, 1.09, 350.77
339.74, 1.23, 350.63
339.94, 1.35, 350.27
344.62, 0.77, 342.30
346.34, 0.84, 339.37
346.53, 1.17, 339.05
336.82, 0.43, 355.45
336.94, 0.43, 355.23
337.07, 0.43, 354.99
337.22, 0.44, 354.74
337.38, 0.44, 354.46
337.55, 0.44, 354.15
337.74, 0.44, 353.81
337.96, 0.45, 353.44
338.20, 0.45, 353.02
338.47, 0.45, 352.54
339.10, 0.31, 351.42
339.47, 0.32, 350.78
339.71, 0.39, 350.35
339.58, 0.60, 350.58
339.56, 0.76, 350.62
339.56, 0.92, 350.62
339.61, 1.07, 350.54
339.69, 1.21, 350.38
339.88, 1.33, 350.06
345.79, 0.55, 339.65
345.97, 0.86, 339.34
346.15, 1.18, 339.02
346.33, 1.50, 338.70
336.75, 0.43, 355.41
336.87, 0.43, 355.19
337.00, 0.44, 354.95
337.14, 0.44, 354.69
337.30, 0.44, 354.41
337.47, 0.44, 354.10
337.65, 0.44, 353.76
337.86, 0.45, 353.39
338.09, 0.45, 352.96
338.36, 0.45, 352.48
338.66, 0.45, 351.93
339.33, 0.32, 350.71
339.74, 0.33, 349.97
339.58, 0.55, 350.26
339.53, 0.73, 350.35
339.53, 0.89, 350.35
339.56, 1.05, 350.29
339.65, 1.19, 350.13
339.81, 1.32, 349.84
¯345.47, 0.55, 339.55
345.61, 0.86, 339.29
345.77, 1.18, 339.00
345.95, 1.51, 338.67
336.68, 0.43, 355.37
336.80, 0.43, 355.15
336.92, 0.44, 354.91
337.06, 0.44, 354.65
337.21, 0.44, 354.37
337.38, 0.44, 354.06
337.56, 0.44, 353.71
337.76, 0.45, 353.33
337.99, 0.45, 352.90
338.25, 0.45, 352.42
338.54, 0.45, 351.87
338.88, 0.45, 351.24
339.59, 0.33, 349.89
339.58, 0.50, 349.92
339.50, 0.70, 350.07
339.50, 0.86, 350.07
339.52, 1.02, 350.04
339.61, 1.17, 349.87
339.74, 1.31, 349.62
345.11, 0.56, 339.51
345.29, 0.87, 339.17
345.44, 1.19, 338.90
345.59, 1.52, 338.62
345.75, 1.85, 338.32
336.61, 0.43, 355.34
336.72, 0.43, 355.11
336.85, 0.44, 354.87
336.98, 0.44, 354.61
337.13, 0.44, 354.32
337.29, 0.44, 354.01
337.47, 0.45, 353.67
337.67, 0.45, 353.28
337.89, 0.45, 352.85
338.14, 0.45, 352.36
338.42, 0.45, 351.81
338.75, 0.45, 351.17
339.45, 0.33, 349.82
339.58, 0.45, 349.56
339.47, 0.66, 349.78
339.47, 0.83, 349.78
339.47, 1.00, 349.77
339.56, 1.14, 349.60
339.67, 1.29, 349.39
342.06, 1.05, 344.74
344.98, 0.87, 339.06
345.12, 1.19, 338.79
345.26, 1.52, 338.50
¯345.41, 1.85, 338.22
336.54, 0.43, 355.30
336.65, 0.43, 355.08
336.77, 0.44, 354.83
336.90, 0.44, 354.57
337.05, 0.44, 354.28
337.20, 0.44, 353.97
337.37, 0.45, 353.62
337.57, 0.45, 353.23
337.78, 0.45, 352.80
338.03, 0.45, 352.30
338.31, 0.45, 351.75
338.62, 0.45, 351.11
338.98, 0.46, 350.39
339.58, 0.39, 349.18
339.44, 0.62, 349.45
339.44, 0.79, 349.47
339.44, 0.96, 349.47
339.51, 1.12, 349.32
339.60, 1.27, 349.13
342.04, 1.01, 344.22
344.62, 0.88, 339.02
344.80, 1.19, 338.67
344.94, 1.52, 338.39
345.08, 1.85, 338.10
336.47, 0.43, 355.27
336.58, 0.43, 355.04
336.70, 0.44, 354.80
336.82, 0.44, 354.53
336.96, 0.44, 354.24
337.11, 0.44, 353.92
337.28, 0.45, 353.58
337.47, 0.45, 353.18
337.68, 0.45, 352.74
337.92, 0.45, 352.25
338.19, 0.45, 351.69
338.49, 0.45, 351.05
338.84, 0.46, 350.33
339.59, 0.33, 348.75
339.44, 0.57, 349.07
339.40, 0.76, 349.15
339.40, 0.93, 349.15
339.46, 1.09, 349.03
339.55, 1.25, 348.83
339.82, 1.38, 348.28
344.26, 0.89, 339.00
344.48, 1.20, 338.56
344.61, 1.52, 338.28
344.75, 1.86, 337.99
336.40, 0.43, 355.24
336.50, 0.44, 355.01
¯336.62, 0.44, 354.76
336.74, 0.44, 354.49
336.88, 0.44, 354.20
337.02, 0.44, 353.88
337.19, 0.45, 353.53
337.37, 0.45, 353.14
337.57, 0.45, 352.69
337.80, 0.45, 352.20
338.07, 0.45, 351.63
338.36, 0.45, 350.98
338.70, 0.46, 350.26
339.09, 0.46, 349.42
339.44, 0.51, 348.66
339.36, 0.72, 348.82
339.36, 0.90, 348.82
339.41, 1.06, 348.73
339.50, 1.22, 348.52
339.74, 1.36, 348.01
343.91, 0.90, 338.99
344.12, 1.20, 338.52
344.29, 1.52, 338.16
344.44, 1.86, 337.85
336.33, 0.43, 355.20
336.43, 0.44, 354.97
336.54, 0.44, 354.73
336.66, 0.44, 354.46
336.79, 0.44, 354.16
336.93, 0.44, 353.84
337.09, 0.45, 353.49
337.27, 0.45, 353.09
337.47, 0.45, 352.65
337.69, 0.45, 352.14
337.94, 0.45, 351.57
338.23, 0.45, 350.93
338.56, 0.46, 350.20
338.93, 0.46, 349.35
339.39, 0.47, 348.32
339.33, 0.68, 348.47
339.33, 0.86, 348.47
339.35, 1.04, 348.41
339.45, 1.20, 348.20
339.66, 1.34, 347.73
343.61, 0.90, 338.85
343.76, 1.21, 338.51
343.97, 1.53, 338.05
344.18, 1.85, 337.57
336.26, 0.43, 355.17
336.35, 0.44, 354.94
336.46, 0.44, 354.69
336.58, 0.44, 354.42
336.70, 0.44, 354.13
¯336.84, 0.44, 353.80
337.00, 0.45, 353.45
337.17, 0.45, 353.05
337.36, 0.45, 352.60
337.58, 0.45, 352.09
337.82, 0.45, 351.52
338.10, 0.45, 350.87
338.42, 0.46, 350.13
338.78, 0.46, 349.28
339.23, 0.47, 348.24
339.29, 0.63, 348.10
339.29, 0.82, 348.10
339.30, 1.01, 348.08
339.39, 1.17, 347.86
339.57, 1.33, 347.45
343.36, 0.89, 338.61
343.50, 1.20, 338.27
343.65, 1.53, 337.92
336.18, 0.43, 355.14
336.28, 0.44, 354.91
336.38, 0.44, 354.66
336.50, 0.44, 354.39
336.62, 0.44, 354.09
336.75, 0.44, 353.77
336.90, 0.45, 353.41
337.07, 0.45, 353.00
337.25, 0.45, 352.55
337.46, 0.45, 352.04
337.70, 0.45, 351.47
337.97, 0.45, 350.81
338.27, 0.46, 350.07
338.63, 0.47, 349.22
339.06, 0.47, 348.17
339.28, 0.58, 347.64
339.25, 0.78, 347.72
339.25, 0.97, 347.72
339.33, 1.14, 347.51
339.48, 1.31, 347.15
343.10, 0.89, 338.37
343.24, 1.20, 338.02
343.47, 1.51, 337.47
336.11, 0.43, 355.11
336.20, 0.44, 354.88
336.30, 0.44, 354.63
336.41, 0.44, 354.36
336.53, 0.44, 354.06
336.66, 0.45, 353.73
336.80, 0.45, 353.37
336.96, 0.45, 352.96
337.14, 0.45, 352.51
337.35, 0.45, 352.00
¯337.58, 0.45, 351.42
337.84, 0.45, 350.76
338.13, 0.46, 350.02
338.47, 0.47, 349.15
338.89, 0.47, 348.10
339.27, 0.51, 347.14
339.20, 0.74, 347.31
339.20, 0.93, 347.31
339.27, 1.11, 347.14
339.39, 1.29, 346.85
342.84, 0.88, 338.12
343.03, 1.18, 337.64
336.04, 0.43, 355.09
336.13, 0.44, 354.85
336.22, 0.44, 354.60
336.33, 0.44, 354.32
336.44, 0.44, 354.02
336.57, 0.45, 353.70
336.71, 0.45, 353.33
336.86, 0.45, 352.92
337.03, 0.45, 352.47
337.23, 0.45, 351.95
337.45, 0.45, 351.37
337.70, 0.45, 350.71
337.99, 0.46, 349.96
338.32, 0.47, 349.09
338.72, 0.47, 348.03
339.21, 0.47, 346.75
339.16, 0.69, 346.89
339.16, 0.89, 346.89
339.21, 1.08, 346.75
339.31, 1.26, 346.48
342.59, 0.87, 337.85
342.87, 1.16, 337.10
335.97, 0.44, 355.06
336.05, 0.44, 354.82
336.14, 0.44, 354.57
336.24, 0.44, 354.29
336.35, 0.44, 353.99
336.47, 0.45, 353.66
336.61, 0.45, 353.29
336.76, 0.45, 352.88
336.93, 0.45, 352.42
337.11, 0.45, 351.91
337.33, 0.45, 351.32
337.57, 0.45, 350.66
337.84, 0.46, 349.91
338.16, 0.47, 349.03
338.55, 0.47, 347.97
339.02, 0.47, 346.68
339.60, 0.47, 345.09
¯340.74, 0.34, 341.95
341.70, 0.35, 339.30
342.19, 0.55, 337.97
342.42, 0.84, 337.32
335.89, 0.44, 355.03
335.97, 0.44, 354.80
336.06, 0.44, 354.54
336.16, 0.44, 354.26
336.27, 0.44, 353.96
336.38, 0.45, 353.63
336.51, 0.45, 353.26
336.65, 0.45, 352.85
336.82, 0.45, 352.39
337.00, 0.45, 351.87
337.20, 0.45, 351.28
337.43, 0.45, 350.61
337.70, 0.46, 349.85
338.00, 0.47, 348.98
338.38, 0.47, 347.90
338.83, 0.47, 346.61
339.38, 0.47, 345.01
340.08, 0.47, 343.01
341.41, 0.35, 339.19
341.99, 0.52, 337.54
342.25, 0.81, 336.78
335.82, 0.44, 355.01
335.90, 0.44, 354.77
335.98, 0.44, 354.52
336.08, 0.44, 354.24
336.18, 0.44, 353.93
336.29, 0.45, 353.60
336.41, 0.45, 353.23
336.55, 0.45, 352.81
336.70, 0.45, 352.35
336.88, 0.45, 351.83
337.08, 0.45, 351.23
337.30, 0.45, 350.56
337.55, 0.46, 349.80
337.84, 0.47, 348.92
338.20, 0.47, 347.84
338.64, 0.47, 346.54
339.17, 0.47, 344.94
339.84, 0.47, 342.92
340.65, 0.49, 340.49
341.81, 0.49, 337.01
335.74, 0.44, 354.99
335.82, 0.44, 354.75
335.90, 0.44, 354.49
335.99, 0.44, 354.21
336.09, 0.44, 353.90
336.19, 0.45, 353.57
¯336.31, 0.45, 353.19
336.45, 0.45, 352.78
336.59, 0.45, 352.31
336.76, 0.45, 351.79
336.95, 0.45, 351.19
337.16, 0.45, 350.52
337.40, 0.46, 349.76
337.68, 0.47, 348.87
338.03, 0.47, 347.78
338.44, 0.47, 346.48
338.95, 0.47, 344.87
339.60, 0.47, 342.84
340.37, 0.49, 340.39
341.53, 0.48, 336.76
335.67, 0.44, 354.96
335.74, 0.44, 354.72
335.82, 0.44, 354.46
335.91, 0.44, 354.18
336.00, 0.44, 353.88
336.10, 0.45, 353.54
336.21, 0.45, 353.16
336.34, 0.45, 352.74
336.48, 0.45, 352.28
336.64, 0.45, 351.75
336.82, 0.45, 351.15
337.03, 0.45, 350.47
337.26, 0.46, 349.71
337.53, 0.47, 348.82
337.86, 0.47, 347.73
338.25, 0.47, 346.42
338.74, 0.47, 344.80
339.35, 0.47, 342.76
340.10, 0.49, 340.31
340.92, 0.55, 337.60
335.59, 0.44, 354.94
335.66, 0.44, 354.70
335.74, 0.44, 354.44
335.82, 0.44, 354.16
335.91, 0.44, 353.85
336.01, 0.45, 353.51
336.11, 0.45, 353.13
336.23, 0.45, 352.71
336.37, 0.45, 352.24
336.52, 0.45, 351.71
336.69, 0.45, 351.11
336.89, 0.45, 350.43
337.11, 0.46, 349.67
337.36, 0.47, 348.77
337.68, 0.47, 347.67
338.06, 0.47, 346.36
338.52, 0.47, 344.74
¯339.11, 0.47, 342.69
339.82, 0.49, 340.22
340.59, 0.56, 337.52
335.52, 0.44, 354.92
335.59, 0.44, 354.68
335.66, 0.44, 354.42
335.73, 0.44, 354.14
335.82, 0.44, 353.83
335.91, 0.45, 353.48
336.01, 0.45, 353.10
336.13, 0.45, 352.68
336.26, 0.45, 352.21
336.40, 0.45, 351.68
336.57, 0.45, 351.07
336.75, 0.45, 350.39
336.96, 0.46, 349.62
337.20, 0.47, 348.73
337.50, 0.47, 347.62
337.86, 0.47, 346.31
338.30, 0.47, 344.67
338.86, 0.47, 342.62
339.54, 0.49, 340.14
340.27, 0.56, 337.45
335.44, 0.44, 354.90
335.51, 0.44, 354.66
335.57, 0.44, 354.40
335.65, 0.44, 354.11
335.73, 0.44, 353.80
335.82, 0.45, 353.46
335.91, 0.45, 353.08
336.02, 0.45, 352.66
336.14, 0.45, 352.18
336.28, 0.45, 351.65
336.44, 0.45, 351.04
336.61, 0.45, 350.36
336.81, 0.46, 349.58
337.04, 0.47, 348.68
337.33, 0.47, 347.58
337.67, 0.47, 346.25
338.09, 0.47, 344.62
338.62, 0.47, 342.55
339.26, 0.49, 340.07
339.94, 0.56, 337.39
335.37, 0.44, 354.88
335.43, 0.44, 354.64
335.49, 0.44, 354.38
335.56, 0.44, 354.09
335.64, 0.44, 353.78
335.72, 0.45, 353.44
335.81, 0.45, 353.05
335.91, 0.45, 352.63
¯336.03, 0.45, 352.15
336.16, 0.45, 351.62
336.31, 0.45, 351.01
336.47, 0.45, 350.32
336.66, 0.46, 349.55
336.88, 0.46, 348.64
337.15, 0.47, 347.53
337.47, 0.47, 346.20
337.87, 0.47, 344.56
338.37, 0.47, 342.49
338.97, 0.49, 339.99
339.62, 0.56, 337.32
335.29, 0.44, 354.87
335.35, 0.44, 354.62
335.41, 0.44, 354.36
335.47, 0.44, 354.07
335.54, 0.45, 353.76
335.62, 0.45, 353.41
335.71, 0.45, 353.03
335.81, 0.45, 352.60
335.92, 0.45, 352.13
336.04, 0.45, 351.59
336.18, 0.45, 350.98
336.33, 0.45, 350.29
336.51, 0.46, 349.51
336.72, 0.46, 348.60
336.97, 0.47, 347.49
337.27, 0.47, 346.16
337.65, 0.47, 344.51
338.12, 0.47, 342.43
338.69, 0.49, 339.93
339.29, 0.56, 337.26
335.22, 0.44, 354.85
335.27, 0.44, 354.60
335.33, 0.44, 354.34
335.39, 0.44, 354.05
335.45, 0.45, 353.74
335.53, 0.45, 353.39
335.61, 0.45, 353.01
335.70, 0.45, 352.58
335.80, 0.45, 352.10
335.92, 0.45, 351.56
336.05, 0.45, 350.95
336.19, 0.45, 350.26
336.36, 0.46, 349.48
336.55, 0.46, 348.56
336.79, 0.47, 347.45
337.07, 0.47, 346.11
337.43, 0.47, 344.46
337.87, 0.47, 342.38
338.40, 0.49, 339.86
¯338.97, 0.56, 337.20
335.14, 0.44, 354.83
335.19, 0.44, 354.59
335.24, 0.44, 354.32
335.30, 0.44, 354.04
335.36, 0.45, 353.72
335.43, 0.45, 353.37
335.51, 0.45, 352.99
335.59, 0.45, 352.56
335.69, 0.45, 352.08
335.79, 0.45, 351.54
335.92, 0.45, 350.92
336.05, 0.45, 350.23
336.21, 0.46, 349.44
336.39, 0.46, 348.53
336.61, 0.47, 347.41
336.88, 0.47, 346.07
337.21, 0.47, 344.41
337.62, 0.47, 342.33
338.12, 0.49, 339.80
338.65, 0.56, 337.14
335.06, 0.44, 354.82
335.11, 0.44, 354.57
335.16, 0.44, 354.31
335.21, 0.44, 354.02
335.27, 0.45, 353.70
335.33, 0.45, 353.35
335.40, 0.45, 352.97
335.48, 0.45, 352.54
335.57, 0.45, 352.06
335.67, 0.45, 351.51
335.79, 0.45, 350.89
335.91, 0.45, 350.20
336.06, 0.46, 349.41
336.23, 0.46, 348.50
336.43, 0.47, 347.38
336.68, 0.47, 346.04
336.98, 0.47, 344.37
337.37, 0.47, 342.28
337.83, 0.49, 339.75
338.32, 0.56, 337.09
334.99, 0.44, 354.81
335.03, 0.44, 354.56
335.07, 0.44, 354.29
335.12, 0.44, 354.00
335.18, 0.45, 353.69
335.24, 0.45, 353.34
335.30, 0.45, 352.95
335.38, 0.45, 352.52
335.46, 0.45, 352.03
335.55, 0.45, 351.49
¯335.65, 0.45, 350.87
335.77, 0.45, 350.18
335.90, 0.46, 349.39
336.06, 0.46, 348.47
336.25, 0.47, 347.34
336.48, 0.47, 346.00
336.76, 0.47, 344.33
337.12, 0.47, 342.23
337.54, 0.49, 339.70
338.01, 0.56, 336.95
334.91, 0.44, 354.79
334.95, 0.44, 354.55
334.99, 0.44, 354.28
335.04, 0.44, 353.99
335.08, 0.45, 353.67
335.14, 0.45, 353.32
335.20, 0.45, 352.93
335.27, 0.45, 352.50
335.34, 0.45, 352.02
335.43, 0.45, 351.47
335.52, 0.45, 350.85
335.63, 0.45, 350.15
335.75, 0.46, 349.36
335.90, 0.46, 348.44
336.07, 0.47, 347.31
336.28, 0.47, 345.97
336.54, 0.47, 344.30
336.86, 0.47, 342.19
337.26, 0.49, 339.65
337.71, 0.55, 336.76
334.83, 0.44, 354.78
334.87, 0.44, 354.54
334.91, 0.44, 354.27
334.95, 0.44, 353.98
334.99, 0.45, 353.66
335.04, 0.45, 353.31
335.10, 0.45, 352.92
335.16, 0.45, 352.48
335.23, 0.45, 352.00
335.30, 0.45, 351.45
335.39, 0.45, 350.83
335.49, 0.45, 350.13
335.60, 0.46, 349.34
335.73, 0.46, 348.41
335.89, 0.47, 347.29
336.08, 0.47, 345.94
336.31, 0.47, 344.26
336.61, 0.47, 342.16
336.97, 0.49, 339.61
337.40, 0.54, 336.56
334.76, 0.44, 354.77
¯334.79, 0.44, 354.53
334.82, 0.44, 354.26
334.86, 0.44, 353.97
334.90, 0.45, 353.65
334.94, 0.45, 353.29
334.99, 0.45, 352.90
335.05, 0.45, 352.47
335.11, 0.45, 351.98
335.18, 0.45, 351.43
335.26, 0.45, 350.81
335.35, 0.45, 350.11
335.45, 0.46, 349.32
335.56, 0.46, 348.39
335.71, 0.47, 347.26
335.88, 0.47, 345.91
336.09, 0.47, 344.23
336.36, 0.47, 342.12
336.68, 0.49, 339.57
337.08, 0.52, 336.37
334.68, 0.44, 354.76
334.71, 0.44, 354.52
334.74, 0.44, 354.25
334.77, 0.44, 353.96
334.81, 0.45, 353.64
334.85, 0.45, 353.28
334.89, 0.45, 352.89
334.94, 0.45, 352.46
334.99, 0.45, 351.97
335.05, 0.45, 351.42
335.13, 0.45, 350.79
335.20, 0.45, 350.09
335.29, 0.46, 349.30
335.40, 0.46, 348.37
335.52, 0.47, 347.24
335.68, 0.47, 345.89
335.86, 0.47, 344.21
336.10, 0.47, 342.09
336.39, 0.49, 339.54
336.77, 0.51, 336.19
334.60, 0.44, 354.76
334.63, 0.44, 354.51
334.65, 0.44, 354.24
334.68, 0.44, 353.95
334.71, 0.45, 353.63
334.75, 0.45, 353.27
334.79, 0.45, 352.88
334.83, 0.45, 352.44
334.88, 0.45, 351.96
334.93, 0.45, 351.41
334.99, 0.45, 350.78
335.06, 0.45, 350.08
¯335.14, 0.46, 349.28
335.23, 0.46, 348.35
335.34, 0.47, 347.22
335.47, 0.47, 345.87
335.64, 0.47, 344.18
335.85, 0.47, 342.06
336.10, 0.49, 339.51
336.44, 0.50, 336.00
334.52, 0.44, 354.75
334.55, 0.44, 354.50
334.57, 0.44, 354.23
334.59, 0.44, 353.94
334.62, 0.45, 353.62
334.65, 0.45, 353.26
334.68, 0.45, 352.87
334.72, 0.45, 352.43
334.76, 0.45, 351.95
334.81, 0.45, 351.39
334.86, 0.45, 350.77
334.92, 0.45, 350.06
334.99, 0.46, 349.27
335.06, 0.46, 348.34
335.16, 0.46, 347.21
335.27, 0.47, 345.85
335.41, 0.47, 344.16
335.59, 0.47, 342.04
335.81, 0.49, 339.48
336.12, 0.49, 335.82
334.45, 0.44, 354.74
334.46, 0.44, 354.50
334.48, 0.44, 354.23
334.50, 0.44, 353.93
334.53, 0.45, 353.61
334.55, 0.45, 353.25
334.58, 0.45, 352.86
334.61, 0.45, 352.43
334.64, 0.45, 351.94
334.68, 0.45, 351.38
334.73, 0.45, 350.76
334.78, 0.45, 350.05
334.83, 0.46, 349.25
334.90, 0.46, 348.32
334.98, 0.46, 347.19
335.07, 0.47, 345.83
335.19, 0.47, 344.15
335.34, 0.47, 342.02
335.52, 0.49, 339.46
334.37, 0.44, 354.74
334.38, 0.44, 354.49
334.40, 0.44, 354.22
334.41, 0.44, 353.93
¯334.43, 0.45, 353.60
334.45, 0.45, 353.25
334.47, 0.45, 352.86
334.50, 0.45, 352.42
334.53, 0.45, 351.93
334.56, 0.45, 351.38
334.59, 0.45, 350.75
334.63, 0.45, 350.04
334.68, 0.46, 349.24
334.73, 0.46, 348.31
334.79, 0.46, 347.18
334.87, 0.47, 345.82
334.96, 0.47, 344.13
335.08, 0.47, 342.01
335.31, 0.35, 337.97
334.29, 0.44, 354.74
334.30, 0.44, 354.49
334.31, 0.44, 354.22
334.33, 0.44, 353.92
334.34, 0.45, 353.60
334.35, 0.45, 353.24
334.37, 0.45, 352.85
334.39, 0.45, 352.41
334.41, 0.45, 351.92
334.43, 0.45, 351.37
334.46, 0.45, 350.74
334.49, 0.45, 350.03
334.52, 0.46, 349.23
334.56, 0.46, 348.30
334.61, 0.46, 347.17
334.67, 0.47, 345.81
334.74, 0.47, 344.12
334.88, 0.34, 340.81
335.00, 0.35, 337.96
334.21, 0.44, 354.73
334.22, 0.44, 354.48
334.23, 0.44, 354.21
334.24, 0.44, 353.92
334.25, 0.45, 353.60
334.26, 0.45, 353.24
334.27, 0.45, 352.85
334.28, 0.45, 352.41
334.29, 0.45, 351.92
334.31, 0.45, 351.37
334.33, 0.45, 350.74
334.35, 0.45, 350.03
334.37, 0.46, 349.23
334.39, 0.46, 348.29
334.43, 0.46, 347.17
334.46, 0.47, 345.81
334.54, 0.33, 342.99
¯334.60, 0.34, 340.80
334.68, 0.35, 337.95
334.14, 0.44, 354.73
334.14, 0.44, 354.48
334.14, 0.44, 354.21
334.15, 0.44, 353.92
334.15, 0.45, 353.59
334.16, 0.45, 353.24
334.16, 0.45, 352.84
334.17, 0.45, 352.41
334.18, 0.45, 351.92
334.18, 0.45, 351.36
334.19, 0.45, 350.73
334.20, 0.45, 350.02
334.21, 0.46, 349.22
334.23, 0.46, 348.29
334.24, 0.46, 347.16
334.28, 0.33, 344.79
334.30, 0.33, 342.98
334.33, 0.34, 340.79
334.37, 0.35, 337.95
334.06, 0.44, 354.73
334.06, 0.44, 354.48
334.06, 0.44, 354.21
334.06, 0.44, 353.92
334.06, 0.45, 353.59
334.06, 0.45, 353.24
334.06, 0.45, 352.84
334.06, 0.45, 352.41
334.06, 0.45, 351.92
334.06, 0.45, 351.36
334.06, 0.45, 350.73
334.06, 0.45, 350.02
334.06, 0.46, 349.22
334.06, 0.46, 348.29
334.06, 0.33, 346.26
