ŸVERSION 0.7
FIELDS x y z
SIZE 8 8 8
TYPE F F F
COUNT 1 1 1
WIDTH 2271
HEIGHT 1
VIEWPOINT 402.48, 12.68, 328.48 1 382.75, 6.78, 327.45
POINTS 2271
DATA ascii
381.19, 4.01, 319.35
381.00, 3.96, 318.85
380.78, 3.90, 318.29
380.53, 3.84, 317.65
380.24, 3.76, 316.91
380.03, 3.77, 316.38
379.99, 3.91, 316.30
379.95, 4.06, 316.22
379.91, 4.20, 316.14
379.87, 4.35, 316.06
379.83, 4.50, 315.98
379.79, 4.65, 315.90
379.75, 4.81, 315.82
379.71, 4.96, 315.74
379.66, 5.12, 315.65
379.62, 5.28, 315.57
379.58, 5.44, 315.48
379.53, 5.60, 315.39
379.49, 5.76, 315.31
379.44, 5.93, 315.22
379.40, 6.10, 315.13
379.35, 6.27, 315.03
379.30, 6.45, 314.94
379.25, 6.62, 314.84
379.21, 6.80, 314.75
381.55, 4.11, 320.53
381.41, 4.07, 320.19
381.25, 4.03, 319.79
381.07, 3.99, 319.34
380.87, 3.93, 318.85
380.63, 3.87, 318.26
380.38, 3.81, 317.63
380.07, 3.73, 316.89
379.86, 3.74, 316.37
379.82, 3.89, 316.30
379.78, 4.03, 316.22
379.74, 4.18, 316.14
¯379.70, 4.33, 316.06
379.65, 4.48, 315.98
379.61, 4.63, 315.89
379.57, 4.79, 315.81
379.52, 4.94, 315.73
379.48, 5.10, 315.64
379.44, 5.26, 315.56
379.39, 5.42, 315.47
379.34, 5.58, 315.38
379.30, 5.75, 315.30
379.25, 5.92, 315.21
379.20, 6.09, 315.11
379.15, 6.26, 315.02
379.10, 6.43, 314.93
379.05, 6.61, 314.83
379.00, 6.79, 314.73
381.45, 4.09, 320.54
381.30, 4.05, 320.19
381.14, 4.01, 319.79
380.95, 3.96, 319.34
380.73, 3.90, 318.83
380.48, 3.84, 318.24
380.22, 3.78, 317.62
379.90, 3.70, 316.87
379.69, 3.71, 316.37
379.65, 3.86, 316.29
379.60, 4.01, 316.21
379.56, 4.16, 316.13
379.52, 4.31, 316.05
379.47, 4.46, 315.97
379.43, 4.61, 315.89
379.39, 4.76, 315.81
379.34, 4.92, 315.72
379.29, 5.08, 315.64
379.25, 5.24, 315.55
379.20, 5.40, 315.46
379.15, 5.56, 315.37
379.10, 5.73, 315.29
379.06, 5.90, 315.19
379.01, 6.07, 315.10
378.96, 6.25, 315.01
378.90, 6.42, 314.91
378.86, 6.60, 314.82
378.81, 6.78, 314.73
381.35, 4.07, 320.54
381.20, 4.03, 320.19
381.02, 3.99, 319.79
380.82, 3.94, 319.34
380.59, 3.87, 318.81
380.33, 3.80, 318.22
380.06, 3.75, 317.60
¯379.73, 3.66, 316.85
379.52, 3.69, 316.37
379.47, 3.83, 316.29
379.43, 3.98, 316.21
379.38, 4.13, 316.13
379.34, 4.28, 316.05
379.29, 4.43, 315.97
379.25, 4.59, 315.88
379.20, 4.74, 315.80
379.15, 4.90, 315.71
379.11, 5.06, 315.63
379.06, 5.22, 315.54
379.01, 5.38, 315.45
378.96, 5.55, 315.37
378.91, 5.71, 315.28
378.86, 5.88, 315.19
378.81, 6.06, 315.10
378.76, 6.23, 315.02
378.71, 6.41, 314.93
378.66, 6.59, 314.84
378.61, 6.77, 314.74
381.25, 4.05, 320.55
381.09, 4.01, 320.20
380.91, 3.97, 319.80
380.69, 3.91, 319.33
380.45, 3.84, 318.79
380.18, 3.77, 318.20
379.90, 3.71, 317.57
379.56, 3.63, 316.83
379.34, 3.66, 316.37
379.30, 3.80, 316.29
379.25, 3.95, 316.21
379.20, 4.10, 316.13
379.16, 4.25, 316.04
379.11, 4.41, 315.96
379.06, 4.56, 315.88
379.01, 4.72, 315.79
378.96, 4.88, 315.71
378.91, 5.04, 315.62
378.87, 5.20, 315.54
378.82, 5.36, 315.46
378.77, 5.53, 315.37
378.72, 5.70, 315.29
378.67, 5.87, 315.20
378.62, 6.04, 315.12
378.57, 6.22, 315.03
378.52, 6.40, 314.94
378.47, 6.58, 314.85
378.41, 6.76, 314.76
381.15, 4.03, 320.56
380.98, 3.99, 320.21
¯380.79, 3.94, 319.80
380.56, 3.88, 319.32
380.31, 3.81, 318.78
380.02, 3.74, 318.18
379.73, 3.67, 317.55
379.38, 3.60, 316.82
379.16, 3.63, 316.36
379.12, 3.78, 316.28
379.07, 3.93, 316.20
379.02, 4.08, 316.12
378.97, 4.23, 316.04
378.92, 4.38, 315.96
378.87, 4.54, 315.88
378.83, 4.70, 315.80
378.78, 4.86, 315.72
378.73, 5.02, 315.64
378.68, 5.18, 315.55
378.63, 5.35, 315.47
378.58, 5.51, 315.39
378.53, 5.68, 315.30
378.48, 5.86, 315.22
378.43, 6.03, 315.13
378.38, 6.21, 315.04
378.32, 6.39, 314.95
378.27, 6.57, 314.86
378.21, 6.75, 314.77
381.05, 4.01, 320.58
380.87, 3.97, 320.22
380.67, 3.92, 319.79
380.43, 3.85, 319.31
380.16, 3.78, 318.76
379.87, 3.71, 318.16
379.56, 3.64, 317.52
379.20, 3.56, 316.79
378.98, 3.60, 316.36
378.93, 3.75, 316.28
378.89, 3.90, 316.20
378.84, 4.05, 316.13
378.79, 4.20, 316.05
378.74, 4.36, 315.97
378.69, 4.52, 315.89
378.65, 4.68, 315.81
378.60, 4.84, 315.73
378.55, 5.00, 315.65
378.50, 5.16, 315.57
378.45, 5.33, 315.49
378.39, 5.50, 315.40
378.34, 5.67, 315.32
378.29, 5.84, 315.23
378.23, 6.02, 315.14
378.18, 6.19, 315.05
¯378.12, 6.37, 314.96
378.07, 6.56, 314.87
378.01, 6.74, 314.78
380.95, 4.00, 320.60
380.76, 3.95, 320.22
380.54, 3.89, 319.79
380.30, 3.82, 319.31
380.02, 3.75, 318.75
379.71, 3.67, 318.15
379.38, 3.60, 317.50
379.01, 3.52, 316.76
378.80, 3.57, 316.37
378.76, 3.72, 316.29
378.71, 3.87, 316.22
378.66, 4.03, 316.14
378.61, 4.18, 316.07
378.56, 4.34, 315.99
378.51, 4.50, 315.91
378.46, 4.66, 315.83
378.41, 4.82, 315.75
378.36, 4.98, 315.67
378.31, 5.15, 315.59
378.25, 5.31, 315.50
378.20, 5.48, 315.42
378.15, 5.65, 315.33
378.09, 5.83, 315.24
378.04, 6.00, 315.16
377.98, 6.18, 315.07
377.92, 6.36, 314.98
377.86, 6.55, 314.88
377.81, 6.73, 314.79
380.85, 3.98, 320.62
380.64, 3.92, 320.22
380.42, 3.86, 319.79
380.16, 3.80, 319.30
379.87, 3.72, 318.74
379.55, 3.64, 318.13
379.21, 3.56, 317.48
378.82, 3.48, 316.74
378.62, 3.54, 316.37
378.57, 3.69, 316.29
378.52, 3.84, 316.22
378.47, 4.00, 316.14
378.42, 4.15, 316.07
378.37, 4.31, 315.99
378.32, 4.47, 315.92
378.27, 4.63, 315.84
378.22, 4.80, 315.76
378.17, 4.96, 315.68
378.12, 5.13, 315.60
378.06, 5.29, 315.52
¯378.01, 5.46, 315.43
377.95, 5.64, 315.35
377.89, 5.81, 315.26
377.84, 5.99, 315.17
377.78, 6.17, 315.08
377.72, 6.35, 314.99
377.66, 6.54, 314.90
377.60, 6.72, 314.80
380.74, 3.96, 320.63
380.53, 3.90, 320.22
380.29, 3.84, 319.79
380.03, 3.77, 319.30
379.72, 3.68, 318.74
379.39, 3.60, 318.12
379.03, 3.52, 317.46
378.65, 3.45, 316.75
378.43, 3.50, 316.37
378.38, 3.66, 316.29
378.33, 3.81, 316.22
378.28, 3.97, 316.14
378.23, 4.13, 316.07
378.18, 4.28, 315.99
378.13, 4.45, 315.91
378.07, 4.61, 315.84
378.02, 4.77, 315.76
377.97, 4.94, 315.68
377.91, 5.10, 315.60
377.86, 5.27, 315.52
377.80, 5.45, 315.43
377.75, 5.62, 315.35
377.69, 5.80, 315.27
377.63, 5.97, 315.18
377.57, 6.15, 315.09
377.51, 6.34, 315.00
377.45, 6.52, 314.91
377.39, 6.71, 314.82
380.64, 3.94, 320.63
380.41, 3.87, 320.23
380.17, 3.81, 319.79
379.89, 3.74, 319.30
379.58, 3.65, 318.73
379.23, 3.57, 318.11
378.86, 3.49, 317.45
378.47, 3.42, 316.76
378.24, 3.47, 316.37
378.19, 3.62, 316.29
378.14, 3.78, 316.22
378.09, 3.94, 316.14
378.03, 4.10, 316.06
377.98, 4.26, 315.99
377.93, 4.42, 315.91
¯377.87, 4.58, 315.83
377.82, 4.75, 315.75
377.76, 4.91, 315.67
377.71, 5.08, 315.59
377.65, 5.25, 315.51
377.59, 5.43, 315.43
377.53, 5.60, 315.34
377.47, 5.78, 315.26
377.41, 5.96, 315.17
377.35, 6.14, 315.08
377.29, 6.32, 314.99
377.23, 6.51, 314.90
377.17, 6.70, 314.81
380.53, 3.91, 320.64
380.29, 3.84, 320.23
380.04, 3.78, 319.79
379.75, 3.71, 319.30
379.43, 3.62, 318.73
379.06, 3.53, 318.11
378.69, 3.46, 317.47
378.29, 3.39, 316.77
378.05, 3.43, 316.37
378.00, 3.59, 316.29
377.94, 3.75, 316.22
377.89, 3.90, 316.14
377.83, 4.06, 316.06
377.78, 4.23, 315.98
377.72, 4.39, 315.91
377.67, 4.55, 315.83
377.61, 4.72, 315.75
377.55, 4.89, 315.67
377.49, 5.06, 315.58
377.43, 5.23, 315.50
377.38, 5.40, 315.42
377.31, 5.58, 315.33
377.25, 5.76, 315.25
377.19, 5.94, 315.16
377.13, 6.12, 315.07
377.07, 6.31, 314.98
377.00, 6.50, 314.89
376.91, 6.69, 314.76
380.42, 3.89, 320.65
380.17, 3.82, 320.24
379.91, 3.75, 319.80
379.61, 3.67, 319.30
379.27, 3.59, 318.73
378.90, 3.50, 318.10
378.53, 3.43, 317.48
378.10, 3.35, 316.78
377.85, 3.40, 316.37
377.80, 3.55, 316.29
¯377.74, 3.71, 316.21
377.69, 3.87, 316.14
377.63, 4.03, 316.06
377.57, 4.20, 315.98
377.52, 4.36, 315.90
377.46, 4.53, 315.82
377.40, 4.69, 315.74
377.34, 4.86, 315.66
377.28, 5.03, 315.58
377.22, 5.21, 315.49
377.16, 5.38, 315.41
377.09, 5.56, 315.32
377.03, 5.74, 315.24
376.97, 5.92, 315.15
376.83, 6.10, 314.95
376.68, 6.29, 314.71
376.51, 6.48, 314.46
376.33, 6.68, 314.18
380.31, 3.86, 320.66
380.05, 3.79, 320.25
379.78, 3.72, 319.80
379.47, 3.64, 319.30
379.12, 3.55, 318.73
378.74, 3.47, 318.12
378.36, 3.40, 317.50
377.92, 3.32, 316.79
377.65, 3.36, 316.37
377.60, 3.52, 316.29
377.54, 3.68, 316.21
377.48, 3.84, 316.14
377.42, 4.00, 316.06
377.36, 4.16, 315.98
377.30, 4.33, 315.90
377.24, 4.50, 315.82
377.18, 4.66, 315.74
377.12, 4.84, 315.65
377.06, 5.01, 315.57
377.00, 5.18, 315.49
376.90, 5.36, 315.36
376.75, 5.52, 315.13
376.60, 5.69, 314.90
376.44, 5.87, 314.66
376.26, 6.06, 314.40
376.07, 6.25, 314.11
375.87, 6.45, 313.81
375.66, 6.66, 313.49
380.19, 3.84, 320.67
379.93, 3.76, 320.26
379.65, 3.69, 319.81
379.33, 3.61, 319.31
378.96, 3.52, 318.73
¯378.59, 3.44, 318.15
378.19, 3.37, 317.52
377.74, 3.29, 316.81
377.45, 3.32, 316.37
377.39, 3.48, 316.29
377.33, 3.64, 316.21
377.27, 3.80, 316.14
377.21, 3.97, 316.06
377.15, 4.13, 315.98
377.09, 4.30, 315.90
377.03, 4.47, 315.81
376.96, 4.64, 315.73
376.83, 4.79, 315.54
376.68, 4.94, 315.32
376.52, 5.10, 315.09
376.36, 5.27, 314.85
376.19, 5.44, 314.61
376.01, 5.62, 314.34
375.81, 5.81, 314.04
375.60, 6.00, 313.74
375.38, 6.21, 313.41
375.15, 6.42, 313.08
374.97, 6.65, 312.82
380.08, 3.81, 320.69
379.81, 3.74, 320.27
379.52, 3.66, 319.82
379.18, 3.58, 319.31
378.81, 3.49, 318.75
378.44, 3.41, 318.17
378.03, 3.34, 317.55
377.55, 3.26, 316.83
377.25, 3.28, 316.37
377.19, 3.44, 316.29
377.12, 3.60, 316.21
377.06, 3.77, 316.13
377.00, 3.93, 316.06
376.91, 4.09, 315.94
376.77, 4.23, 315.73
376.61, 4.37, 315.51
376.45, 4.52, 315.29
376.29, 4.68, 315.05
376.12, 4.84, 314.81
375.94, 5.00, 314.56
375.74, 5.18, 314.28
375.53, 5.35, 313.98
375.31, 5.54, 313.66
375.08, 5.74, 313.33
374.95, 5.95, 313.15
374.87, 6.18, 313.04
374.78, 6.40, 312.94
374.70, 6.64, 312.83
¯379.97, 3.79, 320.71
379.69, 3.71, 320.28
379.38, 3.63, 319.83
379.04, 3.55, 319.32
378.67, 3.46, 318.78
378.28, 3.39, 318.20
377.86, 3.31, 317.57
377.37, 3.22, 316.85
377.04, 3.24, 316.37
376.97, 3.40, 316.29
376.86, 3.54, 316.13
376.71, 3.67, 315.92
376.55, 3.80, 315.71
376.39, 3.94, 315.48
376.22, 4.09, 315.25
376.05, 4.24, 315.01
375.87, 4.39, 314.76
375.68, 4.55, 314.51
375.48, 4.71, 314.22
375.25, 4.88, 313.91
375.02, 5.06, 313.59
374.93, 5.27, 313.47
374.85, 5.49, 313.37
374.77, 5.71, 313.27
374.68, 5.93, 313.16
374.60, 6.16, 313.06
374.51, 6.39, 312.95
374.42, 6.62, 312.85
379.86, 3.76, 320.72
379.56, 3.68, 320.30
379.25, 3.60, 319.85
378.89, 3.51, 319.33
378.53, 3.44, 318.81
378.13, 3.36, 318.23
377.69, 3.28, 317.60
377.18, 3.19, 316.88
376.72, 3.15, 316.22
376.50, 3.24, 315.91
376.33, 3.37, 315.69
376.16, 3.50, 315.46
375.99, 3.64, 315.23
375.81, 3.78, 314.98
375.62, 3.93, 314.72
375.42, 4.08, 314.46
375.20, 4.24, 314.16
374.99, 4.40, 313.87
374.91, 4.61, 313.78
374.83, 4.82, 313.68
374.75, 5.04, 313.58
374.67, 5.25, 313.48
374.58, 5.47, 313.38
¯374.50, 5.69, 313.28
374.41, 5.92, 313.18
374.32, 6.14, 313.08
374.24, 6.38, 312.97
374.15, 6.61, 312.86
379.75, 3.74, 320.75
379.44, 3.65, 320.32
379.12, 3.57, 319.86
378.76, 3.49, 319.37
378.39, 3.41, 318.85
377.97, 3.33, 318.27
377.52, 3.25, 317.63
377.00, 3.16, 316.91
376.52, 3.11, 316.26
376.14, 3.14, 315.74
375.75, 3.17, 315.20
375.56, 3.31, 314.95
375.37, 3.45, 314.69
375.16, 3.60, 314.41
374.97, 3.76, 314.18
374.90, 3.96, 314.08
374.82, 4.17, 313.99
374.73, 4.37, 313.89
374.65, 4.58, 313.80
374.57, 4.80, 313.70
374.48, 5.01, 313.60
374.40, 5.23, 313.50
374.31, 5.45, 313.40
374.23, 5.67, 313.30
374.14, 5.90, 313.20
374.05, 6.13, 313.09
373.96, 6.36, 312.99
373.86, 6.60, 312.88
379.64, 3.72, 320.77
379.32, 3.63, 320.34
378.98, 3.54, 319.88
378.63, 3.47, 319.41
378.25, 3.39, 318.89
377.81, 3.30, 318.30
377.35, 3.22, 317.67
376.83, 3.13, 316.97
376.33, 3.08, 316.30
375.94, 3.10, 315.78
375.51, 3.13, 315.21
375.04, 3.16, 314.58
374.88, 3.32, 314.38
374.80, 3.52, 314.29
374.72, 3.72, 314.20
374.64, 3.93, 314.11
374.56, 4.13, 314.01
374.47, 4.34, 313.92
¯374.39, 4.55, 313.82
374.30, 4.77, 313.72
374.22, 4.98, 313.62
374.13, 5.20, 313.52
374.04, 5.42, 313.42
373.95, 5.65, 313.32
373.86, 5.88, 313.21
373.76, 6.11, 313.11
373.67, 6.35, 313.00
373.57, 6.58, 312.89
379.52, 3.69, 320.79
379.20, 3.60, 320.36
378.85, 3.52, 319.91
378.50, 3.45, 319.45
378.11, 3.37, 318.93
377.66, 3.28, 318.34
377.18, 3.19, 317.71
376.66, 3.11, 317.03
376.13, 3.05, 316.34
375.73, 3.07, 315.82
375.29, 3.09, 315.25
374.72, 3.09, 314.51
374.60, 3.27, 314.37
374.52, 3.47, 314.28
374.44, 3.68, 314.18
374.35, 3.88, 314.09
374.27, 4.09, 314.00
374.18, 4.30, 313.90
374.09, 4.52, 313.81
374.01, 4.73, 313.71
373.92, 4.95, 313.61
373.83, 5.17, 313.51
373.74, 5.40, 313.41
373.64, 5.63, 313.31
373.55, 5.86, 313.20
373.46, 6.09, 313.10
373.36, 6.33, 312.99
373.26, 6.57, 312.88
379.41, 3.67, 320.82
379.07, 3.58, 320.39
378.73, 3.50, 319.96
378.37, 3.42, 319.50
377.97, 3.34, 318.98
377.50, 3.25, 318.38
377.00, 3.16, 317.75
376.50, 3.09, 317.10
375.94, 3.02, 316.39
375.52, 3.04, 315.87
375.06, 3.06, 315.29
374.40, 3.02, 314.45
374.32, 3.22, 314.36
¯374.23, 3.43, 314.27
374.14, 3.63, 314.17
374.06, 3.84, 314.08
373.97, 4.05, 313.98
373.88, 4.26, 313.89
373.79, 4.48, 313.79
373.70, 4.70, 313.69
373.61, 4.92, 313.59
373.51, 5.14, 313.49
373.42, 5.37, 313.39
373.32, 5.60, 313.28
373.23, 5.83, 313.18
373.13, 6.07, 313.07
373.03, 6.31, 312.96
372.93, 6.56, 312.86
379.30, 3.64, 320.85
378.95, 3.55, 320.42
378.61, 3.48, 320.00
378.25, 3.40, 319.54
377.83, 3.32, 319.02
377.35, 3.22, 318.43
376.85, 3.14, 317.81
376.34, 3.07, 317.18
375.75, 2.99, 316.46
375.31, 3.00, 315.91
374.77, 3.00, 315.26
374.11, 2.96, 314.44
374.02, 3.17, 314.35
373.94, 3.37, 314.26
373.85, 3.58, 314.16
373.76, 3.79, 314.07
373.66, 4.01, 313.97
373.57, 4.22, 313.87
373.48, 4.44, 313.77
373.38, 4.66, 313.67
373.29, 4.88, 313.57
373.19, 5.11, 313.47
373.09, 5.34, 313.36
373.00, 5.57, 313.26
372.90, 5.81, 313.17
372.81, 6.05, 313.07
372.71, 6.30, 312.97
372.61, 6.54, 312.87
379.18, 3.61, 320.88
378.84, 3.53, 320.46
378.49, 3.46, 320.05
378.12, 3.38, 319.59
377.69, 3.29, 319.07
377.20, 3.19, 318.48
376.70, 3.12, 317.88
376.17, 3.05, 317.25
¯375.58, 2.97, 316.54
375.10, 2.97, 315.96
374.45, 2.92, 315.19
373.82, 2.91, 314.43
373.73, 3.11, 314.34
373.63, 3.32, 314.24
373.54, 3.53, 314.15
373.45, 3.75, 314.05
373.35, 3.96, 313.95
373.26, 4.18, 313.86
373.16, 4.40, 313.76
373.06, 4.62, 313.65
372.97, 4.85, 313.56
372.87, 5.08, 313.46
372.78, 5.31, 313.37
372.68, 5.55, 313.27
372.59, 5.79, 313.17
372.49, 6.03, 313.07
372.39, 6.28, 312.97
372.29, 6.53, 312.87
379.06, 3.59, 320.91
378.73, 3.51, 320.51
378.38, 3.44, 320.10
377.99, 3.36, 319.64
377.55, 3.27, 319.13
377.04, 3.17, 318.53
376.55, 3.10, 317.96
376.01, 3.03, 317.33
375.40, 2.95, 316.62
374.84, 2.91, 315.96
374.11, 2.84, 315.12
373.51, 2.85, 314.42
373.42, 3.06, 314.33
373.32, 3.27, 314.23
373.23, 3.48, 314.14
373.13, 3.70, 314.04
373.03, 3.91, 313.94
372.94, 4.14, 313.85
372.85, 4.36, 313.76
372.75, 4.59, 313.66
372.66, 4.82, 313.57
372.56, 5.05, 313.47
372.46, 5.29, 313.38
372.37, 5.53, 313.28
372.26, 5.77, 313.18
372.16, 6.01, 313.08
372.06, 6.26, 312.97
371.95, 6.52, 312.87
378.95, 3.56, 320.94
378.62, 3.49, 320.56
378.26, 3.42, 320.15
¯377.86, 3.34, 319.70
377.41, 3.25, 319.18
376.90, 3.15, 318.60
376.39, 3.07, 318.03
375.85, 3.00, 317.41
375.22, 2.92, 316.70
374.53, 2.84, 315.91
373.77, 2.76, 315.05
373.20, 2.79, 314.42
373.11, 3.00, 314.32
373.01, 3.21, 314.23
372.92, 3.43, 314.14
372.82, 3.65, 314.05
372.73, 3.87, 313.95
372.63, 4.10, 313.86
372.54, 4.32, 313.77
372.44, 4.55, 313.67
372.34, 4.78, 313.58
372.24, 5.02, 313.48
372.14, 5.26, 313.38
372.04, 5.50, 313.28
371.93, 5.74, 313.18
371.83, 5.99, 313.08
371.72, 6.25, 312.98
371.61, 6.50, 312.87
378.84, 3.54, 320.98
378.51, 3.47, 320.62
378.14, 3.40, 320.21
377.73, 3.31, 319.75
377.27, 3.22, 319.24
376.76, 3.13, 318.68
376.24, 3.05, 318.10
375.68, 2.98, 317.49
375.04, 2.90, 316.78
374.34, 2.82, 316.01
373.50, 2.71, 315.08
372.90, 2.73, 314.42
372.80, 2.94, 314.33
372.71, 3.16, 314.24
372.61, 3.38, 314.15
372.52, 3.60, 314.06
372.42, 3.83, 313.97
372.32, 4.05, 313.87
372.22, 4.28, 313.78
372.12, 4.52, 313.68
372.02, 4.75, 313.59
371.91, 4.99, 313.49
371.81, 5.23, 313.39
371.70, 5.47, 313.29
371.59, 5.72, 313.19
371.49, 5.97, 313.08
¯371.37, 6.23, 312.98
371.26, 6.49, 312.87
378.74, 3.53, 321.04
378.40, 3.45, 320.67
378.02, 3.38, 320.26
377.60, 3.29, 319.81
377.13, 3.20, 319.30
376.62, 3.11, 318.76
376.09, 3.03, 318.18
375.52, 2.95, 317.57
374.87, 2.87, 316.87
374.17, 2.80, 316.12
373.31, 2.69, 315.20
372.60, 2.67, 314.44
372.50, 2.89, 314.35
372.40, 3.11, 314.26
372.30, 3.33, 314.17
372.20, 3.56, 314.07
372.10, 3.78, 313.98
372.00, 4.01, 313.89
371.89, 4.24, 313.79
371.79, 4.48, 313.69
371.68, 4.71, 313.60
371.58, 4.96, 313.50
371.47, 5.20, 313.40
371.36, 5.45, 313.29
371.25, 5.70, 313.19
371.13, 5.95, 313.09
370.46, 6.19, 312.39
369.22, 6.44, 311.08
378.64, 3.51, 321.09
378.30, 3.44, 320.73
377.91, 3.36, 320.32
377.48, 3.27, 319.87
376.99, 3.18, 319.36
376.49, 3.09, 318.84
375.94, 3.01, 318.26
375.35, 2.93, 317.65
374.71, 2.85, 316.98
373.99, 2.78, 316.24
373.12, 2.67, 315.33
372.31, 2.62, 314.48
372.19, 2.83, 314.36
372.08, 3.06, 314.27
371.98, 3.28, 314.18
371.88, 3.51, 314.09
371.77, 3.74, 313.99
371.67, 3.97, 313.90
371.56, 4.20, 313.80
371.45, 4.44, 313.70
371.34, 4.68, 313.60
¯371.23, 4.92, 313.50
371.12, 5.17, 313.40
370.36, 5.35, 312.63
369.15, 5.53, 311.38
368.63, 5.80, 310.86
366.88, 6.04, 309.07
378.54, 3.49, 321.15
378.19, 3.42, 320.79
377.79, 3.34, 320.39
377.35, 3.25, 319.94
376.86, 3.16, 319.44
376.36, 3.08, 318.93
375.78, 2.99, 318.34
375.18, 2.91, 317.73
374.54, 2.84, 317.08
373.82, 2.76, 316.35
372.96, 2.66, 315.48
372.15, 2.61, 314.66
371.87, 2.77, 314.38
371.76, 3.00, 314.29
371.65, 3.23, 314.20
371.55, 3.45, 314.10
371.44, 3.69, 314.01
371.33, 3.92, 313.91
371.22, 4.16, 313.81
371.10, 4.40, 313.71
370.26, 4.52, 312.87
369.12, 4.64, 311.73
368.61, 4.88, 311.23
368.07, 5.13, 310.70
378.45, 3.48, 321.21
378.09, 3.40, 320.85
377.68, 3.32, 320.45
377.23, 3.23, 320.00
376.74, 3.14, 319.52
376.23, 3.06, 319.01
375.64, 2.97, 318.43
375.02, 2.88, 317.82
374.38, 2.82, 317.19
373.65, 2.74, 316.47
372.81, 2.66, 315.65
371.99, 2.61, 314.84
371.54, 2.71, 314.40
371.43, 2.94, 314.31
371.32, 3.17, 314.21
371.21, 3.40, 314.12
371.09, 3.64, 314.02
370.18, 3.69, 313.12
369.10, 3.76, 312.08
368.59, 3.97, 311.59
368.05, 4.19, 311.07
¯367.29, 4.40, 310.33
378.35, 3.46, 321.27
377.98, 3.39, 320.92
377.57, 3.30, 320.52
377.10, 3.21, 320.07
376.62, 3.13, 319.61
376.10, 3.04, 319.10
375.50, 2.95, 318.53
374.87, 2.86, 317.92
374.22, 2.80, 317.30
373.47, 2.72, 316.59
372.67, 2.65, 315.82
371.84, 2.60, 315.02
371.20, 2.65, 314.42
371.05, 2.87, 314.29
370.12, 2.87, 313.40
369.10, 2.89, 312.43
368.61, 3.07, 311.97
368.16, 3.28, 311.56
367.69, 3.51, 311.12
367.19, 3.74, 310.66
378.26, 3.45, 321.34
377.88, 3.37, 320.99
377.46, 3.28, 320.59
376.98, 3.19, 320.14
376.50, 3.11, 319.70
375.97, 3.03, 319.20
375.36, 2.93, 318.63
374.72, 2.85, 318.03
374.06, 2.78, 317.41
373.30, 2.70, 316.71
372.52, 2.64, 315.98
371.67, 2.59, 315.19
370.76, 2.56, 314.35
370.09, 2.63, 313.73
369.35, 2.70, 313.05
368.64, 2.81, 312.40
368.20, 3.01, 312.00
367.73, 3.23, 311.58
367.24, 3.45, 311.14
378.16, 3.43, 321.41
377.78, 3.35, 321.05
377.34, 3.27, 320.66
376.87, 3.17, 320.23
376.38, 3.10, 319.79
375.84, 3.01, 319.29
375.22, 2.91, 318.72
374.58, 2.83, 318.15
373.91, 2.76, 317.54
373.14, 2.68, 316.84
372.35, 2.63, 316.13
¯371.49, 2.58, 315.35
370.47, 2.51, 314.43
369.78, 2.58, 313.81
369.02, 2.65, 313.13
368.24, 2.75, 312.43
367.78, 2.95, 312.03
367.30, 3.16, 311.61
378.07, 3.42, 321.47
377.67, 3.34, 321.12
377.23, 3.25, 320.73
376.75, 3.16, 320.31
376.26, 3.08, 319.87
375.71, 2.99, 319.38
375.07, 2.89, 318.82
374.44, 2.82, 318.27
373.76, 2.75, 317.67
372.98, 2.67, 316.98
372.18, 2.61, 316.28
371.31, 2.56, 315.51
370.24, 2.48, 314.57
369.47, 2.53, 313.90
368.68, 2.60, 313.21
367.83, 2.69, 312.47
367.35, 2.89, 312.06
377.97, 3.40, 321.54
377.57, 3.32, 321.19
377.12, 3.23, 320.80
376.64, 3.14, 320.40
376.14, 3.06, 319.96
375.57, 2.97, 319.48
374.94, 2.87, 318.93
374.31, 2.80, 318.39
373.61, 2.73, 317.79
372.84, 2.66, 317.13
372.02, 2.60, 316.43
371.13, 2.54, 315.67
370.03, 2.46, 314.73
369.16, 2.48, 313.99
368.33, 2.55, 313.29
367.42, 2.62, 312.51
365.54, 2.51, 310.91
377.87, 3.38, 321.61
377.47, 3.30, 321.26
377.01, 3.21, 320.88
376.54, 3.13, 320.49
376.02, 3.04, 320.06
375.44, 2.95, 319.57
374.82, 2.86, 319.05
374.18, 2.79, 318.52
373.47, 2.72, 317.93
372.70, 2.65, 317.29
¯371.87, 2.58, 316.60
370.94, 2.52, 315.83
369.82, 2.44, 314.89
368.84, 2.43, 314.08
368.04, 2.51, 313.42
367.20, 2.60, 312.74
365.29, 2.49, 311.15
377.78, 3.37, 321.68
377.36, 3.28, 321.34
376.90, 3.19, 320.96
376.43, 3.11, 320.58
375.90, 3.03, 320.15
375.32, 2.93, 319.67
374.70, 2.85, 319.17
374.05, 2.78, 318.65
373.33, 2.70, 318.06
372.56, 2.64, 317.44
371.72, 2.57, 316.76
370.75, 2.50, 315.98
369.64, 2.42, 315.08
368.72, 2.44, 314.35
367.96, 2.53, 313.74
367.06, 2.61, 313.02
377.69, 3.35, 321.75
377.26, 3.26, 321.41
376.80, 3.18, 321.05
376.32, 3.10, 320.67
375.79, 3.01, 320.25
375.19, 2.92, 319.78
374.58, 2.84, 319.30
373.92, 2.77, 318.78
373.18, 2.69, 318.20
372.42, 2.63, 317.60
371.57, 2.56, 316.93
370.62, 2.50, 316.18
369.51, 2.42, 315.32
368.65, 2.45, 314.65
367.90, 2.54, 314.06
366.90, 2.60, 313.29
378.03, 3.56, 322.16
377.16, 3.25, 321.49
376.71, 3.16, 321.14
376.22, 3.08, 320.77
375.67, 2.99, 320.35
375.06, 2.90, 319.88
374.47, 2.83, 319.42
373.80, 2.76, 318.92
373.05, 2.67, 318.34
372.29, 2.62, 317.76
371.42, 2.55, 317.10
370.50, 2.50, 316.40
¯369.39, 2.42, 315.55
368.58, 2.47, 314.94
367.83, 2.56, 314.37
366.75, 2.60, 313.56
377.94, 3.55, 322.23
377.06, 3.23, 321.57
376.61, 3.15, 321.23
376.12, 3.07, 320.87
375.56, 2.98, 320.45
374.95, 2.88, 319.99
374.35, 2.82, 319.55
373.68, 2.75, 319.05
372.93, 2.67, 318.49
372.15, 2.61, 317.92
371.28, 2.54, 317.27
370.36, 2.49, 316.60
369.26, 2.42, 315.78
368.52, 2.49, 315.23
367.76, 2.58, 314.68
366.61, 2.60, 313.83
377.86, 3.53, 322.30
376.97, 3.21, 321.65
376.52, 3.14, 321.33
376.02, 3.06, 320.97
375.45, 2.97, 320.56
374.84, 2.88, 320.12
374.24, 2.81, 319.68
373.56, 2.73, 319.19
372.81, 2.66, 318.65
372.02, 2.60, 318.09
371.14, 2.53, 317.45
370.23, 2.49, 316.79
369.15, 2.42, 316.02
368.45, 2.51, 315.53
367.69, 2.60, 314.98
366.53, 2.61, 314.15
364.37, 2.45, 312.60
377.77, 3.52, 322.37
377.35, 3.44, 322.08
376.43, 3.13, 321.42
375.92, 3.05, 321.07
375.35, 2.95, 320.66
374.74, 2.87, 320.24
374.13, 2.80, 319.81
373.44, 2.72, 319.33
372.69, 2.65, 318.81
371.90, 2.59, 318.25
371.01, 2.52, 317.63
370.09, 2.48, 316.99
369.08, 2.44, 316.29
368.33, 2.51, 315.77
¯367.47, 2.57, 315.17
366.45, 2.63, 314.47
364.31, 2.47, 312.98
377.69, 3.51, 322.45
377.27, 3.43, 322.16
376.34, 3.12, 321.52
375.82, 3.03, 321.17
375.24, 2.94, 320.78
374.64, 2.86, 320.37
374.02, 2.79, 319.95
373.33, 2.71, 319.47
372.58, 2.64, 318.97
371.77, 2.58, 318.42
370.89, 2.52, 317.82
369.97, 2.47, 317.20
368.94, 2.43, 316.50
368.12, 2.48, 315.95
367.24, 2.54, 315.36
366.18, 2.59, 314.65
364.27, 2.49, 313.35
377.61, 3.49, 322.52
377.19, 3.41, 322.25
376.73, 3.33, 321.95
375.73, 3.02, 321.28
375.14, 2.92, 320.89
374.55, 2.85, 320.50
373.92, 2.78, 320.08
373.21, 2.70, 319.62
372.47, 2.64, 319.13
371.65, 2.57, 318.59
370.77, 2.51, 318.01
369.84, 2.47, 317.40
368.82, 2.43, 316.74
367.91, 2.46, 316.14
367.00, 2.51, 315.55
365.92, 2.56, 314.84
363.90, 2.44, 313.51
377.52, 3.48, 322.60
377.11, 3.40, 322.34
376.65, 3.32, 322.04
375.63, 3.01, 321.38
375.04, 2.91, 321.00
374.46, 2.84, 320.63
373.82, 2.77, 320.22
373.10, 2.69, 319.77
372.37, 2.63, 319.30
371.54, 2.56, 318.77
370.65, 2.51, 318.20
369.71, 2.46, 317.61
368.71, 2.43, 316.97
367.70, 2.43, 316.33
¯366.76, 2.48, 315.73
365.67, 2.53, 315.04
363.38, 2.36, 313.58
377.45, 3.47, 322.69
377.03, 3.39, 322.43
376.57, 3.31, 322.14
375.54, 3.00, 321.49
374.95, 2.90, 321.12
374.37, 2.84, 320.77
373.72, 2.76, 320.36
373.00, 2.68, 319.92
372.26, 2.62, 319.46
371.43, 2.56, 318.95
370.54, 2.50, 318.40
369.59, 2.46, 317.81
368.60, 2.43, 317.20
367.54, 2.42, 316.55
366.53, 2.46, 315.93
365.46, 2.51, 315.27
377.38, 3.46, 322.77
376.96, 3.38, 322.52
376.48, 3.30, 322.23
375.95, 3.20, 321.91
374.86, 2.90, 321.25
374.28, 2.83, 320.90
373.62, 2.75, 320.51
372.90, 2.68, 320.07
372.16, 2.62, 319.63
372.19, 2.84, 319.66
372.23, 3.06, 319.69
372.23, 3.27, 319.70
372.24, 3.47, 319.71
372.24, 3.68, 319.71
372.24, 3.88, 319.72
372.24, 4.08, 319.73
372.24, 4.28, 319.74
372.22, 4.47, 319.73
372.08, 4.64, 319.65
377.31, 3.45, 322.86
376.88, 3.37, 322.61
376.40, 3.29, 322.33
375.87, 3.19, 322.02
374.78, 2.89, 321.38
374.19, 2.82, 321.04
373.53, 2.75, 320.65
372.81, 2.67, 320.23
372.06, 2.61, 319.80
372.21, 2.87, 319.89
372.23, 3.08, 319.91
372.22, 3.29, 319.92
372.22, 3.49, 319.92
¯372.22, 3.69, 319.93
372.22, 3.89, 319.93
372.22, 4.09, 319.94
372.21, 4.29, 319.94
372.19, 4.48, 319.94
372.08, 4.65, 319.88
377.25, 3.44, 322.95
376.81, 3.36, 322.70
376.33, 3.28, 322.43
375.79, 3.19, 322.13
375.24, 3.11, 321.82
374.11, 2.82, 321.18
373.44, 2.74, 320.80
372.72, 2.67, 320.39
371.96, 2.61, 319.97
372.11, 2.87, 320.06
372.12, 3.08, 320.07
372.12, 3.28, 320.08
372.12, 3.48, 320.08
372.11, 3.68, 320.09
372.11, 3.88, 320.09
372.10, 4.08, 320.09
372.10, 4.28, 320.10
372.07, 4.47, 320.09
371.96, 4.64, 320.03
377.18, 3.43, 323.04
376.74, 3.35, 322.80
376.25, 3.26, 322.53
375.71, 3.18, 322.24
375.16, 3.10, 321.94
374.03, 2.81, 321.32
373.34, 2.73, 320.94
372.63, 2.66, 320.55
371.87, 2.60, 320.14
371.87, 2.81, 320.15
371.92, 3.04, 320.18
371.91, 3.24, 320.18
371.90, 3.44, 320.19
371.89, 3.64, 320.19
371.88, 3.84, 320.19
371.87, 4.04, 320.19
371.86, 4.24, 320.19
371.84, 4.44, 320.18
377.12, 3.42, 323.13
376.67, 3.34, 322.90
376.17, 3.25, 322.63
375.64, 3.17, 322.35
375.08, 3.09, 322.06
374.46, 3.00, 321.73
373.25, 2.72, 321.09
372.54, 2.66, 320.72
¯371.78, 2.60, 320.31
370.93, 2.53, 319.87
370.05, 2.49, 319.41
369.06, 2.44, 318.89
368.08, 2.43, 318.38
367.01, 2.42, 317.81
365.82, 2.42, 317.19
364.36, 2.39, 316.43
362.26, 2.28, 315.33
377.05, 3.41, 323.22
376.61, 3.33, 323.00
376.10, 3.24, 322.74
375.57, 3.16, 322.47
375.01, 3.08, 322.18
374.37, 3.00, 321.86
373.16, 2.71, 321.24
372.46, 2.65, 320.88
371.69, 2.59, 320.49
370.84, 2.53, 320.06
369.96, 2.49, 319.61
368.98, 2.44, 319.11
368.00, 2.43, 318.62
369.77, 3.14, 319.53
369.80, 3.38, 319.56
369.82, 3.62, 319.57
369.84, 3.85, 319.59
369.85, 4.08, 319.60
369.86, 4.31, 319.61
376.99, 3.40, 323.32
376.54, 3.32, 323.10
376.03, 3.24, 322.84
375.50, 3.15, 322.58
374.93, 3.08, 322.30
374.29, 2.99, 321.99
373.64, 2.91, 321.67
372.38, 2.65, 321.04
371.60, 2.59, 320.66
370.76, 2.53, 320.25
369.87, 2.48, 319.82
369.88, 2.72, 319.83
369.95, 2.98, 319.87
369.95, 3.21, 319.88
369.95, 3.44, 319.88
369.95, 3.66, 319.89
369.95, 3.89, 319.90
369.95, 4.12, 319.90
369.95, 4.34, 319.91
369.86, 4.55, 319.87
376.93, 3.39, 323.41
376.48, 3.32, 323.20
375.96, 3.23, 322.95
¯375.44, 3.15, 322.70
374.86, 3.07, 322.43
374.22, 2.98, 322.12
373.56, 2.91, 321.81
372.30, 2.64, 321.21
371.51, 2.58, 320.84
370.68, 2.53, 320.44
369.78, 2.48, 320.02
369.84, 2.73, 320.05
369.89, 2.98, 320.09
369.89, 3.21, 320.09
369.89, 3.44, 320.10
369.88, 3.66, 320.10
369.88, 3.89, 320.10
369.88, 4.12, 320.11
369.87, 4.34, 320.11
369.79, 4.55, 320.08
376.88, 3.39, 323.51
376.42, 3.31, 323.30
375.90, 3.22, 323.06
375.37, 3.14, 322.82
374.79, 3.06, 322.56
374.15, 2.97, 322.26
373.48, 2.90, 321.96
372.74, 2.82, 321.62
371.42, 2.57, 321.01
370.59, 2.52, 320.63
369.70, 2.48, 320.23
369.56, 2.68, 320.17
369.71, 2.95, 320.24
369.70, 3.18, 320.25
369.69, 3.41, 320.25
369.69, 3.64, 320.25
369.68, 3.86, 320.26
369.67, 4.09, 320.26
369.66, 4.31, 320.26
369.55, 4.52, 320.21
376.82, 3.38, 323.61
376.36, 3.30, 323.40
375.83, 3.21, 323.17
375.31, 3.13, 322.94
374.73, 3.05, 322.68
374.08, 2.97, 322.40
373.41, 2.89, 322.11
372.66, 2.81, 321.77
371.89, 2.75, 321.43
370.51, 2.52, 320.83
369.62, 2.48, 320.44
368.67, 2.44, 320.02
367.65, 2.43, 319.58
366.56, 2.42, 319.10
¯365.35, 2.42, 318.57
363.92, 2.41, 317.94
361.97, 2.33, 317.09
376.77, 3.37, 323.71
376.30, 3.29, 323.51
375.77, 3.20, 323.28
375.25, 3.13, 323.06
374.66, 3.05, 322.81
374.01, 2.96, 322.54
373.34, 2.89, 322.25
372.59, 2.81, 321.94
371.81, 2.74, 321.61
370.43, 2.51, 321.02
369.54, 2.47, 320.64
368.59, 2.44, 320.24
367.57, 2.42, 319.81
366.48, 2.42, 319.35
365.27, 2.42, 318.84
363.88, 2.41, 318.26
361.94, 2.35, 317.44
376.72, 3.37, 323.81
376.24, 3.28, 323.61
375.71, 3.19, 323.40
375.19, 3.12, 323.18
374.60, 3.04, 322.94
373.95, 2.96, 322.68
373.27, 2.88, 322.40
372.52, 2.80, 322.10
371.74, 2.74, 321.78
370.89, 2.68, 321.43
369.45, 2.47, 320.85
368.51, 2.44, 320.47
367.49, 2.42, 320.05
366.40, 2.42, 319.61
365.18, 2.42, 319.12
363.80, 2.42, 318.56
361.91, 2.36, 317.80
376.67, 3.36, 323.91
376.19, 3.28, 323.72
375.66, 3.19, 323.51
375.13, 3.12, 323.31
374.54, 3.04, 323.07
373.89, 2.95, 322.82
373.21, 2.88, 322.55
372.46, 2.80, 322.26
371.67, 2.73, 321.95
370.82, 2.67, 321.62
369.94, 2.63, 321.28
368.44, 2.44, 320.69
368.05, 2.59, 320.55
368.22, 2.88, 320.62
¯368.22, 3.13, 320.62
368.22, 3.38, 320.63
368.22, 3.62, 320.63
368.22, 3.87, 320.64
368.22, 4.11, 320.65
368.21, 4.35, 320.64
368.04, 4.57, 320.59
376.62, 3.35, 324.01
376.14, 3.27, 323.83
375.61, 3.19, 323.63
375.08, 3.11, 323.43
374.48, 3.03, 323.21
373.83, 2.95, 322.96
373.14, 2.87, 322.71
372.39, 2.80, 322.43
371.60, 2.73, 322.13
370.76, 2.67, 321.81
369.87, 2.63, 321.48
368.93, 2.59, 321.13
368.07, 2.61, 320.81
368.17, 2.89, 320.86
368.17, 3.13, 320.86
368.17, 3.38, 320.87
368.17, 3.62, 320.87
368.17, 3.87, 320.87
368.16, 4.11, 320.88
368.15, 4.35, 320.88
368.00, 4.57, 320.83
376.57, 3.35, 324.11
376.09, 3.27, 323.94
375.56, 3.18, 323.75
375.03, 3.11, 323.56
374.42, 3.02, 323.34
373.77, 2.94, 323.11
373.08, 2.87, 322.86
372.33, 2.79, 322.59
371.54, 2.73, 322.31
370.70, 2.67, 322.00
369.81, 2.63, 321.69
368.85, 2.59, 321.35
367.26, 2.42, 320.78
367.98, 2.85, 321.04
367.97, 3.10, 321.04
367.97, 3.35, 321.04
367.96, 3.60, 321.05
367.95, 3.84, 321.05
367.95, 4.08, 321.05
367.93, 4.32, 321.05
376.53, 3.34, 324.22
376.04, 3.26, 324.05
375.52, 3.18, 323.87
¯374.98, 3.10, 323.68
374.36, 3.02, 323.47
373.72, 2.94, 323.25
373.03, 2.86, 323.01
372.28, 2.79, 322.76
371.47, 2.72, 322.48
370.64, 2.67, 322.20
369.73, 2.62, 321.89
368.78, 2.59, 321.56
367.77, 2.57, 321.22
366.11, 2.42, 320.65
364.90, 2.42, 320.23
363.54, 2.43, 319.77
361.74, 2.39, 319.16
376.49, 3.34, 324.32
376.00, 3.26, 324.16
375.47, 3.17, 323.99
374.93, 3.10, 323.81
374.31, 3.01, 323.61
373.67, 2.94, 323.40
372.97, 2.86, 323.17
372.22, 2.79, 322.92
371.42, 2.72, 322.66
370.58, 2.67, 322.39
369.65, 2.61, 322.08
368.71, 2.58, 321.78
367.70, 2.56, 321.45
366.61, 2.55, 321.09
365.35, 2.54, 320.68
363.49, 2.43, 320.07
362.12, 2.48, 319.63
376.45, 3.33, 324.43
375.95, 3.25, 324.27
375.43, 3.17, 324.11
374.88, 3.09, 323.94
374.26, 3.01, 323.74
373.62, 2.93, 323.54
372.92, 2.86, 323.33
372.17, 2.78, 323.09
371.36, 2.72, 322.84
370.53, 2.67, 322.58
369.57, 2.61, 322.28
368.64, 2.58, 322.00
367.64, 2.56, 321.68
366.55, 2.55, 321.34
365.35, 2.55, 320.97
363.95, 2.54, 320.54
362.25, 2.52, 320.01
376.41, 3.33, 324.54
375.91, 3.25, 324.39
375.39, 3.17, 324.23
¯374.84, 3.09, 324.07
374.21, 3.00, 323.88
373.57, 2.93, 323.69
372.87, 2.85, 323.48
372.12, 2.78, 323.26
371.31, 2.72, 323.02
370.48, 2.67, 322.77
369.51, 2.60, 322.49
368.58, 2.58, 322.21
367.57, 2.56, 321.92
366.49, 2.55, 321.60
365.28, 2.55, 321.24
363.90, 2.54, 320.83
362.20, 2.52, 320.33
376.37, 3.33, 324.64
375.87, 3.24, 324.50
375.35, 3.16, 324.35
374.80, 3.09, 324.20
374.17, 3.00, 324.02
373.52, 2.92, 323.84
372.82, 2.85, 323.64
372.07, 2.78, 323.43
371.26, 2.71, 323.20
370.43, 2.66, 322.97
369.45, 2.60, 322.69
368.52, 2.57, 322.43
367.51, 2.56, 322.15
366.43, 2.55, 321.85
365.22, 2.55, 321.51
363.84, 2.55, 321.12
362.16, 2.52, 320.65
376.34, 3.32, 324.75
375.84, 3.24, 324.62
375.32, 3.16, 324.48
374.76, 3.08, 324.33
374.12, 2.99, 324.16
373.48, 2.92, 323.99
372.78, 2.85, 323.80
372.02, 2.78, 323.60
371.21, 2.71, 323.38
370.38, 2.66, 323.16
369.40, 2.60, 322.90
368.46, 2.57, 322.65
367.45, 2.55, 322.39
366.37, 2.55, 322.10
365.16, 2.55, 321.78
363.79, 2.55, 321.41
362.13, 2.53, 320.98
376.31, 3.32, 324.86
375.80, 3.23, 324.73
375.28, 3.16, 324.60
¯374.72, 3.08, 324.46
374.08, 2.99, 324.30
373.44, 2.92, 324.14
372.73, 2.84, 323.96
371.98, 2.78, 323.77
371.17, 2.71, 323.57
370.34, 2.66, 323.36
369.34, 2.59, 323.11
368.41, 2.57, 322.87
367.40, 2.55, 322.62
366.32, 2.55, 322.35
365.11, 2.55, 322.05
363.73, 2.55, 321.70
362.09, 2.53, 321.29
376.28, 3.32, 324.97
375.77, 3.23, 324.85
375.25, 3.15, 324.72
374.69, 3.08, 324.59
374.05, 2.99, 324.44
373.40, 2.92, 324.29
372.69, 2.84, 324.12
371.94, 2.77, 323.94
371.13, 2.71, 323.75
370.30, 2.66, 323.55
369.29, 2.59, 323.32
368.35, 2.57, 323.10
367.35, 2.55, 322.86
366.27, 2.55, 322.60
365.05, 2.55, 322.32
363.67, 2.54, 321.99
362.05, 2.54, 321.61
376.25, 3.31, 325.08
375.74, 3.23, 324.97
375.22, 3.15, 324.85
374.66, 3.08, 324.72
374.01, 2.99, 324.58
373.37, 2.92, 324.44
372.66, 2.84, 324.28
371.90, 2.77, 324.11
371.09, 2.71, 323.93
370.26, 2.66, 323.75
369.24, 2.59, 323.52
368.31, 2.56, 323.32
367.30, 2.55, 323.09
366.22, 2.55, 322.86
365.00, 2.55, 322.59
363.62, 2.54, 322.28
362.02, 2.54, 321.93
376.23, 3.31, 325.19
375.72, 3.23, 325.08
375.19, 3.15, 324.98
¯374.63, 3.07, 324.86
373.98, 2.98, 324.72
373.34, 2.91, 324.59
372.62, 2.84, 324.44
371.87, 2.77, 324.29
371.06, 2.71, 324.12
370.22, 2.66, 323.95
369.20, 2.58, 323.73
368.26, 2.56, 323.54
367.25, 2.55, 323.33
366.17, 2.55, 323.11
364.96, 2.54, 322.86
363.57, 2.54, 322.57
361.97, 2.54, 322.24
359.87, 2.49, 321.81
376.20, 3.31, 325.30
375.69, 3.23, 325.20
375.17, 3.15, 325.10
374.60, 3.07, 324.99
373.95, 2.98, 324.87
373.31, 2.91, 324.74
372.59, 2.84, 324.60
371.84, 2.77, 324.46
371.02, 2.71, 324.30
370.19, 2.66, 324.14
369.15, 2.58, 323.94
368.22, 2.56, 323.76
367.21, 2.55, 323.57
366.13, 2.55, 323.36
364.91, 2.54, 323.13
363.52, 2.54, 322.86
361.92, 2.54, 322.56
359.86, 2.50, 322.16
376.18, 3.31, 325.41
375.67, 3.22, 325.32
375.15, 3.15, 325.23
374.57, 3.07, 325.12
373.92, 2.98, 325.01
373.28, 2.91, 324.89
372.56, 2.84, 324.77
371.81, 2.77, 324.63
370.99, 2.71, 324.49
370.15, 2.66, 324.34
369.11, 2.58, 324.15
368.18, 2.56, 323.99
367.17, 2.54, 323.81
366.09, 2.54, 323.62
364.87, 2.54, 323.40
363.48, 2.54, 323.15
361.88, 2.54, 322.87
359.85, 2.51, 322.51
¯376.16, 3.31, 325.52
375.65, 3.22, 325.44
375.13, 3.15, 325.35
374.55, 3.07, 325.26
373.90, 2.98, 325.15
373.26, 2.91, 325.05
372.54, 2.83, 324.93
371.78, 2.77, 324.81
370.97, 2.71, 324.67
370.10, 2.65, 324.53
369.07, 2.58, 324.36
368.14, 2.56, 324.21
367.14, 2.54, 324.05
366.06, 2.54, 323.87
364.83, 2.54, 323.67
363.44, 2.54, 323.45
361.83, 2.54, 323.18
359.87, 2.52, 322.87
376.15, 3.31, 325.64
375.63, 3.22, 325.56
375.11, 3.15, 325.48
374.53, 3.07, 325.39
373.88, 2.98, 325.30
373.23, 2.91, 325.20
372.51, 2.83, 325.09
371.76, 2.77, 324.98
370.94, 2.70, 324.86
370.07, 2.65, 324.73
369.04, 2.57, 324.57
368.10, 2.55, 324.44
367.10, 2.54, 324.29
366.02, 2.54, 324.13
364.79, 2.54, 323.94
363.40, 2.54, 323.74
361.79, 2.54, 323.50
359.93, 2.53, 323.22
376.13, 3.31, 325.75
375.62, 3.22, 325.68
375.09, 3.15, 325.61
374.51, 3.07, 325.53
373.86, 2.98, 325.44
373.21, 2.91, 325.35
372.49, 2.83, 325.26
371.74, 2.77, 325.15
370.92, 2.71, 325.04
370.03, 2.64, 324.92
369.01, 2.57, 324.79
368.07, 2.55, 324.66
367.07, 2.54, 324.53
365.99, 2.54, 324.38
364.76, 2.54, 324.22
¯363.36, 2.54, 324.03
361.75, 2.53, 323.81
359.94, 2.54, 323.57
376.12, 3.31, 325.86
375.60, 3.22, 325.80
375.08, 3.15, 325.73
374.50, 3.07, 325.66
373.84, 2.98, 325.59
373.20, 2.91, 325.51
372.47, 2.83, 325.42
371.72, 2.77, 325.33
370.90, 2.71, 325.23
370.00, 2.64, 325.12
368.97, 2.57, 325.00
368.04, 2.55, 324.89
367.04, 2.54, 324.77
365.96, 2.54, 324.64
364.73, 2.54, 324.49
363.33, 2.54, 324.32
361.71, 2.53, 324.13
359.94, 2.55, 323.91
376.11, 3.31, 325.97
375.59, 3.22, 325.92
375.07, 3.15, 325.86
374.48, 3.07, 325.80
373.83, 2.98, 325.73
373.18, 2.91, 325.66
372.46, 2.83, 325.58
371.70, 2.77, 325.50
370.89, 2.71, 325.42
369.97, 2.64, 325.32
368.95, 2.57, 325.21
368.01, 2.55, 325.11
367.02, 2.54, 325.01
365.93, 2.54, 324.89
364.70, 2.54, 324.76
363.30, 2.54, 324.61
361.67, 2.53, 324.44
359.93, 2.55, 324.26
376.10, 3.31, 326.09
375.59, 3.22, 326.04
375.06, 3.15, 325.99
374.47, 3.07, 325.94
373.82, 2.98, 325.88
373.17, 2.91, 325.82
372.45, 2.83, 325.75
371.69, 2.77, 325.68
370.87, 2.71, 325.60
369.95, 2.64, 325.52
368.92, 2.57, 325.42
367.99, 2.55, 325.34
¯367.00, 2.54, 325.25
365.91, 2.54, 325.15
364.68, 2.54, 325.03
363.25, 2.53, 324.90
361.64, 2.53, 324.75
359.93, 2.55, 324.60
376.10, 3.31, 326.20
375.58, 3.23, 326.16
375.05, 3.15, 326.12
374.47, 3.07, 326.07
373.81, 2.98, 326.02
373.16, 2.91, 325.97
372.44, 2.83, 325.91
371.68, 2.77, 325.85
370.86, 2.71, 325.79
369.93, 2.63, 325.72
368.90, 2.56, 325.64
367.97, 2.54, 325.56
366.98, 2.54, 325.49
365.89, 2.54, 325.40
364.65, 2.54, 325.31
363.23, 2.53, 325.20
361.61, 2.53, 325.07
359.93, 2.56, 324.94
376.09, 3.31, 326.31
375.58, 3.23, 326.28
375.04, 3.15, 326.25
374.46, 3.07, 326.21
373.80, 2.98, 326.17
373.15, 2.91, 326.12
372.43, 2.84, 326.08
371.67, 2.77, 326.03
370.85, 2.71, 325.98
369.91, 2.63, 325.92
368.88, 2.56, 325.85
367.95, 2.54, 325.79
366.96, 2.54, 325.73
365.87, 2.54, 325.66
364.61, 2.53, 325.58
363.20, 2.53, 325.49
361.58, 2.52, 325.38
359.93, 2.56, 325.28
376.09, 3.31, 326.43
375.58, 3.23, 326.40
375.04, 3.15, 326.37
374.46, 3.07, 326.34
373.80, 2.98, 326.31
373.15, 2.91, 326.28
372.43, 2.84, 326.24
371.67, 2.77, 326.21
370.85, 2.71, 326.16
¯369.89, 2.63, 326.12
368.87, 2.56, 326.07
367.93, 2.54, 326.02
366.95, 2.54, 325.97
365.85, 2.54, 325.91
364.59, 2.53, 325.85
363.18, 2.53, 325.78
361.56, 2.52, 325.70
359.94, 2.56, 325.62
376.09, 3.32, 326.54
375.58, 3.23, 326.52
375.04, 3.15, 326.50
374.46, 3.07, 326.48
373.80, 2.98, 326.46
373.15, 2.91, 326.43
372.42, 2.84, 326.41
371.67, 2.77, 326.38
370.85, 2.71, 326.35
369.88, 2.63, 326.32
368.86, 2.56, 326.28
367.92, 2.54, 326.25
366.93, 2.54, 326.21
365.82, 2.53, 326.17
364.57, 2.53, 326.13
363.16, 2.52, 326.07
361.54, 2.52, 326.02
359.94, 2.57, 325.96
376.10, 3.32, 326.65
375.58, 3.24, 326.64
375.04, 3.16, 326.63
374.46, 3.08, 326.62
373.80, 2.99, 326.60
373.15, 2.92, 326.59
372.42, 2.84, 326.57
371.67, 2.78, 326.56
370.85, 2.71, 326.54
369.87, 2.63, 326.52
368.84, 2.56, 326.49
367.35, 2.39, 326.46
366.43, 2.41, 326.44
365.80, 2.53, 326.43
364.56, 2.53, 326.40
363.15, 2.52, 326.37
361.52, 2.52, 326.33
359.95, 2.57, 326.30
376.10, 3.32, 326.77
375.59, 3.24, 326.76
375.05, 3.16, 326.76
374.46, 3.08, 326.75
373.81, 2.99, 326.75
373.15, 2.92, 326.74
¯372.43, 2.84, 326.74
371.67, 2.78, 326.73
370.64, 2.65, 326.72
369.10, 2.41, 326.71
368.20, 2.38, 326.70
367.29, 2.38, 326.70
366.62, 2.46, 326.69
365.79, 2.53, 326.68
364.55, 2.52, 326.67
363.13, 2.52, 326.66
361.50, 2.52, 326.65
359.97, 2.57, 326.64
376.11, 3.33, 326.88
375.60, 3.24, 326.88
375.05, 3.16, 326.88
374.47, 3.08, 326.89
373.82, 2.99, 326.89
373.16, 2.92, 326.90
371.87, 2.65, 326.90
371.08, 2.59, 326.91
370.29, 2.54, 326.91
369.00, 2.38, 326.92
368.09, 2.35, 326.93
367.24, 2.37, 326.93
366.76, 2.50, 326.94
365.78, 2.52, 326.94
364.54, 2.52, 326.95
363.12, 2.52, 326.96
361.49, 2.51, 326.97
359.98, 2.58, 326.98
376.12, 3.33, 326.99
375.61, 3.25, 327.00
375.06, 3.16, 327.01
374.48, 3.08, 327.02
373.67, 2.94, 327.04
372.58, 2.72, 327.06
371.88, 2.66, 327.08
371.09, 2.59, 327.09
370.30, 2.55, 327.11
368.90, 2.35, 327.14
368.01, 2.33, 327.15
367.18, 2.35, 327.17
366.74, 2.49, 327.18
365.75, 2.52, 327.20
364.53, 2.52, 327.22
363.11, 2.52, 327.25
361.48, 2.51, 327.28
376.13, 3.33, 327.10
375.62, 3.25, 327.12
375.07, 3.17, 327.14
373.93, 2.87, 327.18
¯373.26, 2.78, 327.20
372.59, 2.72, 327.22
371.89, 2.66, 327.25
371.10, 2.59, 327.28
370.31, 2.55, 327.30
368.81, 2.32, 327.35
367.97, 2.32, 327.38
367.20, 2.35, 327.41
366.71, 2.48, 327.42
365.71, 2.51, 327.46
364.53, 2.52, 327.50
363.11, 2.52, 327.55
361.48, 2.51, 327.60
376.14, 3.34, 327.21
375.64, 3.26, 327.24
374.54, 2.95, 327.29
373.94, 2.88, 327.32
373.27, 2.79, 327.35
372.60, 2.72, 327.39
371.90, 2.66, 327.42
371.11, 2.60, 327.46
370.16, 2.50, 327.50
368.71, 2.29, 327.57
367.92, 2.30, 327.61
367.38, 2.40, 327.64
366.68, 2.47, 327.67
365.68, 2.50, 327.72
364.53, 2.52, 327.77
363.11, 2.51, 327.84
361.50, 2.51, 327.92
375.66, 3.13, 327.36
375.11, 3.03, 327.39
374.56, 2.96, 327.43
373.96, 2.88, 327.46
373.29, 2.79, 327.51
372.62, 2.72, 327.55
371.92, 2.66, 327.59
371.13, 2.60, 327.64
369.97, 2.44, 327.71
368.65, 2.27, 327.80
367.88, 2.29, 327.84
367.50, 2.43, 327.87
366.65, 2.47, 327.92
365.65, 2.49, 327.98
364.51, 2.51, 328.05
363.11, 2.51, 328.14
361.53, 2.52, 328.23
375.67, 3.13, 327.48
375.12, 3.04, 327.52
374.57, 2.96, 327.56
373.97, 2.88, 327.61
¯373.30, 2.79, 327.66
372.63, 2.73, 327.71
371.93, 2.67, 327.76
371.15, 2.60, 327.82
369.78, 2.38, 327.93
368.62, 2.26, 328.02
367.84, 2.27, 328.08
367.49, 2.43, 328.10
366.63, 2.46, 328.17
365.62, 2.48, 328.24
364.49, 2.50, 328.33
363.11, 2.51, 328.43
361.56, 2.52, 328.55
375.69, 3.13, 327.60
375.14, 3.04, 327.65
374.59, 2.96, 327.70
373.99, 2.89, 327.75
373.33, 2.80, 327.81
372.65, 2.73, 327.87
371.96, 2.67, 327.93
371.17, 2.61, 328.00
369.55, 2.30, 328.15
368.59, 2.24, 328.24
367.91, 2.29, 328.30
367.47, 2.41, 328.34
366.60, 2.45, 328.42
365.60, 2.47, 328.51
364.46, 2.49, 328.61
363.12, 2.51, 328.73
361.59, 2.52, 328.87
375.71, 3.14, 327.71
375.16, 3.05, 327.77
374.61, 2.97, 327.83
374.02, 2.89, 327.89
373.35, 2.80, 327.96
372.68, 2.73, 328.03
371.98, 2.67, 328.10
371.20, 2.61, 328.18
369.28, 2.22, 328.39
368.57, 2.23, 328.46
368.07, 2.33, 328.51
367.44, 2.40, 328.58
366.57, 2.44, 328.67
365.57, 2.46, 328.77
364.44, 2.49, 328.89
363.13, 2.51, 329.02
360.95, 2.40, 329.25
375.73, 3.14, 327.83
375.19, 3.05, 327.90
374.63, 2.97, 327.96
374.04, 2.89, 328.03
¯373.38, 2.81, 328.11
372.70, 2.74, 328.19
372.01, 2.68, 328.27
370.71, 2.45, 328.43
369.27, 2.21, 328.60
368.56, 2.22, 328.68
368.19, 2.36, 328.73
367.42, 2.39, 328.82
366.54, 2.42, 328.92
365.56, 2.45, 329.04
364.41, 2.48, 329.17
363.11, 2.50, 329.32
360.94, 2.39, 329.58
375.76, 3.15, 327.95
375.21, 3.06, 328.02
374.66, 2.98, 328.09
374.07, 2.90, 328.17
373.41, 2.82, 328.26
372.73, 2.74, 328.35
372.05, 2.69, 328.44
370.25, 2.29, 328.68
369.26, 2.20, 328.81
368.54, 2.21, 328.91
368.22, 2.36, 328.95
367.41, 2.38, 329.06
366.52, 2.41, 329.17
365.54, 2.44, 329.30
364.39, 2.47, 329.45
363.08, 2.49, 329.63
360.94, 2.39, 329.91
375.78, 3.15, 328.06
375.24, 3.06, 328.14
374.69, 2.98, 328.22
374.10, 2.91, 328.31
373.45, 2.82, 328.41
372.77, 2.75, 328.51
372.08, 2.69, 328.61
369.89, 2.17, 328.93
369.25, 2.19, 329.03
368.56, 2.21, 329.13
368.21, 2.35, 329.18
367.39, 2.37, 329.30
366.50, 2.40, 329.43
365.52, 2.43, 329.57
364.37, 2.46, 329.74
363.06, 2.48, 329.93
360.94, 2.38, 330.24
375.81, 3.16, 328.18
375.28, 3.07, 328.26
374.72, 2.99, 328.36
374.14, 2.91, 328.45
¯373.49, 2.83, 328.55
372.81, 2.75, 328.67
372.12, 2.70, 328.78
369.89, 2.16, 329.14
369.24, 2.18, 329.24
368.72, 2.25, 329.33
368.20, 2.34, 329.41
367.38, 2.36, 329.54
366.48, 2.39, 329.69
365.50, 2.42, 329.84
364.36, 2.45, 330.03
363.05, 2.47, 330.24
360.92, 2.37, 330.58
375.85, 3.17, 328.29
375.33, 3.08, 328.38
374.76, 3.00, 328.48
374.18, 2.92, 328.59
373.53, 2.84, 328.70
372.84, 2.76, 328.82
372.17, 2.71, 328.94
369.88, 2.15, 329.35
369.24, 2.17, 329.46
368.85, 2.28, 329.53
368.20, 2.33, 329.64
367.37, 2.35, 329.78
366.47, 2.38, 329.94
365.48, 2.41, 330.12
364.34, 2.44, 330.31
363.03, 2.46, 330.54
360.91, 2.36, 330.91
375.89, 3.18, 328.40
375.37, 3.09, 328.50
374.80, 3.00, 328.61
374.22, 2.93, 328.72
373.58, 2.85, 328.85
372.89, 2.77, 328.98
372.21, 2.71, 329.11
369.88, 2.14, 329.55
369.23, 2.16, 329.68
368.94, 2.30, 329.73
368.19, 2.32, 329.87
367.37, 2.34, 330.03
366.46, 2.37, 330.20
365.46, 2.40, 330.39
364.33, 2.43, 330.60
363.02, 2.45, 330.85
360.90, 2.36, 331.25
375.94, 3.19, 328.51
375.42, 3.10, 328.62
374.84, 3.01, 328.74
374.27, 2.94, 328.86
¯373.63, 2.86, 328.99
372.93, 2.77, 329.13
372.26, 2.72, 329.27
369.88, 2.13, 329.76
369.23, 2.15, 329.90
368.94, 2.29, 329.95
368.19, 2.31, 330.11
367.37, 2.33, 330.27
366.45, 2.36, 330.46
365.44, 2.38, 330.66
364.33, 2.42, 330.89
362.41, 2.32, 331.28
360.89, 2.35, 331.59
375.98, 3.20, 328.63
375.46, 3.12, 328.74
374.88, 3.02, 328.87
374.31, 2.95, 328.99
373.68, 2.87, 329.13
372.98, 2.78, 329.29
370.49, 2.10, 329.84
369.89, 2.12, 329.97
369.32, 2.16, 330.10
368.94, 2.28, 330.18
368.19, 2.30, 330.34
367.36, 2.32, 330.52
366.45, 2.35, 330.72
365.43, 2.37, 330.94
364.31, 2.40, 331.19
362.41, 2.31, 331.60
360.88, 2.34, 331.93
376.03, 3.21, 328.73
375.51, 3.13, 328.86
374.92, 3.03, 328.99
374.36, 2.96, 329.13
373.73, 2.88, 329.28
373.02, 2.79, 329.44
370.50, 2.09, 330.04
369.89, 2.11, 330.18
369.46, 2.20, 330.28
368.95, 2.27, 330.40
368.19, 2.29, 330.58
367.36, 2.31, 330.77
366.45, 2.34, 330.98
365.43, 2.36, 331.22
364.30, 2.39, 331.48
362.41, 2.30, 331.92
360.87, 2.32, 332.28
376.08, 3.22, 328.84
375.56, 3.14, 328.97
374.97, 3.04, 329.12
374.41, 2.97, 329.26
¯373.79, 2.89, 329.42
373.08, 2.80, 329.59
370.50, 2.08, 330.24
369.89, 2.10, 330.39
369.57, 2.22, 330.47
368.95, 2.26, 330.62
368.19, 2.28, 330.81
367.36, 2.30, 331.02
366.44, 2.32, 331.24
365.42, 2.35, 331.50
364.29, 2.38, 331.78
362.40, 2.29, 332.25
360.86, 2.31, 332.63
376.13, 3.23, 328.95
375.61, 3.15, 329.09
375.02, 3.05, 329.24
374.46, 2.97, 329.39
373.84, 2.90, 329.56
373.14, 2.81, 329.74
370.51, 2.07, 330.45
369.90, 2.08, 330.61
369.64, 2.23, 330.67
368.95, 2.25, 330.85
368.20, 2.27, 331.05
367.36, 2.29, 331.27
366.44, 2.31, 331.51
365.42, 2.34, 331.78
364.28, 2.37, 332.08
362.38, 2.27, 332.58
360.84, 2.30, 332.98
376.18, 3.25, 329.06
375.67, 3.16, 329.20
375.08, 3.06, 329.36
374.52, 2.98, 329.52
373.90, 2.91, 329.69
373.21, 2.82, 329.89
370.52, 2.06, 330.65
369.90, 2.07, 330.82
369.65, 2.22, 330.89
368.95, 2.23, 331.08
368.20, 2.26, 331.29
367.37, 2.28, 331.52
366.44, 2.30, 331.78
365.42, 2.33, 332.06
364.28, 2.35, 332.38
362.37, 2.26, 332.91
360.83, 2.29, 333.33
376.23, 3.26, 329.16
375.73, 3.17, 329.31
375.15, 3.07, 329.48
374.58, 2.99, 329.65
¯373.96, 2.92, 329.83
373.28, 2.83, 330.03
370.53, 2.05, 330.85
370.02, 2.10, 331.00
369.66, 2.20, 331.11
368.96, 2.22, 331.31
368.20, 2.24, 331.53
367.37, 2.27, 331.77
366.45, 2.29, 332.04
365.42, 2.31, 332.34
363.72, 2.22, 332.84
362.36, 2.24, 333.24
360.84, 2.27, 333.69
376.29, 3.27, 329.26
375.79, 3.19, 329.42
375.21, 3.09, 329.60
374.64, 3.00, 329.78
374.03, 2.93, 329.97
371.11, 2.02, 330.88
370.54, 2.03, 331.06
370.15, 2.12, 331.18
369.67, 2.19, 331.32
368.97, 2.21, 331.54
368.21, 2.23, 331.77
367.38, 2.25, 332.03
366.45, 2.27, 332.31
365.42, 2.30, 332.63
363.71, 2.20, 333.16
362.36, 2.23, 333.57
360.84, 2.26, 334.04
376.35, 3.28, 329.37
375.85, 3.20, 329.53
375.28, 3.10, 329.72
374.70, 3.01, 329.91
373.60, 2.75, 330.26
371.12, 2.01, 331.08
370.55, 2.02, 331.26
370.26, 2.14, 331.36
369.68, 2.18, 331.54
368.98, 2.20, 331.77
368.21, 2.21, 332.02
367.38, 2.24, 332.29
366.46, 2.26, 332.58
365.43, 2.29, 332.92
363.71, 2.19, 333.47
362.37, 2.22, 333.91
360.83, 2.25, 334.40
376.41, 3.30, 329.47
375.91, 3.21, 329.64
375.35, 3.12, 329.83
374.76, 3.03, 330.03
¯373.11, 2.54, 330.60
371.14, 2.00, 331.28
370.57, 2.01, 331.47
370.34, 2.15, 331.55
369.69, 2.17, 331.77
368.99, 2.18, 332.00
368.22, 2.20, 332.26
367.38, 2.22, 332.55
366.46, 2.25, 332.86
365.43, 2.27, 333.21
363.71, 2.17, 333.79
362.36, 2.20, 334.25
360.81, 2.23, 334.77
376.47, 3.31, 329.57
375.97, 3.23, 329.74
375.42, 3.13, 329.94
373.53, 2.51, 330.63
371.67, 1.97, 331.30
371.16, 1.99, 331.48
370.59, 2.00, 331.68
370.36, 2.14, 331.76
369.71, 2.15, 331.99
369.01, 2.17, 332.24
368.24, 2.19, 332.51
367.39, 2.21, 332.81
366.47, 2.23, 333.14
365.44, 2.26, 333.50
363.71, 2.15, 334.11
362.34, 2.18, 334.60
376.53, 3.32, 329.67
376.04, 3.24, 329.85
375.49, 3.15, 330.05
373.29, 2.40, 330.89
371.69, 1.96, 331.49
371.18, 1.97, 331.68
370.68, 2.01, 331.86
370.38, 2.13, 331.97
369.72, 2.14, 332.21
369.02, 2.15, 332.47
368.25, 2.17, 332.76
367.40, 2.19, 333.07
