ŸVERSION 0.7
FIELDS x y z
SIZE 8 8 8
TYPE F F F
COUNT 1 1 1
WIDTH 2271
HEIGHT 1
VIEWPOINT 377.84, 15.70, 291.58 1 383.29, 8.67, 310.18
POINTS 2271
DATA ascii
382.14, 7.31, 312.59
382.03, 7.31, 312.82
381.91, 7.31, 313.08
381.78, 7.31, 313.36
381.63, 7.31, 313.67
381.47, 7.31, 314.01
381.29, 7.31, 314.39
382.41, 7.31, 312.19
382.32, 7.31, 312.39
382.22, 7.31, 312.61
382.11, 7.31, 312.84
381.99, 7.31, 313.10
381.87, 7.31, 313.38
381.72, 7.31, 313.69
381.57, 7.31, 314.03
381.39, 7.31, 314.41
381.22, 7.32, 314.79
382.48, 7.31, 312.20
382.39, 7.31, 312.40
382.30, 7.31, 312.62
382.19, 7.31, 312.86
382.08, 7.31, 313.12
381.95, 7.31, 313.40
381.82, 7.31, 313.71
381.67, 7.31, 314.05
381.50, 7.31, 314.43
381.34, 7.32, 314.80
382.55, 7.31, 312.22
382.47, 7.31, 312.42
382.37, 7.31, 312.64
382.27, 7.31, 312.88
382.16, 7.31, 313.13
382.04, 7.31, 313.42
381.91, 7.31, 313.73
¯381.77, 7.31, 314.07
381.61, 7.31, 314.45
381.45, 7.32, 314.82
382.62, 7.31, 312.23
382.54, 7.31, 312.44
382.45, 7.31, 312.66
382.35, 7.31, 312.89
382.25, 7.31, 313.15
382.13, 7.31, 313.43
382.01, 7.31, 313.74
381.87, 7.31, 314.08
381.71, 7.31, 314.46
381.56, 7.32, 314.83
382.69, 7.31, 312.25
382.61, 7.31, 312.45
382.53, 7.31, 312.67
382.43, 7.31, 312.91
382.33, 7.31, 313.16
382.22, 7.31, 313.45
382.10, 7.31, 313.76
381.97, 7.31, 314.10
381.82, 7.31, 314.47
381.68, 7.32, 314.84
382.76, 7.31, 312.26
382.68, 7.31, 312.46
382.60, 7.31, 312.68
382.51, 7.31, 312.92
382.42, 7.31, 313.18
382.31, 7.31, 313.46
382.19, 7.31, 313.77
382.07, 7.31, 314.11
381.93, 7.31, 314.48
381.79, 7.32, 314.85
382.83, 7.31, 312.28
382.76, 7.31, 312.48
382.68, 7.31, 312.70
382.59, 7.31, 312.93
382.50, 7.31, 313.19
382.40, 7.31, 313.47
382.29, 7.31, 313.78
382.17, 7.31, 314.12
382.03, 7.31, 314.49
381.90, 7.32, 314.86
381.76, 7.34, 315.26
382.90, 7.31, 312.29
382.83, 7.31, 312.49
382.75, 7.31, 312.71
382.67, 7.31, 312.94
382.58, 7.31, 313.20
382.49, 7.31, 313.48
382.38, 7.31, 313.79
¯382.26, 7.31, 314.13
382.14, 7.31, 314.50
382.01, 7.32, 314.87
381.87, 7.34, 315.27
382.97, 7.31, 312.30
382.90, 7.31, 312.50
382.83, 7.31, 312.72
382.75, 7.31, 312.95
382.67, 7.31, 313.21
382.57, 7.31, 313.49
382.47, 7.31, 313.80
382.36, 7.31, 314.14
382.24, 7.31, 314.51
382.12, 7.32, 314.87
381.99, 7.34, 315.27
383.04, 7.31, 312.31
382.97, 7.31, 312.51
382.90, 7.31, 312.73
382.83, 7.31, 312.96
382.75, 7.31, 313.22
382.66, 7.31, 313.50
382.57, 7.31, 313.81
382.46, 7.31, 314.15
382.35, 7.31, 314.51
382.23, 7.32, 314.88
382.11, 7.34, 315.28
383.11, 7.31, 312.32
383.05, 7.31, 312.52
382.98, 7.31, 312.74
382.91, 7.31, 312.97
382.83, 7.31, 313.23
382.75, 7.31, 313.51
382.66, 7.31, 313.81
382.56, 7.31, 314.15
382.45, 7.31, 314.52
382.34, 7.32, 314.88
382.23, 7.34, 315.28
383.17, 7.31, 312.32
383.12, 7.31, 312.53
383.06, 7.31, 312.74
382.99, 7.31, 312.98
382.92, 7.31, 313.24
382.84, 7.31, 313.51
382.75, 7.31, 313.82
382.66, 7.31, 314.16
382.55, 7.31, 314.52
382.45, 7.32, 314.88
382.34, 7.34, 315.28
382.22, 7.35, 315.72
383.24, 7.31, 312.33
383.19, 7.31, 312.53
¯383.13, 7.31, 312.75
383.07, 7.31, 312.99
383.00, 7.31, 313.24
382.93, 7.31, 313.52
382.84, 7.31, 313.83
382.75, 7.31, 314.16
382.66, 7.31, 314.52
382.56, 7.32, 314.88
382.46, 7.34, 315.28
382.34, 7.35, 315.72
383.31, 7.31, 312.34
383.26, 7.31, 312.54
383.21, 7.31, 312.76
383.15, 7.31, 312.99
383.08, 7.31, 313.25
383.01, 7.31, 313.52
382.94, 7.31, 313.83
382.85, 7.31, 314.16
382.76, 7.31, 314.52
382.67, 7.32, 314.88
382.57, 7.34, 315.28
382.46, 7.35, 315.72
383.38, 7.31, 312.34
383.33, 7.31, 312.54
383.28, 7.31, 312.76
383.23, 7.31, 313.00
383.17, 7.31, 313.25
383.10, 7.31, 313.53
383.03, 7.31, 313.83
382.95, 7.31, 314.16
382.86, 7.31, 314.53
382.78, 7.32, 314.88
382.69, 7.34, 315.28
382.58, 7.35, 315.71
383.45, 7.31, 312.35
383.40, 7.31, 312.55
383.36, 7.31, 312.76
383.30, 7.31, 313.00
383.25, 7.31, 313.25
383.19, 7.31, 313.53
383.12, 7.31, 313.83
383.04, 7.31, 314.17
382.96, 7.31, 314.53
382.89, 7.32, 314.88
382.80, 7.34, 315.27
382.70, 7.35, 315.71
382.60, 7.37, 316.19
383.52, 7.31, 312.35
383.48, 7.31, 312.55
383.43, 7.31, 312.77
383.38, 7.31, 313.00
¯383.33, 7.31, 313.25
383.27, 7.31, 313.53
383.21, 7.31, 313.83
383.14, 7.31, 314.16
383.07, 7.31, 314.52
382.99, 7.32, 314.88
382.91, 7.34, 315.27
382.82, 7.35, 315.70
382.73, 7.37, 316.18
383.59, 7.31, 312.35
383.55, 7.31, 312.55
383.51, 7.31, 312.77
383.46, 7.31, 313.00
383.41, 7.31, 313.25
383.36, 7.31, 313.53
383.30, 7.31, 313.83
383.24, 7.31, 314.16
383.17, 7.31, 314.52
383.10, 7.32, 314.88
383.02, 7.33, 315.27
382.94, 7.35, 315.69
382.85, 7.37, 316.17
383.65, 7.31, 312.35
383.62, 7.31, 312.55
383.58, 7.31, 312.77
383.54, 7.31, 313.00
383.49, 7.31, 313.25
383.44, 7.31, 313.53
383.39, 7.31, 313.83
383.33, 7.31, 314.16
383.27, 7.31, 314.52
383.20, 7.32, 314.88
383.14, 7.33, 315.26
383.06, 7.35, 315.69
382.98, 7.37, 316.16
383.72, 7.31, 312.36
383.69, 7.31, 312.55
383.65, 7.31, 312.77
383.62, 7.31, 313.00
383.57, 7.31, 313.25
383.53, 7.31, 313.53
383.48, 7.31, 313.83
383.43, 7.31, 314.15
383.37, 7.31, 314.51
383.31, 7.32, 314.87
383.25, 7.33, 315.26
383.18, 7.35, 315.68
383.10, 7.37, 316.16
383.79, 7.31, 312.36
383.76, 7.31, 312.55
383.73, 7.31, 312.77
¯383.69, 7.31, 313.00
383.66, 7.31, 313.25
383.62, 7.31, 313.52
383.57, 7.31, 313.82
383.52, 7.31, 314.15
383.47, 7.31, 314.50
383.41, 7.32, 314.86
383.36, 7.33, 315.25
383.29, 7.35, 315.68
383.22, 7.37, 316.15
383.86, 7.31, 312.35
383.83, 7.31, 312.55
383.80, 7.31, 312.77
383.77, 7.31, 313.00
383.74, 7.31, 313.25
383.70, 7.31, 313.52
383.66, 7.31, 313.82
383.62, 7.31, 314.14
383.57, 7.31, 314.50
383.52, 7.32, 314.86
383.47, 7.33, 315.25
383.41, 7.35, 315.67
383.35, 7.36, 316.14
383.93, 7.31, 312.35
383.90, 7.31, 312.55
383.88, 7.31, 312.76
383.85, 7.31, 312.99
383.82, 7.31, 313.24
383.78, 7.31, 313.51
383.75, 7.31, 313.81
383.71, 7.31, 314.13
383.67, 7.31, 314.49
383.62, 7.32, 314.85
383.58, 7.33, 315.24
383.53, 7.34, 315.66
383.47, 7.36, 316.12
381.39, 4.37, 331.71
383.99, 7.31, 312.35
383.97, 7.31, 312.55
383.95, 7.31, 312.76
383.92, 7.31, 312.99
383.90, 7.31, 313.24
383.87, 7.31, 313.51
383.84, 7.31, 313.80
383.80, 7.31, 314.13
383.76, 7.31, 314.48
383.73, 7.32, 314.83
383.69, 7.33, 315.23
383.64, 7.34, 315.65
383.59, 7.36, 316.11
381.76, 4.41, 331.46
¯384.06, 7.31, 312.35
384.04, 7.31, 312.54
384.02, 7.31, 312.75
384.00, 7.31, 312.98
383.98, 7.31, 313.23
383.95, 7.31, 313.50
383.93, 7.31, 313.79
383.90, 7.31, 314.12
383.86, 7.31, 314.47
383.83, 7.32, 314.82
383.79, 7.33, 315.21
383.76, 7.34, 315.64
383.71, 7.36, 316.10
382.12, 4.44, 331.23
384.13, 7.31, 312.34
384.11, 7.31, 312.54
384.10, 7.31, 312.75
384.08, 7.31, 312.98
384.06, 7.31, 313.22
384.04, 7.31, 313.49
384.01, 7.31, 313.78
383.99, 7.31, 314.10
383.96, 7.31, 314.46
383.93, 7.32, 314.81
383.90, 7.33, 315.20
383.87, 7.34, 315.62
383.83, 7.36, 316.08
382.47, 4.47, 331.01
384.19, 7.31, 312.34
384.18, 7.31, 312.53
384.17, 7.31, 312.74
384.15, 7.31, 312.97
384.14, 7.31, 313.22
384.12, 7.31, 313.48
384.10, 7.31, 313.77
384.08, 7.31, 314.09
384.06, 7.31, 314.44
384.03, 7.32, 314.79
384.01, 7.33, 315.18
383.98, 7.34, 315.61
383.95, 7.36, 316.07
382.82, 4.50, 330.80
384.26, 7.31, 312.33
384.25, 7.31, 312.53
384.24, 7.31, 312.74
384.23, 7.31, 312.96
384.22, 7.31, 313.21
384.20, 7.31, 313.47
384.19, 7.31, 313.76
384.17, 7.31, 314.08
384.15, 7.31, 314.43
¯384.14, 7.32, 314.78
384.12, 7.33, 315.16
384.10, 7.34, 315.59
384.07, 7.35, 316.05
383.16, 4.53, 330.60
384.33, 7.31, 312.32
384.32, 7.31, 312.52
384.31, 7.31, 312.73
384.30, 7.31, 312.95
384.29, 7.31, 313.20
384.28, 7.31, 313.46
384.27, 7.31, 313.75
384.26, 7.31, 314.06
384.25, 7.31, 314.41
384.24, 7.32, 314.76
384.22, 7.33, 315.14
384.21, 7.34, 315.57
384.19, 7.35, 316.03
383.49, 4.55, 330.40
383.43, 4.57, 332.01
384.39, 7.31, 312.32
384.39, 7.31, 312.51
384.38, 7.31, 312.72
384.38, 7.31, 312.94
384.37, 7.31, 313.18
384.37, 7.31, 313.45
384.36, 7.31, 313.74
384.35, 7.31, 314.05
384.34, 7.31, 314.39
384.34, 7.31, 314.75
384.33, 7.33, 315.13
384.32, 7.34, 315.55
384.31, 7.35, 316.01
383.82, 4.57, 330.20
383.78, 4.60, 331.78
384.46, 7.31, 312.31
384.46, 7.31, 312.50
384.46, 7.31, 312.71
384.45, 7.31, 312.93
384.45, 7.31, 313.17
384.45, 7.31, 313.43
384.45, 7.31, 313.72
384.44, 7.31, 314.03
384.44, 7.31, 314.38
384.44, 7.31, 314.73
384.43, 7.32, 315.11
384.43, 7.34, 315.52
384.43, 7.35, 315.99
384.14, 4.60, 330.00
384.12, 4.62, 331.55
384.52, 7.31, 312.30
¯384.53, 7.31, 312.49
384.53, 7.31, 312.70
384.53, 7.31, 312.92
384.53, 7.31, 313.16
384.53, 7.31, 313.42
384.53, 7.31, 313.70
384.53, 7.31, 314.02
384.53, 7.31, 314.36
384.54, 7.31, 314.71
384.54, 7.32, 315.08
384.54, 7.34, 315.50
384.54, 7.35, 315.96
384.45, 4.62, 329.80
384.46, 4.65, 331.33
384.59, 7.31, 312.29
384.59, 7.31, 312.48
384.60, 7.31, 312.69
384.60, 7.31, 312.91
384.61, 7.31, 313.15
384.61, 7.31, 313.41
384.62, 7.31, 313.69
384.62, 7.31, 314.00
384.63, 7.31, 314.34
384.63, 7.31, 314.69
384.64, 7.32, 315.06
384.65, 7.34, 315.47
384.66, 7.35, 315.93
384.76, 4.64, 329.61
384.79, 4.67, 331.10
384.65, 7.31, 312.28
384.66, 7.31, 312.47
384.67, 7.31, 312.67
384.67, 7.31, 312.89
384.68, 7.31, 313.13
384.69, 7.31, 313.39
384.70, 7.31, 313.67
384.71, 7.31, 313.98
384.72, 7.31, 314.32
384.73, 7.31, 314.67
384.75, 7.32, 315.04
384.76, 7.33, 315.45
384.78, 7.35, 315.90
385.06, 4.66, 329.42
385.11, 4.69, 330.91
384.72, 7.31, 312.27
384.73, 7.31, 312.46
384.74, 7.31, 312.66
384.75, 7.31, 312.88
384.76, 7.31, 313.12
384.77, 7.31, 313.37
384.78, 7.31, 313.65
¯384.80, 7.31, 313.96
384.81, 7.31, 314.29
384.83, 7.31, 314.65
384.85, 7.32, 315.02
384.87, 7.33, 315.42
384.89, 7.35, 315.88
384.91, 7.36, 316.38
385.43, 4.71, 330.71
384.78, 7.31, 312.25
384.80, 7.31, 312.44
384.81, 7.31, 312.64
384.82, 7.31, 312.86
384.84, 7.31, 313.10
384.85, 7.31, 313.35
384.87, 7.31, 313.63
384.89, 7.31, 313.93
384.91, 7.31, 314.27
384.93, 7.31, 314.63
384.95, 7.32, 314.99
384.98, 7.33, 315.40
385.00, 7.34, 315.85
385.04, 7.36, 316.35
385.74, 4.73, 330.49
385.85, 4.76, 332.14
384.85, 7.31, 312.24
384.86, 7.31, 312.43
384.88, 7.31, 312.63
384.89, 7.31, 312.84
384.91, 7.31, 313.08
384.93, 7.31, 313.33
384.95, 7.31, 313.61
384.97, 7.31, 313.91
385.00, 7.31, 314.24
385.02, 7.31, 314.60
385.05, 7.32, 314.97
385.08, 7.33, 315.38
385.12, 7.34, 315.82
385.16, 7.36, 316.32
386.05, 4.75, 330.27
386.18, 4.78, 331.91
384.91, 7.31, 312.22
384.93, 7.31, 312.41
384.95, 7.31, 312.61
384.97, 7.31, 312.83
384.99, 7.31, 313.06
385.01, 7.31, 313.31
385.03, 7.31, 313.58
385.06, 7.31, 313.88
385.09, 7.31, 314.21
385.12, 7.31, 314.57
385.15, 7.32, 314.95
¯385.19, 7.33, 315.35
385.23, 7.34, 315.80
385.27, 7.35, 316.29
386.35, 4.77, 330.05
386.50, 4.80, 331.68
384.98, 7.31, 312.21
384.99, 7.31, 312.39
385.01, 7.31, 312.59
385.04, 7.31, 312.81
385.06, 7.31, 313.04
385.09, 7.31, 313.29
385.11, 7.31, 313.56
385.14, 7.31, 313.86
385.18, 7.31, 314.18
385.21, 7.31, 314.54
385.25, 7.32, 314.92
385.30, 7.33, 315.32
385.34, 7.34, 315.77
385.39, 7.35, 316.26
386.65, 4.79, 329.85
386.82, 4.82, 331.45
385.04, 7.31, 312.19
385.06, 7.31, 312.38
385.08, 7.31, 312.57
385.11, 7.31, 312.79
385.13, 7.31, 313.01
385.16, 7.31, 313.26
385.20, 7.31, 313.53
385.23, 7.31, 313.83
385.27, 7.31, 314.15
385.31, 7.31, 314.51
385.35, 7.32, 314.89
385.40, 7.32, 315.29
385.45, 7.34, 315.73
385.51, 7.35, 316.23
386.88, 4.93, 329.04
387.13, 4.83, 331.23
385.10, 7.31, 312.17
385.12, 7.31, 312.36
385.15, 7.31, 312.55
385.18, 7.31, 312.76
385.21, 7.31, 312.99
385.24, 7.31, 313.24
385.28, 7.31, 313.51
385.31, 7.31, 313.80
385.36, 7.31, 314.12
385.40, 7.31, 314.47
385.45, 7.32, 314.85
385.51, 7.32, 315.26
385.56, 7.33, 315.70
385.63, 7.35, 316.19
¯387.16, 4.94, 328.85
387.44, 4.85, 331.01
385.16, 7.31, 312.16
385.19, 7.31, 312.34
385.22, 7.31, 312.53
385.25, 7.31, 312.74
385.28, 7.31, 312.97
385.32, 7.31, 313.21
385.36, 7.31, 313.48
385.40, 7.31, 313.77
385.44, 7.31, 314.09
385.50, 7.31, 314.44
385.55, 7.32, 314.81
385.61, 7.32, 315.23
385.67, 7.33, 315.67
385.75, 7.35, 316.16
387.44, 4.95, 328.67
387.74, 4.86, 330.79
385.23, 7.31, 312.14
385.25, 7.31, 312.32
385.28, 7.31, 312.51
385.32, 7.31, 312.72
385.35, 7.31, 312.94
385.39, 7.31, 313.19
385.44, 7.31, 313.45
385.48, 7.31, 313.74
385.53, 7.31, 314.06
385.59, 7.31, 314.40
385.65, 7.32, 314.78
385.71, 7.32, 315.19
385.78, 7.33, 315.64
385.86, 7.34, 316.12
387.71, 4.96, 328.49
388.04, 4.88, 330.57
385.29, 7.31, 312.12
385.32, 7.31, 312.30
385.35, 7.31, 312.49
385.39, 7.31, 312.70
385.43, 7.31, 312.92
385.47, 7.31, 313.16
385.51, 7.31, 313.42
385.56, 7.31, 313.71
385.62, 7.31, 314.02
385.68, 7.31, 314.37
385.74, 7.32, 314.74
385.81, 7.32, 315.15
385.89, 7.33, 315.60
385.98, 7.34, 316.08
387.98, 4.98, 328.30
388.33, 4.89, 330.36
385.35, 7.31, 312.10
¯385.38, 7.31, 312.28
385.42, 7.31, 312.47
385.46, 7.31, 312.67
385.50, 7.31, 312.89
385.54, 7.31, 313.13
385.59, 7.31, 313.39
385.65, 7.31, 313.68
385.70, 7.32, 313.99
385.77, 7.32, 314.33
385.84, 7.32, 314.70
385.91, 7.32, 315.10
386.00, 7.33, 315.56
386.09, 7.34, 316.04
388.25, 4.99, 328.12
388.51, 5.03, 329.50
388.94, 4.94, 331.83
385.41, 7.31, 312.08
385.44, 7.31, 312.25
385.48, 7.31, 312.44
385.52, 7.31, 312.65
385.57, 7.31, 312.87
385.62, 7.31, 313.10
385.67, 7.31, 313.36
385.73, 7.32, 313.64
385.79, 7.32, 313.95
385.86, 7.32, 314.29
385.93, 7.32, 314.66
386.01, 7.32, 315.06
386.11, 7.33, 315.51
386.21, 7.34, 316.00
388.51, 5.00, 327.93
388.79, 5.04, 329.30
389.25, 4.95, 331.60
385.47, 7.31, 312.05
385.51, 7.31, 312.23
385.55, 7.31, 312.42
385.59, 7.31, 312.62
385.64, 7.31, 312.84
385.69, 7.32, 313.08
385.75, 7.32, 313.33
385.81, 7.32, 313.61
385.87, 7.32, 313.92
385.95, 7.32, 314.25
386.03, 7.32, 314.62
386.11, 7.32, 315.02
386.21, 7.33, 315.46
386.32, 7.34, 315.96
388.77, 5.01, 327.75
389.06, 5.05, 329.10
389.55, 4.96, 331.37
385.53, 7.31, 312.03
¯385.57, 7.31, 312.21
385.61, 7.31, 312.39
385.66, 7.31, 312.59
385.71, 7.32, 312.81
385.76, 7.32, 313.05
385.82, 7.32, 313.30
385.89, 7.32, 313.58
385.96, 7.32, 313.88
386.04, 7.32, 314.21
386.12, 7.32, 314.58
386.21, 7.32, 314.97
386.31, 7.33, 315.41
386.43, 7.34, 315.90
389.02, 5.02, 327.56
389.33, 5.06, 328.90
389.85, 4.97, 331.13
385.59, 7.31, 312.01
385.63, 7.31, 312.18
385.68, 7.31, 312.37
385.73, 7.32, 312.57
385.78, 7.32, 312.78
385.84, 7.32, 313.02
385.90, 7.32, 313.27
385.97, 7.32, 313.54
386.04, 7.32, 313.84
386.12, 7.32, 314.17
386.21, 7.32, 314.53
386.31, 7.33, 314.93
386.42, 7.33, 315.36
386.54, 7.34, 315.85
386.67, 7.34, 316.40
389.60, 5.07, 328.71
390.14, 4.98, 330.90
385.65, 7.31, 311.99
385.69, 7.32, 312.16
385.74, 7.32, 312.34
385.79, 7.32, 312.54
385.85, 7.32, 312.75
385.91, 7.32, 312.98
385.97, 7.32, 313.23
386.05, 7.32, 313.51
386.12, 7.32, 313.80
386.21, 7.32, 314.13
386.30, 7.32, 314.49
386.41, 7.33, 314.88
386.52, 7.33, 315.31
386.64, 7.34, 315.79
386.79, 7.34, 316.34
389.86, 5.08, 328.50
390.26, 5.12, 330.00
385.71, 7.32, 311.96
¯385.75, 7.32, 312.13
385.80, 7.32, 312.31
385.86, 7.32, 312.51
385.92, 7.32, 312.72
385.98, 7.32, 312.95
386.05, 7.32, 313.20
386.12, 7.32, 313.47
386.21, 7.32, 313.76
386.30, 7.32, 314.09
386.39, 7.32, 314.45
386.50, 7.33, 314.83
386.62, 7.33, 315.26
386.75, 7.34, 315.74
386.90, 7.34, 316.27
390.12, 5.09, 328.30
390.53, 5.13, 329.78
385.76, 7.32, 311.94
385.81, 7.32, 312.11
385.87, 7.32, 312.29
385.92, 7.32, 312.48
385.99, 7.32, 312.69
386.05, 7.32, 312.92
386.12, 7.32, 313.16
386.20, 7.32, 313.43
386.29, 7.32, 313.72
386.38, 7.32, 314.05
386.48, 7.32, 314.40
386.60, 7.33, 314.78
386.72, 7.33, 315.21
386.86, 7.34, 315.68
387.01, 7.34, 316.21
390.38, 5.10, 328.11
390.80, 5.14, 329.56
385.82, 7.32, 311.91
385.87, 7.32, 312.08
385.93, 7.32, 312.26
385.99, 7.32, 312.45
386.05, 7.32, 312.66
386.12, 7.32, 312.89
386.20, 7.32, 313.13
386.28, 7.32, 313.39
386.37, 7.32, 313.68
386.46, 7.32, 314.00
386.57, 7.32, 314.35
386.69, 7.33, 314.73
386.82, 7.33, 315.15
386.96, 7.34, 315.62
387.12, 7.34, 316.15
390.63, 5.11, 327.91
391.07, 5.14, 329.35
385.88, 7.32, 311.88
¯385.93, 7.32, 312.05
385.99, 7.32, 312.23
386.05, 7.32, 312.42
386.12, 7.32, 312.63
386.19, 7.32, 312.85
386.27, 7.32, 313.09
386.35, 7.32, 313.36
386.45, 7.32, 313.64
386.55, 7.32, 313.96
386.66, 7.32, 314.31
386.78, 7.33, 314.68
386.92, 7.33, 315.10
387.07, 7.34, 315.56
387.23, 7.34, 316.08
390.88, 5.12, 327.71
391.34, 5.15, 329.14
385.94, 7.32, 311.86
385.99, 7.32, 312.02
386.05, 7.32, 312.20
386.12, 7.32, 312.39
386.19, 7.32, 312.59
386.26, 7.32, 312.82
386.34, 7.32, 313.06
386.43, 7.32, 313.32
386.53, 7.32, 313.60
386.63, 7.32, 313.91
386.75, 7.33, 314.26
386.87, 7.33, 314.63
387.01, 7.33, 315.04
387.17, 7.34, 315.50
387.34, 7.35, 316.02
391.13, 5.13, 327.51
391.60, 5.16, 328.92
385.99, 7.32, 311.83
386.05, 7.32, 311.99
386.11, 7.32, 312.17
386.18, 7.32, 312.36
386.25, 7.32, 312.56
386.33, 7.32, 312.78
386.41, 7.32, 313.02
386.50, 7.32, 313.28
386.60, 7.32, 313.56
386.71, 7.32, 313.87
386.83, 7.33, 314.20
386.96, 7.33, 314.58
387.11, 7.33, 314.99
387.27, 7.34, 315.44
387.45, 7.35, 315.95
391.37, 5.13, 327.32
391.86, 5.17, 328.70
392.43, 5.21, 330.31
¯386.05, 7.32, 311.80
386.11, 7.32, 311.96
386.17, 7.32, 312.14
386.24, 7.32, 312.33
386.32, 7.32, 312.53
386.40, 7.32, 312.74
386.48, 7.32, 312.98
386.58, 7.32, 313.23
386.68, 7.32, 313.51
386.79, 7.33, 313.82
386.92, 7.33, 314.15
387.05, 7.33, 314.52
387.21, 7.33, 314.93
387.37, 7.34, 315.38
387.56, 7.35, 315.89
391.61, 5.14, 327.12
392.11, 5.18, 328.49
392.70, 5.22, 330.06
386.11, 7.32, 311.77
386.17, 7.32, 311.93
386.23, 7.32, 312.11
386.31, 7.32, 312.29
386.38, 7.32, 312.49
386.46, 7.32, 312.71
386.55, 7.32, 312.94
386.65, 7.32, 313.19
386.76, 7.33, 313.47
386.87, 7.33, 313.77
387.00, 7.33, 314.10
387.14, 7.33, 314.46
387.30, 7.34, 314.87
387.47, 7.34, 315.32
387.66, 7.35, 315.82
387.88, 7.35, 316.38
392.37, 5.18, 328.27
392.96, 5.22, 329.82
386.16, 7.32, 311.74
386.22, 7.32, 311.90
386.29, 7.32, 312.07
386.37, 7.32, 312.26
386.45, 7.32, 312.46
386.53, 7.32, 312.67
386.62, 7.32, 312.90
386.72, 7.32, 313.15
386.83, 7.33, 313.42
386.95, 7.33, 313.72
387.08, 7.33, 314.04
387.23, 7.33, 314.40
387.39, 7.34, 314.80
387.57, 7.34, 315.25
387.77, 7.35, 315.75
¯387.99, 7.35, 316.31
392.61, 5.19, 328.05
393.23, 5.23, 329.58
386.22, 7.32, 311.71
386.28, 7.32, 311.87
386.35, 7.32, 312.04
386.43, 7.32, 312.22
386.51, 7.32, 312.42
386.60, 7.32, 312.63
386.69, 7.32, 312.86
386.80, 7.33, 313.10
386.91, 7.33, 313.37
387.03, 7.33, 313.67
387.17, 7.33, 313.99
387.31, 7.34, 314.34
387.48, 7.34, 314.74
387.67, 7.34, 315.18
387.87, 7.35, 315.68
388.10, 7.35, 316.23
392.85, 5.20, 327.83
393.48, 5.24, 329.33
386.27, 7.32, 311.68
386.34, 7.32, 311.84
386.41, 7.32, 312.01
386.49, 7.32, 312.19
386.57, 7.32, 312.38
386.66, 7.32, 312.59
386.76, 7.33, 312.82
386.87, 7.33, 313.06
386.98, 7.33, 313.32
387.11, 7.33, 313.61
387.25, 7.33, 313.93
387.40, 7.34, 314.28
387.57, 7.34, 314.68
387.76, 7.34, 315.11
387.97, 7.35, 315.61
388.21, 7.35, 316.16
393.09, 5.21, 327.60
393.73, 5.25, 329.08
386.32, 7.32, 311.65
386.39, 7.32, 311.81
386.47, 7.32, 311.97
386.55, 7.32, 312.15
386.64, 7.32, 312.34
386.73, 7.32, 312.55
386.83, 7.33, 312.77
386.94, 7.33, 313.01
387.06, 7.33, 313.27
387.18, 7.33, 313.56
387.33, 7.34, 313.88
387.48, 7.34, 314.22
¯387.66, 7.34, 314.61
387.85, 7.35, 315.04
388.07, 7.35, 315.53
388.32, 7.35, 316.08
393.33, 5.22, 327.39
393.98, 5.26, 328.83
386.38, 7.32, 311.62
386.45, 7.32, 311.77
386.53, 7.32, 311.94
386.61, 7.32, 312.12
386.70, 7.32, 312.31
386.79, 7.33, 312.51
386.89, 7.33, 312.73
387.01, 7.33, 312.97
387.13, 7.33, 313.22
387.26, 7.33, 313.51
387.41, 7.34, 313.82
387.57, 7.34, 314.16
387.75, 7.34, 314.54
387.94, 7.35, 314.97
388.17, 7.35, 315.45
388.42, 7.36, 316.00
393.56, 5.23, 327.16
394.22, 5.27, 328.58
386.43, 7.32, 311.59
386.50, 7.32, 311.74
386.58, 7.32, 311.90
386.67, 7.32, 312.08
386.76, 7.33, 312.27
386.86, 7.33, 312.47
386.96, 7.33, 312.68
387.07, 7.33, 312.92
387.20, 7.33, 313.17
387.33, 7.34, 313.45
387.48, 7.34, 313.76
387.65, 7.34, 314.10
387.83, 7.35, 314.48
388.04, 7.35, 314.90
388.27, 7.35, 315.37
388.53, 7.36, 315.91
393.79, 5.23, 326.94
394.46, 5.28, 328.33
395.25, 5.33, 329.95
386.48, 7.32, 311.56
386.56, 7.32, 311.71
386.64, 7.32, 311.87
386.73, 7.32, 312.04
386.82, 7.33, 312.23
386.92, 7.33, 312.42
387.03, 7.33, 312.64
387.14, 7.33, 312.87
¯387.27, 7.33, 313.12
387.41, 7.34, 313.40
387.56, 7.34, 313.70
387.73, 7.34, 314.04
387.92, 7.35, 314.41
388.13, 7.35, 314.83
388.36, 7.36, 315.30
388.63, 7.36, 315.83
394.01, 5.24, 326.71
394.70, 5.29, 328.08
395.50, 5.33, 329.67
386.53, 7.32, 311.52
386.61, 7.32, 311.67
386.69, 7.32, 311.83
386.78, 7.33, 312.00
386.88, 7.33, 312.18
386.98, 7.33, 312.38
387.09, 7.33, 312.59
387.21, 7.33, 312.82
387.34, 7.34, 313.07
387.48, 7.34, 313.34
387.64, 7.34, 313.64
387.81, 7.35, 313.98
388.00, 7.35, 314.34
388.22, 7.35, 314.75
388.46, 7.36, 315.22
388.73, 7.36, 315.74
389.04, 7.37, 316.34
394.93, 5.30, 327.83
395.73, 5.35, 329.37
386.59, 7.32, 311.49
386.67, 7.32, 311.64
386.75, 7.33, 311.79
386.84, 7.33, 311.96
386.94, 7.33, 312.14
387.04, 7.33, 312.34
387.15, 7.33, 312.54
387.28, 7.34, 312.77
387.41, 7.34, 313.02
387.55, 7.34, 313.29
387.71, 7.34, 313.59
387.89, 7.35, 313.91
388.09, 7.35, 314.28
388.30, 7.35, 314.68
388.55, 7.36, 315.14
388.83, 7.36, 315.65
389.14, 7.37, 316.24
395.16, 5.30, 327.58
395.93, 5.37, 329.02
386.64, 7.32, 311.45
386.72, 7.32, 311.60
¯386.80, 7.33, 311.75
386.90, 7.33, 311.92
387.00, 7.33, 312.10
387.10, 7.33, 312.29
387.22, 7.33, 312.50
387.34, 7.34, 312.72
387.48, 7.34, 312.97
387.63, 7.34, 313.23
387.79, 7.34, 313.53
387.97, 7.35, 313.85
388.17, 7.35, 314.21
388.39, 7.36, 314.61
388.64, 7.36, 315.06
388.92, 7.37, 315.57
389.25, 7.37, 316.15
395.38, 5.31, 327.33
396.14, 5.39, 328.69
386.69, 7.32, 311.42
386.77, 7.33, 311.56
386.86, 7.33, 311.72
386.95, 7.33, 311.88
387.05, 7.33, 312.06
387.16, 7.33, 312.24
387.28, 7.34, 312.45
387.41, 7.34, 312.67
387.55, 7.34, 312.91
387.70, 7.34, 313.18
387.86, 7.35, 313.47
388.05, 7.35, 313.78
388.25, 7.35, 314.14
388.48, 7.36, 314.53
388.73, 7.36, 314.98
389.02, 7.37, 315.48
389.35, 7.37, 316.05
395.59, 5.33, 327.06
396.36, 5.40, 328.40
386.74, 7.33, 311.38
386.82, 7.33, 311.52
386.91, 7.33, 311.68
387.01, 7.33, 311.84
387.11, 7.33, 312.01
387.22, 7.33, 312.20
387.34, 7.34, 312.40
387.47, 7.34, 312.62
387.61, 7.34, 312.86
387.77, 7.34, 313.12
387.94, 7.35, 313.40
388.12, 7.35, 313.72
388.33, 7.35, 314.07
388.56, 7.36, 314.46
388.82, 7.36, 314.89
¯389.11, 7.37, 315.39
389.45, 7.38, 315.95
395.78, 5.35, 326.75
396.57, 5.42, 328.09
386.79, 7.33, 311.35
386.87, 7.33, 311.49
386.96, 7.33, 311.64
387.06, 7.33, 311.80
387.17, 7.33, 311.97
387.28, 7.34, 312.15
387.40, 7.34, 312.35
387.53, 7.34, 312.57
387.68, 7.34, 312.80
387.84, 7.35, 313.06
388.01, 7.35, 313.34
388.20, 7.35, 313.65
388.41, 7.36, 314.00
388.64, 7.36, 314.38
388.91, 7.37, 314.81
389.21, 7.37, 315.30
389.55, 7.38, 315.86
395.96, 5.36, 326.45
396.76, 5.44, 327.76
386.83, 7.33, 311.31
386.92, 7.33, 311.45
387.02, 7.33, 311.59
387.11, 7.33, 311.75
387.22, 7.33, 311.92
387.34, 7.34, 312.11
387.46, 7.34, 312.30
387.60, 7.34, 312.52
387.74, 7.34, 312.75
387.90, 7.35, 313.00
388.08, 7.35, 313.28
388.27, 7.35, 313.59
388.49, 7.36, 313.93
388.73, 7.36, 314.31
389.00, 7.37, 314.73
389.30, 7.37, 315.21
389.64, 7.38, 315.76
390.04, 7.39, 316.39
396.95, 5.45, 327.44
386.88, 7.33, 311.27
386.97, 7.33, 311.41
387.07, 7.33, 311.55
387.17, 7.33, 311.71
387.28, 7.34, 311.88
387.39, 7.34, 312.06
387.52, 7.34, 312.25
387.66, 7.34, 312.46
387.81, 7.35, 312.69
¯387.97, 7.35, 312.94
388.15, 7.35, 313.22
388.35, 7.36, 313.52
388.57, 7.36, 313.86
388.81, 7.36, 314.23
389.08, 7.37, 314.65
389.39, 7.37, 315.12
389.74, 7.38, 315.66
390.14, 7.39, 316.28
397.15, 5.47, 327.14
386.93, 7.33, 311.23
387.02, 7.33, 311.37
387.12, 7.33, 311.51
387.22, 7.33, 311.67
387.33, 7.34, 311.83
387.45, 7.34, 312.01
387.58, 7.34, 312.20
387.72, 7.34, 312.41
387.87, 7.35, 312.64
388.04, 7.35, 312.88
388.22, 7.35, 313.15
388.42, 7.36, 313.45
388.64, 7.36, 313.78
388.89, 7.37, 314.15
389.17, 7.37, 314.56
389.48, 7.38, 315.03
389.84, 7.38, 315.56
390.25, 7.39, 316.17
397.32, 5.49, 326.81
386.98, 7.33, 311.19
387.07, 7.33, 311.33
387.17, 7.33, 311.47
387.27, 7.34, 311.62
387.39, 7.34, 311.78
387.51, 7.34, 311.96
387.64, 7.34, 312.15
387.78, 7.34, 312.36
387.94, 7.35, 312.58
388.10, 7.35, 312.82
388.29, 7.35, 313.09
388.49, 7.36, 313.39
388.72, 7.36, 313.71
388.97, 7.37, 314.07
389.25, 7.37, 314.48
389.57, 7.38, 314.94
389.93, 7.38, 315.46
390.35, 7.39, 316.06
397.48, 5.51, 326.48
387.02, 7.33, 311.15
387.12, 7.33, 311.28
387.22, 7.33, 311.43
¯387.32, 7.34, 311.58
387.44, 7.34, 311.74
387.56, 7.34, 311.91
387.70, 7.34, 312.10
387.84, 7.35, 312.30
388.00, 7.35, 312.52
388.17, 7.35, 312.76
388.36, 7.36, 313.03
388.56, 7.36, 313.32
388.79, 7.36, 313.64
389.05, 7.37, 314.00
389.33, 7.37, 314.40
389.66, 7.38, 314.85
390.02, 7.39, 315.36
390.44, 7.39, 315.96
390.91, 7.41, 316.61
387.07, 7.33, 311.11
387.16, 7.33, 311.24
387.27, 7.33, 311.38
387.38, 7.34, 311.53
387.49, 7.34, 311.69
387.62, 7.34, 311.86
387.75, 7.34, 312.05
387.90, 7.35, 312.25
388.06, 7.35, 312.46
388.23, 7.35, 312.70
388.42, 7.36, 312.96
388.63, 7.36, 313.25
388.87, 7.36, 313.56
389.13, 7.37, 313.92
389.42, 7.38, 314.31
389.74, 7.38, 314.76
390.11, 7.39, 315.27
390.54, 7.40, 315.85
391.02, 7.41, 316.51
391.51, 7.44, 317.17
387.11, 7.33, 311.07
387.21, 7.33, 311.20
387.31, 7.34, 311.34
387.43, 7.34, 311.49
387.54, 7.34, 311.64
387.67, 7.34, 311.81
387.81, 7.35, 311.99
387.96, 7.35, 312.19
388.12, 7.35, 312.41
388.30, 7.35, 312.64
388.49, 7.36, 312.90
387.93, 7.70, 312.14
387.92, 7.79, 312.12
387.91, 7.88, 312.11
387.91, 7.96, 312.10
¯387.91, 8.04, 312.10
387.91, 8.12, 312.09
387.90, 8.20, 312.08
387.90, 8.28, 312.08
387.90, 8.36, 312.07
387.90, 8.44, 312.07
387.90, 8.52, 312.06
387.90, 8.60, 312.06
387.90, 8.67, 312.05
387.89, 8.75, 312.05
387.89, 8.83, 312.04
387.89, 8.91, 312.04
387.89, 8.98, 312.04
387.16, 7.33, 311.03
387.26, 7.33, 311.16
387.36, 7.34, 311.29
387.47, 7.34, 311.44
387.60, 7.34, 311.59
387.73, 7.34, 311.76
387.87, 7.35, 311.94
388.02, 7.35, 312.14
388.18, 7.35, 312.35
387.94, 7.56, 312.03
387.89, 7.66, 311.97
387.88, 7.75, 311.95
387.88, 7.83, 311.95
387.88, 7.91, 311.94
387.88, 7.99, 311.94
387.88, 8.07, 311.94
387.88, 8.15, 311.93
387.88, 8.22, 311.93
387.88, 8.30, 311.93
387.88, 8.38, 311.93
387.89, 8.46, 311.92
387.89, 8.53, 311.92
387.89, 8.61, 311.92
387.89, 8.68, 311.92
387.89, 8.76, 311.91
387.89, 8.83, 311.91
387.89, 8.91, 311.91
387.89, 8.98, 311.91
387.20, 7.33, 310.99
387.30, 7.34, 311.12
387.41, 7.34, 311.25
387.52, 7.34, 311.39
387.65, 7.34, 311.55
387.78, 7.34, 311.71
387.92, 7.35, 311.89
388.07, 7.35, 312.08
387.99, 7.48, 311.97
387.92, 7.59, 311.88
¯387.90, 7.69, 311.85
387.90, 7.77, 311.85
387.90, 7.85, 311.84
387.90, 7.93, 311.84
387.90, 8.00, 311.84
387.90, 8.08, 311.84
387.90, 8.16, 311.84
387.90, 8.23, 311.83
387.90, 8.31, 311.83
387.90, 8.39, 311.83
387.90, 8.46, 311.83
387.91, 8.54, 311.83
387.91, 8.61, 311.82
387.91, 8.69, 311.82
387.91, 8.76, 311.82
387.91, 8.84, 311.82
387.91, 8.91, 311.82
387.91, 8.98, 311.81
387.25, 7.33, 310.95
387.35, 7.34, 311.07
387.46, 7.34, 311.21
387.57, 7.34, 311.35
387.70, 7.34, 311.50
387.83, 7.35, 311.66
387.97, 7.35, 311.83
388.13, 7.35, 312.02
387.99, 7.51, 311.84
387.95, 7.61, 311.79
387.93, 7.70, 311.77
387.93, 7.78, 311.77
387.93, 7.86, 311.76
387.93, 7.93, 311.76
387.93, 8.01, 311.76
387.93, 8.09, 311.76
387.94, 8.16, 311.76
387.94, 8.24, 311.76
387.94, 8.32, 311.76
387.94, 8.39, 311.75
387.94, 8.47, 311.75
387.94, 8.54, 311.75
387.94, 8.61, 311.75
387.94, 8.69, 311.75
387.94, 8.76, 311.75
387.94, 8.84, 311.75
387.94, 8.91, 311.74
387.95, 8.98, 311.74
387.29, 7.33, 310.91
387.40, 7.34, 311.03
387.50, 7.34, 311.16
387.62, 7.34, 311.30
387.75, 7.34, 311.45
¯387.88, 7.35, 311.61
388.03, 7.35, 311.78
388.19, 7.35, 311.97
388.02, 7.52, 311.76
387.99, 7.62, 311.72
387.98, 7.70, 311.71
387.97, 7.78, 311.70
387.98, 7.86, 311.70
387.98, 7.94, 311.70
387.98, 8.01, 311.70
387.98, 8.09, 311.70
387.98, 8.17, 311.70
387.98, 8.24, 311.69
387.98, 8.32, 311.69
387.98, 8.39, 311.69
387.98, 8.47, 311.69
387.98, 8.54, 311.69
387.99, 8.62, 311.69
387.99, 8.69, 311.69
387.99, 8.76, 311.69
387.99, 8.84, 311.68
387.99, 8.91, 311.68
387.99, 8.98, 311.68
387.34, 7.33, 310.87
387.44, 7.34, 310.99
387.55, 7.34, 311.12
387.67, 7.34, 311.25
387.80, 7.34, 311.40
387.94, 7.35, 311.56
388.08, 7.35, 311.73
388.17, 7.39, 311.82
388.07, 7.52, 311.71
388.04, 7.62, 311.67
388.03, 7.70, 311.65
388.03, 7.78, 311.65
388.03, 7.86, 311.65
388.03, 7.94, 311.65
388.03, 8.01, 311.65
388.03, 8.09, 311.64
388.03, 8.17, 311.64
388.03, 8.24, 311.64
388.03, 8.32, 311.64
388.04, 8.39, 311.64
388.04, 8.47, 311.64
388.04, 8.54, 311.64
388.04, 8.61, 311.64
388.04, 8.69, 311.64
388.04, 8.76, 311.64
388.04, 8.84, 311.64
388.04, 8.91, 311.63
388.05, 8.98, 311.63
¯387.18, 7.47, 310.60
387.49, 7.34, 310.95
387.60, 7.34, 311.07
387.72, 7.34, 311.21
387.85, 7.34, 311.35
387.99, 7.35, 311.51
388.14, 7.35, 311.67
388.30, 7.35, 311.85
388.14, 7.52, 311.67
388.10, 7.61, 311.63
388.09, 7.70, 311.61
388.09, 7.78, 311.61
388.09, 7.86, 311.60
388.09, 7.93, 311.60
388.09, 8.01, 311.60
388.09, 8.09, 311.60
388.09, 8.16, 311.60
388.10, 8.24, 311.60
388.10, 8.31, 311.60
388.10, 8.39, 311.60
388.10, 8.46, 311.60
388.10, 8.54, 311.60
388.10, 8.61, 311.60
388.10, 8.69, 311.60
388.10, 8.76, 311.60
388.11, 8.83, 311.60
388.11, 8.91, 311.60
388.11, 8.98, 311.59
387.22, 7.47, 310.56
387.53, 7.34, 310.90
387.64, 7.34, 311.03
387.77, 7.34, 311.16
387.90, 7.34, 311.30
388.04, 7.35, 311.45
388.19, 7.35, 311.62
388.36, 7.35, 311.80
388.22, 7.50, 311.65
388.18, 7.60, 311.60
388.16, 7.69, 311.58
388.16, 7.77, 311.57
388.16, 7.85, 311.57
388.16, 7.93, 311.57
388.16, 8.00, 311.57
388.16, 8.08, 311.57
388.17, 8.16, 311.57
388.17, 8.23, 311.57
388.17, 8.31, 311.57
388.17, 8.38, 311.57
388.17, 8.46, 311.57
388.17, 8.53, 311.57
388.18, 8.61, 311.57
¯388.18, 8.68, 311.57
388.18, 8.76, 311.57
388.18, 8.83, 311.57
388.18, 8.90, 311.57
388.18, 8.98, 311.57
387.26, 7.47, 310.52
387.36, 7.47, 310.63
387.69, 7.34, 310.98
387.81, 7.34, 311.11
387.95, 7.34, 311.25
388.09, 7.35, 311.40
388.24, 7.35, 311.57
388.41, 7.35, 311.74
388.36, 7.46, 311.68
388.27, 7.58, 311.59
388.25, 7.67, 311.56
388.24, 7.76, 311.55
388.25, 7.84, 311.55
388.25, 7.91, 311.55
388.25, 7.99, 311.55
388.25, 8.07, 311.55
388.25, 8.15, 311.55
388.25, 8.22, 311.55
388.26, 8.30, 311.55
388.26, 8.37, 311.55
388.26, 8.45, 311.55
388.26, 8.53, 311.55
388.26, 8.60, 311.55
388.26, 8.68, 311.55
388.27, 8.75, 311.55
388.27, 8.83, 311.55
388.27, 8.90, 311.55
388.27, 8.97, 311.55
387.29, 7.47, 310.48
387.40, 7.47, 310.58
387.73, 7.34, 310.93
387.86, 7.34, 311.06
387.99, 7.34, 311.20
388.14, 7.35, 311.35
388.30, 7.35, 311.51
388.46, 7.35, 311.68
388.65, 7.36, 311.87
388.43, 7.54, 311.65
388.36, 7.65, 311.57
388.35, 7.73, 311.56
388.35, 7.81, 311.56
388.35, 7.89, 311.56
388.36, 7.97, 311.56
388.36, 8.05, 311.56
388.36, 8.13, 311.56
388.36, 8.21, 311.56
¯388.37, 8.28, 311.56
388.37, 8.36, 311.56
388.37, 8.44, 311.56
388.37, 8.51, 311.56
388.37, 8.59, 311.56
388.38, 8.67, 311.56
388.38, 8.74, 311.56
388.38, 8.82, 311.56
388.38, 8.89, 311.56
388.39, 8.97, 311.56
387.33, 7.47, 310.44
387.44, 7.47, 310.54
387.55, 7.47, 310.65
387.91, 7.34, 311.01
388.04, 7.34, 311.15
388.19, 7.35, 311.30
388.35, 7.35, 311.45
388.52, 7.35, 311.63
388.70, 7.36, 311.81
388.90, 7.36, 312.01
389.12, 7.37, 312.22
389.35, 7.37, 312.46
388.55, 7.76, 311.65
388.57, 7.84, 311.66
390.25, 7.39, 313.35
390.62, 7.40, 313.72
391.04, 7.41, 314.15
391.53, 7.41, 314.63
392.09, 7.43, 315.19
392.74, 7.44, 315.84
393.49, 7.46, 316.59
394.47, 7.47, 317.57
387.37, 7.47, 310.40
387.47, 7.47, 310.50
387.59, 7.47, 310.61
387.95, 7.34, 310.96
388.09, 7.34, 311.10
388.24, 7.35, 311.24
388.40, 7.35, 311.40
388.57, 7.35, 311.57
388.76, 7.36, 311.75
388.96, 7.36, 311.94
389.18, 7.37, 312.15
389.42, 7.37, 312.39
389.68, 7.38, 312.65
389.98, 7.39, 312.94
390.32, 7.39, 313.26
390.69, 7.40, 313.63
391.12, 7.41, 314.04
391.61, 7.42, 314.52
392.18, 7.43, 315.07
¯392.83, 7.44, 315.70
393.58, 7.46, 316.43
394.56, 7.47, 317.38
387.41, 7.47, 310.35
387.51, 7.47, 310.46
387.63, 7.47, 310.56
387.75, 7.47, 310.68
388.14, 7.34, 311.05
388.29, 7.35, 311.19
388.45, 7.35, 311.34
388.62, 7.35, 311.51
388.81, 7.36, 311.68
389.01, 7.36, 311.88
389.23, 7.37, 312.08
389.48, 7.37, 312.31
389.75, 7.38, 312.57
390.05, 7.39, 312.85
390.39, 7.39, 313.17
390.77, 7.40, 313.53
391.20, 7.41, 313.94
391.69, 7.42, 314.40
392.26, 7.43, 314.94
392.91, 7.44, 315.56
393.67, 7.47, 316.27
394.64, 7.48, 317.19
395.79, 7.50, 318.28
387.44, 7.47, 310.31
387.55, 7.47, 310.41
387.67, 7.47, 310.52
387.79, 7.47, 310.63
388.18, 7.34, 310.99
388.33, 7.35, 311.13
388.50, 7.35, 311.28
388.68, 7.35, 311.45
388.86, 7.36, 311.62
389.07, 7.36, 311.81
389.29, 7.37, 312.01
389.54, 7.38, 312.24
389.81, 7.38, 312.49
390.11, 7.39, 312.77
390.45, 7.39, 313.08
390.84, 7.40, 313.43
391.27, 7.41, 313.83
391.77, 7.42, 314.29
392.35, 7.43, 314.82
393.00, 7.45, 315.42
393.76, 7.47, 316.12
394.72, 7.49, 316.99
395.87, 7.51, 318.06
387.48, 7.47, 310.27
387.59, 7.47, 310.37
¯387.70, 7.47, 310.47
387.83, 7.47, 310.58
387.96, 7.48, 310.70
388.38, 7.35, 311.08
388.55, 7.35, 311.23
388.73, 7.35, 311.39
388.92, 7.36, 311.56
389.12, 7.36, 311.74
389.35, 7.37, 311.94
389.60, 7.38, 312.16
389.87, 7.38, 312.41
390.18, 7.39, 312.68
390.52, 7.40, 312.99
390.91, 7.40, 313.34
391.35, 7.41, 313.73
391.85, 7.42, 314.18
392.43, 7.43, 314.70
393.09, 7.45, 315.28
393.85, 7.47, 315.97
394.79, 7.49, 316.80
395.95, 7.52, 317.84
387.51, 7.47, 310.23
387.62, 7.47, 310.32
387.74, 7.47, 310.43
387.87, 7.47, 310.54
388.00, 7.48, 310.65
388.43, 7.35, 311.02
388.60, 7.35, 311.17
388.77, 7.35, 311.32
388.97, 7.36, 311.49
389.18, 7.36, 311.67
389.40, 7.37, 311.87
389.66, 7.38, 312.09
389.93, 7.38, 312.33
390.24, 7.39, 312.60
390.59, 7.40, 312.90
390.98, 7.40, 313.24
391.42, 7.41, 313.62
391.93, 7.42, 314.06
392.51, 7.43, 314.57
393.17, 7.45, 315.14
393.94, 7.47, 315.81
394.88, 7.50, 316.63
396.06, 7.52, 317.65
387.55, 7.47, 310.18
387.66, 7.47, 310.28
387.78, 7.47, 310.38
387.91, 7.47, 310.49
388.04, 7.48, 310.60
388.19, 7.48, 310.73
388.64, 7.35, 311.11
¯388.82, 7.35, 311.26
389.02, 7.36, 311.43
389.23, 7.36, 311.61
389.46, 7.37, 311.80
389.71, 7.38, 312.01
389.99, 7.38, 312.25
390.30, 7.39, 312.51
390.65, 7.40, 312.81
391.05, 7.41, 313.14
391.49, 7.41, 313.52
392.01, 7.42, 313.95
392.60, 7.44, 314.45
393.26, 7.45, 315.01
394.03, 7.48, 315.66
394.98, 7.50, 316.46
396.17, 7.52, 317.46
387.58, 7.47, 310.14
387.69, 7.47, 310.23
387.82, 7.47, 310.33
387.95, 7.47, 310.44
388.08, 7.48, 310.55
388.23, 7.48, 310.67
388.39, 7.48, 310.81
388.87, 7.35, 311.20
389.07, 7.36, 311.36
389.28, 7.36, 311.54
389.51, 7.37, 311.73
389.77, 7.38, 311.94
390.05, 7.38, 312.17
390.36, 7.39, 312.42
390.72, 7.40, 312.71
391.11, 7.41, 313.04
391.57, 7.42, 313.41
392.08, 7.43, 313.84
392.67, 7.44, 314.32
393.34, 7.46, 314.87
394.12, 7.48, 315.51
395.08, 7.50, 316.29
396.28, 7.52, 317.28
397.57, 7.58, 318.33
387.61, 7.47, 310.10
387.73, 7.47, 310.19
387.85, 7.47, 310.29
387.98, 7.47, 310.39
388.12, 7.48, 310.50
388.27, 7.48, 310.62
388.43, 7.48, 310.75
388.92, 7.35, 311.14
389.12, 7.36, 311.30
389.33, 7.36, 311.47
389.57, 7.37, 311.66
¯389.83, 7.38, 311.86
390.11, 7.38, 312.09
390.42, 7.39, 312.34
390.78, 7.40, 312.62
391.18, 7.41, 312.94
391.64, 7.42, 313.31
392.16, 7.43, 313.72
392.75, 7.44, 314.19
393.42, 7.46, 314.73
394.21, 7.48, 315.36
395.18, 7.50, 316.13
396.38, 7.52, 317.09
397.66, 7.58, 318.11
387.65, 7.47, 310.05
387.76, 7.47, 310.14
387.89, 7.47, 310.24
388.02, 7.48, 310.34
388.16, 7.48, 310.45
388.31, 7.48, 310.57
388.48, 7.48, 310.69
388.65, 7.48, 310.83
389.17, 7.36, 311.23
389.38, 7.36, 311.40
389.62, 7.37, 311.58
389.88, 7.38, 311.78
390.17, 7.38, 312.01
390.49, 7.39, 312.25
390.84, 7.40, 312.53
391.25, 7.41, 312.84
391.71, 7.42, 313.20
392.23, 7.43, 313.61
392.83, 7.44, 314.07
393.50, 7.46, 314.59
394.29, 7.48, 315.20
395.27, 7.50, 315.96
396.49, 7.53, 316.90
397.75, 7.59, 317.89
387.68, 7.47, 310.01
387.80, 7.47, 310.09
387.92, 7.47, 310.19
388.06, 7.48, 310.29
388.20, 7.48, 310.40
388.35, 7.48, 310.51
388.52, 7.48, 310.64
388.69, 7.49, 310.77
389.21, 7.36, 311.16
389.43, 7.36, 311.33
389.67, 7.37, 311.51
389.94, 7.38, 311.71
390.23, 7.39, 311.93
390.55, 7.39, 312.17
¯390.90, 7.40, 312.44
391.31, 7.41, 312.74
391.77, 7.42, 313.09
392.30, 7.43, 313.49
392.90, 7.44, 313.94
393.58, 7.46, 314.45
394.38, 7.49, 315.05
395.37, 7.51, 315.80
396.58, 7.53, 316.71
397.86, 7.59, 317.68
387.71, 7.47, 309.96
387.83, 7.47, 310.05
387.96, 7.47, 310.14
388.09, 7.48, 310.24
388.24, 7.48, 310.34
388.39, 7.48, 310.46
388.56, 7.48, 310.58
388.73, 7.49, 310.71
388.93, 7.49, 310.85
389.48, 7.36, 311.26
389.73, 7.37, 311.44
389.99, 7.38, 311.63
390.28, 7.39, 311.84
390.61, 7.39, 312.08
390.97, 7.40, 312.34
391.37, 7.41, 312.64
391.84, 7.42, 312.98
392.37, 7.43, 313.37
392.97, 7.45, 313.81
393.66, 7.46, 314.31
394.46, 7.49, 314.90
395.46, 7.51, 315.63
396.67, 7.53, 316.52
398.01, 7.59, 317.50
387.74, 7.47, 309.92
387.86, 7.47, 310.00
387.99, 7.47, 310.09
388.13, 7.48, 310.19
388.27, 7.48, 310.29
388.43, 7.48, 310.40
388.59, 7.48, 310.52
388.77, 7.49, 310.65
388.97, 7.49, 310.79
389.53, 7.37, 311.19
389.78, 7.37, 311.36
390.04, 7.38, 311.55
390.34, 7.39, 311.76
390.67, 7.39, 311.99
391.03, 7.40, 312.25
391.44, 7.41, 312.54
391.91, 7.42, 312.88
¯392.45, 7.43, 313.26
393.05, 7.45, 313.68
393.73, 7.47, 314.17
394.54, 7.49, 314.75
395.56, 7.51, 315.47
396.80, 7.53, 316.35
398.16, 7.58, 317.31
387.77, 7.47, 309.87
387.89, 7.47, 309.95
388.02, 7.47, 310.04
388.16, 7.48, 310.14
388.31, 7.48, 310.24
388.46, 7.48, 310.35
388.63, 7.48, 310.46
388.81, 7.49, 310.59
389.01, 7.49, 310.72
389.22, 7.49, 310.87
389.83, 7.37, 311.29
390.10, 7.38, 311.47
390.39, 7.39, 311.68
390.72, 7.39, 311.90
391.09, 7.40, 312.16
391.50, 7.41, 312.44
391.97, 7.42, 312.77
392.51, 7.43, 313.14
393.12, 7.45, 313.55
393.81, 7.47, 314.03
394.63, 7.49, 314.60
395.65, 7.51, 315.30
396.90, 7.53, 316.16
398.31, 7.58, 317.13
400.01, 7.65, 318.31
387.80, 7.47, 309.82
387.93, 7.47, 309.91
388.06, 7.47, 309.99
388.19, 7.48, 310.09
388.34, 7.48, 310.18
388.50, 7.48, 310.29
388.67, 7.48, 310.40
388.85, 7.49, 310.53
389.05, 7.49, 310.66
389.27, 7.50, 310.80
389.87, 7.37, 311.21
390.15, 7.38, 311.39
390.45, 7.39, 311.59
390.78, 7.39, 311.82
391.15, 7.40, 312.06
391.56, 7.41, 312.34
392.04, 7.42, 312.66
392.58, 7.43, 313.02
393.19, 7.45, 313.43
¯393.88, 7.47, 313.89
394.71, 7.49, 314.45
395.74, 7.51, 315.14
397.00, 7.54, 315.98
398.45, 7.58, 316.95
400.18, 7.64, 318.10
387.83, 7.47, 309.78
387.96, 7.47, 309.86
388.09, 7.47, 309.94
388.23, 7.48, 310.03
388.38, 7.48, 310.13
388.54, 7.48, 310.23
388.71, 7.48, 310.34
388.89, 7.49, 310.46
389.09, 7.49, 310.59
389.31, 7.50, 310.74
389.54, 7.50, 310.89
390.20, 7.38, 311.31
390.50, 7.39, 311.51
390.84, 7.39, 311.73
391.21, 7.40, 311.97
391.63, 7.41, 312.24
392.10, 7.43, 312.55
392.65, 7.44, 312.90
393.26, 7.45, 313.30
393.96, 7.47, 313.76
394.80, 7.49, 314.30
395.83, 7.51, 314.97
397.09, 7.54, 315.79
398.60, 7.58, 316.77
400.34, 7.64, 317.90
404.17, 7.60, 320.38
387.86, 7.47, 309.73
387.99, 7.47, 309.81
388.12, 7.48, 309.89
388.26, 7.48, 309.98
388.41, 7.48, 310.08
388.57, 7.48, 310.18
388.74, 7.48, 310.29
388.93, 7.49, 310.40
389.13, 7.49, 310.53
389.35, 7.50, 310.67
389.59, 7.50, 310.82
390.25, 7.38, 311.23
390.55, 7.39, 311.43
390.89, 7.39, 311.64
391.27, 7.40, 311.88
391.69, 7.41, 312.14
392.17, 7.43, 312.44
392.71, 7.44, 312.78
393.33, 7.45, 313.17
¯394.05, 7.47, 313.62
394.89, 7.49, 314.16
395.92, 7.52, 314.80
397.19, 7.54, 315.60
398.74, 7.57, 316.58
400.57, 7.63, 317.73
403.48, 7.66, 319.57
387.89, 7.47, 309.68
388.02, 7.47, 309.76
388.15, 7.48, 309.84
388.29, 7.48, 309.93
388.44, 7.48, 310.02
388.61, 7.48, 310.12
388.78, 7.49, 310.23
388.97, 7.49, 310.34
389.17, 7.49, 310.46
389.39, 7.50, 310.60
389.63, 7.50, 310.74
389.89, 7.51, 310.91
390.61, 7.39, 311.34
390.95, 7.40, 311.55
391.33, 7.40, 311.78
391.75, 7.41, 312.04
392.23, 7.43, 312.33
392.78, 7.44, 312.66
393.40, 7.46, 313.05
394.13, 7.47, 313.49
394.98, 7.49, 314.01
396.01, 7.52, 314.64
397.29, 7.54, 315.42
398.89, 7.57, 316.39
400.83, 7.62, 317.58
403.28, 7.69, 319.08
387.92, 7.47, 309.64
388.05, 7.47, 309.71
388.18, 7.48, 309.79
388.32, 7.48, 309.88
388.48, 7.48, 309.97
388.64, 7.48, 310.06
388.81, 7.49, 310.17
389.00, 7.49, 310.28
389.21, 7.49, 310.40
389.43, 7.50, 310.53
389.67, 7.50, 310.67
389.94, 7.51, 310.83
390.66, 7.39, 311.26
391.00, 7.40, 311.46
391.38, 7.40, 311.68
391.81, 7.41, 311.94
392.30, 7.43, 312.22
392.84, 7.44, 312.55
¯393.48, 7.46, 312.92
394.21, 7.47, 313.35
395.07, 7.49, 313.86
396.09, 7.52, 314.47
397.38, 7.54, 315.23
398.99, 7.57, 316.18
401.10, 7.61, 317.43
403.56, 7.68, 318.89
387.95, 7.47, 309.59
388.08, 7.47, 309.66
388.21, 7.48, 309.74
388.35, 7.48, 309.82
388.51, 7.48, 309.91
388.67, 7.48, 310.00
388.85, 7.49, 310.10
389.04, 7.49, 310.21
389.24, 7.49, 310.33
389.47, 7.50, 310.46
389.71, 7.50, 310.60
389.98, 7.51, 310.75
390.27, 7.51, 310.92
391.05, 7.40, 311.37
391.44, 7.40, 311.59
391.87, 7.42, 311.84
392.35, 7.43, 312.11
392.91, 7.44, 312.43
393.55, 7.46, 312.80
394.29, 7.47, 313.22
395.15, 7.49, 313.72
396.19, 7.52, 314.31
397.47, 7.54, 315.05
399.09, 7.58, 315.97
401.33, 7.60, 317.25
403.85, 7.67, 318.70
387.98, 7.47, 309.54
388.10, 7.47, 309.61
388.24, 7.48, 309.69
388.38, 7.48, 309.77
388.54, 7.48, 309.85
388.70, 7.48, 309.95
388.88, 7.49, 310.04
389.07, 7.49, 310.15
389.28, 7.49, 310.27
389.51, 7.50, 310.39
389.75, 7.50, 310.53
390.02, 7.51, 310.67
390.32, 7.52, 310.84
391.11, 7.40, 311.28
391.50, 7.40, 311.49
391.93, 7.42, 311.73
392.41, 7.43, 312.00
¯392.97, 7.44, 312.31
393.62, 7.46, 312.67
394.37, 7.47, 313.08
395.24, 7.49, 313.57
396.27, 7.52, 314.14
397.57, 7.55, 314.86
399.20, 7.58, 315.76
401.47, 7.60, 317.02
404.14, 7.66, 318.50
388.00, 7.47, 309.49
388.13, 7.47, 309.56
388.27, 7.48, 309.64
388.41, 7.48, 309.71
388.57, 7.48, 309.80
388.74, 7.48, 309.89
388.91, 7.49, 309.98
389.11, 7.49, 310.09
389.32, 7.49, 310.20
389.54, 7.50, 310.32
389.79, 7.50, 310.45
390.06, 7.51, 310.60
390.36, 7.52, 310.76
390.69, 7.52, 310.93
391.55, 7.41, 311.39
391.98, 7.42, 311.63
392.46, 7.43, 311.89
393.03, 7.44, 312.19
393.69, 7.46, 312.54
394.44, 7.47, 312.95
395.32, 7.49, 313.42
396.35, 7.52, 313.97
397.66, 7.55, 314.67
399.30, 7.58, 315.55
401.61, 7.60, 316.79
404.55, 7.64, 318.37
388.03, 7.47, 309.44
388.16, 7.47, 309.51
388.30, 7.48, 309.58
388.44, 7.48, 309.66
388.60, 7.48, 309.74
388.77, 7.48, 309.83
388.95, 7.49, 309.92
389.14, 7.49, 310.02
389.35, 7.49, 310.13
389.58, 7.50, 310.25
389.83, 7.50, 310.38
390.10, 7.51, 310.52
390.40, 7.52, 310.68
390.73, 7.52, 310.85
391.60, 7.41, 311.29
392.03, 7.42, 311.52
¯392.52, 7.43, 311.77
393.09, 7.44, 312.07
393.76, 7.46, 312.42
394.52, 7.47, 312.81
395.40, 7.50, 313.27
396.43, 7.52, 313.80
397.75, 7.55, 314.49
398.00, 7.73, 314.62
397.91, 7.95, 314.57
397.91, 8.16, 314.57
397.91, 8.37, 314.57
397.91, 8.58, 314.57
388.05, 7.47, 309.40
388.18, 7.47, 309.46
388.32, 7.48, 309.53
388.47, 7.48, 309.60
388.63, 7.48, 309.68
388.80, 7.48, 309.77
388.98, 7.49, 309.86
389.17, 7.49, 309.96
389.39, 7.50, 310.06
389.62, 7.50, 310.18
389.87, 7.51, 310.30
390.14, 7.51, 310.44
390.44, 7.52, 310.59
390.77, 7.53, 310.76
391.14, 7.53, 310.94
392.08, 7.42, 311.41
392.57, 7.43, 311.66
393.15, 7.45, 311.95
393.82, 7.46, 312.29
394.59, 7.47, 312.67
395.47, 7.50, 313.11
396.51, 7.53, 313.63
397.84, 7.55, 314.30
397.98, 7.75, 314.37
397.92, 7.96, 314.34
397.92, 8.17, 314.34
397.92, 8.38, 314.34
397.92, 8.59, 314.34
388.08, 7.47, 309.35
388.21, 7.47, 309.41
388.35, 7.48, 309.48
388.50, 7.48, 309.55
388.66, 7.48, 309.63
388.83, 7.48, 309.71
389.01, 7.49, 309.80
389.21, 7.49, 309.89
389.42, 7.50, 310.00
389.65, 7.50, 310.11
389.90, 7.51, 310.23
¯390.18, 7.51, 310.36
390.48, 7.52, 310.51
390.82, 7.53, 310.67
391.19, 7.53, 310.85
392.13, 7.42, 311.31
392.63, 7.44, 311.55
393.21, 7.45, 311.83
393.89, 7.46, 312.16
394.66, 7.47, 312.53
395.54, 7.50, 312.96
396.59, 7.53, 313.46
397.93, 7.55, 314.11
398.10, 7.74, 314.20
398.03, 7.96, 314.17
398.03, 8.17, 314.17
398.03, 8.38, 314.17
398.03, 8.59, 314.17
388.10, 7.47, 309.30
388.24, 7.47, 309.36
388.38, 7.48, 309.42
388.53, 7.48, 309.49
388.69, 7.48, 309.57
388.86, 7.48, 309.65
389.04, 7.49, 309.73
389.24, 7.49, 309.83
389.45, 7.50, 309.93
389.68, 7.50, 310.03
389.94, 7.51, 310.15
390.22, 7.51, 310.28
390.52, 7.52, 310.43
390.86, 7.53, 310.58
391.23, 7.54, 310.76
391.65, 7.55, 310.95
392.68, 7.44, 311.43
393.27, 7.45, 311.71
393.95, 7.46, 312.02
394.73, 7.48, 312.39
395.61, 7.50, 312.80
396.67, 7.53, 313.29
398.02, 7.55, 313.92
399.78, 7.58, 314.75
398.32, 7.94, 314.07
398.32, 8.16, 314.07
398.31, 8.37, 314.07
398.31, 8.58, 314.07
388.13, 7.47, 309.25
388.26, 7.47, 309.31
388.40, 7.48, 309.37
388.55, 7.48, 309.44
388.71, 7.48, 309.51
388.88, 7.49, 309.59
¯389.07, 7.49, 309.67
389.27, 7.49, 309.76
389.48, 7.50, 309.86
389.72, 7.50, 309.96
389.97, 7.51, 310.08
390.25, 7.51, 310.20
390.56, 7.52, 310.34
390.90, 7.53, 310.49
391.27, 7.54, 310.66
391.69, 7.55, 310.85
392.16, 7.56, 311.06
393.33, 7.45, 311.58
394.01, 7.46, 311.89
394.79, 7.48, 312.24
395.68, 7.50, 312.64
396.75, 7.53, 313.12
398.11, 7.56, 313.74
399.90, 7.58, 314.54
402.31, 7.60, 315.63
388.15, 7.47, 309.20
388.28, 7.47, 309.25
388.43, 7.48, 309.32
388.58, 7.48, 309.38
388.74, 7.48, 309.45
388.91, 7.49, 309.53
389.10, 7.49, 309.61
389.30, 7.49, 309.70
389.52, 7.50, 309.79
389.75, 7.50, 309.89
390.01, 7.51, 310.00
390.29, 7.51, 310.12
390.60, 7.52, 310.26
390.94, 7.53, 310.40
391.32, 7.54, 310.57
391.74, 7.55, 310.75
392.20, 7.56, 310.95
393.38, 7.45, 311.46
394.07, 7.46, 311.76
394.85, 7.48, 312.10
395.75, 7.51, 312.49
396.83, 7.53, 312.95
398.19, 7.56, 313.55
400.02, 7.58, 314.34
402.46, 7.60, 315.39
388.17, 7.47, 309.15
388.31, 7.48, 309.20
388.45, 7.48, 309.26
388.60, 7.48, 309.33
388.77, 7.48, 309.39
388.94, 7.49, 309.47
389.13, 7.49, 309.54
¯389.33, 7.49, 309.63
389.55, 7.50, 309.72
389.78, 7.50, 309.82
390.04, 7.51, 309.93
390.33, 7.51, 310.04
390.63, 7.52, 310.17
390.98, 7.53, 310.32
391.36, 7.54, 310.47
391.78, 7.55, 310.65
392.25, 7.56, 310.85
392.79, 7.58, 311.07
394.13, 7.46, 311.63
394.91, 7.48, 311.96
395.81, 7.51, 312.33
396.90, 7.53, 312.78
398.28, 7.56, 313.36
400.12, 7.58, 314.13
402.61, 7.60, 315.16
388.19, 7.47, 309.10
388.33, 7.48, 309.15
388.47, 7.48, 309.21
388.63, 7.48, 309.27
388.79, 7.48, 309.33
388.97, 7.49, 309.40
389.15, 7.49, 309.48
389.36, 7.49, 309.56
389.58, 7.50, 309.65
389.81, 7.50, 309.74
390.08, 7.51, 309.85
390.36, 7.51, 309.96
390.67, 7.52, 310.09
391.01, 7.53, 310.23
391.40, 7.54, 310.38
391.82, 7.55, 310.55
392.29, 7.56, 310.74
392.84, 7.58, 310.96
394.19, 7.46, 311.49
394.97, 7.48, 311.81
395.88, 7.51, 312.17
396.98, 7.54, 312.61
398.36, 7.56, 313.17
400.23, 7.58, 313.92
402.77, 7.60, 314.93
388.22, 7.47, 309.04
388.35, 7.48, 309.10
388.50, 7.48, 309.15
388.65, 7.48, 309.21
388.82, 7.48, 309.28
388.99, 7.49, 309.34
389.18, 7.49, 309.42
389.39, 7.49, 309.49
¯389.60, 7.50, 309.58
389.85, 7.50, 309.67
390.11, 7.51, 309.77
390.39, 7.52, 309.88
390.70, 7.52, 310.00
391.05, 7.53, 310.14
391.44, 7.54, 310.28
391.86, 7.55, 310.45
392.34, 7.57, 310.63
392.89, 7.58, 310.84
393.54, 7.59, 311.09
395.03, 7.49, 311.66
395.94, 7.51, 312.01
397.05, 7.54, 312.44
398.45, 7.56, 312.98
400.33, 7.58, 313.70
402.89, 7.60, 314.68
388.24, 7.47, 308.99
388.37, 7.48, 309.04
388.52, 7.48, 309.10
388.67, 7.48, 309.15
388.84, 7.48, 309.22
389.02, 7.49, 309.28
389.21, 7.49, 309.35
389.41, 7.49, 309.43
389.63, 7.50, 309.51
389.88, 7.50, 309.60
390.14, 7.51, 309.69
390.43, 7.52, 309.80
390.74, 7.52, 309.92
391.09, 7.53, 310.04
391.47, 7.54, 310.19
391.90, 7.55, 310.34
392.38, 7.57, 310.52
392.94, 7.58, 310.73
393.59, 7.59, 310.97
395.09, 7.49, 311.52
396.00, 7.51, 311.86
397.13, 7.54, 312.27
398.54, 7.56, 312.79
400.44, 7.58, 313.49
403.00, 7.60, 314.43
388.26, 7.47, 308.94
388.39, 7.48, 308.99
