žVERSION 0.7
FIELDS x y z
SIZE 8 8 8
TYPE F F F
COUNT 1 1 1
WIDTH 2271
HEIGHT 1
VIEWPOINT 355.58, 7.09, 355.03 1 341.14, 2.10, 368.88
POINTS 2271
DATA ascii
337.17, 0.25, 370.25
336.90, 0.27, 370.37
336.27, 0.18, 370.65
335.99, 0.21, 370.78
335.58, 0.22, 370.97
335.00, 0.20, 371.23
334.66, 0.24, 371.39
334.32, 0.30, 371.55
333.57, 0.29, 371.89
332.79, 0.30, 372.25
331.90, 0.31, 372.65
330.82, 0.32, 373.14
329.36, 0.32, 373.81
326.31, 0.16, 375.19
323.70, 0.15, 376.37
320.44, 0.16, 377.86
337.69, 0.23, 370.10
337.46, 0.24, 370.21
337.22, 0.25, 370.32
336.96, 0.27, 370.45
336.68, 0.28, 370.58
336.04, 0.21, 370.88
335.65, 0.22, 371.06
335.02, 0.18, 371.36
334.62, 0.22, 371.55
334.38, 0.30, 371.66
333.66, 0.29, 372.01
¯332.91, 0.30, 372.36
332.04, 0.31, 372.77
330.96, 0.32, 373.28
329.53, 0.32, 373.96
326.54, 0.16, 375.36
323.96, 0.15, 376.58
320.77, 0.16, 378.09
337.74, 0.23, 370.16
337.51, 0.24, 370.28
337.27, 0.25, 370.39
337.02, 0.27, 370.52
336.74, 0.28, 370.66
336.09, 0.20, 370.97
335.69, 0.21, 371.17
335.05, 0.17, 371.48
334.58, 0.19, 371.71
334.45, 0.29, 371.78
333.76, 0.29, 372.12
333.03, 0.30, 372.47
332.18, 0.32, 372.89
331.10, 0.32, 373.42
329.70, 0.32, 374.11
326.76, 0.16, 375.53
324.22, 0.15, 376.77
321.09, 0.16, 378.31
337.79, 0.23, 370.23
337.56, 0.24, 370.35
337.33, 0.25, 370.47
337.07, 0.27, 370.59
336.80, 0.28, 370.73
336.49, 0.30, 370.89
335.71, 0.20, 371.28
335.07, 0.15, 371.60
334.54, 0.16, 371.87
334.48, 0.28, 371.91
333.87, 0.29, 372.22
333.15, 0.30, 372.58
332.31, 0.32, 373.01
331.24, 0.32, 373.55
329.87, 0.31, 374.25
328.13, 0.31, 375.13
324.49, 0.15, 376.97
321.40, 0.15, 378.53
337.83, 0.23, 370.30
337.61, 0.24, 370.41
337.38, 0.25, 370.54
337.13, 0.27, 370.67
336.86, 0.28, 370.81
336.54, 0.29, 370.98
335.74, 0.18, 371.39
335.10, 0.14, 371.72
¯334.56, 0.14, 372.01
334.47, 0.26, 372.06
333.98, 0.29, 372.32
333.27, 0.31, 372.69
332.45, 0.32, 373.12
331.39, 0.32, 373.68
330.04, 0.31, 374.39
328.34, 0.31, 375.28
324.75, 0.14, 377.15
321.72, 0.15, 378.74
337.88, 0.23, 370.36
337.67, 0.24, 370.48
337.44, 0.25, 370.60
337.19, 0.27, 370.74
336.93, 0.28, 370.88
336.60, 0.29, 371.06
335.78, 0.17, 371.50
335.14, 0.13, 371.84
334.63, 0.13, 372.12
334.46, 0.23, 372.22
334.09, 0.30, 372.42
333.40, 0.31, 372.80
332.59, 0.32, 373.24
331.53, 0.32, 373.81
330.22, 0.31, 374.53
328.54, 0.31, 375.43
325.01, 0.14, 377.34
322.01, 0.14, 378.97
337.93, 0.23, 370.43
337.72, 0.24, 370.55
337.49, 0.25, 370.67
337.25, 0.27, 370.81
336.99, 0.28, 370.96
336.66, 0.29, 371.14
336.29, 0.29, 371.35
335.17, 0.11, 371.96
334.70, 0.13, 372.23
334.41, 0.20, 372.40
334.20, 0.30, 372.52
333.52, 0.31, 372.90
332.73, 0.32, 373.35
331.68, 0.32, 373.94
330.39, 0.31, 374.66
328.75, 0.31, 375.58
325.28, 0.14, 377.51
322.22, 0.13, 379.23
337.98, 0.23, 370.49
337.77, 0.24, 370.61
337.55, 0.25, 370.74
337.31, 0.27, 370.88
337.04, 0.28, 371.04
¯336.72, 0.29, 371.22
336.36, 0.29, 371.43
335.21, 0.10, 372.09
334.76, 0.12, 372.35
334.37, 0.17, 372.58
334.30, 0.30, 372.62
333.65, 0.31, 373.00
332.87, 0.32, 373.46
331.83, 0.32, 374.06
330.56, 0.31, 374.79
328.96, 0.30, 375.72
325.54, 0.14, 377.69
322.53, 0.12, 379.43
338.03, 0.23, 370.55
337.83, 0.24, 370.67
337.61, 0.25, 370.81
337.37, 0.27, 370.95
337.10, 0.28, 371.11
336.78, 0.28, 371.30
336.42, 0.29, 371.52
335.25, 0.09, 372.20
334.83, 0.11, 372.46
334.42, 0.16, 372.70
334.29, 0.27, 372.79
333.77, 0.31, 373.10
333.00, 0.32, 373.57
331.98, 0.32, 374.18
330.74, 0.31, 374.92
329.15, 0.30, 375.87
325.81, 0.14, 377.85
322.86, 0.12, 379.62
338.08, 0.23, 370.61
337.88, 0.24, 370.74
337.67, 0.25, 370.87
337.44, 0.27, 371.02
337.16, 0.28, 371.19
336.84, 0.28, 371.38
336.49, 0.28, 371.60
336.02, 0.27, 371.89
334.90, 0.11, 372.57
334.50, 0.15, 372.82
334.27, 0.24, 372.97
333.90, 0.31, 373.20
333.13, 0.32, 373.68
332.13, 0.32, 374.29
330.91, 0.31, 375.04
329.35, 0.30, 376.01
326.08, 0.14, 378.02
323.20, 0.12, 379.79
338.14, 0.23, 370.67
337.94, 0.24, 370.80
¯337.73, 0.25, 370.94
337.50, 0.27, 371.08
337.22, 0.27, 371.26
336.90, 0.28, 371.46
336.55, 0.28, 371.68
336.07, 0.26, 371.99
334.97, 0.10, 372.68
334.57, 0.14, 372.94
334.23, 0.21, 373.16
334.03, 0.31, 373.30
333.26, 0.32, 373.78
332.29, 0.32, 374.40
331.09, 0.31, 375.16
329.55, 0.30, 376.15
327.65, 0.29, 377.35
323.54, 0.12, 379.96
338.19, 0.23, 370.73
338.00, 0.24, 370.86
337.79, 0.25, 371.00
337.56, 0.27, 371.15
337.28, 0.27, 371.34
336.96, 0.27, 371.54
336.62, 0.28, 371.77
336.11, 0.25, 372.10
335.04, 0.09, 372.79
334.65, 0.13, 373.05
334.21, 0.18, 373.34
334.12, 0.31, 373.41
333.40, 0.32, 373.89
332.44, 0.32, 374.51
331.27, 0.31, 375.28
329.75, 0.30, 376.28
327.87, 0.29, 377.51
323.87, 0.12, 380.12
338.25, 0.23, 370.79
338.05, 0.24, 370.92
337.85, 0.25, 371.06
337.61, 0.26, 371.22
337.34, 0.27, 371.41
337.03, 0.27, 371.62
336.69, 0.28, 371.85
336.16, 0.24, 372.20
335.12, 0.08, 372.90
334.72, 0.13, 373.17
334.29, 0.17, 373.46
334.10, 0.28, 373.60
333.53, 0.32, 373.99
332.60, 0.32, 374.62
331.45, 0.31, 375.40
329.96, 0.30, 376.40
328.10, 0.28, 377.66
¯324.21, 0.12, 380.28
338.30, 0.23, 370.85
338.11, 0.24, 370.98
337.91, 0.25, 371.12
337.67, 0.26, 371.29
337.40, 0.26, 371.48
337.09, 0.27, 371.69
336.76, 0.27, 371.93
336.22, 0.23, 372.30
335.63, 0.19, 372.71
334.80, 0.12, 373.28
334.37, 0.16, 373.58
334.07, 0.25, 373.80
333.67, 0.32, 374.08
332.75, 0.32, 374.72
331.63, 0.31, 375.51
330.17, 0.30, 376.53
328.32, 0.28, 377.81
324.58, 0.12, 380.41
338.36, 0.23, 370.90
338.17, 0.24, 371.04
337.97, 0.25, 371.18
337.73, 0.26, 371.36
337.46, 0.26, 371.55
337.16, 0.27, 371.77
336.83, 0.27, 372.00
336.27, 0.22, 372.40
335.73, 0.19, 372.79
334.88, 0.11, 373.39
334.45, 0.15, 373.70
334.01, 0.21, 374.02
333.81, 0.32, 374.18
332.91, 0.32, 374.83
331.80, 0.31, 375.62
330.37, 0.29, 376.64
328.55, 0.28, 377.95
324.94, 0.12, 380.53
338.41, 0.23, 370.96
338.23, 0.24, 371.10
338.03, 0.25, 371.24
337.79, 0.26, 371.42
337.52, 0.26, 371.62
337.23, 0.26, 371.84
336.90, 0.27, 372.08
336.33, 0.21, 372.50
335.82, 0.19, 372.87
334.96, 0.10, 373.50
334.54, 0.14, 373.82
334.05, 0.18, 374.18
333.90, 0.31, 374.31
333.06, 0.32, 374.92
¯331.97, 0.31, 375.73
330.58, 0.29, 376.76
328.77, 0.27, 378.09
325.31, 0.12, 380.65
322.97, 0.20, 382.38
338.47, 0.23, 371.01
338.29, 0.24, 371.15
338.09, 0.25, 371.31
337.85, 0.25, 371.49
337.59, 0.26, 371.69
337.30, 0.26, 371.91
336.95, 0.26, 372.17
336.39, 0.20, 372.60
335.92, 0.19, 372.95
335.48, 0.20, 373.29
334.62, 0.13, 373.94
334.14, 0.17, 374.31
333.88, 0.28, 374.52
333.22, 0.32, 375.02
332.14, 0.31, 375.84
330.79, 0.29, 376.87
329.00, 0.27, 378.23
325.67, 0.12, 380.76
323.27, 0.19, 382.59
338.53, 0.22, 371.07
338.35, 0.24, 371.21
338.15, 0.25, 371.37
337.91, 0.25, 371.55
337.65, 0.25, 371.76
337.37, 0.26, 371.98
337.01, 0.25, 372.26
336.45, 0.19, 372.69
336.02, 0.19, 373.03
335.59, 0.20, 373.37
334.71, 0.12, 374.05
334.23, 0.17, 374.43
333.83, 0.24, 374.75
333.38, 0.32, 375.11
332.32, 0.31, 375.94
330.99, 0.29, 376.98
329.23, 0.26, 378.36
327.21, 0.27, 379.94
323.56, 0.18, 382.80
338.59, 0.22, 371.12
338.41, 0.24, 371.26
338.21, 0.24, 371.43
337.98, 0.25, 371.62
337.72, 0.25, 371.82
337.44, 0.25, 372.05
337.07, 0.24, 372.34
336.52, 0.18, 372.79
¯336.12, 0.19, 373.11
335.69, 0.20, 373.45
335.23, 0.22, 373.83
334.33, 0.16, 374.55
333.77, 0.20, 375.00
333.54, 0.32, 375.20
332.49, 0.30, 376.04
331.20, 0.29, 377.08
329.46, 0.26, 378.49
327.51, 0.27, 380.06
323.77, 0.16, 383.07
338.64, 0.22, 371.17
338.47, 0.24, 371.32
338.27, 0.24, 371.49
338.04, 0.25, 371.68
337.79, 0.25, 371.89
337.51, 0.25, 372.12
337.13, 0.23, 372.43
336.61, 0.18, 372.86
336.22, 0.19, 373.18
335.80, 0.20, 373.53
335.35, 0.22, 373.91
334.42, 0.15, 374.67
333.86, 0.18, 375.15
333.64, 0.31, 375.33
332.67, 0.30, 376.14
331.41, 0.29, 377.19
329.69, 0.26, 378.61
327.80, 0.26, 380.18
323.99, 0.14, 383.33
338.70, 0.22, 371.23
338.53, 0.24, 371.37
338.33, 0.24, 371.55
338.10, 0.24, 371.74
337.85, 0.24, 371.95
337.58, 0.25, 372.19
337.20, 0.22, 372.51
336.70, 0.18, 372.93
336.32, 0.19, 373.26
335.91, 0.20, 373.61
335.46, 0.22, 373.99
334.97, 0.24, 374.41
334.00, 0.18, 375.24
333.62, 0.27, 375.57
332.84, 0.30, 376.24
331.59, 0.29, 377.30
329.91, 0.25, 378.73
328.10, 0.26, 380.29
324.21, 0.11, 383.59
338.76, 0.22, 371.28
338.59, 0.23, 371.42
¯338.39, 0.24, 371.60
338.17, 0.24, 371.80
337.92, 0.24, 372.02
337.65, 0.25, 372.25
337.26, 0.22, 372.60
336.79, 0.18, 373.00
336.42, 0.19, 373.33
336.02, 0.20, 373.69
335.58, 0.22, 374.07
335.10, 0.24, 374.50
334.10, 0.17, 375.36
333.56, 0.23, 375.85
333.02, 0.30, 376.33
331.77, 0.28, 377.42
330.14, 0.25, 378.85
328.39, 0.26, 380.39
324.56, 0.11, 383.74
338.82, 0.22, 371.33
338.65, 0.23, 371.48
338.45, 0.23, 371.66
338.23, 0.24, 371.86
337.99, 0.24, 372.08
337.73, 0.24, 372.32
337.33, 0.21, 372.68
336.88, 0.18, 373.07
336.53, 0.19, 373.40
336.12, 0.20, 373.76
335.70, 0.22, 374.15
335.22, 0.24, 374.58
334.68, 0.27, 375.07
333.48, 0.18, 376.15
333.19, 0.30, 376.42
331.96, 0.28, 377.53
330.39, 0.25, 378.95
328.68, 0.26, 380.49
326.20, 0.25, 382.73
338.88, 0.22, 371.37
338.71, 0.23, 371.53
338.52, 0.23, 371.72
338.30, 0.23, 371.92
338.06, 0.24, 372.14
337.80, 0.24, 372.38
337.40, 0.20, 372.76
336.98, 0.18, 373.14
336.63, 0.19, 373.47
336.23, 0.20, 373.84
335.82, 0.22, 374.22
335.35, 0.24, 374.66
334.82, 0.26, 375.16
333.64, 0.17, 376.24
333.34, 0.29, 376.54
¯332.14, 0.27, 377.64
330.64, 0.25, 379.04
328.98, 0.26, 380.58
326.55, 0.24, 382.83
338.94, 0.22, 371.42
338.77, 0.23, 371.59
338.58, 0.23, 371.77
338.37, 0.23, 371.98
338.13, 0.23, 372.20
337.88, 0.24, 372.44
337.47, 0.20, 372.83
337.07, 0.18, 373.21
336.73, 0.19, 373.53
336.34, 0.19, 373.91
335.94, 0.22, 374.30
335.47, 0.24, 374.74
334.95, 0.26, 375.24
334.35, 0.29, 375.82
333.30, 0.25, 376.82
332.33, 0.27, 377.75
330.88, 0.25, 379.13
329.28, 0.26, 380.66
326.91, 0.24, 382.93
339.01, 0.22, 371.47
338.84, 0.22, 371.64
338.64, 0.23, 371.83
338.43, 0.23, 372.03
338.20, 0.23, 372.26
337.95, 0.23, 372.51
337.54, 0.19, 372.91
337.17, 0.17, 373.27
336.84, 0.18, 373.60
336.45, 0.19, 373.98
336.06, 0.21, 374.37
335.60, 0.23, 374.82
335.09, 0.26, 375.32
334.49, 0.28, 375.91
333.23, 0.20, 377.14
332.51, 0.26, 377.85
331.13, 0.24, 379.21
329.57, 0.26, 380.74
327.25, 0.24, 383.02
339.07, 0.22, 371.52
338.90, 0.22, 371.69
338.71, 0.23, 371.88
338.50, 0.23, 372.09
338.28, 0.23, 372.32
338.03, 0.23, 372.57
337.61, 0.18, 372.98
337.27, 0.17, 373.33
336.94, 0.18, 373.66
¯336.56, 0.19, 374.05
336.18, 0.21, 374.44
335.72, 0.23, 374.90
335.23, 0.26, 375.40
334.64, 0.28, 376.00
333.14, 0.14, 377.50
332.70, 0.26, 377.95
331.37, 0.24, 379.30
329.87, 0.26, 380.82
327.60, 0.23, 383.11
339.13, 0.22, 371.56
338.96, 0.22, 371.74
338.77, 0.22, 371.93
338.57, 0.22, 372.14
338.35, 0.23, 372.37
338.11, 0.23, 372.63
337.69, 0.18, 373.06
337.37, 0.17, 373.39
337.04, 0.18, 373.73
336.67, 0.19, 374.11
336.30, 0.21, 374.51
335.85, 0.23, 374.97
335.36, 0.25, 375.49
334.79, 0.28, 376.08
334.07, 0.29, 376.83
332.89, 0.25, 378.05
331.61, 0.24, 379.38
330.16, 0.26, 380.89
327.94, 0.23, 383.19
339.19, 0.22, 371.61
339.02, 0.22, 371.79
338.84, 0.22, 371.98
338.64, 0.22, 372.20
338.42, 0.22, 372.43
338.18, 0.22, 372.69
337.77, 0.17, 373.13
337.46, 0.17, 373.45
337.15, 0.18, 373.79
336.78, 0.19, 374.18
336.42, 0.21, 374.57
335.98, 0.23, 375.04
335.49, 0.25, 375.57
334.93, 0.27, 376.16
334.23, 0.29, 376.92
332.90, 0.21, 378.33
331.86, 0.24, 379.45
330.45, 0.26, 380.96
328.29, 0.23, 383.27
339.25, 0.21, 371.65
339.09, 0.22, 371.84
338.91, 0.22, 372.03
¯338.71, 0.22, 372.25
338.50, 0.22, 372.48
338.25, 0.22, 372.75
337.86, 0.17, 373.18
337.56, 0.17, 373.51
337.25, 0.18, 373.85
336.90, 0.19, 374.24
336.54, 0.21, 374.64
336.10, 0.22, 375.11
335.62, 0.24, 375.65
335.08, 0.27, 376.24
334.38, 0.28, 377.01
332.83, 0.16, 378.70
332.09, 0.24, 379.52
330.73, 0.25, 381.02
328.63, 0.23, 383.34
339.31, 0.21, 371.70
339.15, 0.21, 371.88
338.97, 0.22, 372.08
338.78, 0.22, 372.30
338.57, 0.22, 372.54
338.32, 0.21, 372.82
337.95, 0.17, 373.24
337.66, 0.17, 373.56
337.36, 0.18, 373.91
337.01, 0.19, 374.30
336.66, 0.21, 374.70
336.23, 0.22, 375.18
335.76, 0.24, 375.72
335.23, 0.27, 376.32
334.54, 0.28, 377.10
332.73, 0.09, 379.13
332.33, 0.24, 379.59
331.02, 0.25, 381.08
328.96, 0.22, 383.40
326.48, 0.23, 386.21
339.37, 0.21, 371.74
339.22, 0.21, 371.93
339.04, 0.21, 372.13
338.85, 0.21, 372.35
338.65, 0.22, 372.59
338.40, 0.21, 372.88
338.04, 0.17, 373.29
337.76, 0.17, 373.62
337.47, 0.18, 373.96
337.12, 0.19, 374.36
336.78, 0.21, 374.76
336.36, 0.22, 375.25
335.89, 0.24, 375.80
335.37, 0.26, 376.40
334.70, 0.27, 377.19
¯333.50, 0.20, 378.58
332.53, 0.23, 379.71
331.30, 0.25, 381.14
329.30, 0.22, 383.47
326.89, 0.23, 386.27
339.44, 0.21, 371.79
339.28, 0.21, 371.97
339.11, 0.21, 372.18
338.92, 0.21, 372.40
338.72, 0.21, 372.64
338.48, 0.20, 372.94
338.13, 0.17, 373.34
337.86, 0.17, 373.67
337.57, 0.18, 374.02
337.24, 0.18, 374.42
336.90, 0.20, 374.82
336.49, 0.22, 375.32
336.03, 0.23, 375.87
335.52, 0.26, 376.48
334.86, 0.27, 377.27
333.69, 0.20, 378.66
332.47, 0.17, 380.13
331.58, 0.25, 381.20
329.63, 0.22, 383.53
327.29, 0.22, 386.32
339.50, 0.20, 371.83
339.35, 0.21, 372.02
339.18, 0.21, 372.22
339.00, 0.21, 372.45
338.80, 0.21, 372.69
338.55, 0.20, 372.99
338.23, 0.16, 373.39
337.96, 0.17, 373.72
337.68, 0.18, 374.07
337.35, 0.18, 374.48
337.02, 0.20, 374.88
336.62, 0.21, 375.38
336.16, 0.23, 375.94
335.66, 0.25, 376.56
335.02, 0.26, 377.35
333.89, 0.20, 378.73
332.97, 0.22, 379.87
331.86, 0.25, 381.25
329.95, 0.22, 383.59
327.69, 0.22, 386.37
339.56, 0.20, 371.87
339.41, 0.20, 372.06
339.25, 0.21, 372.27
339.07, 0.21, 372.49
338.88, 0.21, 372.74
338.63, 0.19, 373.05
¯338.32, 0.16, 373.44
338.06, 0.17, 373.77
337.78, 0.18, 374.12
337.46, 0.18, 374.53
337.14, 0.20, 374.95
336.74, 0.21, 375.44
336.30, 0.23, 376.01
335.81, 0.25, 376.63
335.18, 0.26, 377.43
334.09, 0.19, 378.81
333.20, 0.22, 379.94
332.10, 0.25, 381.33
330.27, 0.21, 383.64
328.08, 0.21, 386.42
339.63, 0.20, 371.91
339.48, 0.20, 372.10
339.32, 0.20, 372.31
339.14, 0.20, 372.54
338.96, 0.20, 372.79
338.71, 0.19, 373.11
338.41, 0.16, 373.49
338.16, 0.17, 373.82
337.89, 0.17, 374.18
337.58, 0.18, 374.58
337.26, 0.20, 375.00
336.87, 0.21, 375.50
336.44, 0.22, 376.07
335.95, 0.24, 376.71
335.34, 0.25, 377.51
334.29, 0.19, 378.87
333.42, 0.21, 380.01
332.37, 0.24, 381.38
330.60, 0.21, 383.69
328.47, 0.21, 386.46
339.69, 0.20, 371.95
339.55, 0.20, 372.15
339.39, 0.20, 372.36
339.22, 0.20, 372.59
339.03, 0.20, 372.83
338.79, 0.18, 373.16
338.51, 0.16, 373.53
338.26, 0.16, 373.87
337.99, 0.17, 374.23
337.69, 0.18, 374.64
337.37, 0.19, 375.06
337.00, 0.21, 375.56
336.58, 0.22, 376.14
336.10, 0.24, 376.78
335.50, 0.25, 377.58
334.49, 0.19, 378.94
333.64, 0.21, 380.08
¯332.62, 0.24, 381.45
330.91, 0.21, 383.74
328.86, 0.21, 386.49
339.75, 0.20, 371.99
339.61, 0.20, 372.19
339.46, 0.20, 372.40
339.29, 0.20, 372.63
339.11, 0.20, 372.88
338.87, 0.18, 373.21
338.60, 0.16, 373.58
338.36, 0.16, 373.91
338.10, 0.17, 374.28
337.80, 0.18, 374.69
337.49, 0.19, 375.12
337.13, 0.20, 375.62
336.71, 0.22, 376.20
336.25, 0.23, 376.85
335.66, 0.24, 377.66
334.68, 0.18, 379.00
333.86, 0.21, 380.14
332.87, 0.24, 381.52
331.23, 0.20, 383.78
329.24, 0.20, 386.52
339.82, 0.19, 372.03
339.68, 0.19, 372.23
339.53, 0.20, 372.44
339.37, 0.20, 372.67
339.19, 0.20, 372.92
338.96, 0.18, 373.26
338.70, 0.16, 373.62
338.46, 0.16, 373.96
338.21, 0.17, 374.32
337.92, 0.17, 374.74
337.61, 0.19, 375.17
337.26, 0.20, 375.67
336.85, 0.21, 376.26
336.39, 0.23, 376.91
335.82, 0.24, 377.73
334.88, 0.18, 379.06
334.08, 0.20, 380.20
333.11, 0.23, 381.59
331.40, 0.18, 384.02
329.62, 0.20, 386.55
339.89, 0.19, 372.07
339.75, 0.19, 372.26
339.60, 0.19, 372.48
339.45, 0.19, 372.71
339.27, 0.19, 372.97
339.04, 0.17, 373.31
338.79, 0.16, 373.66
338.56, 0.16, 374.00
¯338.31, 0.17, 374.37
338.03, 0.17, 374.78
337.73, 0.19, 375.22
337.39, 0.20, 375.73
336.99, 0.21, 376.32
336.54, 0.22, 376.98
335.99, 0.23, 377.79
335.08, 0.18, 379.12
334.30, 0.20, 380.26
333.36, 0.22, 381.65
331.75, 0.18, 384.00
330.00, 0.19, 386.57
339.95, 0.19, 372.10
339.82, 0.19, 372.30
339.68, 0.19, 372.52
339.52, 0.19, 372.75
339.35, 0.19, 373.01
339.12, 0.17, 373.35
338.89, 0.16, 373.70
338.67, 0.16, 374.04
338.42, 0.17, 374.41
338.15, 0.17, 374.83
337.86, 0.18, 375.27
337.52, 0.19, 375.78
337.13, 0.20, 376.37
336.69, 0.22, 377.04
336.15, 0.23, 377.86
335.28, 0.18, 379.17
334.52, 0.20, 380.32
333.60, 0.22, 381.71
332.07, 0.18, 384.02
330.37, 0.19, 386.59
340.02, 0.19, 372.14
339.89, 0.19, 372.34
339.75, 0.19, 372.56
339.60, 0.19, 372.79
339.43, 0.19, 373.05
339.21, 0.17, 373.39
338.99, 0.16, 373.74
338.77, 0.16, 374.09
338.53, 0.16, 374.46
338.26, 0.17, 374.87
337.98, 0.18, 375.32
337.65, 0.19, 375.83
337.27, 0.20, 376.43
336.84, 0.21, 377.10
336.31, 0.22, 377.92
335.48, 0.17, 379.22
334.74, 0.19, 380.37
333.85, 0.21, 381.77
332.39, 0.18, 384.03
¯330.66, 0.17, 386.73
340.08, 0.18, 372.17
339.96, 0.19, 372.37
339.82, 0.19, 372.59
339.68, 0.19, 372.83
339.52, 0.19, 373.09
339.30, 0.16, 373.44
339.08, 0.15, 373.78
338.87, 0.16, 374.12
338.64, 0.16, 374.50
338.38, 0.17, 374.92
338.10, 0.18, 375.37
337.78, 0.19, 375.88
337.41, 0.20, 376.48
336.99, 0.21, 377.16
336.47, 0.21, 377.98
335.68, 0.17, 379.26
334.96, 0.19, 380.42
334.09, 0.21, 381.82
332.70, 0.18, 384.04
331.11, 0.18, 386.61
340.15, 0.18, 372.21
340.03, 0.18, 372.41
339.90, 0.18, 372.63
339.75, 0.18, 372.87
339.60, 0.18, 373.13
339.38, 0.16, 373.48
339.18, 0.15, 373.82
338.97, 0.16, 374.16
338.75, 0.16, 374.54
338.49, 0.17, 374.96
338.22, 0.18, 375.41
337.91, 0.19, 375.93
337.54, 0.19, 376.53
337.14, 0.20, 377.21
336.64, 0.21, 378.04
335.87, 0.17, 379.30
335.17, 0.18, 380.47
334.33, 0.20, 381.87
333.02, 0.18, 384.05
331.47, 0.18, 386.62
340.22, 0.18, 372.24
340.10, 0.18, 372.44
339.97, 0.18, 372.66
339.83, 0.18, 372.90
339.68, 0.18, 373.16
339.47, 0.16, 373.52
339.28, 0.15, 373.85
339.07, 0.16, 374.20
338.85, 0.16, 374.57
338.61, 0.16, 375.00
¯338.34, 0.17, 375.46
338.04, 0.18, 375.97
337.68, 0.19, 376.58
337.28, 0.20, 377.27
336.80, 0.20, 378.10
336.07, 0.17, 379.34
335.39, 0.18, 380.51
334.57, 0.20, 381.92
333.33, 0.18, 384.05
331.83, 0.18, 386.62
340.29, 0.18, 372.27
340.17, 0.18, 372.47
340.05, 0.18, 372.70
339.91, 0.18, 372.94
339.76, 0.18, 373.20
339.56, 0.16, 373.55
339.37, 0.15, 373.89
339.18, 0.15, 374.23
338.96, 0.16, 374.61
338.72, 0.16, 375.04
338.46, 0.17, 375.50
338.17, 0.18, 376.02
337.82, 0.19, 376.63
337.43, 0.19, 377.32
336.96, 0.20, 378.16
336.27, 0.16, 379.38
335.61, 0.18, 380.55
334.81, 0.20, 381.96
333.64, 0.18, 384.04
332.18, 0.17, 386.62
340.36, 0.18, 372.30
340.24, 0.18, 372.50
340.12, 0.18, 372.73
339.99, 0.18, 372.97
339.84, 0.18, 373.23
339.65, 0.15, 373.59
339.47, 0.15, 373.92
339.28, 0.15, 374.27
339.07, 0.16, 374.65
338.84, 0.16, 375.08
338.58, 0.17, 375.54
338.30, 0.18, 376.06
337.96, 0.18, 376.68
337.58, 0.19, 377.37
337.13, 0.19, 378.21
336.46, 0.16, 379.42
335.82, 0.17, 380.59
335.05, 0.19, 382.00
333.95, 0.18, 384.03
332.53, 0.17, 386.61
340.42, 0.17, 372.33
¯340.31, 0.17, 372.54
340.20, 0.17, 372.76
340.07, 0.17, 373.00
339.93, 0.17, 373.27
339.74, 0.15, 373.62
339.57, 0.15, 373.95
339.38, 0.15, 374.30
339.18, 0.16, 374.68
338.95, 0.16, 375.11
338.71, 0.17, 375.58
338.43, 0.17, 376.10
338.10, 0.18, 376.72
337.73, 0.19, 377.42
337.29, 0.19, 378.26
336.66, 0.16, 379.45
336.04, 0.17, 380.63
335.29, 0.19, 382.04
334.25, 0.18, 384.01
332.88, 0.17, 386.60
340.49, 0.17, 372.36
340.39, 0.17, 372.56
340.27, 0.17, 372.79
340.15, 0.17, 373.03
340.01, 0.17, 373.30
339.83, 0.15, 373.65
339.66, 0.15, 373.98
339.48, 0.15, 374.33
339.29, 0.15, 374.71
339.07, 0.16, 375.15
338.83, 0.16, 375.61
338.56, 0.17, 376.14
338.24, 0.17, 376.77
337.88, 0.18, 377.47
337.45, 0.18, 378.31
336.85, 0.16, 379.48
336.25, 0.17, 380.66
335.53, 0.18, 382.08
334.55, 0.18, 383.98
333.22, 0.16, 386.59
340.56, 0.17, 372.38
340.46, 0.17, 372.59
340.35, 0.17, 372.82
340.23, 0.17, 373.07
340.09, 0.17, 373.33
339.92, 0.15, 373.68
339.76, 0.15, 374.01
339.59, 0.15, 374.36
339.40, 0.15, 374.74
339.18, 0.15, 375.18
338.95, 0.16, 375.65
338.69, 0.17, 376.18
¯338.38, 0.17, 376.81
338.03, 0.18, 377.51
337.62, 0.18, 378.35
337.05, 0.16, 379.51
336.47, 0.16, 380.69
335.76, 0.18, 382.11
334.83, 0.18, 384.00
333.56, 0.16, 386.58
331.95, 0.17, 389.84
340.63, 0.17, 372.41
340.53, 0.17, 372.62
340.42, 0.17, 372.85
340.31, 0.17, 373.09
340.18, 0.17, 373.36
340.01, 0.15, 373.71
339.86, 0.15, 374.03
339.69, 0.15, 374.39
339.51, 0.15, 374.77
339.30, 0.15, 375.21
339.07, 0.16, 375.68
338.82, 0.16, 376.21
338.52, 0.17, 376.85
338.18, 0.17, 377.55
337.78, 0.17, 378.39
337.24, 0.15, 379.53
336.68, 0.16, 380.71
336.00, 0.17, 382.14
335.11, 0.17, 384.01
333.89, 0.16, 386.56
332.36, 0.16, 389.78
340.70, 0.16, 372.44
340.60, 0.16, 372.65
340.50, 0.16, 372.88
340.39, 0.16, 373.12
340.26, 0.16, 373.39
340.10, 0.15, 373.73
339.95, 0.15, 374.06
339.79, 0.15, 374.42
339.61, 0.15, 374.80
339.41, 0.15, 375.24
339.20, 0.16, 375.71
338.95, 0.16, 376.25
338.66, 0.16, 376.88
338.33, 0.17, 377.59
337.95, 0.17, 378.44
337.43, 0.15, 379.56
336.89, 0.16, 380.74
336.23, 0.17, 382.17
335.38, 0.17, 384.03
334.23, 0.16, 386.54
332.77, 0.16, 389.71
¯340.77, 0.16, 372.46
340.68, 0.16, 372.67
340.58, 0.16, 372.90
340.47, 0.16, 373.15
340.35, 0.16, 373.42
340.20, 0.15, 373.75
340.05, 0.15, 374.08
339.89, 0.15, 374.44
339.72, 0.15, 374.83
339.53, 0.15, 375.27
339.32, 0.15, 375.74
339.08, 0.16, 376.28
338.80, 0.16, 376.92
338.48, 0.16, 377.63
338.11, 0.16, 378.48
337.62, 0.15, 379.58
337.10, 0.15, 380.76
336.47, 0.16, 382.19
335.65, 0.16, 384.04
334.55, 0.15, 386.52
333.17, 0.16, 389.65
340.84, 0.16, 372.48
340.75, 0.16, 372.70
340.65, 0.16, 372.93
340.55, 0.16, 373.18
340.43, 0.16, 373.44
340.29, 0.15, 373.78
340.15, 0.14, 374.10
340.00, 0.14, 374.46
339.83, 0.15, 374.85
339.64, 0.15, 375.29
339.44, 0.15, 375.77
339.21, 0.15, 376.31
338.94, 0.15, 376.95
338.64, 0.16, 377.67
338.27, 0.16, 378.51
337.81, 0.15, 379.59
337.31, 0.15, 380.78
336.70, 0.16, 382.21
335.92, 0.16, 384.05
334.88, 0.15, 386.49
333.56, 0.16, 389.59
340.91, 0.16, 372.51
340.82, 0.16, 372.72
340.73, 0.16, 372.95
340.63, 0.16, 373.20
340.52, 0.16, 373.47
340.38, 0.15, 373.80
340.25, 0.14, 374.13
340.10, 0.14, 374.48
339.94, 0.15, 374.87
¯339.76, 0.14, 375.32
339.56, 0.15, 375.80
339.34, 0.15, 376.34
339.08, 0.15, 376.98
338.79, 0.15, 377.70
338.44, 0.15, 378.55
338.00, 0.15, 379.61
337.52, 0.15, 380.80
336.93, 0.15, 382.23
336.19, 0.15, 384.06
335.20, 0.15, 386.46
333.94, 0.15, 389.53
340.98, 0.16, 372.53
340.90, 0.16, 372.74
340.81, 0.15, 372.97
340.71, 0.15, 373.22
340.60, 0.15, 373.49
340.48, 0.14, 373.81
340.34, 0.14, 374.15
340.20, 0.14, 374.50
340.05, 0.14, 374.90
339.88, 0.14, 375.34
339.69, 0.15, 375.82
339.47, 0.15, 376.37
339.22, 0.15, 377.01
338.94, 0.15, 377.73
338.60, 0.15, 378.58
338.20, 0.14, 379.62
337.73, 0.14, 380.81
337.16, 0.15, 382.25
336.45, 0.15, 384.06
335.52, 0.15, 386.42
334.32, 0.15, 389.47
341.05, 0.15, 372.55
340.97, 0.15, 372.76
340.88, 0.15, 373.00
340.79, 0.15, 373.25
340.69, 0.15, 373.52
340.57, 0.14, 373.83
340.44, 0.14, 374.17
340.31, 0.14, 374.52
340.16, 0.14, 374.92
339.99, 0.14, 375.36
339.81, 0.14, 375.85
339.60, 0.14, 376.40
339.36, 0.14, 377.04
339.09, 0.14, 377.76
338.77, 0.14, 378.61
338.38, 0.14, 379.63
337.93, 0.14, 380.82
337.39, 0.14, 382.26
¯337.46, 0.38, 382.13
337.50, 0.61, 382.06
337.51, 0.82, 382.06
337.53, 1.04, 382.05
337.55, 1.26, 382.04
337.56, 1.47, 382.04
337.58, 1.69, 382.03
337.59, 1.90, 382.03
337.58, 2.11, 382.10
341.12, 0.15, 372.57
341.04, 0.15, 372.78
340.96, 0.15, 373.02
340.87, 0.15, 373.27
340.77, 0.15, 373.54
340.66, 0.15, 373.84
340.54, 0.14, 374.18
340.41, 0.14, 374.54
340.27, 0.14, 374.93
340.11, 0.14, 375.38
339.93, 0.14, 375.87
339.73, 0.14, 376.42
339.50, 0.14, 377.06
339.24, 0.14, 377.79
338.93, 0.14, 378.64
338.57, 0.14, 379.64
338.14, 0.14, 380.83
337.62, 0.14, 382.27
337.71, 0.39, 382.05
337.74, 0.61, 382.02
337.75, 0.82, 382.03
337.77, 1.04, 382.03
337.78, 1.25, 382.03
337.79, 1.46, 382.03
337.80, 1.67, 382.04
337.82, 1.89, 382.04
337.81, 2.10, 382.10
341.19, 0.15, 372.59
341.12, 0.15, 372.80
341.04, 0.15, 373.04
340.95, 0.15, 373.29
340.86, 0.15, 373.56
340.75, 0.14, 373.86
340.64, 0.14, 374.20
340.51, 0.14, 374.56
340.38, 0.14, 374.95
340.22, 0.14, 375.39
340.05, 0.14, 375.89
339.86, 0.14, 376.45
339.61, 0.12, 377.18
339.14, 0.00, 378.50
338.83, 0.00, 379.40
¯338.47, 0.00, 380.46
338.03, 0.00, 381.73
337.50, 0.00, 383.26
337.91, 0.37, 382.14
337.94, 0.59, 382.11
337.95, 0.81, 382.12
337.96, 1.02, 382.13
337.97, 1.23, 382.14
337.98, 1.45, 382.15
337.99, 1.66, 382.16
338.00, 1.87, 382.17
337.99, 2.09, 382.24
341.26, 0.15, 372.61
341.19, 0.15, 372.82
341.12, 0.15, 373.05
341.03, 0.14, 373.31
340.94, 0.14, 373.58
340.84, 0.14, 373.88
340.73, 0.14, 374.21
340.62, 0.14, 374.57
340.49, 0.14, 374.97
340.31, 0.12, 375.49
339.98, 0.00, 376.46
339.79, 0.00, 377.05
339.57, 0.00, 377.73
339.31, 0.00, 378.50
339.02, 0.00, 379.40
338.67, 0.00, 380.46
338.25, 0.00, 381.71
337.75, 0.00, 383.23
337.13, 0.00, 385.12
338.08, 0.56, 382.35
338.08, 0.78, 382.38
338.09, 0.99, 382.41
338.08, 1.20, 382.46
337.26, 1.30, 384.99
337.27, 1.55, 384.99
337.29, 1.81, 384.99
337.29, 2.06, 385.03
341.34, 0.15, 372.62
341.27, 0.14, 372.84
341.19, 0.14, 373.07
341.12, 0.14, 373.32
341.03, 0.14, 373.60
340.93, 0.14, 373.90
340.83, 0.14, 374.23
340.67, 0.10, 374.73
340.43, 0.00, 375.48
340.28, 0.00, 375.95
340.12, 0.00, 376.47
339.93, 0.00, 377.06
¯339.72, 0.00, 377.73
339.48, 0.00, 378.50
339.20, 0.00, 379.40
338.87, 0.00, 380.45
338.48, 0.00, 381.69
338.00, 0.00, 383.21
337.41, 0.00, 385.07
337.42, 0.25, 385.12
337.46, 0.52, 385.03
337.48, 0.77, 385.03
337.49, 1.03, 385.04
337.50, 1.28, 385.05
337.52, 1.54, 385.06
337.53, 1.79, 385.07
337.53, 2.04, 385.12
341.41, 0.14, 372.64
341.34, 0.14, 372.85
341.27, 0.14, 373.09
341.20, 0.14, 373.34
341.11, 0.14, 373.62
340.98, 0.10, 374.04
340.79, 0.00, 374.68
340.67, 0.00, 375.06
340.55, 0.00, 375.49
340.41, 0.00, 375.95
340.25, 0.00, 376.48
340.08, 0.00, 377.07
339.88, 0.00, 377.73
339.65, 0.00, 378.50
339.38, 0.00, 379.39
339.07, 0.00, 380.43
338.70, 0.00, 381.67
338.25, 0.00, 383.17
337.70, 0.00, 385.03
337.00, 0.00, 387.37
337.66, 0.49, 385.24
337.67, 0.75, 385.26
337.68, 1.00, 385.29
337.69, 1.26, 385.32
337.69, 1.51, 385.35
337.70, 1.77, 385.40
341.48, 0.14, 372.65
341.42, 0.14, 372.87
341.35, 0.14, 373.10
341.26, 0.11, 373.42
341.08, 0.00, 374.03
340.99, 0.00, 374.35
340.89, 0.00, 374.69
340.78, 0.00, 375.07
340.66, 0.00, 375.49
340.53, 0.00, 375.96
¯340.38, 0.00, 376.48
340.22, 0.00, 377.07
340.03, 0.00, 377.73
339.81, 0.00, 378.50
339.56, 0.00, 379.38
339.27, 0.00, 380.42
338.92, 0.00, 381.65
338.50, 0.00, 383.14
337.97, 0.00, 384.97
337.32, 0.00, 387.29
336.46, 0.00, 390.32
341.55, 0.14, 372.67
341.49, 0.14, 372.88
341.32, 0.00, 373.49
341.25, 0.00, 373.75
341.17, 0.00, 374.04
341.09, 0.00, 374.36
341.00, 0.00, 374.70
340.89, 0.00, 375.08
340.78, 0.00, 375.50
340.66, 0.00, 375.96
340.52, 0.00, 376.48
340.36, 0.00, 377.07
340.18, 0.00, 377.73
339.98, 0.00, 378.49
339.74, 0.00, 379.37
339.46, 0.00, 380.40
339.13, 0.00, 381.63
338.74, 0.00, 383.10
338.25, 0.00, 384.92
337.63, 0.00, 387.22
336.83, 0.00, 390.21
341.59, 0.09, 372.79
341.47, 0.00, 373.25
341.41, 0.00, 373.49
341.34, 0.00, 373.76
341.27, 0.00, 374.05
341.19, 0.00, 374.36
341.10, 0.00, 374.71
341.00, 0.00, 375.09
340.90, 0.00, 375.50
340.78, 0.00, 375.97
340.65, 0.00, 376.48
340.50, 0.00, 377.07
340.33, 0.00, 377.73
340.14, 0.00, 378.49
339.92, 0.00, 379.36
339.66, 0.00, 380.39
339.35, 0.00, 381.60
338.98, 0.00, 383.07
338.52, 0.00, 384.87
¯337.95, 0.00, 387.14
337.20, 0.00, 390.09
341.61, 0.00, 373.03
341.55, 0.00, 373.25
341.49, 0.00, 373.50
341.43, 0.00, 373.77
341.36, 0.00, 374.05
341.29, 0.00, 374.37
341.20, 0.00, 374.71
341.11, 0.00, 375.09
341.01, 0.00, 375.51
340.90, 0.00, 375.97
340.78, 0.00, 376.48
340.64, 0.00, 377.07
340.48, 0.00, 377.72
340.30, 0.00, 378.48
340.10, 0.00, 379.35
339.85, 0.00, 380.37
339.56, 0.00, 381.57
339.22, 0.00, 383.03
338.79, 0.00, 384.81
338.25, 0.00, 387.06
337.56, 0.00, 389.97
341.68, 0.00, 373.03
341.63, 0.00, 373.26
341.58, 0.00, 373.51
341.52, 0.00, 373.77
341.45, 0.00, 374.06
341.38, 0.00, 374.37
341.31, 0.00, 374.72
341.22, 0.00, 375.09
341.13, 0.00, 375.51
341.03, 0.00, 375.97
340.91, 0.00, 376.48
340.78, 0.00, 377.06
340.63, 0.00, 377.72
340.47, 0.00, 378.47
340.27, 0.00, 379.33
340.05, 0.00, 380.35
339.78, 0.00, 381.54
339.45, 0.00, 382.98
339.06, 0.00, 384.75
338.56, 0.00, 386.97
337.92, 0.00, 389.85
341.76, 0.00, 373.04
341.72, 0.00, 373.27
341.66, 0.00, 373.51
341.61, 0.00, 373.78
341.55, 0.00, 374.06
341.48, 0.00, 374.38
341.41, 0.00, 374.72
¯341.33, 0.00, 375.09
341.25, 0.00, 375.51
341.15, 0.00, 375.97
341.04, 0.00, 376.48
340.92, 0.00, 377.06
340.78, 0.00, 377.71
340.63, 0.00, 378.46
340.45, 0.00, 379.32
340.24, 0.00, 380.32
339.99, 0.00, 381.51
339.69, 0.00, 382.94
339.32, 0.00, 384.69
338.86, 0.00, 386.89
338.27, 0.00, 389.73
341.84, 0.00, 373.04
341.80, 0.00, 373.27
341.75, 0.00, 373.51
341.70, 0.00, 373.78
341.64, 0.00, 374.07
341.58, 0.00, 374.38
341.51, 0.00, 374.72
341.44, 0.00, 375.09
341.36, 0.00, 375.51
341.27, 0.00, 375.96
341.17, 0.00, 376.48
341.06, 0.00, 377.05
340.93, 0.00, 377.70
340.79, 0.00, 378.44
340.62, 0.00, 379.30
340.43, 0.00, 380.30
340.20, 0.00, 381.48
339.92, 0.00, 382.90
339.58, 0.00, 384.63
339.16, 0.00, 386.80
338.61, 0.00, 389.60
341.92, 0.00, 373.04
341.88, 0.00, 373.27
341.83, 0.00, 373.52
341.79, 0.00, 373.78
341.73, 0.00, 374.07
341.68, 0.00, 374.38
341.62, 0.00, 374.72
341.55, 0.00, 375.09
341.47, 0.00, 375.50
341.39, 0.00, 375.96
341.30, 0.00, 376.47
341.20, 0.00, 377.04
341.08, 0.00, 377.69
340.95, 0.00, 378.43
340.79, 0.00, 379.28
340.61, 0.00, 380.27
¯340.40, 0.00, 381.44
340.15, 0.00, 382.85
339.84, 0.00, 384.57
339.45, 0.00, 386.71
338.95, 0.00, 389.48
342.00, 0.00, 373.05
341.96, 0.00, 373.27
341.92, 0.00, 373.52
341.87, 0.00, 373.78
341.83, 0.00, 374.07
341.78, 0.00, 374.38
341.72, 0.00, 374.72
341.66, 0.00, 375.09
341.59, 0.00, 375.50
341.51, 0.00, 375.95
341.43, 0.00, 376.46
341.33, 0.00, 377.03
341.23, 0.00, 377.67
341.11, 0.00, 378.41
340.97, 0.00, 379.26
340.80, 0.00, 380.24
340.61, 0.00, 381.40
340.38, 0.00, 382.80
340.09, 0.00, 384.50
339.74, 0.00, 386.63
339.29, 0.00, 389.36
342.07, 0.00, 373.05
342.04, 0.00, 373.27
342.00, 0.00, 373.52
341.96, 0.00, 373.78
341.92, 0.00, 374.07
341.87, 0.00, 374.38
341.82, 0.00, 374.71
341.76, 0.00, 375.09
341.70, 0.00, 375.49
341.63, 0.00, 375.95
341.56, 0.00, 376.45
341.47, 0.00, 377.02
341.37, 0.00, 377.66
341.26, 0.00, 378.39
341.14, 0.00, 379.23
340.99, 0.00, 380.21
340.81, 0.00, 381.36
340.60, 0.00, 382.75
340.35, 0.00, 384.43
340.03, 0.00, 386.53
339.62, 0.00, 389.23
342.15, 0.00, 373.05
342.12, 0.00, 373.27
342.09, 0.00, 373.52
342.05, 0.00, 373.78
¯342.01, 0.00, 374.06
341.97, 0.00, 374.37
341.92, 0.00, 374.71
341.87, 0.00, 375.08
341.82, 0.00, 375.49
341.75, 0.00, 375.94
341.68, 0.00, 376.44
341.61, 0.00, 377.01
341.52, 0.00, 377.64
341.42, 0.00, 378.37
341.30, 0.00, 379.21
341.17, 0.00, 380.18
341.01, 0.00, 381.32
340.82, 0.00, 382.69
340.60, 0.00, 384.36
340.31, 0.00, 386.44
339.94, 0.00, 389.09
342.23, 0.00, 373.05
342.20, 0.00, 373.27
342.17, 0.00, 373.52
342.14, 0.00, 373.78
342.10, 0.00, 374.06
342.07, 0.00, 374.37
342.02, 0.00, 374.70
341.98, 0.00, 375.07
341.93, 0.00, 375.48
341.87, 0.00, 375.93
341.81, 0.00, 376.43
341.74, 0.00, 376.99
341.66, 0.00, 377.63
341.57, 0.00, 378.35
341.47, 0.00, 379.18
341.35, 0.00, 380.14
341.21, 0.00, 381.28
341.05, 0.00, 382.64
340.84, 0.00, 384.29
340.59, 0.00, 386.35
340.27, 0.00, 388.95
342.31, 0.00, 373.05
342.28, 0.00, 373.27
342.25, 0.00, 373.51
342.23, 0.00, 373.77
342.20, 0.00, 374.06
342.16, 0.00, 374.36
342.12, 0.00, 374.70
342.08, 0.00, 375.07
342.04, 0.00, 375.47
341.99, 0.00, 375.92
341.94, 0.00, 376.42
341.88, 0.00, 376.97
341.81, 0.00, 377.61
¯341.73, 0.00, 378.32
341.64, 0.00, 379.15
341.53, 0.00, 380.11
341.41, 0.00, 381.24
341.26, 0.00, 382.58
341.09, 0.00, 384.22
340.86, 0.00, 386.25
340.58, 0.00, 388.83
340.21, 0.00, 392.23
342.38, 0.00, 373.04
342.36, 0.00, 373.27
342.34, 0.00, 373.51
342.31, 0.00, 373.77
342.29, 0.00, 374.05
342.26, 0.00, 374.36
342.23, 0.00, 374.69
342.19, 0.00, 375.06
342.15, 0.00, 375.46
342.11, 0.00, 375.91
342.06, 0.00, 376.40
342.01, 0.00, 376.96
341.95, 0.00, 377.58
341.88, 0.00, 378.30
341.80, 0.00, 379.12
341.71, 0.00, 380.07
341.61, 0.00, 381.19
341.48, 0.00, 382.52
341.33, 0.00, 384.15
341.14, 0.00, 386.16
340.89, 0.00, 388.71
340.58, 0.01, 392.01
342.46, 0.00, 373.04
342.44, 0.00, 373.26
342.42, 0.00, 373.50
342.40, 0.00, 373.76
342.38, 0.00, 374.04
342.35, 0.00, 374.35
342.33, 0.00, 374.68
342.30, 0.00, 375.05
342.26, 0.00, 375.45
342.23, 0.00, 375.89
342.19, 0.00, 376.39
342.14, 0.00, 376.94
342.09, 0.00, 377.56
342.04, 0.00, 378.27
341.97, 0.00, 379.09
341.89, 0.00, 380.03
341.80, 0.00, 381.14
341.70, 0.00, 382.46
341.57, 0.00, 384.07
341.41, 0.00, 386.06
¯341.20, 0.00, 388.59
340.94, 0.01, 391.80
342.54, 0.00, 373.04
342.52, 0.00, 373.26
342.50, 0.00, 373.50
342.49, 0.00, 373.76
342.47, 0.00, 374.04
342.45, 0.00, 374.34
342.43, 0.00, 374.67
342.40, 0.00, 375.04
342.37, 0.00, 375.43
342.35, 0.00, 375.88
342.31, 0.00, 376.37
342.28, 0.00, 376.92
342.23, 0.00, 377.54
342.19, 0.00, 378.24
342.13, 0.00, 379.05
342.07, 0.00, 379.99
342.00, 0.00, 381.09
341.91, 0.00, 382.40
341.80, 0.00, 383.99
341.67, 0.00, 385.96
341.50, 0.00, 388.46
341.30, 0.01, 391.58
342.61, 0.00, 373.03
342.60, 0.00, 373.25
342.59, 0.00, 373.49
342.57, 0.00, 373.75
342.56, 0.00, 374.03
342.54, 0.00, 374.33
342.52, 0.00, 374.66
342.51, 0.00, 375.02
342.48, 0.00, 375.42
342.46, 0.00, 375.86
342.44, 0.00, 376.35
342.41, 0.00, 376.90
342.37, 0.00, 377.51
342.34, 0.00, 378.21
342.29, 0.00, 379.02
342.25, 0.00, 379.95
342.19, 0.00, 381.04
342.12, 0.00, 382.34
342.04, 0.01, 383.85
341.94, 0.01, 385.79
341.80, 0.00, 388.31
341.64, 0.02, 391.36
342.69, 0.00, 373.02
342.68, 0.00, 373.24
342.67, 0.00, 373.48
342.66, 0.00, 373.74
342.65, 0.00, 374.02
¯342.64, 0.00, 374.32
342.62, 0.00, 374.65
342.61, 0.00, 375.01
342.59, 0.00, 375.40
342.58, 0.00, 375.84
342.56, 0.00, 376.33
342.54, 0.00, 376.87
342.51, 0.00, 377.49
342.49, 0.00, 378.18
342.46, 0.00, 378.98
342.42, 0.00, 379.90
342.38, 0.00, 380.99
342.33, 0.00, 382.28
342.27, 0.02, 383.70
342.20, 0.02, 385.57
342.12, 0.05, 387.70
341.99, 0.02, 391.11
342.76, 0.00, 373.02
342.76, 0.00, 373.24
342.75, 0.00, 373.47
342.75, 0.00, 373.73
342.74, 0.00, 374.01
342.73, 0.00, 374.31
342.72, 0.00, 374.64
342.71, 0.00, 374.99
342.70, 0.00, 375.39
342.69, 0.00, 375.82
342.68, 0.00, 376.31
342.67, 0.00, 376.85
342.65, 0.00, 377.46
342.64, 0.00, 378.15
342.62, 0.00, 378.94
342.59, 0.00, 379.86
342.57, 0.00, 380.93
342.53, 0.00, 382.21
342.50, 0.03, 383.55
342.46, 0.04, 385.35
342.41, 0.09, 387.23
342.32, 0.02, 390.92
342.84, 0.00, 373.01
342.84, 0.00, 373.23
342.83, 0.00, 373.46
342.83, 0.00, 373.72
342.83, 0.00, 374.00
342.82, 0.00, 374.29
342.82, 0.00, 374.62
342.82, 0.00, 374.98
342.81, 0.00, 375.37
342.81, 0.00, 375.80
342.80, 0.00, 376.28
342.80, 0.00, 376.82
¯342.79, 0.00, 377.43
342.78, 0.00, 378.11
342.77, 0.00, 378.90
342.76, 0.00, 379.81
342.75, 0.00, 380.88
342.74, 0.00, 382.14
342.73, 0.03, 383.48
342.71, 0.04, 385.20
342.69, 0.09, 387.09
342.65, 0.02, 390.82
342.91, 0.00, 373.00
342.91, 0.00, 373.22
342.91, 0.00, 373.45
342.92, 0.00, 373.71
342.92, 0.00, 373.98
342.92, 0.00, 374.28
342.92, 0.00, 374.60
342.92, 0.00, 374.96
342.92, 0.00, 375.35
342.92, 0.00, 375.78
342.92, 0.00, 376.26
342.93, 0.00, 376.79
342.93, 0.00, 377.40
342.93, 0.00, 378.08
342.93, 0.00, 378.86
342.93, 0.00, 379.76
342.94, 0.00, 380.82
342.94, 0.00, 382.07
342.95, 0.02, 383.42
342.95, 0.05, 385.04
342.96, 0.09, 386.95
342.97, 0.01, 390.72
342.99, 0.00, 372.99
342.99, 0.00, 373.21
343.00, 0.00, 373.44
343.00, 0.00, 373.69
343.00, 0.00, 373.97
343.01, 0.00, 374.26
343.02, 0.00, 374.59
343.02, 0.00, 374.94
343.03, 0.00, 375.33
343.04, 0.00, 375.76
343.04, 0.00, 376.23
343.05, 0.00, 376.77
343.06, 0.00, 377.36
343.07, 0.00, 378.04
343.09, 0.00, 378.82
343.10, 0.00, 379.71
343.12, 0.00, 380.76
343.14, 0.00, 382.00
343.17, 0.02, 383.35
¯343.19, 0.05, 384.89
343.23, 0.09, 386.81
343.26, 0.23, 388.17
343.06, 0.00, 372.98
343.07, 0.00, 373.19
343.08, 0.00, 373.43
343.08, 0.00, 373.68
343.09, 0.00, 373.95
343.10, 0.00, 374.25
343.11, 0.00, 374.57
343.12, 0.00, 374.92
343.14, 0.00, 375.31
343.15, 0.00, 375.73
343.16, 0.00, 376.21
343.18, 0.00, 376.74
343.20, 0.00, 377.33
343.22, 0.00, 378.00
343.24, 0.00, 378.77
343.27, 0.00, 379.66
343.30, 0.00, 380.70
343.34, 0.00, 381.93
343.38, 0.02, 383.28
343.43, 0.06, 384.73
343.49, 0.10, 386.64
343.54, 0.23, 388.02
343.14, 0.00, 372.97
343.15, 0.00, 373.18
343.16, 0.00, 373.41
343.17, 0.00, 373.67
343.18, 0.00, 373.94
343.19, 0.00, 374.23
343.21, 0.00, 374.55
343.22, 0.00, 374.90
343.24, 0.00, 375.28
343.26, 0.00, 375.71
343.28, 0.00, 376.18
343.31, 0.00, 376.70
343.33, 0.00, 377.29
343.36, 0.00, 377.96
343.40, 0.00, 378.73
343.44, 0.00, 379.61
343.48, 0.00, 380.64
343.54, 0.00, 381.86
343.60, 0.02, 383.21
343.66, 0.07, 384.58
343.75, 0.10, 386.42
343.82, 0.23, 387.89
343.21, 0.00, 372.95
343.22, 0.00, 373.17
343.24, 0.00, 373.40
343.25, 0.00, 373.65
¯343.27, 0.00, 373.92
343.29, 0.00, 374.21
343.30, 0.00, 374.53
343.32, 0.00, 374.88
343.35, 0.00, 375.26
343.37, 0.00, 375.68
343.40, 0.00, 376.15
343.43, 0.00, 376.67
343.47, 0.00, 377.26
343.50, 0.00, 377.92
343.55, 0.00, 378.68
343.60, 0.00, 379.55
343.66, 0.00, 380.58
343.73, 0.00, 381.78
343.81, 0.02, 383.09
343.89, 0.08, 384.36
343.99, 0.13, 386.05
344.10, 0.22, 387.85
344.38, 0.11, 392.58
343.28, 0.00, 372.94
343.30, 0.00, 373.15
343.32, 0.00, 373.38
343.34, 0.00, 373.63
343.36, 0.00, 373.90
343.38, 0.00, 374.19
343.40, 0.00, 374.51
343.42, 0.00, 374.86
343.45, 0.00, 375.24
343.48, 0.00, 375.65
343.52, 0.00, 376.12
343.56, 0.00, 376.64
343.60, 0.00, 377.22
343.65, 0.00, 377.88
343.70, 0.00, 378.63
343.76, 0.00, 379.50
343.84, 0.00, 380.49
343.91, 0.03, 381.53
344.01, 0.04, 382.83
344.10, 0.10, 384.07
344.22, 0.16, 385.68
344.38, 0.21, 387.81
344.70, 0.12, 392.24
343.36, 0.00, 372.92
343.38, 0.00, 373.14
343.40, 0.00, 373.37
343.42, 0.00, 373.62
343.44, 0.00, 373.88
343.47, 0.00, 374.17
343.49, 0.00, 374.49
343.52, 0.00, 374.83
343.56, 0.00, 375.21
¯343.59, 0.00, 375.63
343.63, 0.00, 376.09
343.68, 0.00, 376.60
343.73, 0.00, 377.18
343.79, 0.00, 377.83
343.85, 0.00, 378.58
343.92, 0.01, 379.41
344.01, 0.01, 380.39
344.09, 0.06, 381.26
344.20, 0.08, 382.51
344.31, 0.13, 383.79
344.45, 0.18, 385.31
344.66, 0.19, 387.77
345.02, 0.13, 391.91
343.43, 0.00, 372.91
343.45, 0.00, 373.12
343.48, 0.00, 373.35
343.50, 0.00, 373.60
343.53, 0.00, 373.86
343.56, 0.00, 374.15
343.59, 0.00, 374.46
343.62, 0.00, 374.81
343.66, 0.00, 375.18
343.70, 0.00, 375.59
343.75, 0.00, 376.05
343.80, 0.00, 376.57
343.86, 0.00, 377.13
343.92, 0.00, 377.78
344.00, 0.00, 378.52
344.08, 0.01, 379.32
344.18, 0.02, 380.28
344.27, 0.06, 381.17
344.38, 0.11, 382.21
344.51, 0.15, 383.51
344.65, 0.22, 384.89
344.88, 0.24, 387.09
345.30, 0.17, 391.25
343.50, 0.00, 372.89
343.53, 0.00, 373.10
343.55, 0.00, 373.33
343.58, 0.00, 373.58
343.61, 0.00, 373.84
343.65, 0.00, 374.13
343.68, 0.00, 374.44
343.72, 0.00, 374.78
343.76, 0.00, 375.15
343.81, 0.00, 375.56
343.86, 0.00, 376.02
343.92, 0.00, 376.53
343.99, 0.00, 377.09
344.06, 0.00, 377.73
¯344.15, 0.00, 378.46
344.24, 0.01, 379.25
344.35, 0.02, 380.18
344.45, 0.06, 381.10
344.55, 0.14, 381.91
344.70, 0.17, 383.21
344.86, 0.24, 384.54
345.08, 0.29, 386.45
345.52, 0.23, 390.29
343.58, 0.00, 372.87
343.60, 0.00, 373.09
343.63, 0.00, 373.31
343.66, 0.00, 373.56
343.70, 0.00, 373.82
343.74, 0.00, 374.10
343.78, 0.00, 374.41
343.82, 0.00, 374.75
343.87, 0.00, 375.12
343.92, 0.00, 375.53
343.98, 0.00, 375.98
344.04, 0.00, 376.49
344.12, 0.00, 377.05
344.20, 0.00, 377.67
344.29, 0.01, 378.40
344.39, 0.01, 379.19
344.51, 0.03, 380.07
344.64, 0.06, 381.03
344.73, 0.15, 381.72
344.89, 0.20, 382.93
345.06, 0.26, 384.24
345.29, 0.32, 386.02
345.85, 0.21, 390.34
343.65, 0.00, 372.86
343.68, 0.00, 373.07
343.71, 0.00, 373.29
343.75, 0.00, 373.53
343.78, 0.00, 373.80
343.82, 0.00, 374.08
343.87, 0.00, 374.39
343.92, 0.00, 374.72
343.97, 0.00, 375.09
344.03, 0.00, 375.50
344.09, 0.00, 375.95
344.16, 0.00, 376.45
344.25, 0.00, 377.01
344.33, 0.01, 377.62
344.44, 0.01, 378.34
344.55, 0.01, 379.13
344.67, 0.03, 379.97
344.82, 0.05, 380.97
344.92, 0.15, 381.65
¯345.06, 0.22, 382.62
345.25, 0.28, 383.92
345.49, 0.35, 385.56
346.22, 0.16, 390.67
343.72, 0.00, 372.84
343.75, 0.00, 373.05
343.79, 0.00, 373.27
343.83, 0.00, 373.51
343.87, 0.00, 373.77
343.91, 0.00, 374.05
343.96, 0.00, 374.36
344.01, 0.00, 374.69
344.07, 0.00, 375.06
344.14, 0.00, 375.46
344.21, 0.00, 375.91
344.28, 0.00, 376.41
344.37, 0.00, 376.96
344.47, 0.01, 377.57
344.58, 0.01, 378.27
344.71, 0.01, 379.07
344.83, 0.04, 379.88
345.00, 0.05, 380.90
345.11, 0.14, 381.57
345.23, 0.25, 382.32
345.44, 0.31, 383.60
345.68, 0.38, 385.11
346.27, 0.30, 388.88
343.79, 0.00, 372.82
343.83, 0.00, 373.03
343.87, 0.00, 373.25
343.91, 0.00, 373.49
343.95, 0.00, 373.75
344.00, 0.00, 374.03
344.05, 0.00, 374.33
344.11, 0.00, 374.66
344.17, 0.00, 375.03
344.24, 0.00, 375.43
344.32, 0.00, 375.87
344.40, 0.00, 376.36
344.50, 0.00, 376.92
344.60, 0.01, 377.52
344.72, 0.01, 378.21
344.86, 0.01, 379.00
345.00, 0.04, 379.81
345.17, 0.05, 380.81
345.29, 0.14, 381.50
345.43, 0.24, 382.24
345.61, 0.33, 383.30
345.95, 0.35, 385.24
346.48, 0.33, 388.34
346.53, 0.61, 388.57
¯343.86, 0.00, 372.80
343.90, 0.00, 373.00
343.94, 0.00, 373.23
343.99, 0.00, 373.46
344.04, 0.00, 373.72
344.09, 0.00, 374.00
344.14, 0.00, 374.30
344.21, 0.00, 374.63
344.27, 0.00, 374.99
344.35, 0.00, 375.39
344.43, 0.00, 375.83
344.52, 0.00, 376.32
344.62, 0.00, 376.87
344.74, 0.00, 377.47
344.86, 0.01, 378.14
345.01, 0.01, 378.94
345.16, 0.04, 379.74
345.34, 0.06, 380.68
345.48, 0.14, 381.42
345.62, 0.24, 382.16
345.81, 0.33, 383.14
346.24, 0.31, 385.46
346.68, 0.36, 387.82
346.74, 0.63, 388.06
343.93, 0.00, 372.78
343.97, 0.00, 372.98
344.02, 0.00, 373.20
344.07, 0.00, 373.44
344.12, 0.00, 373.69
344.17, 0.00, 373.97
344.23, 0.00, 374.27
344.30, 0.00, 374.60
344.37, 0.00, 374.96
344.45, 0.00, 375.35
344.54, 0.00, 375.79
344.64, 0.00, 376.28
344.75, 0.00, 376.82
344.87, 0.00, 377.42
345.00, 0.01, 378.08
345.16, 0.01, 378.87
345.32, 0.04, 379.67
345.51, 0.06, 380.57
345.66, 0.14, 381.35
345.81, 0.24, 382.07
346.02, 0.32, 383.09
346.54, 0.27, 385.69
346.88, 0.38, 387.34
346.94, 0.65, 387.58
344.00, 0.00, 372.75
344.05, 0.00, 372.96
344.09, 0.00, 373.18
¯344.15, 0.00, 373.41
344.20, 0.00, 373.67
344.26, 0.00, 373.94
344.32, 0.00, 374.24
344.39, 0.00, 374.56
344.47, 0.00, 374.92
344.56, 0.00, 375.31
344.65, 0.00, 375.75
344.75, 0.00, 376.23
344.87, 0.00, 376.77
345.00, 0.00, 377.36
345.14, 0.01, 378.03
345.31, 0.01, 378.79
345.48, 0.04, 379.59
345.68, 0.06, 380.49
345.85, 0.13, 381.27
346.01, 0.23, 381.98
346.18, 0.35, 382.77
346.86, 0.23, 385.92
347.07, 0.41, 386.89
347.13, 0.67, 387.12
344.07, 0.00, 372.73
344.12, 0.00, 372.93
344.17, 0.00, 373.15
344.22, 0.00, 373.38
344.28, 0.00, 373.64
344.35, 0.00, 373.91
344.41, 0.00, 374.21
344.49, 0.00, 374.53
344.57, 0.00, 374.88
344.66, 0.00, 375.27
344.76, 0.00, 375.70
344.87, 0.00, 376.18
344.99, 0.00, 376.72
345.13, 0.00, 377.31
345.28, 0.01, 377.97
345.45, 0.02, 378.72
345.64, 0.03, 379.52
345.83, 0.08, 380.33
346.03, 0.13, 381.19
346.20, 0.23, 381.89
346.38, 0.34, 382.68
347.10, 0.23, 385.82
347.26, 0.43, 386.46
347.35, 0.67, 386.84
344.14, 0.00, 372.71
344.19, 0.00, 372.91
344.25, 0.00, 373.12
344.30, 0.00, 373.36
344.36, 0.00, 373.61
344.43, 0.00, 373.88
¯344.50, 0.00, 374.17
344.58, 0.00, 374.49
344.67, 0.00, 374.85
344.76, 0.00, 375.23
344.87, 0.00, 375.66
344.98, 0.00, 376.13
345.11, 0.00, 376.67
345.26, 0.00, 377.25
345.42, 0.01, 377.91
345.60, 0.02, 378.65
345.78, 0.04, 379.39
345.97, 0.09, 380.15
346.18, 0.15, 380.99
346.38, 0.23, 381.81
346.58, 0.34, 382.58
347.34, 0.22, 385.70
347.43, 0.45, 386.04
347.59, 0.67, 386.63
344.21, 0.00, 372.68
344.26, 0.00, 372.88
344.32, 0.00, 373.10
344.38, 0.00, 373.33
344.44, 0.00, 373.58
344.51, 0.00, 373.85
344.59, 0.00, 374.14
344.67, 0.00, 374.46
344.76, 0.00, 374.81
344.86, 0.00, 375.19
344.97, 0.00, 375.61
345.10, 0.00, 376.09
345.23, 0.00, 376.61
345.39, 0.00, 377.20
345.55, 0.01, 377.84
345.74, 0.02, 378.55
345.92, 0.06, 379.23
346.11, 0.11, 379.97
346.33, 0.16, 380.80
346.57, 0.23, 381.71
346.78, 0.34, 382.49
346.80, 0.55, 382.53
346.80, 0.76, 382.52
347.81, 0.67, 386.42
348.87, 0.68, 390.47
348.87, 1.01, 390.44
348.88, 1.34, 390.41
348.88, 1.67, 390.38
344.28, 0.00, 372.66
344.33, 0.00, 372.86
344.39, 0.00, 373.07
344.46, 0.00, 373.30
344.52, 0.00, 373.55
¯344.60, 0.00, 373.81
344.68, 0.00, 374.10
344.77, 0.00, 374.42
344.86, 0.00, 374.77
344.97, 0.00, 375.15
345.08, 0.00, 375.57
345.21, 0.00, 376.03
345.35, 0.00, 376.56
345.51, 0.00, 377.14
345.69, 0.01, 377.78
345.86, 0.04, 378.38
346.04, 0.08, 379.05
346.25, 0.12, 379.80
346.47, 0.17, 380.61
346.72, 0.24, 381.50
346.76, 0.43, 381.59
346.76, 0.64, 381.59
347.01, 0.76, 382.46
349.01, 0.38, 389.80
349.02, 0.71, 389.77
349.02, 1.03, 389.74
349.03, 1.35, 389.72
349.03, 1.67, 389.69
344.35, 0.00, 372.63
344.41, 0.00, 372.83
344.47, 0.00, 373.04
344.53, 0.00, 373.27
344.60, 0.00, 373.51
344.68, 0.00, 373.78
344.77, 0.00, 374.07
344.86, 0.00, 374.38
344.96, 0.00, 374.72
345.07, 0.00, 375.10
345.19, 0.00, 375.52
345.32, 0.00, 375.98
345.47, 0.00, 376.50
345.64, 0.00, 377.08
345.80, 0.02, 377.64
345.97, 0.06, 378.21
346.16, 0.10, 378.85
346.38, 0.13, 379.62
346.61, 0.19, 380.41
346.87, 0.25, 381.29
346.93, 0.43, 381.45
346.93, 0.64, 381.45
347.30, 0.72, 382.70
349.16, 0.42, 389.14
349.16, 0.73, 389.11
349.17, 1.04, 389.09
349.17, 1.36, 389.06
349.18, 1.67, 389.04
¯344.42, 0.00, 372.60
344.48, 0.00, 372.80
344.54, 0.00, 373.01
344.61, 0.00, 373.24
344.68, 0.00, 373.48
344.76, 0.00, 373.74
344.85, 0.00, 374.03
344.95, 0.00, 374.34
345.05, 0.00, 374.68
345.17, 0.00, 375.06
345.29, 0.00, 375.47
345.43, 0.00, 375.93
345.59, 0.00, 376.44
345.75, 0.01, 376.99
345.91, 0.04, 377.49
346.08, 0.08, 378.05
346.27, 0.12, 378.67
346.50, 0.16, 379.41
346.75, 0.20, 380.23
347.02, 0.27, 381.09
347.09, 0.44, 381.31
347.11, 0.63, 381.34
347.46, 0.73, 382.48
349.29, 0.45, 388.51
349.30, 0.76, 388.49
349.30, 1.06, 388.47
349.31, 1.36, 388.44
349.31, 1.67, 388.42
344.48, 0.00, 372.57
344.55, 0.00, 372.77
344.61, 0.00, 372.98
344.68, 0.00, 373.20
344.76, 0.00, 373.45
344.85, 0.00, 373.71
344.94, 0.00, 373.99
345.04, 0.00, 374.30
345.15, 0.00, 374.64
345.26, 0.00, 375.01
345.40, 0.00, 375.42
345.54, 0.00, 375.88
345.71, 0.00, 376.39
345.86, 0.02, 376.88
346.01, 0.06, 377.34
346.19, 0.10, 377.88
346.39, 0.14, 378.49
346.57, 0.20, 379.06
346.58, 0.37, 379.06
346.58, 0.54, 379.05
346.59, 0.71, 379.05
346.61, 0.87, 379.11
347.67, 0.72, 382.42
¯347.92, 0.87, 383.19
349.43, 0.78, 387.90
349.43, 1.08, 387.87
349.44, 1.37, 387.85
349.44, 1.67, 387.83
344.55, 0.00, 372.55
344.62, 0.00, 372.74
344.69, 0.00, 372.95
344.76, 0.00, 373.17
344.84, 0.00, 373.41
344.93, 0.00, 373.67
345.02, 0.00, 373.95
345.13, 0.00, 374.26
345.24, 0.00, 374.59
345.36, 0.00, 374.96
345.50, 0.00, 375.37
345.65, 0.00, 375.82
345.80, 0.01, 376.28
345.97, 0.03, 376.76
346.13, 0.07, 377.22
346.29, 0.11, 377.72
346.49, 0.15, 378.31
346.71, 0.20, 378.95
346.72, 0.37, 378.94
346.72, 0.54, 378.94
346.73, 0.71, 378.94
346.75, 0.87, 379.00
347.46, 0.83, 381.12
348.12, 0.87, 383.06
349.55, 0.80, 387.33
349.55, 1.09, 387.31
349.56, 1.38, 387.29
349.56, 1.67, 387.27
344.62, 0.00, 372.52
344.68, 0.00, 372.71
344.76, 0.00, 372.91
344.83, 0.00, 373.14
344.92, 0.00, 373.37
345.01, 0.00, 373.63
345.11, 0.00, 373.91
345.21, 0.00, 374.22
345.33, 0.00, 374.55
345.46, 0.00, 374.91
345.60, 0.00, 375.32
345.75, 0.01, 375.74
345.90, 0.02, 376.17
346.07, 0.04, 376.64
346.24, 0.08, 377.12
346.40, 0.13, 377.58
346.60, 0.17, 378.14
346.83, 0.22, 378.78
