ŸVERSION 0.7
FIELDS x y z
SIZE 8 8 8
TYPE F F F
COUNT 1 1 1
WIDTH 2271
HEIGHT 1
VIEWPOINT 433.97, 15.22, 248.28 1 446.56, 9.53, 263.57
POINTS 2271
DATA ascii
448.82, 7.10, 273.92
449.16, 7.08, 274.85
449.49, 7.10, 275.73
449.85, 7.13, 276.71
450.62, 7.00, 278.78
¯451.14, 7.04, 280.18
452.51, 6.82, 283.87
452.96, 7.00, 285.07
453.22, 8.66, 285.92
453.21, 9.01, 285.92
453.20, 9.35, 285.92
446.82, 7.22, 268.29
446.92, 7.21, 268.55
447.03, 7.21, 268.83
447.15, 7.20, 269.13
447.27, 7.20, 269.46
447.41, 7.19, 269.82
447.57, 7.18, 270.22
447.74, 7.17, 270.66
447.93, 7.16, 271.15
448.15, 7.15, 271.71
448.40, 7.13, 272.36
448.68, 7.11, 273.08
448.99, 7.10, 273.88
449.28, 7.11, 274.65
449.49, 7.20, 275.19
450.01, 7.15, 276.53
450.66, 7.09, 278.21
451.71, 6.93, 280.91
452.91, 6.80, 284.01
453.30, 7.00, 285.04
446.91, 7.22, 268.26
447.01, 7.22, 268.52
447.12, 7.21, 268.80
447.24, 7.20, 269.10
447.38, 7.20, 269.43
447.52, 7.19, 269.78
447.68, 7.19, 270.18
447.86, 7.18, 270.62
448.05, 7.17, 271.11
448.28, 7.15, 271.66
448.53, 7.13, 272.30
448.83, 7.11, 273.03
449.15, 7.10, 273.83
449.37, 7.16, 274.39
449.58, 7.24, 274.90
450.17, 7.17, 276.36
450.67, 7.18, 277.61
452.49, 6.75, 282.10
453.28, 6.78, 284.04
453.63, 7.01, 284.95
446.99, 7.22, 268.24
447.10, 7.22, 268.49
447.21, 7.21, 268.77
447.34, 7.21, 269.07
447.48, 7.20, 269.40
¯447.62, 7.19, 269.75
447.79, 7.19, 270.14
447.97, 7.18, 270.57
448.17, 7.17, 271.06
448.40, 7.16, 271.61
448.67, 7.14, 272.24
448.98, 7.12, 272.97
449.27, 7.12, 273.67
449.46, 7.20, 274.13
449.67, 7.29, 274.63
449.89, 7.38, 275.17
450.76, 7.24, 277.24
453.26, 6.58, 283.15
453.59, 6.79, 283.96
453.96, 7.01, 284.86
447.07, 7.22, 268.21
447.18, 7.22, 268.46
447.30, 7.21, 268.74
447.43, 7.21, 269.04
447.58, 7.20, 269.36
447.73, 7.19, 269.71
447.90, 7.19, 270.10
448.08, 7.18, 270.53
448.29, 7.17, 271.01
448.53, 7.16, 271.55
448.81, 7.14, 272.18
449.12, 7.12, 272.91
449.31, 7.19, 273.35
449.55, 7.25, 273.89
449.75, 7.33, 274.37
449.97, 7.42, 274.88
450.59, 7.39, 276.28
453.64, 6.56, 283.23
453.93, 6.79, 283.91
454.29, 7.02, 284.77
447.15, 7.22, 268.18
447.27, 7.22, 268.43
447.39, 7.21, 268.70
447.53, 7.21, 269.00
447.68, 7.20, 269.33
447.83, 7.20, 269.68
448.01, 7.19, 270.06
448.20, 7.19, 270.48
448.41, 7.18, 270.96
448.66, 7.17, 271.49
448.94, 7.15, 272.12
449.24, 7.14, 272.77
449.36, 7.24, 273.06
449.50, 7.35, 273.36
449.83, 7.37, 274.11
450.05, 7.47, 274.60
¯450.30, 7.57, 275.15
454.00, 6.54, 283.27
454.31, 6.77, 283.95
454.63, 7.02, 284.68
447.24, 7.22, 268.14
447.35, 7.22, 268.40
447.48, 7.21, 268.67
447.62, 7.21, 268.97
447.77, 7.20, 269.29
447.94, 7.20, 269.64
448.12, 7.19, 270.02
448.31, 7.19, 270.43
448.53, 7.18, 270.90
448.78, 7.17, 271.44
449.08, 7.15, 272.06
449.29, 7.20, 272.51
449.41, 7.30, 272.78
449.54, 7.40, 273.07
449.68, 7.51, 273.37
450.11, 7.52, 274.29
450.37, 7.61, 274.85
450.84, 7.65, 275.85
454.69, 6.76, 284.00
455.03, 7.01, 284.74
447.32, 7.22, 268.11
447.44, 7.22, 268.36
447.57, 7.21, 268.63
447.72, 7.21, 268.93
447.87, 7.20, 269.25
448.04, 7.20, 269.60
448.23, 7.19, 269.98
448.43, 7.19, 270.39
448.65, 7.18, 270.85
448.91, 7.18, 271.38
449.21, 7.16, 271.99
449.33, 7.25, 272.26
449.46, 7.35, 272.52
449.59, 7.45, 272.79
449.72, 7.56, 273.08
449.87, 7.67, 273.38
450.33, 7.69, 274.34
450.71, 7.76, 275.12
455.09, 6.74, 284.05
447.40, 7.22, 268.08
447.53, 7.22, 268.33
447.66, 7.21, 268.60
447.81, 7.21, 268.89
447.97, 7.20, 269.21
448.15, 7.20, 269.56
448.34, 7.19, 269.94
448.55, 7.19, 270.35
¯448.78, 7.18, 270.80
449.03, 7.18, 271.32
449.26, 7.20, 271.77
449.38, 7.30, 272.01
449.50, 7.40, 272.26
449.63, 7.50, 272.52
449.77, 7.61, 272.80
449.91, 7.72, 273.09
450.06, 7.84, 273.39
450.55, 7.86, 274.38
451.06, 7.91, 275.39
447.48, 7.22, 268.04
447.61, 7.22, 268.29
447.75, 7.21, 268.56
447.90, 7.21, 268.85
448.07, 7.20, 269.17
448.25, 7.20, 269.52
448.45, 7.19, 269.89
448.66, 7.19, 270.30
448.90, 7.18, 270.76
449.16, 7.18, 271.26
449.31, 7.25, 271.56
449.42, 7.35, 271.77
449.54, 7.44, 272.01
449.67, 7.54, 272.27
449.81, 7.65, 272.53
449.95, 7.76, 272.81
450.09, 7.88, 273.10
450.25, 8.00, 273.40
450.78, 8.04, 274.41
447.56, 7.23, 268.00
447.69, 7.22, 268.25
447.84, 7.22, 268.52
448.00, 7.21, 268.81
448.17, 7.20, 269.13
448.35, 7.20, 269.47
448.56, 7.19, 269.85
448.78, 7.19, 270.25
449.02, 7.19, 270.71
449.26, 7.20, 271.16
449.44, 7.26, 271.48
449.52, 7.36, 271.65
449.61, 7.48, 271.82
449.71, 7.59, 272.02
449.84, 7.69, 272.27
449.98, 7.80, 272.53
450.13, 7.92, 272.81
450.28, 8.04, 273.10
450.44, 8.17, 273.41
451.00, 8.22, 274.44
447.64, 7.23, 267.97
¯447.78, 7.22, 268.21
447.93, 7.22, 268.48
448.09, 7.21, 268.77
448.26, 7.20, 269.08
448.46, 7.20, 269.43
448.66, 7.19, 269.80
448.89, 7.19, 270.21
449.14, 7.19, 270.66
449.34, 7.22, 271.01
449.51, 7.28, 271.33
449.65, 7.37, 271.57
449.74, 7.48, 271.74
449.83, 7.60, 271.91
449.92, 7.72, 272.09
450.02, 7.84, 272.28
450.16, 7.96, 272.53
450.31, 8.08, 272.81
450.47, 8.21, 273.11
450.64, 8.34, 273.41
451.23, 8.41, 274.48
447.72, 7.23, 267.92
447.86, 7.22, 268.17
448.01, 7.22, 268.44
448.18, 7.21, 268.72
448.36, 7.21, 269.04
448.56, 7.20, 269.38
448.77, 7.19, 269.75
449.01, 7.19, 270.16
449.25, 7.20, 270.57
449.41, 7.25, 270.86
449.59, 7.31, 271.17
449.77, 7.38, 271.49
449.86, 7.49, 271.66
449.96, 7.61, 271.83
450.05, 7.73, 272.01
450.15, 7.85, 272.19
450.26, 7.98, 272.38
450.37, 8.11, 272.58
450.50, 8.24, 272.81
450.66, 8.38, 273.11
450.84, 8.52, 273.42
451.50, 8.59, 274.57
447.80, 7.23, 267.88
447.94, 7.22, 268.13
448.10, 7.22, 268.39
448.27, 7.21, 268.68
448.46, 7.21, 268.99
448.66, 7.20, 269.33
448.88, 7.19, 269.70
449.12, 7.19, 270.10
449.32, 7.22, 270.44
¯449.48, 7.28, 270.72
449.66, 7.34, 271.02
449.85, 7.40, 271.34
449.99, 7.50, 271.58
450.08, 7.61, 271.75
450.18, 7.73, 271.92
450.29, 7.86, 272.11
450.39, 7.98, 272.29
450.50, 8.12, 272.49
450.62, 8.25, 272.69
450.74, 8.40, 272.90
450.86, 8.54, 273.12
451.04, 8.69, 273.42
451.76, 8.78, 274.65
447.87, 7.23, 267.84
448.02, 7.23, 268.08
448.19, 7.22, 268.35
448.36, 7.21, 268.63
448.55, 7.21, 268.94
448.76, 7.20, 269.28
448.99, 7.20, 269.65
449.23, 7.19, 270.04
449.38, 7.25, 270.30
449.55, 7.30, 270.57
449.73, 7.37, 270.87
449.92, 7.43, 271.18
450.11, 7.50, 271.50
450.21, 7.62, 271.67
450.31, 7.74, 271.84
450.42, 7.86, 272.02
450.53, 7.99, 272.21
450.64, 8.12, 272.40
450.76, 8.26, 272.60
450.88, 8.40, 272.81
451.01, 8.55, 273.02
451.14, 8.70, 273.25
451.27, 8.86, 273.48
452.04, 8.97, 274.74
447.95, 7.23, 267.79
448.10, 7.23, 268.04
448.27, 7.22, 268.30
448.45, 7.22, 268.58
448.65, 7.21, 268.89
448.86, 7.20, 269.23
449.09, 7.20, 269.60
449.29, 7.22, 269.91
449.45, 7.27, 270.16
449.62, 7.33, 270.43
449.80, 7.39, 270.72
449.99, 7.46, 271.02
450.19, 7.52, 271.35
¯450.34, 7.62, 271.58
450.44, 7.74, 271.76
450.55, 7.87, 271.94
450.66, 8.00, 272.12
450.78, 8.13, 272.31
450.90, 8.27, 272.51
451.02, 8.41, 272.71
451.15, 8.56, 272.93
451.26, 8.71, 273.12
451.38, 8.88, 273.30
451.62, 9.03, 273.69
452.32, 9.17, 274.82
448.03, 7.24, 267.75
448.18, 7.23, 267.99
448.35, 7.22, 268.25
448.54, 7.22, 268.53
448.74, 7.21, 268.84
448.96, 7.20, 269.17
449.20, 7.20, 269.54
449.36, 7.24, 269.79
449.52, 7.30, 270.03
449.68, 7.35, 270.29
449.86, 7.42, 270.57
450.05, 7.48, 270.87
450.26, 7.55, 271.18
450.46, 7.63, 271.50
450.57, 7.75, 271.67
450.68, 7.87, 271.85
450.79, 8.00, 272.03
450.91, 8.13, 272.22
451.03, 8.27, 272.42
451.16, 8.41, 272.62
451.27, 8.57, 272.80
451.38, 8.72, 272.98
451.50, 8.89, 273.16
451.61, 9.05, 273.35
451.98, 9.21, 273.92
452.61, 9.38, 274.90
448.10, 7.24, 267.70
448.26, 7.23, 267.94
448.43, 7.23, 268.20
448.62, 7.22, 268.47
448.83, 7.21, 268.78
449.05, 7.21, 269.11
449.28, 7.21, 269.45
449.43, 7.26, 269.68
449.58, 7.32, 269.90
449.75, 7.38, 270.15
449.93, 7.44, 270.42
450.12, 7.51, 270.71
450.32, 7.58, 271.02
¯450.54, 7.65, 271.35
450.70, 7.75, 271.59
450.81, 7.88, 271.76
450.93, 8.01, 271.94
451.05, 8.14, 272.13
451.17, 8.28, 272.33
451.28, 8.42, 272.49
451.39, 8.58, 272.66
451.50, 8.73, 272.84
451.61, 8.89, 273.02
451.73, 9.06, 273.21
451.86, 9.23, 273.40
452.36, 9.40, 274.15
453.03, 9.59, 275.17
448.18, 7.24, 267.65
448.34, 7.23, 267.89
448.52, 7.23, 268.14
448.71, 7.22, 268.42
448.92, 7.22, 268.72
449.15, 7.21, 269.05
449.35, 7.23, 269.35
449.53, 7.27, 269.61
449.68, 7.33, 269.82
449.83, 7.39, 270.05
449.99, 7.46, 270.29
450.18, 7.53, 270.56
450.39, 7.60, 270.86
450.60, 7.67, 271.18
450.82, 7.76, 271.50
450.94, 7.88, 271.68
451.06, 8.01, 271.86
451.18, 8.15, 272.04
451.28, 8.29, 272.20
451.39, 8.43, 272.36
451.50, 8.59, 272.53
451.61, 8.74, 272.70
451.73, 8.90, 272.88
451.85, 9.07, 273.06
451.98, 9.24, 273.25
452.14, 9.42, 273.50
452.76, 9.60, 274.41
448.25, 7.24, 267.60
448.42, 7.24, 267.84
448.60, 7.23, 268.09
448.79, 7.23, 268.36
449.01, 7.22, 268.66
449.24, 7.22, 268.98
449.43, 7.24, 269.25
449.63, 7.27, 269.54
449.78, 7.33, 269.75
449.94, 7.40, 269.97
¯450.10, 7.47, 270.21
450.28, 7.54, 270.46
450.46, 7.62, 270.72
450.67, 7.70, 271.01
450.90, 7.78, 271.35
451.07, 7.89, 271.59
451.19, 8.02, 271.76
451.29, 8.16, 271.91
451.40, 8.30, 272.07
451.50, 8.44, 272.23
451.62, 8.60, 272.39
451.73, 8.75, 272.56
451.85, 8.91, 272.74
451.97, 9.08, 272.92
452.10, 9.25, 273.11
452.23, 9.43, 273.30
452.52, 9.61, 273.72
448.32, 7.24, 267.55
448.49, 7.24, 267.78
448.68, 7.23, 268.04
448.88, 7.23, 268.31
449.10, 7.22, 268.60
449.31, 7.23, 268.89
449.50, 7.26, 269.15
449.70, 7.29, 269.43
449.88, 7.34, 269.67
450.04, 7.40, 269.89
450.21, 7.47, 270.13
450.39, 7.55, 270.37
450.57, 7.62, 270.64
450.78, 7.71, 270.91
450.99, 7.79, 271.21
451.19, 7.89, 271.49
451.30, 8.03, 271.64
451.40, 8.17, 271.79
451.51, 8.31, 271.94
451.62, 8.45, 272.10
451.73, 8.61, 272.26
451.84, 8.76, 272.43
451.96, 8.92, 272.60
452.09, 9.09, 272.78
452.22, 9.26, 272.96
452.35, 9.43, 273.15
452.49, 9.62, 273.35
452.92, 9.81, 273.95
448.40, 7.25, 267.50
448.57, 7.24, 267.73
448.76, 7.24, 267.98
448.96, 7.23, 268.25
449.18, 7.22, 268.54
449.37, 7.24, 268.79
¯449.57, 7.27, 269.05
449.78, 7.30, 269.33
449.98, 7.34, 269.60
450.14, 7.41, 269.82
450.31, 7.48, 270.05
450.49, 7.55, 270.29
450.69, 7.63, 270.55
450.89, 7.71, 270.82
451.11, 7.80, 271.12
451.25, 7.92, 271.31
451.36, 8.05, 271.46
451.47, 8.18, 271.61
451.59, 8.32, 271.78
451.71, 8.47, 271.95
451.83, 8.62, 272.12
451.96, 8.77, 272.29
452.08, 8.93, 272.46
452.21, 9.09, 272.64
452.34, 9.27, 272.82
452.47, 9.44, 273.01
452.61, 9.62, 273.20
452.75, 9.81, 273.40
448.47, 7.25, 267.45
448.64, 7.24, 267.68
448.84, 7.24, 267.92
449.04, 7.23, 268.19
449.26, 7.23, 268.46
449.44, 7.26, 268.70
449.64, 7.29, 268.95
449.85, 7.32, 269.22
450.07, 7.35, 269.51
450.24, 7.41, 269.74
450.42, 7.48, 269.96
450.60, 7.56, 270.21
450.80, 7.63, 270.46
451.01, 7.72, 270.73
451.20, 7.81, 270.98
451.30, 7.94, 271.12
451.41, 8.07, 271.27
451.52, 8.21, 271.42
451.64, 8.34, 271.58
451.76, 8.49, 271.74
451.88, 8.63, 271.91
452.01, 8.79, 272.08
452.15, 8.94, 272.26
452.28, 9.11, 272.45
452.43, 9.27, 272.65
452.58, 9.45, 272.85
452.73, 9.63, 273.05
452.88, 9.82, 273.25
448.54, 7.25, 267.40
¯448.72, 7.25, 267.62
448.91, 7.24, 267.86
449.13, 7.24, 268.13
449.32, 7.25, 268.37
449.51, 7.27, 268.60
449.70, 7.30, 268.85
449.91, 7.33, 269.12
450.14, 7.36, 269.40
450.34, 7.42, 269.66
450.52, 7.49, 269.88
450.71, 7.56, 270.12
450.91, 7.64, 270.37
451.12, 7.72, 270.64
451.25, 7.84, 270.81
451.36, 7.96, 270.95
451.46, 8.09, 271.09
451.57, 8.23, 271.23
451.69, 8.36, 271.38
451.81, 8.51, 271.54
451.93, 8.65, 271.70
452.06, 8.80, 271.87
452.19, 8.96, 272.05
452.33, 9.12, 272.23
452.47, 9.29, 272.41
452.62, 9.46, 272.61
452.77, 9.64, 272.81
452.94, 9.83, 273.02
448.61, 7.25, 267.34
448.79, 7.25, 267.57
448.99, 7.24, 267.81
449.21, 7.24, 268.07
449.38, 7.26, 268.28
449.57, 7.29, 268.51
449.77, 7.32, 268.75
449.98, 7.35, 269.01
450.21, 7.38, 269.29
450.44, 7.42, 269.57
450.63, 7.49, 269.80
450.82, 7.57, 270.03
451.02, 7.64, 270.28
451.20, 7.74, 270.51
451.30, 7.86, 270.64
451.41, 7.99, 270.77
451.51, 8.11, 270.91
451.62, 8.25, 271.05
451.74, 8.38, 271.19
451.85, 8.52, 271.34
451.98, 8.67, 271.50
452.10, 8.82, 271.66
452.24, 8.97, 271.83
452.37, 9.13, 272.01
¯452.52, 9.30, 272.19
452.66, 9.47, 272.38
452.82, 9.65, 272.57
452.98, 9.83, 272.77
448.68, 7.25, 267.29
448.87, 7.25, 267.51
449.07, 7.25, 267.75
449.27, 7.25, 267.98
449.45, 7.27, 268.19
449.63, 7.30, 268.41
449.83, 7.33, 268.65
450.05, 7.36, 268.91
450.28, 7.40, 269.18
450.53, 7.43, 269.48
450.73, 7.50, 269.71
450.92, 7.57, 269.95
451.13, 7.65, 270.20
451.25, 7.76, 270.34
451.35, 7.88, 270.47
451.46, 8.01, 270.60
451.56, 8.13, 270.73
451.67, 8.27, 270.87
451.79, 8.40, 271.01
451.90, 8.54, 271.16
452.02, 8.68, 271.31
452.15, 8.83, 271.46
452.28, 8.98, 271.62
452.42, 9.14, 271.79
452.56, 9.31, 271.97
452.70, 9.48, 272.15
452.86, 9.65, 272.34
453.01, 9.84, 272.53
448.75, 7.26, 267.23
448.94, 7.25, 267.45
449.14, 7.25, 267.68
449.33, 7.26, 267.90
449.51, 7.29, 268.10
449.69, 7.32, 268.32
449.90, 7.34, 268.55
450.11, 7.38, 268.80
450.35, 7.41, 269.07
450.60, 7.45, 269.36
450.83, 7.50, 269.63
451.03, 7.57, 269.86
451.20, 7.66, 270.06
451.30, 7.78, 270.18
451.40, 7.90, 270.31
451.51, 8.03, 270.43
451.61, 8.15, 270.56
451.72, 8.28, 270.69
451.84, 8.42, 270.83
¯451.95, 8.56, 270.97
452.07, 8.70, 271.12
452.20, 8.85, 271.26
452.32, 9.00, 271.42
452.46, 9.15, 271.58
452.60, 9.32, 271.75
452.74, 9.48, 271.93
452.90, 9.66, 272.11
453.05, 9.84, 272.30
448.82, 7.26, 267.18
449.01, 7.25, 267.39
449.22, 7.25, 267.62
449.39, 7.27, 267.81
449.56, 7.30, 268.01
449.75, 7.33, 268.22
449.96, 7.36, 268.45
450.18, 7.39, 268.69
450.41, 7.43, 268.96
450.67, 7.46, 269.24
450.93, 7.50, 269.54
451.14, 7.58, 269.77
451.25, 7.69, 269.91
451.35, 7.80, 270.02
451.45, 7.92, 270.14
451.56, 8.05, 270.26
451.66, 8.17, 270.39
451.77, 8.30, 270.52
451.88, 8.43, 270.65
452.00, 8.57, 270.79
452.12, 8.71, 270.93
452.24, 8.86, 271.07
452.37, 9.01, 271.22
452.50, 9.17, 271.38
452.64, 9.33, 271.54
452.78, 9.49, 271.71
452.93, 9.67, 271.89
453.09, 9.84, 272.07
448.89, 7.26, 267.12
449.08, 7.26, 267.33
449.28, 7.26, 267.55
449.45, 7.28, 267.73
449.63, 7.31, 267.92
449.82, 7.34, 268.13
450.02, 7.37, 268.35
450.24, 7.40, 268.59
450.47, 7.44, 268.85
450.73, 7.48, 269.13
451.01, 7.52, 269.43
451.20, 7.59, 269.64
451.30, 7.71, 269.75
451.40, 7.82, 269.87
¯451.50, 7.94, 269.98
451.60, 8.06, 270.10
451.71, 8.19, 270.22
451.82, 8.32, 270.35
451.93, 8.45, 270.48
452.05, 8.59, 270.61
452.17, 8.73, 270.75
452.29, 8.87, 270.89
452.42, 9.02, 271.03
452.55, 9.18, 271.18
452.68, 9.34, 271.34
452.82, 9.50, 271.50
452.97, 9.67, 271.67
448.96, 7.26, 267.06
449.15, 7.26, 267.27
449.34, 7.27, 267.47
449.52, 7.29, 267.66
449.70, 7.32, 267.85
449.89, 7.35, 268.05
450.10, 7.38, 268.27
450.32, 7.41, 268.51
450.56, 7.45, 268.76
450.81, 7.49, 269.03
451.09, 7.53, 269.32
451.26, 7.61, 269.51
451.36, 7.72, 269.62
451.46, 7.84, 269.73
451.56, 7.96, 269.84
451.66, 8.08, 269.95
451.76, 8.21, 270.07
451.87, 8.33, 270.19
451.98, 8.47, 270.31
452.10, 8.60, 270.44
452.21, 8.74, 270.57
452.33, 8.89, 270.70
452.46, 9.03, 270.84
452.59, 9.19, 270.99
452.73, 9.34, 271.14
452.86, 9.51, 271.29
453.01, 9.68, 271.45
449.02, 7.26, 267.00
449.23, 7.26, 267.21
449.40, 7.28, 267.39
449.59, 7.29, 267.59
449.77, 7.32, 267.77
449.97, 7.35, 267.98
450.18, 7.38, 268.19
450.40, 7.42, 268.42
450.64, 7.45, 268.67
450.90, 7.49, 268.94
451.18, 7.54, 269.22
¯451.30, 7.64, 269.35
451.42, 7.74, 269.48
451.53, 7.85, 269.60
451.63, 7.97, 269.71
451.73, 8.09, 269.82
451.84, 8.22, 269.93
451.95, 8.35, 270.05
452.06, 8.48, 270.17
452.17, 8.61, 270.30
452.29, 8.75, 270.42
452.41, 8.90, 270.56
452.54, 9.04, 270.69
452.66, 9.20, 270.83
452.80, 9.35, 270.98
452.94, 9.52, 271.12
453.08, 9.68, 271.28
449.09, 7.26, 266.95
449.28, 7.27, 267.14
449.46, 7.28, 267.32
449.65, 7.30, 267.51
449.84, 7.33, 267.70
450.04, 7.36, 267.90
450.25, 7.39, 268.11
450.48, 7.42, 268.34
450.72, 7.46, 268.58
450.99, 7.50, 268.84
451.21, 7.56, 269.07
451.33, 7.66, 269.20
451.46, 7.76, 269.33
451.59, 7.87, 269.46
451.70, 7.98, 269.58
451.81, 8.10, 269.69
451.91, 8.23, 269.80
452.02, 8.36, 269.92
452.13, 8.49, 270.04
452.25, 8.62, 270.16
452.37, 8.76, 270.28
452.49, 8.90, 270.41
452.62, 9.05, 270.54
452.74, 9.20, 270.68
452.88, 9.36, 270.82
453.02, 9.52, 270.97
453.30, 9.69, 271.26
449.16, 7.26, 266.89
449.34, 7.27, 267.06
449.52, 7.29, 267.24
449.71, 7.31, 267.42
449.91, 7.33, 267.62
450.11, 7.36, 267.82
450.33, 7.39, 268.03
450.56, 7.43, 268.25
¯450.80, 7.46, 268.49
451.07, 7.50, 268.75
451.25, 7.58, 268.92
451.37, 7.68, 269.05
451.49, 7.78, 269.17
451.62, 7.89, 269.30
451.75, 8.00, 269.44
451.88, 8.12, 269.56
451.99, 8.24, 269.67
452.10, 8.37, 269.79
452.21, 8.50, 269.90
452.33, 8.63, 270.02
452.44, 8.77, 270.14
452.57, 8.91, 270.27
452.69, 9.06, 270.40
452.82, 9.21, 270.53
452.96, 9.37, 270.67
453.10, 9.53, 270.81
453.72, 9.70, 271.43
449.22, 7.27, 266.82
449.39, 7.28, 266.99
449.58, 7.30, 267.16
449.77, 7.32, 267.34
449.98, 7.34, 267.54
450.19, 7.37, 267.74
450.40, 7.40, 267.94
450.64, 7.43, 268.16
450.88, 7.47, 268.40
451.15, 7.51, 268.65
451.28, 7.60, 268.78
451.40, 7.70, 268.90
451.53, 7.80, 269.02
451.65, 7.91, 269.14
451.79, 8.02, 269.27
451.92, 8.13, 269.41
452.06, 8.25, 269.54
452.17, 8.38, 269.65
452.28, 8.51, 269.77
452.40, 8.64, 269.88
452.52, 8.78, 270.00
452.64, 8.92, 270.13
452.77, 9.07, 270.25
452.90, 9.22, 270.38
453.04, 9.37, 270.52
453.39, 9.53, 270.86
449.28, 7.27, 266.75
449.45, 7.29, 266.91
449.63, 7.31, 267.08
449.83, 7.33, 267.26
450.04, 7.35, 267.45
450.26, 7.37, 267.65
¯450.48, 7.40, 267.86
450.71, 7.44, 268.07
450.96, 7.48, 268.31
451.20, 7.53, 268.52
451.31, 7.62, 268.63
451.44, 7.72, 268.75
451.56, 7.82, 268.87
451.69, 7.93, 268.99
451.82, 8.04, 269.12
451.95, 8.15, 269.25
452.10, 8.27, 269.38
452.24, 8.39, 269.52
452.36, 8.52, 269.63
452.48, 8.65, 269.75
452.60, 8.79, 269.87
452.72, 8.93, 269.99
452.85, 9.08, 270.11
452.98, 9.23, 270.24
453.12, 9.38, 270.37
453.81, 9.53, 271.01
449.33, 7.28, 266.68
449.50, 7.30, 266.84
449.69, 7.32, 267.00
449.89, 7.33, 267.18
450.10, 7.35, 267.37
450.33, 7.38, 267.57
450.55, 7.41, 267.77
450.79, 7.44, 267.99
451.04, 7.48, 268.21
451.23, 7.55, 268.39
451.35, 7.64, 268.49
451.47, 7.74, 268.60
451.59, 7.84, 268.72
451.72, 7.95, 268.84
451.85, 8.06, 268.96
451.99, 8.17, 269.09
452.13, 8.28, 269.22
452.27, 8.40, 269.35
452.42, 8.53, 269.49
452.55, 8.66, 269.61
452.67, 8.80, 269.73
452.80, 8.94, 269.85
452.92, 9.08, 269.97
453.06, 9.23, 270.09
453.47, 9.38, 270.47
454.26, 9.54, 271.18
449.38, 7.29, 266.61
449.56, 7.30, 266.76
449.74, 7.32, 266.92
449.94, 7.34, 267.10
450.16, 7.36, 267.28
¯450.39, 7.38, 267.48
450.62, 7.41, 267.69
450.86, 7.45, 267.90
451.12, 7.49, 268.12
451.26, 7.57, 268.25
451.38, 7.66, 268.35
451.50, 7.76, 268.46
451.62, 7.86, 268.57
451.75, 7.97, 268.69
451.88, 8.07, 268.81
452.02, 8.19, 268.93
452.15, 8.30, 269.06
452.30, 8.42, 269.19
452.45, 8.54, 269.32
452.61, 8.67, 269.46
452.75, 8.81, 269.59
452.87, 8.95, 269.71
453.00, 9.09, 269.83
453.17, 9.24, 269.98
453.89, 9.38, 270.61
454.75, 9.54, 271.36
449.43, 7.29, 266.53
449.61, 7.31, 266.68
449.80, 7.33, 266.84
450.00, 7.35, 267.01
450.21, 7.37, 267.19
450.45, 7.39, 267.39
450.69, 7.42, 267.60
450.94, 7.45, 267.81
451.18, 7.50, 268.02
451.30, 7.59, 268.11
451.41, 7.68, 268.22
451.53, 7.78, 268.32
451.65, 7.88, 268.43
451.78, 7.99, 268.54
451.91, 8.09, 268.66
452.04, 8.20, 268.77
452.18, 8.32, 268.90
452.33, 8.44, 269.02
452.48, 8.56, 269.16
452.63, 8.68, 269.29
452.79, 8.82, 269.43
452.95, 8.95, 269.57
453.08, 9.10, 269.68
453.56, 9.23, 270.10
454.34, 9.37, 270.76
455.07, 9.54, 271.39
449.48, 7.30, 266.46
449.66, 7.32, 266.60
449.85, 7.34, 266.76
450.05, 7.36, 266.93
¯450.27, 7.38, 267.11
450.50, 7.40, 267.30
450.76, 7.43, 267.51
451.01, 7.46, 267.72
451.21, 7.52, 267.88
451.33, 7.61, 267.98
451.44, 7.70, 268.08
451.56, 7.80, 268.18
451.68, 7.90, 268.29
451.81, 8.00, 268.39
451.94, 8.11, 268.51
452.07, 8.22, 268.62
452.21, 8.33, 268.74
452.35, 8.45, 268.86
452.50, 8.57, 268.99
452.66, 8.70, 269.12
452.82, 8.83, 269.26
452.98, 8.97, 269.40
453.21, 9.10, 269.59
453.75, 9.23, 270.04
454.36, 9.38, 270.55
455.06, 9.55, 271.13
449.53, 7.31, 266.38
449.71, 7.33, 266.53
449.90, 7.34, 266.68
450.10, 7.36, 266.84
450.32, 7.39, 267.02
450.56, 7.41, 267.21
450.81, 7.43, 267.41
451.08, 7.46, 267.62
451.24, 7.53, 267.76
451.36, 7.63, 267.85
451.47, 7.72, 267.95
451.59, 7.82, 268.04
451.71, 7.92, 268.15
451.84, 8.02, 268.25
451.97, 8.13, 268.36
452.10, 8.24, 268.47
452.24, 8.35, 268.59
452.39, 8.46, 268.71
452.54, 8.59, 268.83
452.69, 8.71, 268.96
452.85, 8.84, 269.10
453.02, 8.98, 269.23
453.26, 9.11, 269.44
453.75, 9.25, 269.83
454.36, 9.39, 270.32
455.05, 9.56, 270.88
449.57, 7.32, 266.31
449.76, 7.33, 266.45
449.95, 7.35, 266.60
¯450.16, 7.37, 266.76
450.38, 7.39, 266.93
450.62, 7.42, 267.12
450.87, 7.44, 267.31
451.15, 7.47, 267.53
451.28, 7.55, 267.63
451.39, 7.64, 267.72
451.50, 7.74, 267.82
451.62, 7.83, 267.91
451.75, 7.93, 268.01
451.87, 8.03, 268.12
452.00, 8.14, 268.22
452.14, 8.25, 268.33
452.28, 8.36, 268.44
452.42, 8.48, 268.56
452.57, 8.60, 268.68
452.73, 8.72, 268.81
452.89, 8.85, 268.94
453.05, 8.99, 269.07
453.33, 9.12, 269.29
453.76, 9.26, 269.63
454.36, 9.40, 270.10
455.04, 9.57, 270.63
449.62, 7.32, 266.23
449.80, 7.34, 266.37
450.00, 7.36, 266.52
450.21, 7.38, 266.67
450.43, 7.40, 266.84
450.68, 7.42, 267.03
450.95, 7.44, 267.23
451.20, 7.48, 267.42
451.31, 7.57, 267.51
451.42, 7.66, 267.60
451.54, 7.75, 267.69
451.66, 7.85, 267.79
451.78, 7.95, 267.88
451.91, 8.05, 267.98
452.04, 8.15, 268.08
452.18, 8.26, 268.19
452.31, 8.37, 268.30
452.46, 8.49, 268.41
452.61, 8.61, 268.53
452.76, 8.73, 268.65
452.92, 8.86, 268.78
453.09, 9.00, 268.91
453.41, 9.13, 269.16
453.80, 9.26, 269.45
454.35, 9.41, 269.88
455.03, 9.58, 270.39
449.67, 7.33, 266.16
449.85, 7.35, 266.29
¯450.05, 7.36, 266.44
450.27, 7.38, 266.60
450.50, 7.40, 266.77
450.76, 7.42, 266.95
451.03, 7.44, 267.15
451.23, 7.50, 267.30
451.34, 7.58, 267.39
451.46, 7.67, 267.48
451.58, 7.77, 267.57
451.70, 7.86, 267.66
451.82, 7.96, 267.75
451.95, 8.06, 267.85
452.08, 8.17, 267.95
452.21, 8.28, 268.05
452.35, 8.39, 268.16
452.49, 8.50, 268.27
452.64, 8.62, 268.38
452.80, 8.75, 268.50
452.96, 8.87, 268.62
453.12, 9.01, 268.75
453.48, 9.13, 269.02
453.87, 9.27, 269.31
454.35, 9.42, 269.66
455.02, 9.59, 270.16
449.72, 7.33, 266.08
449.91, 7.35, 266.22
450.12, 7.36, 266.37
450.34, 7.38, 266.53
450.58, 7.40, 266.70
450.84, 7.42, 266.88
451.11, 7.44, 267.07
451.26, 7.51, 267.18
451.37, 7.60, 267.27
451.49, 7.69, 267.35
451.61, 7.78, 267.44
451.73, 7.88, 267.53
451.85, 7.97, 267.62
451.98, 8.08, 267.72
452.11, 8.18, 267.81
452.25, 8.29, 267.91
452.38, 8.40, 268.02
452.53, 8.51, 268.13
452.68, 8.63, 268.24
452.83, 8.76, 268.35
452.99, 8.88, 268.47
453.19, 9.01, 268.61
453.55, 9.14, 268.88
453.95, 9.28, 269.16
454.38, 9.43, 269.47
455.01, 9.59, 269.93
449.78, 7.33, 266.02
¯449.97, 7.35, 266.15
450.18, 7.36, 266.30
450.41, 7.38, 266.45
450.65, 7.40, 266.62
450.91, 7.42, 266.80
451.18, 7.44, 266.99
451.29, 7.53, 267.06
451.40, 7.62, 267.15
451.52, 7.70, 267.23
451.64, 7.80, 267.31
451.76, 7.89, 267.40
451.89, 7.99, 267.49
452.01, 8.09, 267.59
452.15, 8.19, 267.68
452.28, 8.30, 267.78
452.42, 8.41, 267.88
452.56, 8.53, 267.98
452.71, 8.64, 268.09
452.86, 8.77, 268.20
453.02, 8.89, 268.32
453.26, 9.02, 268.48
453.62, 9.15, 268.74
454.02, 9.29, 269.02
454.45, 9.44, 269.32
455.00, 9.60, 269.70
449.84, 7.33, 265.95
450.04, 7.34, 266.09
450.25, 7.36, 266.23
450.48, 7.38, 266.38
450.72, 7.40, 266.55
450.99, 7.42, 266.72
451.21, 7.46, 266.87
451.32, 7.54, 266.95
451.43, 7.63, 267.03
451.55, 7.72, 267.11
451.67, 7.81, 267.19
451.79, 7.91, 267.28
451.91, 8.00, 267.36
452.04, 8.10, 267.46
452.18, 8.21, 267.55
452.31, 8.31, 267.64
452.45, 8.42, 267.74
452.60, 8.54, 267.84
452.74, 8.65, 267.95
452.90, 8.78, 268.05
453.06, 8.90, 268.17
453.32, 9.03, 268.35
453.69, 9.15, 268.60
454.09, 9.29, 268.87
454.53, 9.44, 269.17
455.01, 9.61, 269.50
¯449.90, 7.33, 265.88
450.10, 7.34, 266.02
450.32, 7.36, 266.16
450.55, 7.38, 266.31
450.80, 7.39, 266.47
451.06, 7.41, 266.64
451.24, 7.47, 266.76
451.35, 7.56, 266.83
451.46, 7.64, 266.91
451.58, 7.73, 266.99
451.69, 7.82, 267.07
451.82, 7.92, 267.15
451.94, 8.02, 267.24
452.07, 8.12, 267.32
452.21, 8.22, 267.42
452.34, 8.32, 267.51
452.48, 8.43, 267.61
452.63, 8.55, 267.70
452.78, 8.67, 267.80
452.93, 8.79, 267.91
453.09, 8.91, 268.02
453.39, 9.03, 268.22
453.76, 9.16, 268.46
454.16, 9.30, 268.73
454.60, 9.45, 269.02
455.08, 9.62, 269.33
449.96, 7.33, 265.82
450.16, 7.34, 265.95
450.38, 7.36, 266.08
450.62, 7.37, 266.23
450.87, 7.39, 266.39
451.14, 7.41, 266.56
451.27, 7.49, 266.64
451.38, 7.57, 266.72
451.49, 7.66, 266.79
451.60, 7.75, 266.87
451.72, 7.84, 266.95
451.84, 7.93, 267.03
451.97, 8.03, 267.11
452.10, 8.13, 267.19
452.23, 8.23, 267.28
452.37, 8.34, 267.37
452.51, 8.45, 267.47
452.66, 8.56, 267.56
452.81, 8.68, 267.66
452.96, 8.80, 267.76
453.12, 8.92, 267.87
453.46, 9.04, 268.09
453.83, 9.17, 268.33
454.23, 9.31, 268.58
454.67, 9.46, 268.86
¯450.02, 7.32, 265.75
450.22, 7.34, 265.88
450.45, 7.36, 266.01
450.68, 7.37, 266.16
450.94, 7.39, 266.31
451.19, 7.42, 266.46
451.29, 7.50, 266.53
451.40, 7.59, 266.60
451.52, 7.67, 266.67
451.63, 7.76, 266.75
451.75, 7.85, 266.82
451.87, 7.95, 266.90
452.00, 8.04, 266.98
452.13, 8.14, 267.07
452.26, 8.24, 267.15
452.40, 8.35, 267.24
452.54, 8.46, 267.33
452.69, 8.57, 267.42
452.84, 8.69, 267.52
452.99, 8.81, 267.62
453.18, 8.93, 267.74
453.52, 9.05, 267.95
453.90, 9.17, 268.19
454.30, 9.31, 268.44
454.74, 9.46, 268.71
450.07, 7.32, 265.68
450.28, 7.34, 265.80
450.51, 7.35, 265.94
450.75, 7.37, 266.08
451.01, 7.39, 266.23
451.21, 7.43, 266.35
451.32, 7.52, 266.42
451.43, 7.60, 266.49
451.54, 7.69, 266.56
451.66, 7.77, 266.63
451.78, 7.86, 266.70
451.90, 7.96, 266.78
452.02, 8.05, 266.86
452.15, 8.15, 266.94
452.29, 8.25, 267.02
452.42, 8.36, 267.11
452.56, 8.47, 267.19
452.71, 8.58, 267.29
452.86, 8.70, 267.38
453.02, 8.82, 267.48
453.24, 8.94, 267.61
453.59, 9.05, 267.82
453.96, 9.18, 268.05
454.36, 9.32, 268.29
454.81, 9.47, 268.56
450.13, 7.32, 265.61
¯450.34, 7.34, 265.73
450.57, 7.35, 265.86
450.82, 7.37, 266.00
451.08, 7.39, 266.15
451.24, 7.45, 266.25
451.35, 7.53, 266.31
451.46, 7.61, 266.38
451.57, 7.70, 266.44
451.69, 7.79, 266.51
451.80, 7.88, 266.58
451.93, 7.97, 266.66
452.05, 8.07, 266.73
452.18, 8.16, 266.81
452.31, 8.27, 266.89
452.45, 8.37, 266.97
452.59, 8.48, 267.06
452.75, 8.59, 267.15
452.92, 8.70, 267.26
453.10, 8.82, 267.36
453.34, 8.94, 267.51
453.65, 9.06, 267.69
454.02, 9.19, 267.91
454.43, 9.33, 268.14
454.87, 9.48, 268.40
450.17, 7.33, 265.53
450.40, 7.33, 265.66
450.63, 7.35, 265.78
450.88, 7.37, 265.92
451.15, 7.39, 266.07
451.27, 7.46, 266.14
451.37, 7.54, 266.20
451.48, 7.63, 266.26
451.60, 7.71, 266.33
451.71, 7.80, 266.40
451.83, 7.89, 266.47
451.95, 7.98, 266.54
452.08, 8.08, 266.61
452.20, 8.18, 266.69
452.35, 8.28, 266.77
452.50, 8.38, 266.86
452.66, 8.48, 266.95
452.83, 8.59, 267.05
453.00, 8.71, 267.15
453.20, 8.82, 267.26
453.45, 8.94, 267.41
453.72, 9.07, 267.56
454.09, 9.19, 267.77
454.50, 9.33, 268.00
454.94, 9.48, 268.25
450.21, 7.33, 265.45
450.45, 7.34, 265.58
¯450.70, 7.35, 265.71
450.95, 7.37, 265.84
451.19, 7.39, 265.97
451.29, 7.47, 266.03
451.40, 7.55, 266.09
451.51, 7.64, 266.15
451.62, 7.72, 266.22
451.74, 7.81, 266.28
451.85, 7.90, 266.35
451.98, 7.99, 266.42
452.12, 8.08, 266.50
452.27, 8.18, 266.58
452.42, 8.28, 266.66
452.57, 8.38, 266.75
452.74, 8.49, 266.84
452.90, 8.60, 266.94
453.08, 8.71, 267.04
453.31, 8.82, 267.16
453.56, 8.94, 267.31
453.84, 9.07, 267.46
454.15, 9.20, 267.63
454.56, 9.34, 267.85
455.01, 9.49, 268.10
450.25, 7.33, 265.37
450.50, 7.34, 265.49
450.76, 7.35, 265.63
451.01, 7.36, 265.76
451.21, 7.40, 265.87
451.32, 7.48, 265.92
451.42, 7.57, 265.98
451.53, 7.65, 266.04
451.65, 7.73, 266.10
451.77, 7.82, 266.17
451.91, 7.91, 266.25
452.05, 7.99, 266.32
452.19, 8.09, 266.40
452.34, 8.18, 266.48
452.49, 8.28, 266.56
452.65, 8.38, 266.65
452.81, 8.49, 266.74
452.98, 8.60, 266.83
453.17, 8.71, 266.93
453.42, 8.83, 267.06
453.68, 8.94, 267.20
453.96, 9.07, 267.35
454.25, 9.21, 267.51
454.62, 9.35, 267.71
455.08, 9.50, 267.95
450.29, 7.34, 265.29
450.54, 7.34, 265.41
450.80, 7.35, 265.54
¯451.07, 7.36, 265.68
451.24, 7.42, 265.76
451.34, 7.50, 265.82
451.46, 7.58, 265.88
451.58, 7.65, 265.94
451.71, 7.74, 266.01
451.84, 7.82, 266.08
451.97, 7.91, 266.15
452.11, 8.00, 266.22
452.26, 8.09, 266.30
452.41, 8.18, 266.38
452.56, 8.28, 266.46
452.72, 8.39, 266.54
452.89, 8.49, 266.63
453.06, 8.60, 266.72
453.28, 8.71, 266.83
453.53, 8.83, 266.96
453.79, 8.95, 267.10
454.08, 9.07, 267.25
454.38, 9.21, 267.40
454.70, 9.35, 267.57
450.33, 7.34, 265.21
450.58, 7.35, 265.33
450.84, 7.35, 265.45
451.13, 7.36, 265.59
451.28, 7.42, 265.67
451.39, 7.50, 265.73
451.52, 7.58, 265.79
451.64, 7.66, 265.85
451.77, 7.74, 265.92
451.90, 7.82, 265.98
452.04, 7.91, 266.05
452.18, 8.00, 266.12
452.33, 8.09, 266.20
452.48, 8.19, 266.27
452.63, 8.29, 266.35
452.79, 8.39, 266.44
452.96, 8.49, 266.52
453.14, 8.60, 266.61
453.38, 8.71, 266.73
453.64, 8.83, 266.86
453.91, 8.95, 267.00
454.20, 9.08, 267.14
454.50, 9.21, 267.29
454.83, 9.36, 267.45
450.37, 7.35, 265.13
450.62, 7.35, 265.24
450.88, 7.36, 265.37
451.18, 7.36, 265.50
451.31, 7.43, 265.57
451.45, 7.50, 265.64
¯451.58, 7.58, 265.70
451.70, 7.66, 265.76
451.83, 7.74, 265.82
451.97, 7.82, 265.89
452.10, 7.91, 265.95
452.25, 8.00, 266.02
452.39, 8.09, 266.10
452.55, 8.19, 266.17
452.70, 8.29, 266.25
452.87, 8.39, 266.33
453.04, 8.50, 266.41
453.24, 8.60, 266.51
453.49, 8.71, 266.63
453.75, 8.83, 266.76
454.03, 8.95, 266.89
454.32, 9.08, 267.03
454.63, 9.21, 267.18
454.91, 9.36, 267.32
450.41, 7.35, 265.05
450.66, 7.36, 265.16
450.93, 7.36, 265.28
451.20, 7.37, 265.40
451.34, 7.44, 265.47
451.48, 7.51, 265.53
451.63, 7.58, 265.60
451.76, 7.66, 265.66
451.89, 7.74, 265.73
452.03, 7.82, 265.79
452.17, 7.91, 265.86
452.31, 8.00, 265.92
452.46, 8.09, 265.99
452.62, 8.19, 266.07
452.78, 8.29, 266.14
452.94, 8.39, 266.22
453.11, 8.50, 266.30
453.35, 8.60, 266.41
453.60, 8.71, 266.53
453.87, 8.83, 266.65
454.15, 8.95, 266.78
454.44, 9.08, 266.92
454.68, 9.22, 267.03
454.94, 9.37, 267.15
450.44, 7.35, 264.96
450.70, 7.36, 265.07
450.99, 7.36, 265.20
451.22, 7.38, 265.30
451.36, 7.45, 265.36
451.50, 7.52, 265.43
451.65, 7.59, 265.49
451.80, 7.66, 265.56
451.96, 7.74, 265.63
¯452.09, 7.82, 265.69
452.23, 7.91, 265.76
452.38, 8.00, 265.82
452.53, 8.09, 265.89
452.69, 8.19, 265.96
452.85, 8.29, 266.04
453.01, 8.39, 266.11
453.21, 8.50, 266.20
453.45, 8.60, 266.31
453.71, 8.71, 266.42
453.98, 8.83, 266.55
454.23, 8.95, 266.66
454.47, 9.09, 266.76
454.71, 9.23, 266.88
454.97, 9.38, 266.99
450.48, 7.35, 264.88
450.75, 7.36, 264.99
451.04, 7.36, 265.11
451.25, 7.39, 265.20
451.38, 7.46, 265.26
451.53, 7.53, 265.32
451.67, 7.60, 265.39
451.82, 7.67, 265.45
451.98, 7.75, 265.52
452.14, 7.83, 265.59
452.30, 7.91, 265.66
452.45, 8.00, 265.72
452.60, 8.09, 265.79
452.76, 8.19, 265.86
452.92, 8.29, 265.93
453.09, 8.39, 266.00
453.31, 8.50, 266.10
453.56, 8.60, 266.21
453.82, 8.71, 266.32
454.03, 8.83, 266.41
454.26, 8.96, 266.51
454.50, 9.10, 266.61
454.74, 9.24, 266.72
455.00, 9.38, 266.83
450.52, 7.35, 264.80
450.79, 7.35, 264.91
451.09, 7.36, 265.03
451.27, 7.40, 265.10
451.41, 7.47, 265.16
451.55, 7.54, 265.22
451.69, 7.61, 265.28
451.85, 7.68, 265.34
452.00, 7.76, 265.41
452.17, 7.83, 265.47
452.33, 7.92, 265.55
452.51, 8.00, 265.62
¯452.67, 8.09, 265.68
452.83, 8.19, 265.75
452.99, 8.29, 265.82
453.17, 8.39, 265.90
453.41, 8.49, 266.00
453.64, 8.60, 266.09
453.85, 8.72, 266.18
454.06, 8.84, 266.27
454.29, 8.97, 266.36
454.52, 9.10, 266.46
454.77, 9.24, 266.57
455.03, 9.39, 266.68
450.57, 7.35, 264.72
450.84, 7.35, 264.83
451.14, 7.35, 264.94
451.29, 7.41, 265.00
451.43, 7.48, 265.06
451.57, 7.55, 265.11
451.71, 7.62, 265.17
451.87, 7.69, 265.23
452.02, 7.77, 265.30
452.19, 7.84, 265.36
452.36, 7.93, 265.43
452.53, 8.01, 265.50
452.71, 8.10, 265.57
452.90, 8.19, 265.65
453.06, 8.29, 265.71
453.27, 8.39, 265.80
453.47, 8.50, 265.88
453.67, 8.61, 265.96
453.88, 8.73, 266.04
454.09, 8.85, 266.13
454.32, 8.98, 266.22
454.55, 9.11, 266.31
454.80, 9.25, 266.41
455.06, 9.40, 266.52
450.61, 7.35, 264.64
450.89, 7.35, 264.74
451.18, 7.36, 264.85
451.31, 7.42, 264.90
451.45, 7.49, 264.95
451.59, 7.55, 265.01
451.74, 7.63, 265.07
451.89, 7.70, 265.12
452.04, 7.77, 265.18
452.21, 7.85, 265.25
452.38, 7.93, 265.31
452.55, 8.02, 265.38
452.74, 8.11, 265.45
452.93, 8.20, 265.52
453.13, 8.29, 265.60
¯453.31, 8.40, 265.67
453.50, 8.51, 265.75
453.70, 8.62, 265.82
453.90, 8.73, 265.90
454.12, 8.86, 265.99
454.35, 8.98, 266.07
454.58, 9.12, 266.16
454.83, 9.26, 266.26
450.65, 7.35, 264.56
450.93, 7.35, 264.66
451.20, 7.36, 264.75
451.33, 7.43, 264.80
451.47, 7.50, 264.85
451.61, 7.56, 264.91
451.76, 7.63, 264.96
451.91, 7.71, 265.02
452.06, 7.78, 265.07
452.23, 7.86, 265.13
452.40, 7.94, 265.20
452.57, 8.03, 265.26
452.76, 8.12, 265.33
452.95, 8.21, 265.40
453.15, 8.30, 265.47
453.34, 8.41, 265.54
453.53, 8.51, 265.61
453.73, 8.63, 265.69
453.93, 8.74, 265.76
454.15, 8.86, 265.84
454.37, 8.99, 265.93
454.61, 9.12, 266.02
454.86, 9.26, 266.11
450.69, 7.35, 264.48
450.97, 7.35, 264.57
451.22, 7.37, 264.66
451.35, 7.44, 264.70
451.49, 7.50, 264.75
451.63, 7.57, 264.80
451.77, 7.64, 264.85
451.93, 7.72, 264.91
452.08, 7.79, 264.96
452.25, 7.87, 265.02
452.42, 7.95, 265.08
452.59, 8.04, 265.14
452.78, 8.12, 265.21
452.98, 8.21, 265.28
453.18, 8.31, 265.35
453.36, 8.41, 265.41
453.55, 8.52, 265.48
453.75, 8.63, 265.55
453.96, 8.75, 265.63
454.18, 8.87, 265.70
¯454.40, 9.00, 265.78
454.64, 9.13, 265.87
454.89, 9.27, 265.96
450.73, 7.35, 264.40
451.01, 7.35, 264.49
451.23, 7.38, 264.56
451.37, 7.44, 264.61
451.50, 7.51, 264.65
451.65, 7.58, 264.70
451.79, 7.65, 264.75
451.95, 7.72, 264.80
452.10, 7.80, 264.85
452.27, 7.88, 264.91
452.44, 7.96, 264.97
452.62, 8.04, 265.03
452.81, 8.13, 265.09
453.01, 8.22, 265.16
453.21, 8.32, 265.22
453.39, 8.42, 265.29
453.58, 8.53, 265.35
453.78, 8.64, 265.42
453.99, 8.76, 265.49
454.20, 8.88, 265.56
454.43, 9.01, 265.64
454.67, 9.14, 265.72
454.91, 9.28, 265.81
450.77, 7.35, 264.32
451.05, 7.35, 264.40
451.25, 7.39, 264.46
451.38, 7.45, 264.51
451.52, 7.52, 264.55
451.66, 7.59, 264.60
451.81, 7.66, 264.64
451.96, 7.73, 264.69
452.12, 7.81, 264.74
452.28, 7.89, 264.80
452.46, 7.97, 264.85
452.65, 8.05, 264.91
452.84, 8.14, 264.97
453.04, 8.23, 265.04
453.23, 8.32, 265.10
453.41, 8.43, 265.16
453.61, 8.53, 265.22
453.81, 8.65, 265.29
454.01, 8.76, 265.35
454.23, 8.88, 265.42
454.46, 9.01, 265.50
454.69, 9.14, 265.57
454.94, 9.28, 265.66
450.81, 7.35, 264.23
451.09, 7.35, 264.31
¯451.27, 7.40, 264.37
451.40, 7.46, 264.41
451.54, 7.53, 264.45
451.68, 7.59, 264.49
451.83, 7.67, 264.54
451.98, 7.74, 264.59
452.14, 7.81, 264.63
452.31, 7.89, 264.69
452.49, 7.97, 264.74
452.67, 8.05, 264.80
452.87, 8.14, 264.86
453.07, 8.23, 264.92
453.26, 8.33, 264.97
453.44, 8.43, 265.03
453.63, 8.54, 265.09
453.83, 8.65, 265.15
454.04, 8.77, 265.22
454.26, 8.89, 265.28
454.48, 9.02, 265.35
454.72, 9.15, 265.43
455.00, 9.29, 265.51
450.84, 7.35, 264.15
451.13, 7.35, 264.23
451.28, 7.40, 264.27
451.42, 7.47, 264.31
451.56, 7.53, 264.35
451.70, 7.60, 264.39
451.85, 7.67, 264.43
452.00, 7.75, 264.48
452.17, 7.82, 264.53
452.34, 7.90, 264.58
452.52, 7.98, 264.63
452.70, 8.06, 264.68
452.90, 8.15, 264.74
453.10, 8.24, 264.80
453.28, 8.34, 264.85
453.46, 8.44, 264.90
453.66, 8.55, 264.96
453.86, 8.66, 265.02
454.06, 8.78, 265.08
454.28, 8.90, 265.15
454.51, 9.02, 265.21
454.78, 9.16, 265.29
450.88, 7.35, 264.06
451.17, 7.35, 264.14
451.30, 7.41, 264.17
451.43, 7.47, 264.21
451.57, 7.54, 264.25
451.72, 7.61, 264.29
451.87, 7.68, 264.33
452.03, 7.75, 264.37
¯452.19, 7.82, 264.42
452.36, 7.90, 264.47
452.54, 7.98, 264.52
452.73, 8.06, 264.57
452.92, 8.15, 264.62
453.13, 8.24, 264.68
453.30, 8.34, 264.73
453.49, 8.45, 264.78
453.68, 8.55, 264.83
453.88, 8.67, 264.89
454.09, 8.78, 264.95
454.31, 8.90, 265.01
454.57, 9.03, 265.08
450.91, 7.35, 263.98
451.19, 7.35, 264.04
451.32, 7.42, 264.08
451.45, 7.48, 264.11
451.59, 7.55, 264.15
451.73, 7.61, 264.19
451.89, 7.68, 264.23
452.05, 7.75, 264.27
452.22, 7.83, 264.31
452.39, 7.91, 264.36
452.57, 7.99, 264.40
452.76, 8.07, 264.45
452.95, 8.16, 264.50
453.15, 8.25, 264.55
453.33, 8.35, 264.60
453.51, 8.45, 264.65
453.71, 8.56, 264.70
453.91, 8.67, 264.75
454.12, 8.79, 264.81
454.37, 8.91, 264.88
450.94, 7.35, 263.89
451.20, 7.36, 263.95
451.33, 7.42, 263.98
451.46, 7.49, 264.01
451.61, 7.55, 264.05
451.76, 7.62, 264.09
451.91, 7.69, 264.12
452.07, 7.76, 264.16
452.24, 7.83, 264.20
452.41, 7.91, 264.25
452.59, 7.99, 264.29
452.78, 8.07, 264.34
452.98, 8.16, 264.39
453.17, 8.25, 264.43
453.35, 8.35, 264.48
453.54, 8.46, 264.52
453.73, 8.56, 264.57
453.93, 8.68, 264.62
¯454.17, 8.79, 264.68
454.86, 8.88, 264.84
450.98, 7.34, 263.80
451.21, 7.37, 263.86
451.34, 7.43, 263.89
451.48, 7.49, 263.92
451.63, 7.56, 263.95
451.78, 7.62, 263.99
451.93, 7.69, 264.02
452.10, 7.76, 264.06
452.26, 7.84, 264.10
452.44, 7.91, 264.14
452.62, 8.00, 264.18
452.81, 8.08, 264.22
453.00, 8.17, 264.27
453.19, 8.26, 264.31
453.37, 8.36, 264.35
453.56, 8.46, 264.40
453.75, 8.57, 264.44
453.99, 8.68, 264.50
454.65, 8.76, 264.64
451.01, 7.34, 263.72
451.23, 7.37, 263.76
451.36, 7.43, 263.79
451.50, 7.49, 263.82
451.65, 7.56, 263.85
451.80, 7.63, 263.88
451.96, 7.70, 263.92
452.12, 7.77, 263.95
452.29, 7.84, 263.99
452.46, 7.92, 264.03
452.64, 8.00, 264.07
452.83, 8.08, 264.11
453.03, 8.17, 264.15
453.22, 8.26, 264.19
453.40, 8.36, 264.23
453.58, 8.47, 264.27
453.80, 8.57, 264.32
454.44, 8.64, 264.45
451.03, 7.34, 263.63
451.24, 7.37, 263.67
451.38, 7.44, 263.70
451.52, 7.50, 263.72
451.67, 7.56, 263.75
451.82, 7.63, 263.78
451.98, 7.70, 263.82
452.14, 7.77, 263.85
452.31, 7.85, 263.88
452.48, 7.92, 263.92
452.67, 8.00, 263.95
452.86, 8.09, 263.99
¯453.05, 8.17, 264.03
453.24, 8.27, 264.07
453.42, 8.37, 264.11
453.63, 8.47, 264.15
454.24, 8.53, 264.26
454.93, 8.60, 264.39
451.05, 7.35, 263.54
451.25, 7.38, 263.57
451.39, 7.44, 263.60
451.54, 7.50, 263.63
451.69, 7.57, 263.65
451.84, 7.63, 263.68
452.00, 7.70, 263.71
452.16, 7.77, 263.74
452.33, 7.85, 263.77
452.51, 7.93, 263.81
452.69, 8.01, 263.84
452.88, 8.09, 263.88
453.08, 8.18, 263.91
453.26, 8.27, 263.95
453.45, 8.37, 263.98
454.04, 8.42, 264.09
454.71, 8.48, 264.20
451.07, 7.35, 263.45
451.26, 7.39, 263.48
451.40, 7.45, 263.50
451.55, 7.51, 263.53
451.70, 7.57, 263.55
451.85, 7.64, 263.58
452.01, 7.71, 263.61
452.18, 7.78, 263.64
452.35, 7.85, 263.67
452.53, 7.93, 263.70
452.71, 8.01, 263.73
452.90, 8.09, 263.76
453.10, 8.18, 263.79
453.28, 8.28, 263.83
453.85, 8.32, 263.92
454.49, 8.37, 264.02
451.08, 7.35, 263.36
451.27, 7.39, 263.38
451.41, 7.45, 263.41
451.55, 7.51, 263.43
451.70, 7.58, 263.45
451.86, 7.64, 263.48
452.02, 7.71, 263.50
452.19, 7.78, 263.53
452.36, 7.86, 263.56
452.54, 7.94, 263.58
452.73, 8.02, 263.61
452.92, 8.10, 263.64
¯453.13, 8.19, 263.68
453.66, 8.23, 263.75
454.28, 8.27, 263.84
454.98, 8.32, 263.94
451.10, 7.35, 263.27
451.27, 7.40, 263.29
451.41, 7.46, 263.31
451.56, 7.52, 263.33
451.71, 7.58, 263.35
451.87, 7.65, 263.37
452.03, 7.72, 263.40
452.19, 7.79, 263.42
452.37, 7.86, 263.44
452.55, 7.94, 263.47
452.73, 8.02, 263.50
452.93, 8.10, 263.53
453.36, 8.15, 263.58
454.07, 8.17, 263.67
454.75, 8.21, 263.76
451.11, 7.36, 263.17
451.28, 7.40, 263.20
451.42, 7.46, 263.21
451.57, 7.53, 263.23
451.72, 7.59, 263.25
451.87, 7.66, 263.27
452.03, 7.72, 263.29
452.20, 7.80, 263.31
452.37, 7.87, 263.34
452.55, 7.95, 263.36
452.74, 8.03, 263.38
453.01, 8.10, 263.42
453.60, 8.12, 263.48
454.36, 8.13, 263.57
451.12, 7.36, 263.08
451.29, 7.41, 263.10
451.43, 7.47, 263.12
451.57, 7.53, 263.13
451.72, 7.59, 263.15
451.88, 7.66, 263.17
452.04, 7.73, 263.19
452.20, 7.80, 263.21
452.38, 7.88, 263.23
452.56, 7.95, 263.25
452.77, 8.03, 263.27
453.17, 8.07, 263.31
453.86, 8.08, 263.38
454.67, 8.09, 263.46
451.13, 7.36, 262.99
451.29, 7.41, 263.01
451.43, 7.47, 263.02
451.58, 7.54, 263.03
¯451.73, 7.60, 263.05
451.88, 7.67, 263.07
452.04, 7.73, 263.08
452.21, 7.81, 263.10
452.38, 7.88, 263.12
452.56, 7.96, 263.13
452.90, 8.01, 263.16
453.41, 8.04, 263.21
454.13, 8.04, 263.27
454.81, 8.07, 263.33
451.14, 7.36, 262.90
451.29, 7.42, 262.91
451.44, 7.48, 262.92
451.58, 7.54, 262.94
451.73, 7.60, 262.95
451.89, 7.67, 262.96
452.05, 7.74, 262.98
452.21, 7.81, 262.99
452.39, 7.89, 263.01
452.66, 7.94, 263.03
453.04, 7.99, 263.06
453.65, 8.00, 263.10
454.42, 8.00, 263.15
454.82, 8.08, 263.18
451.15, 7.37, 262.81
451.30, 7.42, 262.82
451.44, 7.48, 262.83
451.58, 7.54, 262.84
451.73, 7.61, 262.85
451.89, 7.68, 262.86
452.05, 7.74, 262.87
452.22, 7.82, 262.88
452.43, 7.88, 262.90
452.79, 7.92, 262.92
453.21, 7.96, 262.94
453.90, 7.96, 262.98
454.52, 7.99, 263.02
454.82, 8.09, 263.04
451.16, 7.37, 262.72
451.30, 7.43, 262.72
451.44, 7.49, 262.73
451.59, 7.55, 262.74
451.74, 7.61, 262.75
451.89, 7.68, 262.76
452.05, 7.75, 262.77
452.22, 7.82, 262.78
452.55, 7.86, 262.79
452.92, 7.90, 262.81
453.44, 7.92, 262.83
454.17, 7.92, 262.86
454.52, 8.00, 262.88
¯454.82, 8.09, 262.90
451.16, 7.37, 262.62
451.30, 7.43, 262.63
451.44, 7.49, 262.64
451.59, 7.55, 262.64
451.74, 7.62, 262.65
451.89, 7.68, 262.66
452.06, 7.75, 262.66
452.32, 7.80, 262.67
452.67, 7.84, 262.68
453.05, 7.88, 262.69
453.68, 7.88, 262.71
454.24, 7.91, 262.73
454.52, 8.00, 262.74
454.82, 8.10, 262.75
451.17, 7.38, 262.53
451.31, 7.43, 262.54
451.45, 7.49, 262.54
451.59, 7.56, 262.54
451.74, 7.62, 262.55
451.90, 7.69, 262.55
452.10, 7.74, 262.56
452.44, 7.78, 262.56
452.80, 7.81, 262.57
453.22, 7.84, 262.58
453.93, 7.83, 262.59
454.24, 7.91, 262.59
454.52, 8.01, 262.60
454.82, 8.10, 262.61
451.17, 7.38, 262.44
451.31, 7.44, 262.44
451.45, 7.50, 262.44
451.59, 7.56, 262.45
451.74, 7.62, 262.45
451.90, 7.69, 262.45
452.21, 7.72, 262.45
452.55, 7.75, 262.45
452.92, 7.79, 262.45
453.45, 7.80, 262.45
453.97, 7.83, 262.46
454.24, 7.92, 262.46
454.52, 8.01, 262.46
454.82, 8.11, 262.47
451.17, 7.38, 262.35
451.31, 7.44, 262.35
451.45, 7.50, 262.35
451.59, 7.56, 262.35
451.74, 7.63, 262.35
451.99, 7.67, 262.35
452.32, 7.70, 262.34
452.67, 7.73, 262.34
¯453.05, 7.76, 262.33
453.68, 7.76, 262.33
453.97, 7.84, 262.32
454.24, 7.92, 262.32
454.52, 8.02, 262.32
454.82, 8.11, 262.32
451.17, 7.38, 262.25
451.31, 7.44, 262.25
451.45, 7.50, 262.25
451.59, 7.56, 262.25
451.78, 7.62, 262.25
452.09, 7.64, 262.24
452.43, 7.67, 262.23
452.79, 7.70, 262.22
453.22, 7.73, 262.21
453.71, 7.76, 262.20
453.97, 7.84, 262.19
454.24, 7.93, 262.19
454.52, 8.02, 262.18
454.82, 8.12, 262.18
448.29, 8.37, 262.31
448.30, 8.43, 262.32
448.30, 8.49, 262.32
448.31, 8.54, 262.32
448.31, 8.60, 262.32
448.31, 8.66, 262.32
448.32, 8.71, 262.33
448.32, 8.77, 262.33
448.33, 8.82, 262.33
448.33, 8.88, 262.33
448.33, 8.93, 262.33
448.34, 8.99, 262.33
448.34, 9.04, 262.34
448.35, 9.09, 262.34
448.35, 9.15, 262.34
448.37, 9.20, 262.34
448.41, 9.25, 262.34
448.22, 8.40, 262.27
448.22, 8.45, 262.27
448.23, 8.51, 262.27
448.23, 8.57, 262.27
448.23, 8.62, 262.27
448.23, 8.68, 262.28
448.24, 8.73, 262.28
448.24, 8.79, 262.28
448.24, 8.84, 262.28
448.24, 8.90, 262.28
448.24, 8.95, 262.28
448.25, 9.00, 262.29
448.25, 9.06, 262.29
448.25, 9.11, 262.29
¯448.25, 9.16, 262.29
448.26, 9.21, 262.29
448.29, 9.27, 262.29
448.33, 9.31, 262.29
448.39, 9.36, 262.29
448.17, 8.41, 262.22
448.17, 8.47, 262.22
448.18, 8.53, 262.22
448.18, 8.58, 262.22
448.18, 8.64, 262.23
448.18, 8.69, 262.23
448.18, 8.75, 262.23
448.18, 8.80, 262.23
448.19, 8.85, 262.23
448.19, 8.91, 262.24
448.19, 8.96, 262.24
448.19, 9.01, 262.24
448.19, 9.07, 262.24
448.19, 9.12, 262.24
448.20, 9.17, 262.24
448.20, 9.22, 262.24
448.22, 9.27, 262.24
448.25, 9.32, 262.24
448.30, 9.37, 262.24
448.37, 9.42, 262.24
448.14, 8.43, 262.17
448.14, 8.48, 262.17
448.14, 8.54, 262.18
448.14, 8.59, 262.18
448.14, 8.65, 262.18
448.14, 8.70, 262.18
448.14, 8.76, 262.18
448.15, 8.81, 262.18
448.15, 8.86, 262.19
448.15, 8.92, 262.19
448.15, 8.97, 262.19
448.15, 9.02, 262.19
448.15, 9.07, 262.19
448.15, 9.13, 262.19
448.15, 9.18, 262.20
448.16, 9.23, 262.20
448.18, 9.28, 262.20
448.21, 9.33, 262.20
448.24, 9.38, 262.19
448.30, 9.43, 262.19
448.40, 9.48, 262.19
448.11, 8.44, 262.12
448.11, 8.49, 262.13
448.11, 8.55, 262.13
448.11, 8.60, 262.13
448.11, 8.66, 262.13
¯448.12, 8.71, 262.13
448.12, 8.76, 262.13
448.12, 8.82, 262.14
448.12, 8.87, 262.14
448.12, 8.92, 262.14
448.12, 8.98, 262.14
448.12, 9.03, 262.14
448.12, 9.08, 262.14
448.12, 9.13, 262.15
448.12, 9.18, 262.15
448.13, 9.23, 262.15
448.15, 9.28, 262.15
448.17, 9.33, 262.15
448.21, 9.38, 262.15
448.25, 9.43, 262.14
448.33, 9.48, 262.14
448.09, 8.44, 262.08
448.09, 8.50, 262.08
448.09, 8.55, 262.08
448.09, 8.61, 262.08
448.09, 8.66, 262.08
448.10, 8.72, 262.08
448.10, 8.77, 262.09
448.10, 8.82, 262.09
448.10, 8.88, 262.09
448.10, 8.93, 262.09
448.10, 8.98, 262.09
448.10, 9.03, 262.09
448.10, 9.08, 262.10
448.10, 9.14, 262.10
448.10, 9.19, 262.10
448.11, 9.24, 262.10
448.13, 9.29, 262.10
448.15, 9.34, 262.10
448.18, 9.39, 262.10
448.22, 9.43, 262.09
448.29, 9.48, 262.09
448.41, 9.53, 262.08
448.08, 8.45, 262.03
448.08, 8.50, 262.03
448.08, 8.56, 262.03
448.08, 8.61, 262.03
448.08, 8.67, 262.03
448.08, 8.72, 262.04
448.08, 8.77, 262.04
448.08, 8.83, 262.04
448.08, 8.88, 262.04
448.08, 8.93, 262.04
448.08, 8.98, 262.04
448.08, 9.04, 262.05
448.08, 9.09, 262.05
¯448.08, 9.14, 262.05
448.09, 9.19, 262.05
448.10, 9.24, 262.05
448.11, 9.29, 262.05
448.13, 9.34, 262.05
448.16, 9.39, 262.05
448.20, 9.44, 262.04
448.26, 9.49, 262.04
448.37, 9.54, 262.03
448.07, 8.45, 261.98
448.07, 8.50, 261.98
448.07, 8.56, 261.98
448.07, 8.61, 261.98
448.07, 8.67, 261.98
448.07, 8.72, 261.99
448.08, 8.78, 261.99
448.08, 8.83, 261.99
448.08, 8.88, 261.99
448.08, 8.93, 261.99
448.08, 8.99, 261.99
448.08, 9.04, 262.00
448.08, 9.09, 262.00
448.08, 9.14, 262.00
448.08, 9.19, 262.00
448.09, 9.24, 262.00
448.10, 9.29, 262.00
448.12, 9.34, 262.00
448.15, 9.39, 262.00
448.19, 9.44, 261.99
448.25, 9.49, 261.99
448.35, 9.54, 261.97
448.07, 8.45, 261.93
448.07, 8.50, 261.93
448.07, 8.56, 261.93
448.07, 8.61, 261.93
448.07, 8.67, 261.93
448.07, 8.72, 261.94
448.07, 8.78, 261.94
448.07, 8.83, 261.94
448.07, 8.88, 261.94
448.07, 8.93, 261.94
448.07, 8.99, 261.94
448.07, 9.04, 261.95
448.07, 9.09, 261.95
448.07, 9.14, 261.95
448.08, 9.19, 261.95
448.08, 9.24, 261.95
448.10, 9.29, 261.95
448.12, 9.34, 261.95
448.15, 9.39, 261.95
448.19, 9.44, 261.94
¯448.25, 9.49, 261.93
448.36, 9.54, 261.92
448.08, 8.44, 261.87
448.08, 8.50, 261.88
448.08, 8.56, 261.88
448.08, 8.61, 261.88
448.08, 8.67, 261.88
448.08, 8.72, 261.88
448.08, 8.77, 261.89
448.08, 8.83, 261.89
448.08, 8.88, 261.89
448.08, 8.93, 261.89
448.08, 8.99, 261.89
448.08, 9.04, 261.89
448.08, 9.09, 261.90
448.08, 9.14, 261.90
448.08, 9.19, 261.90
448.09, 9.24, 261.90
448.10, 9.29, 261.90
448.13, 9.34, 261.90
448.16, 9.39, 261.89
448.20, 9.44, 261.89
448.27, 9.49, 261.88
448.40, 9.54, 261.86
448.10, 8.44, 261.82
448.10, 8.49, 261.82
448.09, 8.55, 261.82
448.09, 8.61, 261.83
448.09, 8.66, 261.83
448.09, 8.72, 261.83
448.09, 8.77, 261.83
448.09, 8.82, 261.83
448.09, 8.88, 261.84
448.09, 8.93, 261.84
448.09, 8.98, 261.84
448.09, 9.04, 261.84
448.09, 9.09, 261.84
448.09, 9.14, 261.84
448.09, 9.19, 261.85
448.10, 9.24, 261.85
448.11, 9.29, 261.84
448.14, 9.34, 261.84
448.17, 9.39, 261.84
448.22, 9.44, 261.83
448.30, 9.49, 261.82
448.12, 8.43, 261.76
448.12, 8.48, 261.77
448.12, 8.54, 261.77
448.12, 8.60, 261.77
448.12, 8.65, 261.77
448.12, 8.71, 261.77
¯448.12, 8.76, 261.78
448.11, 8.82, 261.78
448.11, 8.87, 261.78
448.11, 8.93, 261.78
448.11, 8.98, 261.78
448.11, 9.03, 261.79
448.11, 9.09, 261.79
448.11, 9.14, 261.79
448.11, 9.19, 261.79
448.12, 9.24, 261.79
448.14, 9.29, 261.79
448.16, 9.34, 261.78
448.20, 9.39, 261.78
448.26, 9.44, 261.77
448.38, 9.49, 261.75
448.16, 8.41, 261.70
448.16, 8.47, 261.71
448.16, 8.53, 261.71
448.16, 8.58, 261.71
448.15, 8.64, 261.71
448.15, 8.70, 261.71
448.15, 8.75, 261.72
