ŸVERSION 0.7
FIELDS x y z
SIZE 8 8 8
TYPE F F F
COUNT 1 1 1
WIDTH 2271
HEIGHT 1
VIEWPOINT 393.29, 13.96, 248.00 1 381.69, 8.97, 264.29
POINTS 2271
DATA ascii
384.45, 7.31, 269.24
384.54, 7.32, 269.45
384.64, 7.34, 269.66
384.74, 7.36, 269.89
384.85, 7.38, 270.13
384.97, 7.40, 270.39
385.10, 7.43, 270.68
385.24, 7.46, 270.99
385.39, 7.49, 271.33
385.55, 7.52, 271.69
385.62, 7.61, 271.83
385.75, 7.68, 272.12
385.90, 7.75, 272.44
386.35, 7.73, 273.47
386.63, 7.79, 274.09
386.95, 7.86, 274.79
387.33, 7.93, 275.63
387.36, 8.10, 275.67
387.32, 8.29, 275.55
387.28, 8.47, 275.44
387.24, 8.64, 275.33
387.21, 8.82, 275.23
384.07, 7.23, 268.25
384.14, 7.24, 268.38
384.21, 7.25, 268.53
384.28, 7.26, 268.68
384.35, 7.27, 268.85
384.44, 7.29, 269.02
384.52, 7.30, 269.21
384.62, 7.32, 269.41
384.72, 7.33, 269.62
384.82, 7.35, 269.85
384.93, 7.38, 270.09
385.05, 7.40, 270.35
385.19, 7.42, 270.63
385.33, 7.45, 270.94
385.49, 7.48, 271.28
385.65, 7.52, 271.64
385.83, 7.56, 272.01
385.93, 7.65, 272.22
386.23, 7.66, 272.87
386.48, 7.72, 273.39
386.76, 7.78, 274.00
387.09, 7.85, 274.70
387.47, 7.93, 275.52
¯387.33, 8.13, 275.18
387.34, 8.30, 275.18
387.35, 8.47, 275.18
387.36, 8.64, 275.18
387.37, 8.81, 275.17
384.13, 7.23, 268.22
384.20, 7.24, 268.36
384.27, 7.25, 268.50
384.34, 7.26, 268.65
384.42, 7.27, 268.82
384.50, 7.28, 268.99
384.59, 7.30, 269.18
384.69, 7.31, 269.38
384.79, 7.33, 269.59
384.90, 7.35, 269.81
385.01, 7.37, 270.05
385.14, 7.39, 270.31
385.28, 7.42, 270.59
385.42, 7.45, 270.90
385.59, 7.48, 271.23
385.76, 7.51, 271.59
385.94, 7.55, 271.96
386.14, 7.60, 272.37
386.36, 7.66, 272.82
386.60, 7.71, 273.32
386.89, 7.77, 273.92
387.23, 7.84, 274.61
387.61, 7.92, 275.41
387.49, 8.12, 275.13
387.50, 8.29, 275.13
387.51, 8.46, 275.12
387.52, 8.63, 275.12
387.53, 8.80, 275.12
384.19, 7.22, 268.19
384.25, 7.23, 268.33
384.33, 7.24, 268.47
384.40, 7.25, 268.62
384.48, 7.27, 268.78
384.57, 7.28, 268.96
384.66, 7.29, 269.14
384.76, 7.31, 269.34
384.87, 7.32, 269.55
384.98, 7.34, 269.77
385.09, 7.37, 270.01
385.22, 7.39, 270.26
385.36, 7.41, 270.54
385.52, 7.44, 270.85
385.68, 7.47, 271.18
385.86, 7.50, 271.54
386.05, 7.55, 271.91
386.25, 7.59, 272.31
¯386.48, 7.65, 272.76
386.73, 7.71, 273.26
387.02, 7.77, 273.84
387.36, 7.84, 274.52
387.75, 7.91, 275.31
387.65, 8.11, 275.07
387.66, 8.28, 275.07
387.67, 8.45, 275.07
387.68, 8.62, 275.06
387.69, 8.79, 275.06
384.24, 7.22, 268.16
384.31, 7.23, 268.30
384.39, 7.24, 268.44
384.46, 7.25, 268.59
384.55, 7.26, 268.75
384.64, 7.28, 268.92
384.73, 7.29, 269.11
384.83, 7.30, 269.30
384.94, 7.32, 269.51
385.05, 7.34, 269.73
385.18, 7.36, 269.96
385.31, 7.38, 270.22
385.45, 7.41, 270.50
385.61, 7.44, 270.80
385.78, 7.46, 271.13
385.97, 7.50, 271.49
386.16, 7.54, 271.86
386.37, 7.59, 272.26
386.60, 7.64, 272.70
386.85, 7.70, 273.19
387.14, 7.76, 273.75
387.50, 7.83, 274.43
387.90, 7.90, 275.21
387.81, 8.10, 275.02
387.82, 8.27, 275.01
387.83, 8.44, 275.01
387.84, 8.61, 275.01
387.85, 8.78, 275.01
384.30, 7.22, 268.13
384.37, 7.23, 268.27
384.45, 7.24, 268.41
384.53, 7.25, 268.56
384.61, 7.26, 268.72
384.70, 7.27, 268.89
384.80, 7.29, 269.07
384.90, 7.30, 269.26
385.02, 7.32, 269.47
385.13, 7.33, 269.69
385.26, 7.36, 269.92
385.39, 7.38, 270.17
385.54, 7.40, 270.45
¯385.70, 7.43, 270.75
385.87, 7.46, 271.07
386.07, 7.49, 271.43
386.26, 7.53, 271.80
386.48, 7.58, 272.20
386.72, 7.63, 272.64
386.97, 7.69, 273.12
387.27, 7.75, 273.67
387.63, 7.82, 274.34
388.04, 7.90, 275.11
387.97, 8.08, 274.96
387.98, 8.25, 274.96
387.99, 8.42, 274.95
388.00, 8.59, 274.95
388.01, 8.76, 274.95
384.35, 7.21, 268.10
384.43, 7.22, 268.23
384.50, 7.23, 268.38
384.59, 7.24, 268.52
384.67, 7.25, 268.68
384.77, 7.27, 268.85
384.87, 7.28, 269.03
384.97, 7.29, 269.23
385.09, 7.31, 269.43
385.21, 7.33, 269.65
385.34, 7.35, 269.88
385.48, 7.37, 270.13
385.62, 7.40, 270.40
385.79, 7.42, 270.70
385.97, 7.45, 271.02
386.17, 7.48, 271.38
386.37, 7.52, 271.75
386.59, 7.57, 272.14
386.83, 7.62, 272.58
387.09, 7.68, 273.05
387.39, 7.75, 273.59
387.76, 7.81, 274.25
388.18, 7.89, 275.01
388.14, 8.07, 274.90
388.15, 8.24, 274.90
388.16, 8.41, 274.90
388.17, 8.58, 274.90
388.18, 8.75, 274.89
384.41, 7.21, 268.07
384.48, 7.22, 268.20
384.56, 7.23, 268.34
384.65, 7.24, 268.49
384.74, 7.25, 268.65
384.83, 7.26, 268.82
384.94, 7.28, 268.99
385.05, 7.29, 269.19
¯385.16, 7.31, 269.39
385.29, 7.32, 269.61
385.42, 7.34, 269.84
385.56, 7.37, 270.09
385.71, 7.39, 270.35
385.88, 7.42, 270.65
386.06, 7.45, 270.97
386.27, 7.48, 271.32
386.48, 7.52, 271.69
386.71, 7.56, 272.09
386.95, 7.62, 272.51
387.22, 7.68, 272.98
387.52, 7.74, 273.50
387.90, 7.81, 274.16
388.33, 7.88, 274.91
388.30, 8.06, 274.85
388.31, 8.23, 274.84
388.32, 8.40, 274.84
388.33, 8.57, 274.84
388.34, 8.74, 274.84
384.46, 7.20, 268.04
384.54, 7.21, 268.17
384.62, 7.22, 268.31
384.71, 7.24, 268.46
384.80, 7.25, 268.61
384.90, 7.26, 268.78
385.00, 7.27, 268.96
385.12, 7.29, 269.15
385.24, 7.30, 269.35
385.36, 7.32, 269.57
385.50, 7.34, 269.80
385.64, 7.36, 270.04
385.80, 7.39, 270.31
385.97, 7.41, 270.60
386.16, 7.44, 270.91
386.37, 7.47, 271.26
386.59, 7.51, 271.64
386.82, 7.56, 272.02
387.06, 7.61, 272.44
387.34, 7.67, 272.90
387.64, 7.73, 273.42
388.03, 7.80, 274.07
388.47, 7.87, 274.81
388.47, 8.05, 274.79
388.48, 8.22, 274.79
388.48, 8.39, 274.78
388.49, 8.56, 274.78
392.13, 8.52, 281.00
384.52, 7.20, 268.01
384.60, 7.21, 268.14
384.68, 7.22, 268.28
¯384.77, 7.23, 268.42
384.86, 7.24, 268.58
384.96, 7.25, 268.74
385.07, 7.27, 268.92
385.19, 7.28, 269.11
385.31, 7.30, 269.31
385.44, 7.31, 269.53
385.58, 7.33, 269.75
385.73, 7.35, 270.00
385.89, 7.38, 270.26
386.06, 7.41, 270.55
386.26, 7.43, 270.86
386.47, 7.47, 271.21
386.69, 7.50, 271.58
386.93, 7.55, 271.96
387.18, 7.60, 272.37
387.46, 7.66, 272.83
387.77, 7.73, 273.34
388.16, 7.79, 273.98
388.61, 7.86, 274.71
389.12, 7.95, 275.55
389.69, 8.06, 276.48
390.49, 8.17, 277.79
391.32, 8.32, 279.16
392.17, 8.51, 280.55
384.57, 7.20, 267.98
384.65, 7.21, 268.11
384.74, 7.22, 268.24
384.83, 7.23, 268.39
384.92, 7.24, 268.54
385.03, 7.25, 268.70
385.14, 7.26, 268.88
385.25, 7.28, 269.07
385.38, 7.29, 269.27
385.52, 7.31, 269.48
385.66, 7.33, 269.71
385.81, 7.35, 269.95
385.98, 7.37, 270.21
386.16, 7.40, 270.50
386.35, 7.43, 270.81
386.57, 7.46, 271.15
386.80, 7.49, 271.52
387.03, 7.54, 271.89
387.29, 7.59, 272.30
387.58, 7.65, 272.76
387.90, 7.72, 273.27
388.29, 7.78, 273.88
388.75, 7.86, 274.61
389.28, 7.94, 275.46
389.85, 8.05, 276.36
390.58, 8.17, 277.52
¯391.06, 8.35, 278.28
392.24, 8.51, 280.14
384.62, 7.19, 267.94
384.71, 7.20, 268.07
384.79, 7.21, 268.21
384.89, 7.22, 268.35
384.99, 7.23, 268.50
385.09, 7.25, 268.66
385.20, 7.26, 268.84
385.32, 7.27, 269.02
385.45, 7.29, 269.22
385.59, 7.30, 269.44
385.74, 7.32, 269.66
385.89, 7.34, 269.90
386.06, 7.37, 270.16
386.25, 7.39, 270.45
386.45, 7.42, 270.76
386.67, 7.45, 271.10
386.91, 7.49, 271.47
387.14, 7.53, 271.83
387.41, 7.59, 272.23
387.70, 7.65, 272.69
388.03, 7.71, 273.19
388.42, 7.78, 273.79
388.89, 7.85, 274.51
389.43, 7.93, 275.35
390.02, 8.04, 276.25
390.68, 8.17, 277.27
391.16, 8.34, 278.00
392.30, 8.50, 279.75
384.68, 7.19, 267.91
384.76, 7.20, 268.04
384.85, 7.21, 268.17
384.95, 7.22, 268.31
385.05, 7.23, 268.46
385.15, 7.24, 268.63
385.27, 7.25, 268.80
385.39, 7.27, 268.98
385.52, 7.28, 269.18
385.67, 7.30, 269.39
385.82, 7.31, 269.62
385.98, 7.34, 269.86
386.15, 7.36, 270.11
386.34, 7.38, 270.40
386.54, 7.41, 270.70
386.77, 7.44, 271.04
387.01, 7.48, 271.40
387.26, 7.53, 271.77
387.53, 7.58, 272.17
387.82, 7.64, 272.61
388.16, 7.70, 273.11
¯388.55, 7.77, 273.70
389.03, 7.84, 274.41
389.58, 7.92, 275.24
390.19, 8.03, 276.14
390.81, 8.16, 277.07
391.40, 8.33, 277.95
392.36, 8.50, 279.38
384.73, 7.19, 267.88
384.82, 7.19, 268.00
384.91, 7.20, 268.13
385.01, 7.21, 268.28
385.11, 7.22, 268.43
385.22, 7.24, 268.58
385.34, 7.25, 268.76
385.46, 7.26, 268.94
385.60, 7.28, 269.13
385.74, 7.29, 269.35
385.90, 7.31, 269.57
386.06, 7.33, 269.81
386.24, 7.35, 270.06
386.43, 7.38, 270.34
386.64, 7.40, 270.65
386.87, 7.44, 270.98
387.12, 7.47, 271.34
387.37, 7.52, 271.72
387.65, 7.57, 272.11
387.95, 7.63, 272.55
388.28, 7.69, 273.03
388.68, 7.76, 273.60
389.17, 7.83, 274.31
389.73, 7.91, 275.13
390.35, 8.02, 276.04
390.94, 8.15, 276.87
391.57, 8.32, 277.79
392.41, 8.50, 279.01
384.78, 7.18, 267.84
384.87, 7.19, 267.97
384.97, 7.20, 268.10
385.06, 7.21, 268.24
385.17, 7.22, 268.39
385.28, 7.23, 268.54
385.40, 7.24, 268.71
385.53, 7.26, 268.89
385.67, 7.27, 269.09
385.81, 7.29, 269.30
385.98, 7.30, 269.52
386.14, 7.32, 269.76
386.32, 7.35, 270.01
386.52, 7.37, 270.29
386.73, 7.40, 270.59
386.96, 7.43, 270.92
¯387.22, 7.46, 271.28
387.49, 7.51, 271.66
387.77, 7.56, 272.05
388.08, 7.62, 272.48
388.42, 7.68, 272.97
388.77, 7.76, 273.46
389.30, 7.82, 274.21
389.88, 7.91, 275.02
390.52, 8.01, 275.93
391.06, 8.15, 276.68
391.66, 8.31, 277.52
392.50, 8.49, 278.70
384.84, 7.18, 267.81
384.93, 7.19, 267.93
385.02, 7.20, 268.06
385.12, 7.21, 268.20
385.23, 7.22, 268.35
385.34, 7.23, 268.50
385.47, 7.24, 268.67
385.60, 7.25, 268.85
385.74, 7.27, 269.04
385.89, 7.28, 269.25
386.05, 7.30, 269.47
386.22, 7.32, 269.71
386.41, 7.34, 269.96
386.61, 7.36, 270.24
386.83, 7.39, 270.54
387.06, 7.42, 270.86
387.32, 7.46, 271.22
387.60, 7.50, 271.60
387.89, 7.55, 271.99
388.20, 7.61, 272.42
388.56, 7.67, 272.90
388.87, 7.76, 273.32
389.39, 7.83, 274.03
390.03, 7.90, 274.91
390.67, 8.00, 275.79
391.19, 8.14, 276.49
391.76, 8.31, 277.27
392.59, 8.48, 278.39
384.89, 7.17, 267.77
384.98, 7.18, 267.89
385.08, 7.19, 268.02
385.18, 7.20, 268.16
385.29, 7.21, 268.31
385.41, 7.22, 268.46
385.53, 7.23, 268.63
385.66, 7.25, 268.80
385.81, 7.26, 269.00
385.96, 7.27, 269.20
386.13, 7.29, 269.42
¯386.31, 7.31, 269.66
386.49, 7.33, 269.91
386.70, 7.36, 270.18
386.92, 7.38, 270.48
387.16, 7.41, 270.80
387.43, 7.45, 271.15
387.72, 7.49, 271.54
388.01, 7.54, 271.92
388.33, 7.60, 272.35
388.69, 7.66, 272.82
388.97, 7.76, 273.19
389.39, 7.84, 273.75
390.09, 7.90, 274.68
390.79, 7.99, 275.62
391.31, 8.14, 276.30
391.89, 8.30, 277.07
392.65, 8.48, 278.06
384.94, 7.17, 267.74
385.03, 7.18, 267.86
385.13, 7.19, 267.98
385.24, 7.20, 268.12
385.35, 7.21, 268.26
385.47, 7.22, 268.42
385.59, 7.23, 268.58
385.73, 7.24, 268.76
385.88, 7.25, 268.95
386.03, 7.27, 269.15
386.20, 7.28, 269.37
386.39, 7.30, 269.61
386.58, 7.32, 269.86
386.79, 7.35, 270.13
387.01, 7.38, 270.42
387.26, 7.41, 270.73
387.53, 7.44, 271.08
387.83, 7.48, 271.47
388.13, 7.53, 271.86
388.46, 7.59, 272.29
388.78, 7.66, 272.70
389.07, 7.76, 273.06
389.39, 7.86, 273.47
390.08, 7.92, 274.36
390.88, 7.99, 275.41
391.42, 8.14, 276.10
392.02, 8.30, 276.86
392.71, 8.48, 277.75
384.99, 7.17, 267.70
385.09, 7.17, 267.82
385.19, 7.18, 267.94
385.29, 7.19, 268.08
385.41, 7.20, 268.22
385.53, 7.21, 268.37
¯385.66, 7.22, 268.54
385.80, 7.24, 268.71
385.95, 7.25, 268.90
386.11, 7.26, 269.10
386.28, 7.28, 269.32
386.47, 7.30, 269.56
386.66, 7.32, 269.80
386.87, 7.34, 270.07
387.10, 7.37, 270.36
387.36, 7.40, 270.67
387.63, 7.43, 271.02
387.94, 7.47, 271.40
388.25, 7.52, 271.80
388.59, 7.58, 272.22
388.88, 7.66, 272.58
389.16, 7.75, 272.93
389.48, 7.86, 273.32
390.06, 7.93, 274.05
390.86, 8.01, 275.06
391.50, 8.13, 275.86
392.11, 8.29, 276.62
392.77, 8.47, 277.45
385.04, 7.16, 267.66
385.14, 7.17, 267.78
385.24, 7.18, 267.90
385.35, 7.19, 268.04
385.47, 7.20, 268.18
385.59, 7.21, 268.33
385.72, 7.22, 268.49
385.86, 7.23, 268.66
386.01, 7.24, 268.85
386.18, 7.26, 269.05
386.36, 7.27, 269.27
386.55, 7.29, 269.50
386.75, 7.31, 269.75
386.96, 7.33, 270.01
387.20, 7.36, 270.29
387.45, 7.39, 270.61
387.73, 7.42, 270.95
388.05, 7.46, 271.33
388.37, 7.51, 271.73
388.71, 7.57, 272.13
388.97, 7.66, 272.46
389.26, 7.75, 272.81
389.58, 7.85, 273.18
390.05, 7.95, 273.76
390.83, 8.02, 274.71
391.58, 8.13, 275.63
392.19, 8.29, 276.36
392.85, 8.47, 277.17
385.09, 7.16, 267.62
¯385.19, 7.17, 267.74
385.30, 7.17, 267.86
385.37, 7.21, 267.95
385.37, 7.29, 267.94
385.37, 7.37, 267.93
385.41, 7.42, 267.99
385.93, 7.23, 268.62
386.08, 7.24, 268.80
386.25, 7.25, 269.00
386.43, 7.27, 269.21
386.63, 7.28, 269.45
386.83, 7.30, 269.69
387.05, 7.33, 269.95
387.29, 7.35, 270.23
387.55, 7.38, 270.54
387.84, 7.42, 270.88
388.16, 7.45, 271.26
388.49, 7.50, 271.66
388.80, 7.57, 272.02
389.07, 7.65, 272.34
389.36, 7.75, 272.68
389.68, 7.85, 273.05
390.03, 7.96, 273.47
390.80, 8.04, 274.38
391.66, 8.13, 275.40
392.27, 8.29, 276.12
392.92, 8.47, 276.89
385.14, 7.15, 267.58
385.24, 7.16, 267.70
385.35, 7.17, 267.82
385.37, 7.24, 267.84
385.37, 7.32, 267.83
385.37, 7.39, 267.83
385.85, 7.21, 268.40
385.99, 7.22, 268.57
386.15, 7.23, 268.75
386.32, 7.25, 268.95
386.51, 7.26, 269.16
386.70, 7.28, 269.39
386.92, 7.30, 269.63
387.14, 7.32, 269.89
387.38, 7.35, 270.17
387.65, 7.38, 270.48
387.94, 7.41, 270.81
388.26, 7.44, 271.19
388.62, 7.49, 271.60
388.89, 7.56, 271.90
389.16, 7.65, 272.22
389.45, 7.75, 272.55
389.77, 7.85, 272.92
390.12, 7.96, 273.31
¯390.77, 8.05, 274.06
391.62, 8.14, 275.04
392.34, 8.28, 275.87
392.99, 8.46, 276.62
385.19, 7.15, 267.54
385.30, 7.16, 267.66
385.37, 7.19, 267.74
385.37, 7.27, 267.73
385.37, 7.34, 267.73
385.37, 7.42, 267.72
385.91, 7.20, 268.35
386.06, 7.22, 268.52
386.22, 7.23, 268.70
386.39, 7.24, 268.89
386.58, 7.25, 269.10
386.78, 7.27, 269.33
387.00, 7.29, 269.58
387.23, 7.31, 269.83
387.47, 7.34, 270.11
387.74, 7.37, 270.41
388.04, 7.40, 270.75
388.37, 7.44, 271.12
388.73, 7.48, 271.51
388.97, 7.56, 271.79
389.25, 7.65, 272.10
389.55, 7.74, 272.43
389.87, 7.85, 272.78
390.22, 7.96, 273.17
390.74, 8.06, 273.76
391.57, 8.16, 274.68
392.42, 8.28, 275.63
393.06, 8.46, 276.35
385.24, 7.15, 267.50
385.35, 7.15, 267.62
385.37, 7.22, 267.64
385.37, 7.29, 267.63
385.37, 7.37, 267.63
385.41, 7.42, 267.67
385.97, 7.20, 268.30
386.12, 7.21, 268.47
386.29, 7.22, 268.65
386.46, 7.23, 268.84
386.65, 7.25, 269.05
386.86, 7.26, 269.27
387.08, 7.28, 269.52
387.32, 7.30, 269.77
387.57, 7.33, 270.05
387.84, 7.36, 270.35
388.15, 7.39, 270.68
388.49, 7.43, 271.05
388.86, 7.47, 271.46
¯389.12, 7.55, 271.74
389.40, 7.64, 272.04
389.69, 7.73, 272.36
390.01, 7.83, 272.70
390.36, 7.95, 273.07
390.77, 8.07, 273.52
391.52, 8.17, 274.34
392.49, 8.28, 275.40
393.13, 8.45, 276.08
385.29, 7.14, 267.46
385.37, 7.17, 267.54
385.37, 7.24, 267.54
385.37, 7.32, 267.53
385.37, 7.39, 267.53
385.73, 7.27, 267.93
385.76, 7.34, 267.95
385.78, 7.41, 267.97
386.35, 7.22, 268.60
386.53, 7.23, 268.79
386.73, 7.24, 268.99
386.94, 7.26, 269.22
387.17, 7.27, 269.46
387.41, 7.30, 269.71
387.66, 7.32, 269.99
387.94, 7.35, 270.28
388.25, 7.38, 270.61
388.60, 7.42, 270.98
388.98, 7.46, 271.38
389.27, 7.53, 271.69
389.56, 7.62, 271.99
389.86, 7.72, 272.31
390.19, 7.82, 272.65
390.55, 7.93, 273.03
390.94, 8.05, 273.44
391.71, 8.15, 274.25
392.60, 8.28, 275.20
393.20, 8.45, 275.84
385.33, 7.14, 267.42
385.37, 7.19, 267.45
385.37, 7.27, 267.44
385.37, 7.34, 267.44
385.37, 7.42, 267.44
385.74, 7.29, 267.83
385.76, 7.36, 267.85
385.80, 7.42, 267.89
386.42, 7.21, 268.54
386.60, 7.22, 268.73
386.80, 7.24, 268.93
387.01, 7.25, 269.16
387.25, 7.27, 269.40
387.49, 7.29, 269.65
¯387.76, 7.31, 269.92
388.04, 7.34, 270.22
388.36, 7.37, 270.55
388.71, 7.41, 270.91
389.09, 7.45, 271.30
389.43, 7.51, 271.65
389.72, 7.60, 271.94
390.03, 7.70, 272.26
390.37, 7.80, 272.61
390.74, 7.92, 272.98
391.14, 8.04, 273.39
391.89, 8.14, 274.17
392.71, 8.27, 275.01
393.29, 8.45, 275.60
385.37, 7.15, 267.36
385.37, 7.22, 267.36
385.37, 7.29, 267.35
385.37, 7.37, 267.35
385.40, 7.42, 267.38
385.75, 7.31, 267.74
385.77, 7.38, 267.75
386.31, 7.19, 268.32
386.49, 7.20, 268.49
386.67, 7.22, 268.67
386.87, 7.23, 268.88
387.09, 7.24, 269.10
387.33, 7.26, 269.33
387.58, 7.28, 269.59
387.85, 7.30, 269.86
388.14, 7.33, 270.15
388.47, 7.36, 270.48
388.82, 7.40, 270.83
389.21, 7.44, 271.23
389.58, 7.50, 271.60
389.88, 7.59, 271.89
390.20, 7.68, 272.21
390.55, 7.79, 272.56
390.93, 7.90, 272.93
391.34, 8.02, 273.35
392.08, 8.13, 274.09
392.82, 8.27, 274.82
393.37, 8.44, 275.37
385.37, 7.17, 267.27
385.37, 7.25, 267.27
385.37, 7.32, 267.26
385.37, 7.39, 267.26
385.73, 7.26, 267.62
385.75, 7.33, 267.64
385.77, 7.40, 267.66
386.38, 7.19, 268.26
386.55, 7.20, 268.43
¯386.74, 7.21, 268.62
386.94, 7.22, 268.82
387.17, 7.24, 269.03
387.41, 7.25, 269.27
387.67, 7.27, 269.53
387.94, 7.29, 269.79
388.24, 7.32, 270.09
388.57, 7.35, 270.41
388.93, 7.39, 270.76
389.33, 7.43, 271.15
389.74, 7.48, 271.54
390.04, 7.57, 271.84
390.37, 7.66, 272.16
390.73, 7.77, 272.51
391.12, 7.88, 272.89
391.55, 8.01, 273.30
392.27, 8.12, 274.00
392.92, 8.26, 274.63
393.48, 8.44, 275.17
385.37, 7.20, 267.18
385.37, 7.27, 267.18
385.37, 7.34, 267.18
385.37, 7.41, 267.17
385.74, 7.28, 267.53
385.76, 7.35, 267.55
385.78, 7.41, 267.57
386.44, 7.18, 268.21
386.62, 7.19, 268.38
386.81, 7.20, 268.56
387.02, 7.22, 268.76
387.24, 7.23, 268.97
387.49, 7.25, 269.21
387.76, 7.26, 269.46
388.04, 7.29, 269.73
388.34, 7.31, 270.02
388.68, 7.34, 270.34
389.04, 7.38, 270.68
389.44, 7.42, 271.07
389.89, 7.46, 271.49
390.21, 7.55, 271.79
390.55, 7.65, 272.11
390.92, 7.75, 272.46
391.32, 7.86, 272.84
391.76, 7.99, 273.25
392.47, 8.10, 273.92
393.03, 8.26, 274.45
393.59, 8.43, 274.97
385.37, 7.22, 267.10
385.37, 7.29, 267.09
385.37, 7.36, 267.09
385.39, 7.42, 267.11
¯385.74, 7.30, 267.44
385.77, 7.37, 267.46
385.81, 7.42, 267.50
386.50, 7.18, 268.16
386.68, 7.19, 268.32
386.88, 7.20, 268.50
387.09, 7.21, 268.70
387.32, 7.22, 268.91
387.57, 7.24, 269.14
387.84, 7.26, 269.39
388.13, 7.28, 269.66
388.44, 7.30, 269.95
388.78, 7.33, 270.26
389.15, 7.37, 270.60
389.56, 7.41, 270.99
390.02, 7.45, 271.41
390.38, 7.53, 271.74
390.73, 7.63, 272.06
391.11, 7.73, 272.41
391.52, 7.85, 272.79
391.98, 7.97, 273.20
392.62, 8.09, 273.79
393.13, 8.25, 274.26
393.70, 8.42, 274.78
385.37, 7.24, 267.01
385.37, 7.31, 267.01
385.37, 7.38, 267.01
385.73, 7.25, 267.34
385.75, 7.32, 267.36
385.77, 7.38, 267.37
386.39, 7.16, 267.95
386.56, 7.17, 268.10
386.75, 7.18, 268.27
386.94, 7.19, 268.44
387.16, 7.20, 268.64
387.39, 7.22, 268.85
387.64, 7.23, 269.07
387.92, 7.25, 269.32
388.22, 7.27, 269.59
388.54, 7.29, 269.88
388.88, 7.32, 270.19
389.26, 7.36, 270.53
389.68, 7.40, 270.90
390.15, 7.44, 271.33
390.55, 7.51, 271.68
390.91, 7.61, 272.00
391.30, 7.72, 272.35
391.73, 7.83, 272.73
392.20, 7.95, 273.15
392.72, 8.09, 273.62
393.24, 8.25, 274.08
¯393.83, 8.42, 274.60
385.37, 7.27, 266.93
385.37, 7.33, 266.93
385.37, 7.40, 266.93
385.73, 7.27, 267.26
385.76, 7.34, 267.27
385.78, 7.40, 267.29
386.45, 7.15, 267.89
386.63, 7.16, 268.05
386.81, 7.17, 268.21
387.01, 7.19, 268.38
387.23, 7.20, 268.57
387.47, 7.21, 268.78
387.72, 7.22, 269.01
388.01, 7.24, 269.25
388.32, 7.26, 269.53
388.64, 7.28, 269.81
388.99, 7.31, 270.11
389.37, 7.35, 270.45
389.80, 7.39, 270.82
390.28, 7.43, 271.24
390.72, 7.50, 271.63
391.09, 7.59, 271.95
391.48, 7.70, 272.29
391.91, 7.81, 272.65
392.37, 7.94, 273.06
392.88, 8.08, 273.49
393.41, 8.24, 273.96
394.01, 8.41, 274.47
376.11, 7.38, 262.30
376.20, 7.49, 262.34
376.20, 7.58, 262.34
376.20, 7.67, 262.34
376.20, 7.76, 262.34
376.40, 7.89, 262.42
376.40, 7.97, 262.42
376.40, 8.05, 262.42
376.40, 8.14, 262.42
376.40, 8.22, 262.42
376.41, 8.30, 262.42
376.21, 8.35, 262.33
376.66, 8.49, 262.53
376.66, 8.57, 262.53
376.66, 8.64, 262.53
376.66, 8.72, 262.53
376.66, 8.79, 262.52
376.66, 8.87, 262.52
376.66, 8.94, 262.52
376.66, 9.02, 262.52
376.66, 9.09, 262.52
376.66, 9.17, 262.52
¯376.66, 9.24, 262.52
376.66, 9.32, 262.52
376.66, 9.39, 262.51
376.66, 9.47, 262.51
376.66, 9.54, 262.51
376.66, 9.62, 262.51
375.08, 7.06, 261.96
376.07, 7.47, 262.37
376.07, 7.55, 262.37
376.07, 7.64, 262.37
376.08, 7.73, 262.37
376.06, 7.82, 262.37
376.28, 7.95, 262.45
376.28, 8.04, 262.45
376.28, 8.12, 262.45
376.28, 8.20, 262.45
376.28, 8.28, 262.45
376.69, 8.42, 262.62
376.69, 8.50, 262.62
376.69, 8.57, 262.62
376.69, 8.65, 262.62
376.69, 8.72, 262.62
376.69, 8.80, 262.62
376.69, 8.87, 262.61
376.69, 8.95, 262.61
376.68, 9.02, 262.61
376.68, 9.09, 262.61
376.68, 9.17, 262.61
376.68, 9.24, 262.61
376.68, 9.32, 262.61
376.68, 9.39, 262.61
376.68, 9.47, 262.60
376.68, 9.54, 262.60
376.68, 9.61, 262.60
375.05, 7.06, 262.05
374.72, 7.07, 261.92
375.47, 7.39, 262.22
375.48, 7.49, 262.22
375.48, 7.59, 262.22
375.48, 7.69, 262.22
376.15, 7.93, 262.49
376.15, 8.02, 262.49
376.15, 8.10, 262.49
376.15, 8.19, 262.49
376.15, 8.27, 262.49
376.71, 8.43, 262.71
376.71, 8.51, 262.71
376.71, 8.58, 262.71
376.71, 8.66, 262.71
376.71, 8.73, 262.71
376.71, 8.80, 262.70
¯376.71, 8.88, 262.70
376.71, 8.95, 262.70
376.71, 9.02, 262.70
376.71, 9.10, 262.70
376.71, 9.17, 262.70
376.71, 9.24, 262.70
376.71, 9.32, 262.70
376.71, 9.39, 262.70
376.71, 9.46, 262.69
376.71, 9.54, 262.69
376.71, 9.61, 262.69
375.03, 7.07, 262.14
374.70, 7.07, 262.02
374.34, 7.08, 261.87
375.33, 7.46, 262.26
375.33, 7.56, 262.26
375.33, 7.66, 262.26
376.02, 7.91, 262.52
376.02, 8.00, 262.52
376.02, 8.08, 262.52
376.02, 8.17, 262.52
376.73, 8.37, 262.80
376.73, 8.44, 262.80
376.73, 8.51, 262.80
376.73, 8.59, 262.79
376.73, 8.66, 262.79
376.73, 8.73, 262.79
376.73, 8.81, 262.79
376.73, 8.88, 262.79
376.73, 8.95, 262.79
376.73, 9.02, 262.79
376.73, 9.10, 262.79
376.73, 9.17, 262.79
376.73, 9.24, 262.79
376.73, 9.32, 262.78
376.73, 9.39, 262.78
376.73, 9.46, 262.78
376.73, 9.53, 262.78
376.73, 9.61, 262.78
375.00, 7.07, 262.24
374.67, 7.08, 262.11
374.31, 7.09, 261.98
375.17, 7.43, 262.30
375.17, 7.53, 262.30
375.18, 7.63, 262.30
375.88, 7.89, 262.56
375.88, 7.98, 262.56
375.88, 8.06, 262.56
375.88, 8.15, 262.56
376.76, 8.38, 262.88
376.76, 8.45, 262.88
¯376.76, 8.52, 262.88
376.76, 8.59, 262.88
376.76, 8.67, 262.88
376.76, 8.74, 262.88
376.75, 8.81, 262.88
376.75, 8.88, 262.88
376.75, 8.95, 262.88
376.75, 9.03, 262.87
376.75, 9.10, 262.87
376.75, 9.17, 262.87
376.75, 9.24, 262.87
376.75, 9.31, 262.87
376.75, 9.39, 262.87
376.75, 9.46, 262.87
376.75, 9.53, 262.87
376.75, 9.60, 262.87
374.98, 7.07, 262.33
374.65, 7.08, 262.21
374.29, 7.09, 262.08
375.01, 7.40, 262.34
375.01, 7.50, 262.34
376.43, 7.93, 262.84
376.43, 8.01, 262.84
375.74, 7.95, 262.60
375.74, 8.04, 262.59
376.78, 8.31, 262.97
376.78, 8.38, 262.97
376.78, 8.46, 262.96
376.78, 8.53, 262.96
376.78, 8.60, 262.96
376.78, 8.67, 262.96
376.78, 8.74, 262.96
376.78, 8.81, 262.96
376.78, 8.89, 262.96
376.78, 8.96, 262.96
376.78, 9.03, 262.96
376.78, 9.10, 262.96
376.78, 9.17, 262.96
376.78, 9.24, 262.96
376.78, 9.31, 262.96
376.78, 9.38, 262.95
376.78, 9.46, 262.95
376.77, 9.53, 262.95
376.77, 9.60, 262.95
376.64, 7.60, 263.00
376.64, 7.68, 263.00
374.27, 7.10, 262.19
374.15, 7.18, 262.15
374.85, 7.47, 262.38
376.38, 7.93, 262.91
376.38, 8.01, 262.91
¯376.23, 8.06, 262.85
375.65, 8.03, 262.65
376.80, 8.32, 263.05
376.80, 8.39, 263.05
376.80, 8.46, 263.05
376.80, 8.53, 263.05
376.80, 8.61, 263.04
376.80, 8.68, 263.04
376.80, 8.75, 263.04
376.80, 8.82, 263.04
376.80, 8.89, 263.04
376.80, 8.96, 263.04
376.80, 9.03, 263.04
376.80, 9.10, 263.04
376.80, 9.17, 263.04
376.80, 9.24, 263.04
376.80, 9.31, 263.04
376.80, 9.38, 263.04
376.80, 9.45, 263.04
376.80, 9.52, 263.04
376.80, 9.60, 263.03
376.56, 7.59, 263.05
376.56, 7.67, 263.05
374.25, 7.10, 262.29
374.19, 7.20, 262.27
374.67, 7.43, 262.43
376.25, 7.91, 262.94
376.25, 7.99, 262.94
376.20, 8.06, 262.93
375.68, 8.04, 262.75
376.82, 8.33, 263.13
376.82, 8.40, 263.13
376.82, 8.47, 263.13
376.82, 8.54, 263.13
376.82, 8.61, 263.13
376.82, 8.68, 263.12
376.82, 8.75, 263.12
376.82, 8.82, 263.12
376.82, 8.89, 263.12
376.82, 8.96, 263.12
376.82, 9.03, 263.12
376.82, 9.10, 263.12
376.82, 9.17, 263.12
376.82, 9.24, 263.12
376.82, 9.31, 263.12
376.82, 9.38, 263.12
376.82, 9.45, 263.12
376.82, 9.52, 263.12
376.82, 9.59, 263.12
376.43, 7.55, 263.08
376.43, 7.63, 263.08
¯376.39, 7.70, 263.07
374.22, 7.22, 262.39
374.49, 7.40, 262.48
374.49, 7.51, 262.48
376.11, 7.96, 262.98
376.11, 8.05, 262.98
376.84, 8.26, 263.21
376.84, 8.34, 263.21
376.84, 8.41, 263.21
376.84, 8.48, 263.21
376.84, 8.55, 263.20
376.84, 8.62, 263.20
376.84, 8.69, 263.20
376.84, 8.76, 263.20
376.84, 8.83, 263.20
376.84, 8.89, 263.20
376.84, 8.96, 263.20
376.84, 9.03, 263.20
376.84, 9.10, 263.20
376.84, 9.17, 263.20
376.84, 9.24, 263.20
376.84, 9.31, 263.20
376.84, 9.38, 263.20
376.84, 9.45, 263.20
376.84, 9.52, 263.20
376.84, 9.59, 263.20
374.90, 7.09, 262.71
376.29, 7.60, 263.12
376.29, 7.68, 263.12
374.25, 7.23, 262.51
374.25, 7.35, 262.51
375.73, 7.80, 262.95
375.96, 7.94, 263.02
375.96, 8.02, 263.02
375.73, 8.06, 262.95
376.74, 8.32, 263.25
376.78, 8.40, 263.26
376.82, 8.48, 263.27
376.86, 8.55, 263.28
376.86, 8.62, 263.28
376.86, 8.69, 263.28
376.86, 8.76, 263.28
376.86, 8.83, 263.28
376.86, 8.90, 263.28
376.86, 8.97, 263.28
376.86, 9.03, 263.28
376.86, 9.10, 263.28
376.86, 9.17, 263.28
376.86, 9.24, 263.28
376.86, 9.31, 263.28
376.86, 9.38, 263.28
¯376.86, 9.45, 263.28
376.86, 9.52, 263.28
376.86, 9.58, 263.28
374.89, 7.09, 262.80
376.15, 7.57, 263.16
376.15, 7.65, 263.16
374.28, 7.25, 262.63
375.76, 7.72, 263.04
375.76, 7.81, 263.04
375.81, 7.91, 263.06
375.81, 8.00, 263.06
375.75, 8.07, 263.04
376.60, 8.30, 263.28
376.64, 8.38, 263.29
376.68, 8.46, 263.30
376.73, 8.54, 263.31
376.77, 8.61, 263.33
376.80, 8.69, 263.34
376.84, 8.76, 263.35
376.88, 8.83, 263.36
376.88, 8.90, 263.36
376.88, 8.97, 263.36
376.88, 9.04, 263.36
376.88, 9.10, 263.36
376.88, 9.17, 263.36
376.88, 9.24, 263.35
376.88, 9.31, 263.35
376.88, 9.38, 263.35
376.88, 9.44, 263.35
376.88, 9.51, 263.35
376.88, 9.58, 263.35
374.88, 7.10, 262.90
374.55, 7.11, 262.81
376.00, 7.61, 263.20
376.00, 7.70, 263.20
375.78, 7.73, 263.14
375.78, 7.82, 263.14
375.81, 7.92, 263.14
375.70, 7.98, 263.11
375.70, 8.07, 263.11
376.45, 8.28, 263.31
376.49, 8.36, 263.33
376.54, 8.44, 263.34
376.58, 8.52, 263.35
376.62, 8.60, 263.36
376.66, 8.68, 263.37
376.71, 8.75, 263.38
376.75, 8.82, 263.39
376.78, 8.90, 263.40
376.82, 8.97, 263.41
376.86, 9.04, 263.42
¯376.90, 9.10, 263.43
376.90, 9.17, 263.43
376.90, 9.24, 263.43
376.90, 9.31, 263.43
376.90, 9.37, 263.43
376.90, 9.44, 263.43
376.90, 9.51, 263.43
376.90, 9.58, 263.43
374.86, 7.10, 262.99
374.53, 7.11, 262.91
375.84, 7.58, 263.24
375.84, 7.67, 263.24
374.11, 7.33, 262.80
374.28, 7.49, 262.84
374.29, 7.60, 262.84
375.53, 7.95, 263.16
375.53, 8.04, 263.16
376.29, 8.26, 263.35
376.34, 8.34, 263.36
376.38, 8.42, 263.37
376.43, 8.51, 263.38
376.47, 8.59, 263.39
376.52, 8.66, 263.41
376.56, 8.74, 263.42
376.60, 8.82, 263.43
376.64, 8.89, 263.44
376.68, 8.96, 263.45
376.72, 9.03, 263.46
376.76, 9.10, 263.47
376.80, 9.17, 263.47
376.84, 9.24, 263.48
376.88, 9.31, 263.49
376.91, 9.37, 263.50
376.92, 9.44, 263.50
376.92, 9.51, 263.50
376.92, 9.57, 263.50
374.85, 7.11, 263.09
374.52, 7.12, 263.01
375.68, 7.54, 263.28
375.68, 7.63, 263.28
375.61, 7.70, 263.27
374.06, 7.44, 262.90
374.08, 7.56, 262.90
375.35, 7.92, 263.20
375.35, 8.01, 263.20
375.36, 8.10, 263.20
376.17, 8.32, 263.40
376.22, 8.41, 263.41
376.27, 8.49, 263.42
376.32, 8.57, 263.43
376.36, 8.65, 263.44
¯376.41, 8.73, 263.45
376.45, 8.81, 263.46
376.49, 8.88, 263.47
376.06, 8.94, 263.37
376.58, 9.03, 263.49
376.62, 9.10, 263.50
376.66, 9.17, 263.51
376.70, 9.24, 263.52
376.74, 9.31, 263.53
376.78, 9.38, 263.54
376.82, 9.45, 263.55
376.85, 9.51, 263.56
376.89, 9.58, 263.57
374.84, 7.11, 263.18
374.51, 7.12, 263.11
374.15, 7.13, 263.03
375.50, 7.59, 263.33
375.50, 7.68, 263.33
372.82, 7.17, 262.73
374.93, 7.74, 263.20
375.16, 7.89, 263.25
375.17, 7.98, 263.25
375.17, 8.08, 263.25
376.00, 8.30, 263.44
376.05, 8.38, 263.45
376.10, 8.47, 263.46
376.15, 8.56, 263.47
376.20, 8.64, 263.48
376.25, 8.72, 263.49
376.29, 8.80, 263.50
376.34, 8.88, 263.51
375.94, 8.94, 263.42
375.98, 9.02, 263.43
376.03, 9.10, 263.44
376.07, 9.18, 263.45
376.08, 9.26, 263.45
376.04, 9.34, 263.44
376.64, 9.39, 263.58
376.68, 9.45, 263.59
376.72, 9.52, 263.60
376.76, 9.59, 263.60
374.84, 7.11, 263.28
374.51, 7.12, 263.21
374.14, 7.13, 263.13
375.32, 7.55, 263.38
375.32, 7.64, 263.38
374.95, 7.65, 263.30
374.95, 7.75, 263.30
374.95, 7.85, 263.30
374.97, 7.95, 263.30
374.98, 8.05, 263.30
¯375.81, 8.27, 263.48
375.87, 8.36, 263.49
375.92, 8.45, 263.50
375.97, 8.54, 263.51
376.03, 8.62, 263.52
376.08, 8.71, 263.53
376.13, 8.79, 263.54
376.17, 8.87, 263.55
376.00, 8.94, 263.52
376.04, 9.02, 263.53
376.09, 9.10, 263.54
376.11, 9.18, 263.54
376.10, 9.26, 263.54
376.05, 9.34, 263.53
376.00, 9.42, 263.52
375.94, 9.50, 263.51
375.89, 9.59, 263.49
374.18, 9.83, 263.14
374.83, 7.12, 263.37
374.50, 7.13, 263.31
374.13, 7.14, 263.23
373.72, 7.14, 263.15
375.12, 7.60, 263.43
375.12, 7.69, 263.43
374.98, 7.76, 263.40
374.95, 7.85, 263.39
374.71, 7.91, 263.35
374.71, 8.01, 263.35
369.42, 7.31, 262.32
375.67, 8.34, 263.53
375.73, 8.43, 263.55
375.79, 8.52, 263.56
375.84, 8.61, 263.57
375.89, 8.69, 263.58
375.95, 8.78, 263.59
376.01, 8.86, 263.60
376.05, 8.94, 263.61
376.10, 9.02, 263.62
376.14, 9.10, 263.63
376.14, 9.18, 263.63
376.11, 9.26, 263.62
376.06, 9.33, 263.61
376.01, 9.42, 263.60
375.96, 9.50, 263.59
375.65, 9.60, 263.53
374.20, 9.82, 263.25
374.83, 7.12, 263.47
374.49, 7.13, 263.40
374.12, 7.14, 263.34
373.71, 7.15, 263.26
374.92, 7.55, 263.48
¯374.92, 7.65, 263.48
372.30, 7.20, 263.01
371.67, 7.22, 262.90
370.95, 7.23, 262.77
374.49, 7.97, 263.41
374.37, 8.06, 263.38
375.47, 8.31, 263.58
375.53, 8.41, 263.59
375.59, 8.50, 263.60
375.65, 8.59, 263.61
375.70, 8.68, 263.62
375.76, 8.77, 263.63
376.06, 8.87, 263.69
376.11, 8.95, 263.70
376.15, 9.02, 263.71
376.18, 9.10, 263.71
376.17, 9.18, 263.71
376.12, 9.25, 263.70
376.07, 9.33, 263.69
376.02, 9.41, 263.68
375.97, 9.50, 263.67
374.24, 9.71, 263.36
374.23, 9.82, 263.36
374.82, 7.13, 263.56
374.48, 7.13, 263.50
374.11, 7.14, 263.44
373.71, 7.15, 263.37
373.26, 7.16, 263.30
374.70, 7.61, 263.54
374.67, 7.70, 263.54
371.63, 7.22, 263.03
370.91, 7.23, 262.91
370.13, 7.26, 262.78
369.52, 7.33, 262.68
375.25, 8.28, 263.63
375.31, 8.38, 263.64
375.37, 8.48, 263.65
375.44, 8.57, 263.66
375.50, 8.67, 263.67
376.07, 8.79, 263.77
376.12, 8.87, 263.78
376.16, 8.95, 263.79
376.21, 9.02, 263.79
376.21, 9.10, 263.79
376.18, 9.18, 263.79
376.13, 9.25, 263.78
376.08, 9.33, 263.77
376.03, 9.41, 263.76
375.98, 9.50, 263.76
374.27, 9.71, 263.47
374.26, 9.81, 263.47
¯374.82, 7.13, 263.65
374.48, 7.14, 263.60
374.11, 7.14, 263.55
373.70, 7.15, 263.48
373.25, 7.17, 263.42
374.46, 7.56, 263.60
374.46, 7.66, 263.60
371.60, 7.21, 263.17
370.88, 7.23, 263.06
370.17, 7.27, 262.95
369.57, 7.35, 262.86
375.01, 8.25, 263.69
375.08, 8.36, 263.70
375.15, 8.46, 263.71
375.21, 8.55, 263.72
375.28, 8.65, 263.73
376.13, 8.79, 263.86
376.17, 8.87, 263.86
376.22, 8.95, 263.87
376.25, 9.03, 263.87
376.24, 9.10, 263.87
376.19, 9.18, 263.87
376.14, 9.25, 263.86
376.09, 9.33, 263.85
376.04, 9.41, 263.84
374.30, 9.60, 263.58
374.29, 9.70, 263.58
374.29, 9.81, 263.58
374.82, 7.13, 263.75
374.48, 7.14, 263.70
374.11, 7.15, 263.65
373.70, 7.16, 263.59
373.25, 7.17, 263.53
372.78, 7.19, 263.47
374.21, 7.61, 263.67
371.58, 7.21, 263.30
370.85, 7.23, 263.20
370.22, 7.28, 263.12
369.62, 7.36, 263.04
366.04, 7.04, 262.54
374.83, 8.33, 263.75
374.90, 8.43, 263.76
374.97, 8.53, 263.77
376.14, 8.72, 263.93
376.18, 8.80, 263.94
376.23, 8.87, 263.95
376.27, 8.95, 263.95
376.27, 9.03, 263.95
376.24, 9.10, 263.95
376.20, 9.18, 263.94
376.15, 9.25, 263.94
¯376.10, 9.33, 263.93
376.05, 9.41, 263.92
374.33, 9.60, 263.69
374.32, 9.70, 263.69
374.31, 9.80, 263.69
374.82, 7.14, 263.84
374.48, 7.14, 263.80
374.11, 7.15, 263.76
373.70, 7.16, 263.70
373.25, 7.17, 263.65
372.76, 7.19, 263.59
372.19, 7.20, 263.52
371.55, 7.21, 263.44
370.82, 7.23, 263.35
370.26, 7.29, 263.28
369.68, 7.37, 263.21
366.01, 7.04, 262.76
374.56, 8.30, 263.82
374.64, 8.40, 263.83
374.72, 8.51, 263.84
376.19, 8.72, 264.02
376.24, 8.80, 264.02
376.28, 8.88, 264.03
376.31, 8.95, 264.03
376.30, 9.03, 264.03
376.25, 9.10, 264.03
376.21, 9.18, 264.02
376.16, 9.25, 264.02
376.11, 9.33, 264.01
375.08, 9.46, 263.88
374.35, 9.59, 263.80
374.35, 9.70, 263.80
374.34, 9.80, 263.79
374.83, 7.14, 263.94
374.49, 7.15, 263.90
374.12, 7.16, 263.86
373.71, 7.17, 263.82
373.26, 7.18, 263.77
372.75, 7.18, 263.71
372.17, 7.20, 263.65
371.53, 7.21, 263.58
370.84, 7.23, 263.50
370.31, 7.30, 263.45
369.73, 7.38, 263.38
365.98, 7.04, 262.97
374.27, 8.26, 263.88
374.36, 8.37, 263.89
376.20, 8.65, 264.09
376.24, 8.73, 264.10
376.29, 8.80, 264.10
376.33, 8.88, 264.11
¯376.33, 8.95, 264.11
376.31, 9.03, 264.11
376.26, 9.10, 264.10
376.21, 9.18, 264.10
376.17, 9.25, 264.09
376.12, 9.33, 264.09
374.39, 9.49, 263.90
374.38, 9.59, 263.90
374.37, 9.69, 263.90
374.36, 9.80, 263.90
374.83, 7.14, 264.03
374.50, 7.15, 264.00
374.13, 7.16, 263.96
373.72, 7.17, 263.93
373.28, 7.18, 263.88
372.75, 7.19, 263.83
372.17, 7.20, 263.78
371.51, 7.21, 263.72
370.89, 7.24, 263.66
370.36, 7.31, 263.61
369.79, 7.39, 263.55
369.15, 7.47, 263.49
363.78, 7.00, 262.98
362.55, 7.12, 262.87
376.25, 8.65, 264.17
376.29, 8.73, 264.18
376.34, 8.81, 264.18
376.37, 8.88, 264.19
376.36, 8.95, 264.19
376.32, 9.03, 264.18
376.27, 9.10, 264.18
376.22, 9.17, 264.17
376.18, 9.25, 264.17
375.75, 9.34, 264.13
374.41, 9.49, 264.00
374.41, 9.59, 264.00
374.40, 9.69, 264.00
374.39, 9.79, 264.00
374.84, 7.15, 264.12
374.51, 7.16, 264.10
374.14, 7.17, 264.07
373.74, 7.18, 264.03
373.28, 7.19, 264.00
372.76, 7.19, 263.96
372.18, 7.20, 263.91
371.53, 7.21, 263.86
370.90, 7.25, 263.81
370.39, 7.32, 263.77
369.83, 7.39, 263.72
369.22, 7.48, 263.67
363.77, 7.00, 263.23
¯376.26, 8.58, 264.25
376.30, 8.66, 264.25
376.34, 8.73, 264.26
376.38, 8.81, 264.26
376.39, 8.88, 264.26
376.37, 8.95, 264.26
376.33, 9.03, 264.26
376.28, 9.10, 264.25
376.23, 9.17, 264.25
376.19, 9.25, 264.25
374.45, 9.39, 264.11
374.44, 9.49, 264.11
374.43, 9.59, 264.11
374.42, 9.69, 264.11
374.41, 9.79, 264.11
374.85, 7.15, 264.22
374.52, 7.16, 264.19
374.15, 7.17, 264.17
373.75, 7.18, 264.14
373.29, 7.19, 264.11
372.77, 7.19, 264.08
372.19, 7.20, 264.04
371.54, 7.22, 264.00
370.90, 7.25, 263.95
370.39, 7.32, 263.92
369.84, 7.40, 263.88
369.22, 7.48, 263.84
363.76, 7.00, 263.48
376.31, 8.58, 264.33
376.35, 8.66, 264.33
376.39, 8.74, 264.33
376.43, 8.81, 264.34
376.42, 8.88, 264.34
376.38, 8.95, 264.33
376.33, 9.03, 264.33
376.29, 9.10, 264.33
376.24, 9.17, 264.33
376.07, 9.25, 264.32
374.29, 9.39, 264.20
374.38, 9.49, 264.20
374.46, 9.58, 264.21
374.45, 9.68, 264.21
374.44, 9.79, 264.21
374.86, 7.16, 264.31
374.53, 7.17, 264.29
374.17, 7.17, 264.27
373.77, 7.19, 264.25
373.30, 7.19, 264.23
372.78, 7.20, 264.20
372.21, 7.21, 264.17
371.56, 7.22, 264.14
¯370.91, 7.25, 264.10
370.40, 7.32, 264.08
369.85, 7.40, 264.05
369.23, 7.48, 264.02
376.32, 8.51, 264.40
376.36, 8.59, 264.40
376.40, 8.66, 264.40
376.44, 8.74, 264.41
376.45, 8.81, 264.41
376.43, 8.88, 264.41
376.39, 8.95, 264.41
376.34, 9.03, 264.40
376.30, 9.10, 264.40
376.25, 9.17, 264.40
375.13, 9.27, 264.34
374.24, 9.70, 264.30
376.21, 9.62, 264.40
374.87, 7.16, 264.40
374.54, 7.17, 264.39
374.18, 7.18, 264.38
373.78, 7.19, 264.36
373.32, 7.19, 264.34
372.80, 7.20, 264.32
372.22, 7.21, 264.30
371.57, 7.22, 264.27
370.92, 7.25, 264.25
370.41, 7.32, 264.23
369.86, 7.40, 264.21
369.24, 7.48, 264.19
376.37, 8.51, 264.47
376.41, 8.59, 264.48
376.45, 8.67, 264.48
376.48, 8.74, 264.48
376.48, 8.81, 264.48
376.44, 8.88, 264.48
376.40, 8.95, 264.48
376.35, 9.03, 264.48
376.31, 9.10, 264.48
376.26, 9.17, 264.48
376.20, 9.55, 264.48
376.24, 9.62, 264.48
374.89, 7.16, 264.49
374.56, 7.17, 264.49
374.20, 7.18, 264.48
373.80, 7.19, 264.47
373.33, 7.20, 264.46
372.81, 7.20, 264.44
372.24, 7.21, 264.43
371.59, 7.22, 264.41
370.93, 7.25, 264.40
370.43, 7.32, 264.39
¯369.87, 7.40, 264.37
376.37, 8.44, 264.54
376.41, 8.52, 264.55
376.45, 8.60, 264.55
376.49, 8.67, 264.55
376.51, 8.74, 264.55
376.49, 8.81, 264.55
376.45, 8.88, 264.55
376.40, 8.95, 264.55
376.36, 9.03, 264.55
376.31, 9.10, 264.55
375.19, 9.18, 264.52
376.24, 9.54, 264.55
376.27, 9.62, 264.55
374.90, 7.17, 264.59
374.57, 7.18, 264.58
374.22, 7.19, 264.58
373.81, 7.20, 264.57
373.35, 7.20, 264.57
372.83, 7.21, 264.56
372.26, 7.22, 264.56
371.60, 7.23, 264.55
370.94, 7.25, 264.54
370.44, 7.32, 264.54
369.88, 7.40, 264.53
376.42, 8.45, 264.62
376.46, 8.52, 264.62
376.50, 8.60, 264.62
376.54, 8.68, 264.62
376.53, 8.75, 264.62
376.50, 8.81, 264.62
376.46, 8.88, 264.62
376.41, 8.95, 264.62
376.37, 9.02, 264.62
376.32, 9.10, 264.62
376.24, 9.47, 264.63
376.27, 9.54, 264.63
376.31, 9.61, 264.63
374.92, 7.17, 264.68
374.59, 7.18, 264.68
374.24, 7.19, 264.68
373.83, 7.20, 264.68
373.36, 7.20, 264.68
372.85, 7.21, 264.68
372.29, 7.22, 264.69
371.62, 7.23, 264.69
370.96, 7.25, 264.69
370.45, 7.32, 264.69
376.43, 8.37, 264.69
376.47, 8.45, 264.69
376.51, 8.53, 264.69
¯376.54, 8.60, 264.69
376.56, 8.68, 264.69
376.55, 8.75, 264.69
376.51, 8.81, 264.69
376.46, 8.88, 264.69
376.42, 8.95, 264.69
376.38, 9.02, 264.70
375.89, 9.09, 264.70
376.23, 9.39, 264.70
376.27, 9.47, 264.70
376.31, 9.54, 264.70
376.34, 9.61, 264.70
374.94, 7.18, 264.77
374.61, 7.19, 264.77
374.26, 7.20, 264.78
373.85, 7.20, 264.79
373.38, 7.21, 264.79
372.87, 7.21, 264.80
372.31, 7.22, 264.81
371.65, 7.23, 264.82
370.97, 7.25, 264.84
370.47, 7.32, 264.85
376.47, 8.38, 264.76
376.51, 8.46, 264.76
376.55, 8.53, 264.76
376.59, 8.61, 264.76
376.59, 8.68, 264.76
376.56, 8.75, 264.76
376.52, 8.81, 264.76
376.47, 8.88, 264.76
376.43, 8.95, 264.77
376.39, 9.02, 264.77
374.90, 9.08, 264.79
376.23, 9.32, 264.77
376.27, 9.39, 264.77
376.30, 9.46, 264.77
376.34, 9.53, 264.78
376.37, 9.60, 264.78
374.95, 7.18, 264.86
374.63, 7.19, 264.87
374.28, 7.20, 264.88
373.87, 7.20, 264.89
373.41, 7.21, 264.91
372.89, 7.22, 264.92
372.33, 7.23, 264.94
371.67, 7.23, 264.96
370.99, 7.25, 264.98
376.48, 8.31, 264.83
376.52, 8.38, 264.83
376.56, 8.46, 264.83
376.59, 8.54, 264.83
¯376.62, 8.61, 264.83
376.61, 8.68, 264.83
376.57, 8.75, 264.83
376.52, 8.81, 264.83
376.48, 8.88, 264.83
376.44, 8.95, 264.84
376.23, 9.02, 264.84
376.26, 9.32, 264.85
376.30, 9.39, 264.85
376.34, 9.46, 264.85
376.37, 9.53, 264.85
376.39, 9.60, 264.85
374.97, 7.18, 264.95
374.65, 7.19, 264.96
374.30, 7.20, 264.98
373.89, 7.21, 265.00
373.43, 7.21, 265.02
372.92, 7.22, 265.04
372.36, 7.23, 265.07
371.70, 7.24, 265.10
371.01, 7.25, 265.13
376.52, 8.31, 264.90
376.56, 8.39, 264.89
376.60, 8.47, 264.89
376.64, 8.54, 264.89
376.64, 8.61, 264.89
376.62, 8.68, 264.90
376.57, 8.75, 264.90
376.53, 8.81, 264.90
376.49, 8.88, 264.91
376.45, 8.95, 264.91
375.26, 9.00, 264.96
376.26, 9.24, 264.92
376.30, 9.31, 264.92
376.33, 9.39, 264.92
376.37, 9.46, 264.92
376.40, 9.53, 264.92
376.40, 9.60, 264.92
375.00, 7.19, 265.04
374.68, 7.20, 265.06
374.32, 7.21, 265.08
373.91, 7.21, 265.10
373.45, 7.22, 265.13
372.95, 7.22, 265.16
372.38, 7.23, 265.19
371.73, 7.24, 265.23
371.03, 7.25, 265.27
376.57, 8.32, 264.96
376.61, 8.39, 264.96
376.64, 8.47, 264.96
376.67, 8.54, 264.96
¯376.66, 8.61, 264.96
376.62, 8.68, 264.96
376.58, 8.74, 264.97
376.54, 8.81, 264.97
376.50, 8.88, 264.98
376.46, 8.95, 264.98
376.26, 9.17, 264.99
376.30, 9.24, 264.99
376.33, 9.31, 264.99
376.37, 9.38, 264.99
376.40, 9.45, 264.99
376.40, 9.53, 264.99
376.39, 9.60, 264.99
375.02, 7.19, 265.13
374.70, 7.20, 265.15
374.34, 7.21, 265.18
373.94, 7.21, 265.21
373.48, 7.22, 265.24
372.98, 7.22, 265.28
372.41, 7.23, 265.32
371.76, 7.24, 265.36
376.57, 8.24, 265.03
376.61, 8.32, 265.03
376.65, 8.40, 265.03
376.69, 8.47, 265.03
376.69, 8.55, 265.03
376.67, 8.61, 265.03
376.63, 8.68, 265.03
376.59, 8.74, 265.04
376.55, 8.81, 265.04
376.51, 8.88, 265.05
375.30, 8.91, 265.13
376.26, 9.09, 265.07
376.29, 9.16, 265.07
376.33, 9.24, 265.06
376.36, 9.31, 265.06
376.40, 9.38, 265.06
376.41, 9.45, 265.06
376.40, 9.53, 265.06
376.37, 9.60, 265.07
375.05, 7.20, 265.21
374.73, 7.20, 265.24
374.37, 7.21, 265.27
373.96, 7.22, 265.31
373.51, 7.22, 265.35
373.01, 7.23, 265.39
372.44, 7.24, 265.44
371.79, 7.24, 265.50
376.62, 8.25, 265.10
376.65, 8.33, 265.09
376.69, 8.40, 265.09
¯376.72, 8.48, 265.09
376.71, 8.55, 265.09
376.68, 8.61, 265.10
376.64, 8.68, 265.10
376.60, 8.74, 265.11
376.56, 8.81, 265.11
376.52, 8.88, 265.12
376.25, 9.01, 265.14
376.29, 9.09, 265.14
376.33, 9.16, 265.14
376.36, 9.24, 265.14
376.40, 9.31, 265.13
376.42, 9.38, 265.13
376.41, 9.45, 265.13
376.38, 9.53, 265.14
376.35, 9.60, 265.14
375.07, 7.20, 265.30
374.76, 7.21, 265.33
374.39, 7.21, 265.37
373.99, 7.22, 265.41
373.54, 7.22, 265.46
373.04, 7.23, 265.51
372.47, 7.24, 265.56
376.62, 8.18, 265.16
376.66, 8.26, 265.16
376.70, 8.33, 265.16
376.73, 8.41, 265.16
376.74, 8.48, 265.16
376.73, 8.55, 265.16
376.69, 8.61, 265.16
376.65, 8.68, 265.17
376.61, 8.74, 265.17
376.57, 8.81, 265.18
376.16, 8.86, 265.22
376.29, 9.01, 265.21
376.32, 9.09, 265.21
376.36, 9.16, 265.21
376.39, 9.23, 265.21
376.42, 9.31, 265.20
376.42, 9.38, 265.21
376.40, 9.45, 265.21
376.36, 9.53, 265.21
376.33, 9.60, 265.22
375.10, 7.20, 265.39
374.78, 7.21, 265.42
374.42, 7.22, 265.47
374.02, 7.22, 265.51
373.57, 7.23, 265.56
373.07, 7.23, 265.62
372.52, 7.24, 265.69
376.66, 8.18, 265.23
¯376.70, 8.26, 265.22
376.74, 8.34, 265.22
376.77, 8.41, 265.22
376.77, 8.48, 265.22
376.74, 8.54, 265.23
376.70, 8.61, 265.23
376.66, 8.67, 265.24
376.62, 8.74, 265.24
376.58, 8.81, 265.25
375.29, 8.81, 265.40
376.28, 8.94, 265.29
376.32, 9.01, 265.28
376.36, 9.09, 265.28
376.39, 9.16, 265.28
376.43, 9.23, 265.27
376.43, 9.30, 265.28
376.41, 9.38, 265.28
376.38, 9.45, 265.28
376.34, 9.53, 265.29
376.31, 9.60, 265.29
375.13, 7.21, 265.47
374.81, 7.21, 265.52
374.45, 7.22, 265.56
374.05, 7.22, 265.61
373.61, 7.23, 265.67
373.12, 7.24, 265.73
376.67, 8.11, 265.29
376.70, 8.19, 265.29
376.74, 8.26, 265.29
376.78, 8.34, 265.28
376.79, 8.41, 265.28
376.78, 8.48, 265.29
376.74, 8.54, 265.29
376.71, 8.61, 265.30
376.67, 8.67, 265.31
376.62, 8.74, 265.31
376.51, 8.80, 265.33
376.28, 8.86, 265.36
376.32, 8.94, 265.36
376.35, 9.01, 265.35
376.39, 9.09, 265.35
376.42, 9.16, 265.35
376.43, 9.23, 265.35
376.42, 9.30, 265.35
376.39, 9.38, 265.35
376.36, 9.45, 265.36
376.33, 9.53, 265.37
376.29, 9.61, 265.37
375.16, 7.21, 265.56
374.84, 7.22, 265.61
374.48, 7.22, 265.66
¯374.09, 7.23, 265.71
373.66, 7.24, 265.78
373.17, 7.24, 265.85
376.71, 8.11, 265.36
376.74, 8.19, 265.35
376.78, 8.27, 265.35
376.82, 8.34, 265.35
376.82, 8.41, 265.35
376.79, 8.48, 265.35
376.75, 8.54, 265.36
376.71, 8.61, 265.37
376.67, 8.67, 265.37
376.63, 8.74, 265.38
376.28, 8.78, 265.43
376.31, 8.86, 265.43
376.35, 8.94, 265.43
376.39, 9.01, 265.42
376.42, 9.08, 265.42
376.44, 9.16, 265.42
376.43, 9.23, 265.42
376.40, 9.30, 265.43
376.37, 9.38, 265.43
376.34, 9.45, 265.44
376.31, 9.53, 265.44
375.19, 7.21, 265.64
374.87, 7.22, 265.70
374.52, 7.23, 265.75
374.13, 7.23, 265.81
373.71, 7.24, 265.88
376.71, 8.04, 265.42
376.75, 8.12, 265.42
376.78, 8.20, 265.41
376.82, 8.27, 265.41
376.84, 8.35, 265.41
376.84, 8.41, 265.41
376.80, 8.48, 265.42
376.76, 8.54, 265.43
376.72, 8.60, 265.43
376.68, 8.67, 265.44
376.64, 8.74, 265.45
376.31, 8.78, 265.50
376.35, 8.86, 265.50
376.38, 8.94, 265.49
376.42, 9.01, 265.49
376.44, 9.08, 265.49
376.44, 9.16, 265.49
376.41, 9.23, 265.50
376.38, 9.30, 265.50
376.35, 9.38, 265.51
376.32, 9.45, 265.52
376.29, 9.53, 265.52
¯375.22, 7.22, 265.73
374.91, 7.22, 265.78
374.56, 7.23, 265.84
374.18, 7.24, 265.91
373.75, 7.25, 265.98
376.75, 8.04, 265.48
376.79, 8.12, 265.48
376.82, 8.20, 265.48
376.86, 8.28, 265.47
376.87, 8.35, 265.47
376.85, 8.41, 265.48
376.81, 8.47, 265.48
376.77, 8.54, 265.49
376.73, 8.60, 265.50
376.69, 8.67, 265.51
376.31, 8.71, 265.58
376.34, 8.78, 265.57
376.38, 8.86, 265.57
376.41, 8.93, 265.56
376.45, 9.01, 265.56
376.45, 9.08, 265.56
376.43, 9.15, 265.57
376.40, 9.23, 265.57
376.36, 9.30, 265.58
376.33, 9.38, 265.59
376.30, 9.45, 265.59
375.26, 7.22, 265.81
374.95, 7.23, 265.87
374.60, 7.24, 265.93
374.23, 7.24, 266.00
373.81, 7.25, 266.08
376.79, 8.05, 265.55
376.83, 8.13, 265.54
376.86, 8.20, 265.54
376.89, 8.28, 265.53
376.89, 8.35, 265.53
376.86, 8.41, 265.54
376.82, 8.47, 265.55
376.78, 8.54, 265.56
376.74, 8.60, 265.57
376.70, 8.67, 265.58
376.34, 8.71, 265.65
376.38, 8.78, 265.64
376.41, 8.86, 265.64
376.45, 8.93, 265.63
376.45, 9.01, 265.63
376.44, 9.08, 265.64
376.41, 9.15, 265.64
376.38, 9.23, 265.65
376.34, 9.30, 265.66
376.31, 9.38, 265.67
¯375.29, 7.22, 265.89
374.99, 7.23, 265.96
374.65, 7.24, 266.02
374.27, 7.25, 266.10
376.79, 7.97, 265.61
376.83, 8.05, 265.61
376.87, 8.13, 265.60
376.90, 8.21, 265.60
376.91, 8.28, 265.59
376.90, 8.35, 265.60
376.87, 8.41, 265.61
376.83, 8.47, 265.62
376.79, 8.53, 265.63
376.75, 8.60, 265.64
376.58, 8.65, 265.67
376.37, 8.71, 265.71
376.41, 8.78, 265.71
376.44, 8.86, 265.70
376.46, 8.93, 265.70
376.45, 9.00, 265.71
376.42, 9.08, 265.71
376.39, 9.15, 265.72
376.36, 9.22, 265.73
376.32, 9.30, 265.74
375.33, 7.23, 265.98
375.03, 7.24, 266.04
374.69, 7.25, 266.11
374.32, 7.25, 266.19
376.83, 7.98, 265.67
376.87, 8.06, 265.67
376.90, 8.14, 265.66
376.94, 8.21, 265.65
376.94, 8.28, 265.66
376.91, 8.34, 265.66
376.87, 8.41, 265.67
376.84, 8.47, 265.68
376.80, 8.53, 265.69
376.76, 8.60, 265.70
376.37, 8.63, 265.79
376.41, 8.71, 265.78
376.44, 8.78, 265.78
376.46, 8.86, 265.77
376.46, 8.93, 265.78
376.43, 9.00, 265.78
376.40, 9.08, 265.79
376.37, 9.15, 265.80
376.34, 9.22, 265.81
376.30, 9.30, 265.82
375.37, 7.23, 266.06
375.07, 7.24, 266.13
374.74, 7.25, 266.20
¯376.83, 7.90, 265.74
376.87, 7.98, 265.73
376.91, 8.06, 265.73
376.94, 8.14, 265.72
376.96, 8.21, 265.72
376.96, 8.28, 265.72
376.92, 8.34, 265.73
376.88, 8.40, 265.74
376.85, 8.47, 265.75
376.81, 8.53, 265.76
376.77, 8.59, 265.77
376.40, 8.63, 265.86
376.44, 8.71, 265.85
376.47, 8.78, 265.84
376.47, 8.85, 265.85
376.45, 8.93, 265.85
376.42, 9.00, 265.86
376.38, 9.07, 265.87
376.35, 9.15, 265.88
376.32, 9.22, 265.89
375.41, 7.24, 266.14
375.11, 7.25, 266.21
374.79, 7.25, 266.29
376.87, 7.91, 265.80
376.91, 7.99, 265.79
376.94, 8.07, 265.78
376.98, 8.14, 265.78
376.98, 8.21, 265.78
376.97, 8.28, 265.78
376.93, 8.34, 265.79
376.89, 8.40, 265.81
376.85, 8.46, 265.82
376.82, 8.53, 265.83
376.40, 8.55, 265.93
376.43, 8.63, 265.92
376.47, 8.70, 265.92
376.47, 8.78, 265.92
376.46, 8.85, 265.92
376.43, 8.92, 265.93
376.40, 9.00, 265.94
376.36, 9.07, 265.95
376.33, 9.15, 265.96
375.45, 7.24, 266.22
375.16, 7.25, 266.29
374.83, 7.26, 266.38
376.91, 7.91, 265.86
376.95, 7.99, 265.85
376.98, 8.07, 265.84
377.01, 8.14, 265.84
377.01, 8.21, 265.84
376.98, 8.27, 265.85
¯376.94, 8.34, 265.86
376.90, 8.40, 265.87
376.86, 8.46, 265.88
376.83, 8.52, 265.90
376.43, 8.55, 266.00
376.47, 8.63, 265.99
376.48, 8.70, 265.99
376.47, 8.78, 265.99
376.44, 8.85, 266.00
376.41, 8.92, 266.01
376.38, 8.99, 266.02
376.34, 9.07, 266.04
375.49, 7.24, 266.30
375.20, 7.25, 266.37
376.91, 7.83, 265.92
376.95, 7.91, 265.91
376.98, 7.99, 265.91
377.02, 8.07, 265.90
377.03, 8.14, 265.90
377.02, 8.21, 265.90
376.99, 8.27, 265.91
376.95, 8.33, 265.93
376.91, 8.39, 265.94
376.87, 8.46, 265.95
376.76, 8.51, 265.98
376.46, 8.55, 266.07
376.49, 8.62, 266.06
376.49, 8.70, 266.06
376.46, 8.77, 266.07
376.42, 8.84, 266.08
376.39, 8.92, 266.10
376.36, 8.99, 266.11
376.32, 9.07, 266.12
375.53, 7.25, 266.37
375.25, 7.26, 266.46
376.95, 7.84, 265.98
376.99, 7.92, 265.97
377.02, 8.00, 265.96
377.05, 8.07, 265.96
377.05, 8.14, 265.96
377.03, 8.21, 265.97
377.00, 8.27, 265.98
376.96, 8.33, 265.99
376.92, 8.39, 266.00
376.88, 8.45, 266.02
376.46, 8.47, 266.14
376.49, 8.55, 266.13
376.49, 8.62, 266.14
376.47, 8.69, 266.14
376.44, 8.77, 266.16
376.40, 8.84, 266.17
‰376.37, 8.91, 266.18
376.34, 8.99, 266.19
375.58, 7.25, 266.45
375.29, 7.26, 266.54
376.99, 7.84, 266.04
377.02, 7.92, 266.03
377.06, 8.00, 266.02
377.08, 8.07, 266.02
377.08, 8.14, 266.02
377.04, 8.20, 266.03
377.01, 8.26, 266.04
376.97, 8.33, 266.06
376.93, 8.39, 266.07
376.89, 8.45, 266.08
376.49, 8.47, 266.21
376.50, 8.54, 266.21
376.48, 8.62, 266.21
376.45, 8.69, 266.23
376.42, 8.76, 266.24
376.39, 8.83, 266.25
376.35, 8.91, 266.26
375.62, 7.25, 266.53
376.99, 7.76, 266.10
377.02, 7.84, 266.09
377.06, 7.92, 266.09
377.09, 8.00, 266.08
377.10, 8.07, 266.08
377.09, 8.14, 266.08
377.05, 8.20, 266.10
377.02, 8.26, 266.11
376.98, 8.32, 266.12
376.94, 8.38, 266.14
376.60, 8.40, 266.25
