ŸVERSION 0.7
FIELDS x y z
SIZE 8 8 8
TYPE F F F
COUNT 1 1 1
WIDTH 2271
HEIGHT 1
VIEWPOINT 439.11, 13.86, 284.18 1 435.79, 9.14, 303.98
POINTS 2271
DATA ascii
430.57, 7.30, 317.23
429.70, 7.23, 319.62
428.27, 7.07, 323.58
433.92, 7.29, 308.24
433.84, 7.30, 308.46
433.76, 7.31, 308.70
433.67, 7.31, 308.96
433.57, 7.32, 309.24
433.46, 7.33, 309.55
433.34, 7.34, 309.90
433.21, 7.35, 310.28
433.06, 7.36, 310.71
¯432.89, 7.36, 311.20
432.49, 7.25, 312.35
432.26, 7.26, 313.02
431.99, 7.28, 313.79
431.67, 7.29, 314.70
431.28, 7.30, 315.82
430.77, 7.30, 317.29
429.96, 7.24, 319.64
428.62, 7.09, 323.49
433.99, 7.29, 308.26
433.92, 7.30, 308.49
433.84, 7.31, 308.73
433.75, 7.31, 308.99
433.65, 7.32, 309.27
433.55, 7.33, 309.58
433.43, 7.34, 309.93
433.31, 7.35, 310.32
433.16, 7.36, 310.75
433.00, 7.36, 311.24
432.82, 7.38, 311.78
432.39, 7.26, 313.07
432.14, 7.28, 313.84
431.83, 7.29, 314.76
431.46, 7.30, 315.88
430.97, 7.30, 317.35
430.21, 7.25, 319.65
428.98, 7.12, 323.36
434.06, 7.29, 308.29
433.99, 7.30, 308.51
433.91, 7.31, 308.75
433.83, 7.32, 309.01
433.74, 7.32, 309.30
433.64, 7.33, 309.61
433.53, 7.34, 309.96
433.41, 7.35, 310.35
433.27, 7.36, 310.78
433.11, 7.37, 311.27
432.94, 7.38, 311.82
432.53, 7.26, 313.11
432.29, 7.28, 313.89
431.99, 7.29, 314.81
431.64, 7.30, 315.94
431.17, 7.30, 317.41
430.46, 7.26, 319.65
429.36, 7.15, 323.15
434.13, 7.29, 308.31
434.06, 7.30, 308.53
433.99, 7.31, 308.78
433.91, 7.32, 309.04
433.83, 7.32, 309.32
433.73, 7.33, 309.64
¯433.62, 7.34, 309.99
433.51, 7.35, 310.38
433.38, 7.36, 310.82
433.23, 7.37, 311.31
433.06, 7.38, 311.86
432.87, 7.39, 312.49
432.44, 7.28, 313.94
432.16, 7.29, 314.87
431.81, 7.30, 316.00
431.37, 7.30, 317.47
430.71, 7.27, 319.65
429.72, 7.18, 322.97
434.20, 7.30, 308.33
434.14, 7.30, 308.55
434.07, 7.31, 308.80
433.99, 7.32, 309.06
433.91, 7.32, 309.35
433.82, 7.33, 309.67
433.72, 7.34, 310.02
433.61, 7.35, 310.41
433.48, 7.36, 310.85
433.34, 7.37, 311.34
433.18, 7.38, 311.90
433.00, 7.39, 312.53
432.79, 7.40, 313.26
432.32, 7.29, 314.92
431.99, 7.30, 316.06
431.57, 7.31, 317.52
430.97, 7.28, 319.65
430.01, 7.19, 322.98
434.27, 7.30, 308.35
434.21, 7.30, 308.58
434.15, 7.31, 308.82
434.08, 7.32, 309.08
434.00, 7.32, 309.37
433.91, 7.33, 309.69
433.81, 7.34, 310.05
433.71, 7.35, 310.44
433.59, 7.36, 310.88
433.46, 7.37, 311.37
433.30, 7.38, 311.93
433.13, 7.39, 312.57
432.93, 7.40, 313.30
432.70, 7.42, 314.16
432.17, 7.30, 316.11
431.77, 7.31, 317.58
431.21, 7.28, 319.66
430.31, 7.20, 322.98
434.35, 7.30, 308.37
434.29, 7.30, 308.60
434.23, 7.31, 308.84
¯434.16, 7.32, 309.11
434.08, 7.33, 309.40
434.00, 7.33, 309.72
433.91, 7.34, 310.08
433.81, 7.35, 310.47
433.70, 7.36, 310.91
433.57, 7.37, 311.40
433.43, 7.38, 311.96
433.26, 7.39, 312.60
433.07, 7.40, 313.34
432.85, 7.42, 314.20
432.35, 7.30, 316.16
431.97, 7.31, 317.64
431.45, 7.29, 319.67
430.62, 7.21, 322.93
434.42, 7.30, 308.39
434.36, 7.30, 308.61
434.31, 7.31, 308.86
434.24, 7.32, 309.13
434.17, 7.33, 309.42
434.09, 7.33, 309.74
434.01, 7.34, 310.10
433.91, 7.35, 310.49
433.80, 7.36, 310.93
433.68, 7.37, 311.43
433.55, 7.38, 311.99
433.39, 7.39, 312.64
433.22, 7.41, 313.38
433.01, 7.42, 314.25
432.75, 7.43, 315.30
432.17, 7.31, 317.70
431.69, 7.29, 319.69
430.93, 7.23, 322.85
434.49, 7.30, 308.40
434.44, 7.30, 308.63
434.38, 7.31, 308.88
434.32, 7.32, 309.15
434.26, 7.33, 309.44
434.18, 7.33, 309.76
434.10, 7.34, 310.12
434.01, 7.35, 310.52
433.91, 7.36, 310.96
433.80, 7.37, 311.46
433.67, 7.38, 312.02
433.53, 7.39, 312.67
433.36, 7.41, 313.41
433.16, 7.42, 314.28
432.92, 7.43, 315.35
432.62, 7.44, 316.67
431.92, 7.29, 319.76
431.24, 7.24, 322.76
¯434.57, 7.30, 308.42
434.52, 7.30, 308.65
434.46, 7.31, 308.90
434.41, 7.32, 309.16
434.34, 7.33, 309.46
434.28, 7.33, 309.78
434.20, 7.34, 310.15
434.12, 7.35, 310.54
434.02, 7.36, 310.98
433.92, 7.37, 311.48
433.80, 7.38, 312.05
433.66, 7.39, 312.70
433.50, 7.41, 313.44
433.31, 7.42, 314.32
433.09, 7.43, 315.39
432.81, 7.44, 316.72
432.15, 7.29, 319.83
431.55, 7.26, 322.66
434.64, 7.30, 308.43
434.59, 7.30, 308.66
434.54, 7.31, 308.91
434.49, 7.32, 309.18
434.43, 7.33, 309.48
434.37, 7.33, 309.80
434.30, 7.34, 310.17
434.22, 7.35, 310.56
434.13, 7.36, 311.01
434.03, 7.37, 311.51
433.92, 7.38, 312.07
433.79, 7.39, 312.72
433.64, 7.41, 313.47
433.47, 7.42, 314.35
433.26, 7.43, 315.43
432.99, 7.44, 316.76
432.64, 7.44, 318.55
431.83, 7.26, 322.69
434.71, 7.30, 308.45
434.67, 7.30, 308.68
434.62, 7.31, 308.93
434.57, 7.32, 309.20
434.52, 7.33, 309.49
434.46, 7.33, 309.82
434.39, 7.34, 310.18
434.32, 7.35, 310.58
434.24, 7.36, 311.03
434.15, 7.37, 311.53
434.04, 7.38, 312.10
433.92, 7.39, 312.75
433.79, 7.41, 313.50
433.62, 7.42, 314.39
433.43, 7.43, 315.47
¯433.18, 7.44, 316.80
432.85, 7.44, 318.60
432.39, 7.42, 321.13
434.78, 7.30, 308.46
434.75, 7.30, 308.69
434.70, 7.31, 308.94
434.66, 7.32, 309.21
434.61, 7.33, 309.51
434.55, 7.33, 309.84
434.49, 7.34, 310.20
434.42, 7.35, 310.60
434.35, 7.36, 311.05
434.26, 7.37, 311.55
434.17, 7.38, 312.12
434.06, 7.39, 312.77
433.93, 7.41, 313.53
433.78, 7.42, 314.42
433.60, 7.43, 315.50
433.37, 7.44, 316.84
433.07, 7.44, 318.65
432.64, 7.42, 321.19
431.95, 7.34, 325.26
434.86, 7.30, 308.47
434.82, 7.30, 308.70
434.78, 7.31, 308.95
434.74, 7.32, 309.22
434.70, 7.33, 309.52
434.65, 7.33, 309.86
434.59, 7.34, 310.22
434.53, 7.35, 310.61
434.46, 7.36, 311.07
434.38, 7.37, 311.57
434.29, 7.38, 312.14
434.19, 7.39, 312.80
434.07, 7.41, 313.55
433.94, 7.42, 314.44
433.77, 7.43, 315.54
433.56, 7.44, 316.87
433.28, 7.44, 318.69
432.89, 7.42, 321.24
432.26, 7.34, 325.34
434.93, 7.30, 308.48
434.90, 7.31, 308.71
434.86, 7.31, 308.97
434.83, 7.32, 309.24
434.78, 7.33, 309.54
434.74, 7.33, 309.87
434.69, 7.34, 310.23
434.63, 7.35, 310.63
434.57, 7.36, 311.08
434.50, 7.37, 311.58
¯434.42, 7.38, 312.16
434.33, 7.39, 312.82
434.22, 7.41, 313.58
434.09, 7.42, 314.47
433.94, 7.43, 315.57
433.75, 7.44, 316.90
433.50, 7.44, 318.73
433.14, 7.42, 321.29
432.56, 7.34, 325.41
435.01, 7.30, 308.49
434.98, 7.31, 308.73
434.95, 7.31, 308.98
434.91, 7.32, 309.25
434.87, 7.33, 309.55
434.83, 7.33, 309.88
434.79, 7.34, 310.25
434.74, 7.35, 310.64
434.68, 7.36, 311.10
434.62, 7.37, 311.60
434.54, 7.38, 312.17
434.46, 7.39, 312.83
434.36, 7.41, 313.60
434.25, 7.42, 314.50
434.11, 7.43, 315.59
433.95, 7.44, 316.93
433.71, 7.44, 318.76
433.39, 7.42, 321.33
432.87, 7.34, 325.48
435.08, 7.30, 308.50
435.05, 7.31, 308.73
435.03, 7.31, 308.99
435.00, 7.32, 309.26
434.96, 7.33, 309.56
434.92, 7.33, 309.89
434.88, 7.34, 310.26
434.84, 7.35, 310.66
434.79, 7.36, 311.11
434.73, 7.37, 311.61
434.67, 7.38, 312.19
434.59, 7.39, 312.85
434.51, 7.41, 313.62
434.41, 7.42, 314.52
434.29, 7.43, 315.62
434.14, 7.44, 316.96
433.93, 7.44, 318.79
433.64, 7.42, 321.37
433.18, 7.34, 325.53
435.15, 7.30, 308.51
435.13, 7.31, 308.74
435.11, 7.31, 308.99
435.08, 7.32, 309.27
¯435.05, 7.33, 309.57
435.02, 7.33, 309.90
434.98, 7.34, 310.27
434.94, 7.35, 310.67
434.90, 7.36, 311.12
434.85, 7.37, 311.63
434.79, 7.38, 312.20
434.73, 7.39, 312.86
434.65, 7.41, 313.64
434.57, 7.42, 314.54
434.46, 7.43, 315.64
434.33, 7.44, 316.98
434.15, 7.44, 318.82
433.90, 7.42, 321.41
433.49, 7.34, 325.58
435.23, 7.30, 308.52
435.21, 7.31, 308.75
435.19, 7.31, 309.00
435.17, 7.32, 309.28
435.14, 7.33, 309.58
435.11, 7.33, 309.91
435.08, 7.34, 310.28
435.05, 7.35, 310.68
435.01, 7.36, 311.13
434.97, 7.37, 311.64
434.92, 7.38, 312.21
434.86, 7.39, 312.88
434.80, 7.41, 313.65
434.72, 7.42, 314.56
434.63, 7.43, 315.65
434.52, 7.44, 317.00
434.37, 7.44, 318.85
434.15, 7.41, 321.44
433.80, 7.34, 325.62
435.30, 7.30, 308.52
435.29, 7.31, 308.76
435.27, 7.31, 309.01
435.25, 7.32, 309.28
435.23, 7.33, 309.59
435.21, 7.33, 309.92
435.18, 7.34, 310.29
435.15, 7.35, 310.69
435.12, 7.36, 311.14
435.09, 7.37, 311.64
435.05, 7.38, 312.22
435.00, 7.40, 312.89
434.95, 7.41, 313.67
434.88, 7.42, 314.57
434.81, 7.43, 315.67
434.71, 7.44, 317.02
434.59, 7.44, 318.87
¯434.41, 7.41, 321.47
434.12, 7.34, 325.65
435.38, 7.30, 308.53
435.36, 7.31, 308.76
435.35, 7.31, 309.01
435.34, 7.32, 309.29
435.32, 7.33, 309.59
435.30, 7.33, 309.93
435.28, 7.34, 310.29
435.26, 7.35, 310.69
435.23, 7.36, 311.15
435.20, 7.37, 311.65
435.17, 7.38, 312.23
435.14, 7.40, 312.90
435.09, 7.41, 313.68
435.04, 7.42, 314.59
434.98, 7.43, 315.68
434.91, 7.44, 317.03
434.80, 7.44, 318.89
434.66, 7.41, 321.49
434.43, 7.34, 325.67
435.45, 7.30, 308.53
435.44, 7.31, 308.76
435.43, 7.31, 309.02
435.42, 7.32, 309.29
435.41, 7.33, 309.60
435.39, 7.33, 309.93
435.38, 7.34, 310.30
435.36, 7.35, 310.70
435.34, 7.36, 311.16
435.32, 7.37, 311.66
435.30, 7.38, 312.24
435.27, 7.40, 312.90
435.24, 7.41, 313.69
435.20, 7.42, 314.60
435.16, 7.43, 315.69
435.10, 7.44, 317.04
435.02, 7.44, 318.90
434.92, 7.41, 321.51
434.74, 7.34, 325.68
435.53, 7.30, 308.53
435.52, 7.31, 308.77
435.51, 7.31, 309.02
435.51, 7.32, 309.30
435.50, 7.33, 309.60
435.49, 7.33, 309.94
435.48, 7.34, 310.30
435.47, 7.35, 310.70
435.45, 7.36, 311.16
435.44, 7.37, 311.66
435.42, 7.38, 312.24
¯435.41, 7.40, 312.91
435.39, 7.41, 313.69
435.36, 7.42, 314.61
435.33, 7.43, 315.70
435.29, 7.44, 317.05
435.24, 7.44, 318.91
435.17, 7.41, 321.52
435.06, 7.34, 325.68
435.60, 7.30, 308.54
435.60, 7.31, 308.77
435.59, 7.31, 309.02
435.59, 7.32, 309.30
435.59, 7.33, 309.61
435.58, 7.33, 309.94
435.58, 7.34, 310.30
435.57, 7.35, 310.70
435.57, 7.36, 311.16
435.56, 7.37, 311.66
435.55, 7.38, 312.25
435.54, 7.40, 312.91
435.53, 7.41, 313.70
435.52, 7.42, 314.62
435.51, 7.43, 315.71
435.49, 7.44, 317.06
435.46, 7.44, 318.92
435.43, 7.41, 321.52
435.37, 7.34, 325.67
435.68, 7.30, 308.54
435.68, 7.31, 308.77
435.68, 7.31, 309.02
435.68, 7.32, 309.30
435.68, 7.33, 309.61
435.68, 7.33, 309.94
435.68, 7.34, 310.31
435.68, 7.35, 310.71
435.68, 7.36, 311.16
435.68, 7.37, 311.67
435.68, 7.38, 312.25
435.68, 7.40, 312.91
435.68, 7.40, 313.70
435.68, 7.42, 314.62
435.68, 7.43, 315.71
435.68, 7.44, 317.06
435.68, 7.44, 318.92
435.68, 7.41, 321.53
435.69, 7.34, 325.66
435.75, 7.30, 308.54
435.75, 7.31, 308.77
435.76, 7.31, 309.02
435.76, 7.32, 309.30
435.77, 7.33, 309.61
¯435.77, 7.33, 309.94
435.78, 7.34, 310.31
435.78, 7.35, 310.71
435.79, 7.36, 311.16
435.80, 7.37, 311.66
435.80, 7.38, 312.25
435.81, 7.40, 312.91
435.83, 7.40, 313.70
435.84, 7.42, 314.62
435.85, 7.43, 315.71
435.87, 7.44, 317.06
435.90, 7.44, 318.92
435.94, 7.41, 321.53
436.00, 7.34, 325.64
435.82, 7.30, 308.53
435.83, 7.31, 308.77
435.84, 7.31, 309.02
435.85, 7.32, 309.30
435.86, 7.33, 309.61
435.86, 7.33, 309.94
435.88, 7.34, 310.30
435.89, 7.35, 310.70
435.90, 7.36, 311.16
435.91, 7.37, 311.66
435.93, 7.38, 312.24
435.95, 7.40, 312.91
435.97, 7.40, 313.70
436.00, 7.42, 314.62
436.03, 7.43, 315.71
436.07, 7.44, 317.05
436.12, 7.44, 318.91
436.20, 7.41, 321.52
436.31, 7.34, 325.62
435.90, 7.30, 308.53
435.91, 7.30, 308.77
435.92, 7.31, 309.02
435.93, 7.32, 309.30
435.94, 7.33, 309.60
435.96, 7.33, 309.94
435.97, 7.34, 310.30
435.99, 7.35, 310.70
436.01, 7.36, 311.16
436.03, 7.37, 311.66
436.06, 7.38, 312.24
436.09, 7.39, 312.91
436.12, 7.40, 313.70
436.16, 7.42, 314.62
436.20, 7.43, 315.71
436.26, 7.44, 317.04
436.34, 7.44, 318.90
436.45, 7.41, 321.51
¯436.58, 7.42, 324.62
436.57, 7.74, 324.41
436.57, 8.04, 324.41
436.57, 8.33, 324.41
436.58, 8.63, 324.41
436.58, 8.93, 324.41
436.58, 9.22, 324.43
435.97, 7.30, 308.53
435.99, 7.30, 308.76
436.00, 7.31, 309.02
436.02, 7.32, 309.30
436.03, 7.32, 309.60
436.05, 7.33, 309.94
436.07, 7.34, 310.30
436.10, 7.35, 310.70
436.12, 7.36, 311.15
436.15, 7.37, 311.65
436.18, 7.38, 312.23
436.22, 7.39, 312.90
436.27, 7.40, 313.69
436.32, 7.41, 314.62
436.38, 7.43, 315.70
436.45, 7.44, 317.03
436.56, 7.44, 318.89
436.71, 7.41, 321.49
436.89, 7.42, 324.68
436.87, 7.74, 324.42
436.87, 8.03, 324.42
436.87, 8.33, 324.42
436.87, 8.63, 324.42
436.87, 8.93, 324.42
436.87, 9.22, 324.44
436.05, 7.30, 308.53
436.06, 7.30, 308.76
436.08, 7.31, 309.01
436.10, 7.32, 309.29
436.12, 7.32, 309.60
436.15, 7.33, 309.93
436.17, 7.34, 310.29
436.20, 7.35, 310.69
436.23, 7.36, 311.14
436.27, 7.37, 311.65
436.31, 7.38, 312.23
436.36, 7.39, 312.89
436.41, 7.40, 313.68
436.48, 7.41, 314.61
436.55, 7.43, 315.69
436.65, 7.44, 317.02
436.78, 7.44, 318.87
436.96, 7.41, 321.47
437.25, 7.35, 325.52
¯436.12, 7.30, 308.52
436.14, 7.30, 308.75
436.16, 7.31, 309.01
436.19, 7.32, 309.28
436.21, 7.32, 309.59
436.24, 7.33, 309.92
436.27, 7.34, 310.28
436.31, 7.35, 310.68
436.34, 7.36, 311.14
436.39, 7.37, 311.64
436.44, 7.38, 312.22
436.49, 7.39, 312.88
436.56, 7.40, 313.67
436.64, 7.41, 314.60
436.73, 7.43, 315.68
436.44, 8.03, 312.27
436.44, 8.16, 312.27
436.44, 8.28, 312.28
436.44, 8.41, 312.29
436.44, 8.54, 312.30
436.45, 8.67, 312.32
436.45, 8.80, 312.34
436.45, 8.92, 312.37
436.45, 9.05, 312.40
436.46, 9.18, 312.42
436.46, 9.31, 312.49
436.20, 7.30, 308.51
436.22, 7.30, 308.75
436.24, 7.31, 309.00
436.27, 7.32, 309.28
436.30, 7.32, 309.58
436.34, 7.33, 309.92
436.37, 7.34, 310.28
436.41, 7.35, 310.67
436.45, 7.36, 311.13
436.50, 7.37, 311.63
436.56, 7.38, 312.20
436.63, 7.39, 312.87
436.71, 7.40, 313.66
436.80, 7.41, 314.59
436.54, 7.93, 312.03
436.54, 8.06, 312.02
436.55, 8.18, 312.03
436.55, 8.31, 312.04
436.55, 8.43, 312.05
436.55, 8.56, 312.06
436.55, 8.68, 312.08
436.55, 8.80, 312.10
436.56, 8.93, 312.13
436.56, 9.05, 312.15
436.56, 9.18, 312.17
¯436.56, 9.31, 312.19
436.57, 9.44, 312.22
436.57, 9.56, 312.24
436.27, 7.30, 308.51
436.30, 7.30, 308.74
436.33, 7.31, 308.99
436.36, 7.32, 309.27
436.39, 7.32, 309.57
436.43, 7.33, 309.91
436.47, 7.34, 310.27
436.51, 7.35, 310.66
436.57, 7.36, 311.11
436.62, 7.37, 311.61
436.69, 7.38, 312.19
436.76, 7.39, 312.86
436.85, 7.40, 313.65
436.65, 7.83, 311.84
436.65, 7.95, 311.83
436.65, 8.08, 311.82
436.65, 8.20, 311.82
436.65, 8.33, 311.81
436.65, 8.45, 311.82
436.65, 8.57, 311.83
436.65, 8.69, 311.85
436.65, 8.81, 311.88
436.66, 8.93, 311.90
436.66, 9.06, 311.92
436.66, 9.18, 311.94
436.66, 9.30, 311.96
436.67, 9.43, 311.98
436.67, 9.55, 312.00
436.35, 7.30, 308.50
436.38, 7.30, 308.73
436.41, 7.31, 308.98
436.44, 7.32, 309.26
436.48, 7.32, 309.56
436.52, 7.33, 309.90
436.57, 7.34, 310.26
436.62, 7.35, 310.65
436.68, 7.36, 311.10
436.74, 7.37, 311.60
436.81, 7.38, 312.18
436.90, 7.39, 312.84
437.00, 7.40, 313.63
436.74, 7.86, 311.64
436.74, 7.98, 311.63
436.74, 8.10, 311.63
436.74, 8.22, 311.63
436.74, 8.34, 311.62
436.74, 8.46, 311.62
436.74, 8.58, 311.62
¯436.75, 8.70, 311.64
436.75, 8.82, 311.66
436.75, 8.94, 311.68
436.76, 9.06, 311.70
436.76, 9.18, 311.72
436.76, 9.30, 311.74
436.76, 9.42, 311.76
436.77, 9.54, 311.78
436.42, 7.30, 308.49
436.45, 7.30, 308.72
436.49, 7.31, 308.97
436.53, 7.32, 309.25
436.57, 7.32, 309.55
436.62, 7.33, 309.89
436.67, 7.34, 310.24
436.72, 7.35, 310.64
436.79, 7.36, 311.09
436.86, 7.37, 311.59
436.94, 7.38, 312.16
437.03, 7.39, 312.82
437.14, 7.40, 313.61
436.84, 7.88, 311.45
436.84, 8.00, 311.45
436.84, 8.12, 311.45
436.84, 8.24, 311.44
436.84, 8.36, 311.44
436.84, 8.48, 311.44
436.84, 8.59, 311.44
436.84, 8.71, 311.44
436.84, 8.83, 311.45
436.84, 8.94, 311.48
436.85, 9.06, 311.50
436.85, 9.18, 311.52
436.85, 9.30, 311.54
436.86, 9.42, 311.56
436.86, 9.53, 311.58
436.49, 7.30, 308.48
436.53, 7.30, 308.71
436.57, 7.31, 308.96
436.61, 7.32, 309.24
436.66, 7.32, 309.54
436.71, 7.33, 309.87
436.77, 7.34, 310.23
436.83, 7.35, 310.62
436.90, 7.36, 311.07
436.97, 7.37, 311.57
437.06, 7.38, 312.14
437.17, 7.39, 312.80
437.29, 7.40, 313.59
436.93, 7.91, 311.28
436.93, 8.02, 311.27
¯436.93, 8.14, 311.27
436.93, 8.26, 311.27
436.93, 8.37, 311.27
436.93, 8.49, 311.27
436.93, 8.60, 311.27
436.93, 8.72, 311.27
436.93, 8.83, 311.27
436.94, 8.95, 311.29
436.94, 9.06, 311.31
436.94, 9.18, 311.34
436.95, 9.29, 311.36
436.95, 9.41, 311.38
436.95, 9.53, 311.40
436.57, 7.30, 308.47
436.61, 7.30, 308.70
436.65, 7.31, 308.95
436.70, 7.31, 309.23
436.75, 7.32, 309.53
436.80, 7.33, 309.86
436.86, 7.34, 310.22
436.93, 7.35, 310.61
437.01, 7.36, 311.05
437.09, 7.37, 311.55
437.19, 7.38, 312.12
437.30, 7.39, 312.78
437.02, 7.81, 311.12
437.02, 7.93, 311.11
437.02, 8.04, 311.10
437.02, 8.16, 311.10
437.02, 8.27, 311.10
437.02, 8.39, 311.10
437.02, 8.50, 311.10
437.02, 8.61, 311.10
437.02, 8.73, 311.10
437.02, 8.84, 311.11
437.02, 8.95, 311.13
437.03, 9.06, 311.15
437.03, 9.18, 311.17
437.03, 9.29, 311.19
437.04, 9.40, 311.21
437.04, 9.52, 311.23
436.64, 7.30, 308.45
436.68, 7.30, 308.69
436.73, 7.31, 308.94
436.78, 7.31, 309.21
436.84, 7.32, 309.51
436.90, 7.33, 309.84
436.96, 7.34, 310.20
437.03, 7.35, 310.59
437.12, 7.36, 311.04
437.21, 7.37, 311.53
¯437.31, 7.38, 312.10
437.43, 7.39, 312.76
437.10, 7.84, 310.95
437.10, 7.95, 310.94
437.10, 8.06, 310.94
437.10, 8.18, 310.94
437.10, 8.29, 310.94
437.10, 8.40, 310.94
437.10, 8.51, 310.94
437.10, 8.62, 310.94
437.10, 8.73, 310.94
437.11, 8.84, 310.96
437.11, 8.95, 310.97
437.11, 9.06, 310.99
437.12, 9.18, 311.01
437.12, 9.29, 311.03
437.12, 9.40, 311.05
437.13, 9.51, 311.07
436.71, 7.29, 308.44
436.76, 7.30, 308.67
436.81, 7.31, 308.92
436.86, 7.31, 309.20
436.92, 7.32, 309.50
436.99, 7.33, 309.83
437.06, 7.34, 310.18
437.14, 7.35, 310.57
437.23, 7.36, 311.02
437.32, 7.37, 311.51
437.44, 7.38, 312.08
437.57, 7.39, 312.73
437.18, 7.86, 310.79
437.18, 7.97, 310.78
437.18, 8.08, 310.78
437.18, 8.19, 310.78
437.18, 8.30, 310.78
437.18, 8.41, 310.78
437.18, 8.52, 310.78
437.18, 8.63, 310.78
437.19, 8.74, 310.79
437.19, 8.85, 310.81
437.19, 8.96, 310.82
437.20, 9.07, 310.84
437.20, 9.17, 310.86
437.20, 9.28, 310.88
437.21, 9.40, 310.89
437.21, 9.51, 310.91
436.79, 7.29, 308.43
436.84, 7.30, 308.66
436.89, 7.31, 308.91
436.95, 7.31, 309.18
437.01, 7.32, 309.48
¯437.08, 7.33, 309.81
437.16, 7.34, 310.16
437.24, 7.35, 310.55
437.34, 7.36, 310.99
437.44, 7.37, 311.49
437.56, 7.38, 312.05
437.28, 7.76, 310.71
437.26, 7.88, 310.63
437.26, 7.99, 310.63
437.26, 8.10, 310.63
437.26, 8.21, 310.63
437.26, 8.32, 310.63
437.26, 8.42, 310.63
437.26, 8.53, 310.63
437.26, 8.64, 310.63
437.27, 8.75, 310.64
437.27, 8.85, 310.66
437.27, 8.96, 310.68
437.28, 9.07, 310.69
437.28, 9.17, 310.71
437.29, 9.28, 310.73
437.29, 9.39, 310.75
437.29, 9.50, 310.76
436.86, 7.29, 308.41
436.91, 7.30, 308.64
436.97, 7.31, 308.89
437.03, 7.31, 309.16
437.10, 7.32, 309.46
437.17, 7.33, 309.79
437.26, 7.34, 310.14
437.34, 7.35, 310.53
437.44, 7.36, 310.97
437.56, 7.37, 311.46
437.68, 7.38, 312.02
437.34, 7.79, 310.50
437.34, 7.90, 310.49
437.34, 8.01, 310.49
437.34, 8.12, 310.49
437.34, 8.22, 310.49
437.34, 8.33, 310.49
437.34, 8.44, 310.49
437.34, 8.54, 310.49
437.34, 8.65, 310.49
437.34, 8.75, 310.50
437.35, 8.86, 310.52
437.35, 8.96, 310.54
437.35, 9.07, 310.55
437.36, 9.17, 310.57
437.36, 9.28, 310.58
437.37, 9.39, 310.60
437.37, 9.49, 310.62
¯436.93, 7.29, 308.40
436.99, 7.30, 308.62
437.05, 7.31, 308.87
437.12, 7.31, 309.14
437.19, 7.32, 309.44
437.27, 7.33, 309.77
437.35, 7.33, 310.12
437.45, 7.35, 310.51
437.55, 7.36, 310.95
437.67, 7.37, 311.44
437.81, 7.38, 312.00
437.38, 7.84, 310.21
437.38, 7.95, 310.21
437.38, 8.05, 310.21
437.38, 8.15, 310.22
437.38, 8.26, 310.22
437.38, 8.36, 310.22
437.38, 8.46, 310.22
437.40, 8.55, 310.31
437.37, 8.67, 310.15
437.37, 8.77, 310.15
437.37, 8.87, 310.15
437.37, 8.97, 310.15
437.37, 9.07, 310.16
437.37, 9.17, 310.16
437.37, 9.27, 310.17
437.37, 9.37, 310.17
437.37, 9.47, 310.17
437.01, 7.29, 308.38
437.07, 7.30, 308.61
437.13, 7.31, 308.85
437.20, 7.31, 309.12
437.27, 7.32, 309.42
437.36, 7.32, 309.75
437.45, 7.33, 310.10
437.55, 7.34, 310.48
437.66, 7.36, 310.92
437.79, 7.37, 311.41
437.93, 7.38, 311.96
437.45, 7.86, 310.08
437.45, 7.96, 310.08
437.45, 8.07, 310.08
437.45, 8.17, 310.08
437.45, 8.27, 310.08
437.45, 8.37, 310.08
437.45, 8.47, 310.08
437.48, 8.56, 310.20
437.44, 8.68, 310.02
437.44, 8.77, 310.02
437.44, 8.87, 310.02
437.44, 8.97, 310.02
¯437.44, 9.07, 310.02
437.44, 9.17, 310.02
437.44, 9.27, 310.02
437.44, 9.37, 310.02
437.44, 9.47, 310.02
437.08, 7.29, 308.36
437.14, 7.30, 308.59
437.21, 7.30, 308.83
437.28, 7.31, 309.10
437.36, 7.32, 309.40
437.45, 7.32, 309.72
437.55, 7.33, 310.07
437.65, 7.34, 310.46
437.77, 7.35, 310.89
437.90, 7.37, 311.38
437.57, 7.74, 310.15
437.51, 7.88, 309.95
437.52, 7.98, 309.95
437.52, 8.08, 309.95
437.52, 8.18, 309.95
437.52, 8.28, 309.95
437.52, 8.38, 309.95
437.52, 8.48, 309.95
437.55, 8.57, 310.08
437.50, 8.68, 309.89
437.50, 8.78, 309.89
437.50, 8.88, 309.89
437.50, 8.98, 309.89
437.50, 9.07, 309.89
437.50, 9.17, 309.89
437.51, 9.27, 309.89
437.51, 9.37, 309.89
437.51, 9.46, 309.89
437.15, 7.29, 308.34
437.22, 7.30, 308.57
437.29, 7.30, 308.81
437.36, 7.31, 309.08
437.45, 7.32, 309.38
437.54, 7.32, 309.70
437.64, 7.33, 310.05
437.75, 7.34, 310.43
437.88, 7.35, 310.86
438.02, 7.37, 311.35
437.62, 7.77, 309.97
437.58, 7.90, 309.83
437.58, 8.00, 309.83
437.58, 8.10, 309.83
437.58, 8.20, 309.83
437.58, 8.29, 309.83
437.58, 8.39, 309.83
437.58, 8.49, 309.83
¯437.62, 8.58, 309.95
437.57, 8.69, 309.77
437.57, 8.79, 309.77
437.57, 8.88, 309.77
437.57, 8.98, 309.77
437.57, 9.07, 309.77
437.57, 9.17, 309.77
437.57, 9.27, 309.77
437.57, 9.36, 309.77
437.57, 9.46, 309.77
437.22, 7.29, 308.32
437.29, 7.30, 308.55
437.37, 7.30, 308.79
437.45, 7.31, 309.06
437.54, 7.32, 309.35
437.63, 7.32, 309.67
437.74, 7.33, 310.02
437.85, 7.34, 310.40
437.98, 7.35, 310.83
438.13, 7.36, 311.31
437.64, 7.82, 309.70
437.64, 7.92, 309.70
437.65, 8.01, 309.70
437.65, 8.11, 309.70
437.65, 8.21, 309.70
437.65, 8.31, 309.70
437.65, 8.40, 309.70
437.66, 8.50, 309.73
437.69, 8.58, 309.83
437.63, 8.70, 309.65
437.63, 8.79, 309.65
437.63, 8.88, 309.65
437.63, 8.98, 309.65
437.63, 9.07, 309.65
437.63, 9.17, 309.65
437.63, 9.26, 309.65
437.63, 9.36, 309.65
437.64, 9.45, 309.65
437.29, 7.29, 308.30
437.37, 7.30, 308.52
437.44, 7.30, 308.77
437.53, 7.31, 309.03
437.62, 7.31, 309.33
437.72, 7.32, 309.65
437.83, 7.33, 309.99
437.95, 7.34, 310.37
438.09, 7.35, 310.80
438.42, 7.24, 311.85
437.71, 7.83, 309.58
437.71, 7.93, 309.58
437.71, 8.03, 309.58
¯437.71, 8.13, 309.58
437.71, 8.22, 309.58
437.71, 8.32, 309.59
437.71, 8.41, 309.59
437.72, 8.50, 309.63
437.75, 8.59, 309.72
437.69, 8.70, 309.53
437.69, 8.79, 309.53
437.69, 8.89, 309.53
437.69, 8.98, 309.53
437.70, 9.07, 309.53
437.70, 9.17, 309.53
437.70, 9.26, 309.53
437.70, 9.35, 309.53
437.70, 9.45, 309.53
437.37, 7.29, 308.28
437.44, 7.30, 308.50
437.52, 7.30, 308.74
437.61, 7.31, 309.01
437.71, 7.31, 309.30
437.81, 7.32, 309.62
437.93, 7.33, 309.96
438.06, 7.34, 310.34
438.20, 7.35, 310.77
437.83, 7.71, 309.67
437.77, 7.85, 309.47
437.77, 7.95, 309.47
437.77, 8.04, 309.47
437.77, 8.14, 309.47
437.77, 8.23, 309.47
437.77, 8.33, 309.47
437.77, 8.42, 309.47
437.79, 8.51, 309.53
437.75, 8.61, 309.41
437.75, 8.71, 309.41
437.75, 8.80, 309.41
437.75, 8.89, 309.41
437.75, 8.98, 309.41
437.76, 9.08, 309.41
437.76, 9.17, 309.41
437.76, 9.26, 309.41
437.76, 9.35, 309.41
437.76, 9.44, 309.41
437.44, 7.29, 308.25
437.51, 7.29, 308.48
437.60, 7.30, 308.72
437.69, 7.31, 308.98
437.79, 7.31, 309.27
437.90, 7.32, 309.59
438.02, 7.33, 309.93
438.16, 7.34, 310.31
¯438.49, 7.23, 311.26
437.87, 7.74, 309.49
437.83, 7.87, 309.36
437.83, 7.96, 309.36
437.83, 8.06, 309.36
437.83, 8.15, 309.36
437.83, 8.24, 309.36
437.83, 8.34, 309.36
437.83, 8.43, 309.36
437.86, 8.52, 309.44
437.81, 8.62, 309.30
437.81, 8.71, 309.30
437.81, 8.80, 309.30
437.81, 8.89, 309.30
437.81, 8.98, 309.30
437.81, 9.08, 309.30
437.81, 9.17, 309.30
437.81, 9.26, 309.30
437.82, 9.35, 309.30
437.82, 9.44, 309.30
437.51, 7.29, 308.23
437.59, 7.29, 308.45
437.68, 7.30, 308.69
437.77, 7.31, 308.95
437.88, 7.31, 309.24
437.99, 7.32, 309.56
438.12, 7.33, 309.90
438.43, 7.21, 310.77
438.60, 7.22, 311.22
437.93, 7.76, 309.37
437.88, 7.88, 309.25
437.88, 7.98, 309.25
437.88, 8.07, 309.25
437.88, 8.16, 309.25
437.89, 8.26, 309.25
437.89, 8.35, 309.25
437.89, 8.44, 309.25
437.92, 8.52, 309.35
437.87, 8.63, 309.19
437.87, 8.72, 309.19
437.87, 8.81, 309.19
437.87, 8.90, 309.19
437.87, 8.99, 309.19
437.87, 9.08, 309.19
437.87, 9.17, 309.19
437.87, 9.26, 309.19
437.87, 9.35, 309.19
437.87, 9.43, 309.19
437.58, 7.29, 308.20
437.66, 7.29, 308.42
437.75, 7.30, 308.66
¯437.85, 7.31, 308.92
437.96, 7.31, 309.21
438.08, 7.32, 309.53
438.21, 7.33, 309.87
438.54, 7.21, 310.74
438.71, 7.22, 311.19
437.94, 7.81, 309.14
437.94, 7.90, 309.14
437.94, 7.99, 309.14
437.94, 8.08, 309.14
437.94, 8.18, 309.14
437.94, 8.27, 309.14
437.94, 8.36, 309.14
437.94, 8.45, 309.14
437.99, 8.53, 309.25
437.92, 8.63, 309.09
437.92, 8.72, 309.09
437.92, 8.81, 309.09
437.92, 8.90, 309.09
437.93, 8.99, 309.09
437.93, 9.08, 309.09
437.93, 9.16, 309.09
437.93, 9.25, 309.09
437.93, 9.34, 309.09
437.93, 9.43, 309.09
437.65, 7.29, 308.18
437.74, 7.29, 308.40
437.83, 7.30, 308.63
437.93, 7.30, 308.89
438.05, 7.31, 309.18
438.17, 7.32, 309.49
438.49, 7.20, 310.30
438.65, 7.21, 310.70
438.08, 7.68, 309.26
437.99, 7.82, 309.04
437.99, 7.91, 309.04
437.99, 8.01, 309.04
437.99, 8.10, 309.04
438.00, 8.19, 309.04
438.00, 8.28, 309.04
438.00, 8.37, 309.04
438.00, 8.46, 309.04
438.05, 8.53, 309.16
437.98, 8.64, 308.98
437.98, 8.73, 308.98
437.98, 8.81, 308.98
437.98, 8.90, 308.98
437.98, 8.99, 308.98
437.98, 9.08, 308.98
437.98, 9.16, 308.98
437.98, 9.25, 308.98
¯437.98, 9.34, 308.98
437.98, 9.43, 308.98
437.72, 7.29, 308.15
437.81, 7.29, 308.37
437.91, 7.30, 308.61
438.01, 7.30, 308.86
438.13, 7.31, 309.15
438.44, 7.19, 309.90
438.59, 7.20, 310.26
438.76, 7.21, 310.66
438.11, 7.71, 309.09
438.05, 7.84, 308.93
438.05, 7.93, 308.93
438.05, 8.02, 308.93
438.05, 8.11, 308.93
438.05, 8.20, 308.93
438.05, 8.29, 308.93
438.05, 8.38, 308.93
438.06, 8.46, 308.95
438.10, 8.54, 309.06
438.03, 8.64, 308.88
438.03, 8.73, 308.88
438.03, 8.82, 308.88
438.03, 8.90, 308.88
438.03, 8.99, 308.88
438.03, 9.08, 308.88
438.03, 9.16, 308.88
438.03, 9.25, 308.88
438.03, 9.34, 308.88
438.04, 9.42, 308.88
437.79, 7.28, 308.12
437.88, 7.29, 308.34
437.98, 7.30, 308.57
438.09, 7.30, 308.83
438.21, 7.31, 309.11
438.54, 7.19, 309.87
438.69, 7.19, 310.23
438.86, 7.20, 310.63
438.15, 7.73, 308.95
438.11, 7.85, 308.86
438.11, 7.94, 308.85
438.11, 8.03, 308.85
438.10, 8.12, 308.85
438.10, 8.21, 308.84
438.10, 8.30, 308.84
438.10, 8.38, 308.83
438.12, 8.47, 308.87
438.16, 8.54, 308.96
438.08, 8.65, 308.78
438.08, 8.74, 308.78
438.08, 8.82, 308.78
¯438.08, 8.91, 308.78
438.08, 8.99, 308.78
438.08, 9.08, 308.78
438.08, 9.16, 308.78
438.09, 9.25, 308.78
438.09, 9.33, 308.78
438.09, 9.42, 308.78
437.86, 7.28, 308.09
437.95, 7.29, 308.31
438.06, 7.30, 308.54
438.17, 7.30, 308.80
438.48, 7.18, 309.50
438.63, 7.18, 309.83
438.79, 7.19, 310.19
438.97, 7.20, 310.59
438.20, 7.75, 308.85
438.20, 7.84, 308.85
438.20, 7.93, 308.85
438.20, 8.02, 308.85
438.20, 8.11, 308.85
438.20, 8.20, 308.85
438.20, 8.29, 308.84
438.20, 8.38, 308.85
438.21, 8.46, 308.86
438.21, 8.55, 308.87
438.13, 8.65, 308.69
438.13, 8.74, 308.69
438.13, 8.82, 308.69
438.13, 8.91, 308.69
438.13, 8.99, 308.69
438.13, 9.08, 308.69
438.14, 9.16, 308.69
438.14, 9.25, 308.69
438.14, 9.33, 308.69
438.14, 9.42, 308.69
437.93, 7.28, 308.06
438.02, 7.29, 308.28
438.13, 7.29, 308.51
438.25, 7.30, 308.76
438.57, 7.18, 309.46
438.72, 7.18, 309.79
438.89, 7.19, 310.15
438.31, 7.64, 308.89
438.25, 7.76, 308.75
438.25, 7.85, 308.75
438.25, 7.94, 308.75
438.25, 8.03, 308.75
438.25, 8.12, 308.75
438.25, 8.21, 308.75
438.25, 8.30, 308.75
438.25, 8.38, 308.75
¯438.26, 8.47, 308.76
438.18, 8.57, 308.59
438.18, 8.66, 308.59
438.18, 8.74, 308.59
438.18, 8.83, 308.59
438.18, 8.91, 308.59
438.18, 8.99, 308.59
438.18, 9.08, 308.59
438.18, 9.16, 308.59
438.19, 9.24, 308.59
438.19, 9.33, 308.59
438.19, 9.41, 308.59
437.99, 7.28, 308.03
438.10, 7.29, 308.25
438.21, 7.29, 308.48
438.51, 7.17, 309.12
438.66, 7.18, 309.42
438.82, 7.18, 309.75
438.99, 7.19, 310.11
438.34, 7.67, 308.74
438.30, 7.78, 308.66
438.30, 7.87, 308.66
438.30, 7.96, 308.66
438.30, 8.04, 308.65
438.30, 8.13, 308.65
438.30, 8.22, 308.65
438.30, 8.31, 308.65
438.30, 8.39, 308.66
438.31, 8.48, 308.67
438.23, 8.58, 308.50
438.23, 8.66, 308.50
438.23, 8.75, 308.50
438.23, 8.83, 308.50
438.23, 8.91, 308.50
438.23, 9.00, 308.50
438.23, 9.08, 308.50
438.23, 9.16, 308.50
438.23, 9.24, 308.50
438.23, 9.33, 308.50
438.23, 9.41, 308.50
438.06, 7.28, 308.00
438.17, 7.29, 308.21
438.46, 7.16, 308.81
438.60, 7.17, 309.08
438.74, 7.17, 309.38
438.91, 7.18, 309.70
439.09, 7.19, 310.06
438.36, 7.69, 308.60
438.35, 7.79, 308.56
438.35, 7.88, 308.56
438.35, 7.97, 308.56
¯438.35, 8.05, 308.56
438.34, 8.15, 308.54
438.34, 8.23, 308.54
438.34, 8.32, 308.54
438.34, 8.40, 308.54
438.34, 8.49, 308.54
438.28, 8.59, 308.41
438.28, 8.67, 308.41
438.28, 8.75, 308.41
438.28, 8.83, 308.41
438.28, 8.91, 308.41
438.28, 9.00, 308.41
438.28, 9.08, 308.41
438.28, 9.16, 308.41
438.28, 9.24, 308.41
438.28, 9.32, 308.41
438.28, 9.41, 308.41
438.13, 7.28, 307.97
438.24, 7.29, 308.18
438.54, 7.16, 308.77
438.68, 7.17, 309.04
438.83, 7.17, 309.33
439.00, 7.18, 309.66
439.18, 7.19, 310.01
438.40, 7.71, 308.48
438.39, 7.80, 308.47
438.39, 7.89, 308.47
438.39, 7.98, 308.47
438.39, 8.06, 308.47
438.38, 8.15, 308.45
438.39, 8.24, 308.45
438.39, 8.32, 308.45
438.39, 8.41, 308.45
438.39, 8.49, 308.45
438.32, 8.59, 308.32
438.32, 8.67, 308.32
438.32, 8.75, 308.32
438.32, 8.83, 308.32
438.32, 8.92, 308.32
438.33, 9.00, 308.32
438.33, 9.08, 308.32
438.33, 9.16, 308.32
438.33, 9.24, 308.32
438.33, 9.32, 308.32
438.33, 9.40, 308.32
438.20, 7.28, 307.93
438.49, 7.16, 308.48
438.62, 7.16, 308.73
438.76, 7.17, 309.00
438.92, 7.17, 309.29
439.09, 7.18, 309.61
¯439.28, 7.19, 309.96
438.44, 7.73, 308.39
438.44, 7.82, 308.38
438.44, 7.90, 308.38
438.44, 7.99, 308.38
438.43, 8.08, 308.36
438.43, 8.16, 308.36
438.43, 8.25, 308.36
438.43, 8.33, 308.36
438.43, 8.42, 308.36
438.43, 8.50, 308.36
438.37, 8.60, 308.23
438.37, 8.68, 308.23
438.37, 8.76, 308.23
438.37, 8.84, 308.23
438.37, 8.92, 308.23
438.37, 9.00, 308.23
438.37, 9.08, 308.23
438.37, 9.16, 308.23
438.37, 9.24, 308.23
438.37, 9.32, 308.23
438.37, 9.40, 308.23
438.26, 7.28, 307.90
438.56, 7.16, 308.45
438.69, 7.16, 308.69
438.84, 7.17, 308.95
439.00, 7.17, 309.24
439.18, 7.18, 309.56
438.56, 7.62, 308.43
438.49, 7.74, 308.30
438.49, 7.83, 308.30
438.49, 7.91, 308.30
438.49, 8.00, 308.30
438.48, 8.09, 308.27
438.48, 8.17, 308.27
438.48, 8.26, 308.27
438.48, 8.34, 308.27
438.48, 8.42, 308.27
438.48, 8.50, 308.27
438.41, 8.60, 308.15
438.41, 8.68, 308.15
438.41, 8.76, 308.15
438.41, 8.84, 308.15
438.41, 8.92, 308.15
438.42, 9.00, 308.15
438.42, 9.08, 308.15
438.42, 9.16, 308.15
438.42, 9.24, 308.15
438.42, 9.32, 308.15
438.42, 9.40, 308.15
438.51, 7.15, 308.19
¯438.64, 7.15, 308.41
438.77, 7.16, 308.64
438.92, 7.17, 308.91
439.09, 7.17, 309.20
439.27, 7.18, 309.51
438.58, 7.64, 308.30
438.53, 7.75, 308.21
438.53, 7.84, 308.21
438.53, 7.92, 308.21
438.53, 8.01, 308.21
438.52, 8.10, 308.19
438.52, 8.18, 308.19
438.52, 8.26, 308.19
438.52, 8.35, 308.19
438.52, 8.43, 308.19
438.52, 8.51, 308.19
438.46, 8.60, 308.07
438.46, 8.68, 308.07
438.46, 8.76, 308.06
438.46, 8.84, 308.06
438.46, 8.92, 308.06
438.46, 9.00, 308.06
438.46, 9.08, 308.06
438.46, 9.16, 308.06
438.46, 9.24, 308.06
438.46, 9.31, 308.06
438.46, 9.39, 308.06
438.58, 7.15, 308.15
438.71, 7.15, 308.36
438.85, 7.16, 308.60
439.00, 7.16, 308.86
439.17, 7.17, 309.15
439.35, 7.18, 309.46
438.60, 7.67, 308.18
438.57, 7.77, 308.13
438.58, 7.85, 308.13
438.58, 7.93, 308.13
438.58, 8.02, 308.12
438.56, 8.11, 308.10
438.57, 8.19, 308.10
438.57, 8.27, 308.10
438.57, 8.35, 308.10
438.57, 8.43, 308.10
438.57, 8.51, 308.10
438.50, 8.61, 307.98
438.50, 8.69, 307.98
438.50, 8.77, 307.98
438.50, 8.84, 307.98
438.50, 8.92, 307.98
438.50, 9.00, 307.98
438.50, 9.08, 307.98
¯438.50, 9.16, 307.98
438.50, 9.23, 307.98
438.50, 9.31, 307.98
438.51, 9.39, 307.98
438.65, 7.15, 308.11
438.78, 7.15, 308.32
438.92, 7.16, 308.56
439.08, 7.16, 308.82
439.25, 7.17, 309.10
439.44, 7.18, 309.41
438.62, 7.69, 308.05
438.62, 7.78, 308.04
438.62, 7.86, 308.04
438.62, 7.94, 308.04
438.62, 8.03, 308.04
438.61, 8.11, 308.02
438.61, 8.20, 308.02
438.61, 8.28, 308.02
438.61, 8.36, 308.02
438.61, 8.44, 308.02
438.61, 8.52, 308.02
438.54, 8.61, 307.90
438.54, 8.69, 307.90
438.54, 8.77, 307.90
438.54, 8.85, 307.90
438.54, 8.92, 307.90
438.54, 9.00, 307.90
438.55, 9.08, 307.90
438.55, 9.16, 307.90
438.55, 9.23, 307.90
438.55, 9.31, 307.90
438.55, 9.39, 307.90
438.72, 7.15, 308.07
438.85, 7.15, 308.28
439.00, 7.16, 308.51
439.16, 7.16, 308.77
439.33, 7.17, 309.05
439.53, 7.17, 309.36
438.66, 7.70, 307.97
438.66, 7.79, 307.96
438.66, 7.87, 307.96
438.66, 7.95, 307.96
438.66, 8.04, 307.96
438.65, 8.12, 307.94
438.65, 8.20, 307.94
438.65, 8.28, 307.94
438.65, 8.36, 307.94
438.65, 8.44, 307.94
438.58, 8.54, 307.82
438.58, 8.62, 307.82
438.58, 8.69, 307.82
¯438.58, 8.77, 307.82
438.58, 8.85, 307.82
438.59, 8.92, 307.82
438.59, 9.00, 307.82
438.59, 9.08, 307.82
438.59, 9.15, 307.82
438.59, 9.23, 307.82
438.59, 9.31, 307.82
438.59, 9.39, 307.82
438.79, 7.14, 308.02
438.92, 7.15, 308.24
439.07, 7.16, 308.47
439.24, 7.16, 308.72
439.42, 7.17, 309.00
438.80, 7.58, 308.04
438.70, 7.71, 307.88
438.70, 7.80, 307.88
438.70, 7.88, 307.88
438.70, 7.96, 307.88
438.70, 8.04, 307.88
438.69, 8.13, 307.86
438.69, 8.21, 307.86
438.69, 8.29, 307.86
438.69, 8.37, 307.86
438.69, 8.45, 307.86
438.62, 8.54, 307.75
438.62, 8.62, 307.74
438.62, 8.70, 307.74
438.62, 8.77, 307.74
438.63, 8.85, 307.74
438.63, 8.93, 307.74
438.63, 9.00, 307.74
438.63, 9.08, 307.74
438.63, 9.15, 307.74
438.63, 9.23, 307.74
438.63, 9.31, 307.74
438.63, 9.38, 307.74
438.85, 7.14, 307.98
439.00, 7.15, 308.19
439.15, 7.15, 308.42
439.31, 7.16, 308.67
439.50, 7.17, 308.95
438.82, 7.61, 307.91
438.74, 7.72, 307.80
438.74, 7.81, 307.80
438.74, 7.89, 307.80
438.75, 7.97, 307.80
438.73, 8.06, 307.78
438.73, 8.14, 307.78
438.73, 8.22, 307.78
438.73, 8.30, 307.78
¯438.74, 8.37, 307.78
438.74, 8.45, 307.78
438.66, 8.55, 307.67
438.66, 8.62, 307.67
438.66, 8.70, 307.67
438.67, 8.77, 307.67
438.67, 8.85, 307.67
438.67, 8.93, 307.67
438.67, 9.00, 307.67
438.67, 9.08, 307.67
438.67, 9.15, 307.67
438.67, 9.23, 307.67
438.67, 9.30, 307.67
438.67, 9.38, 307.67
438.92, 7.14, 307.94
439.07, 7.15, 308.15
439.22, 7.15, 308.37
439.39, 7.16, 308.62
439.58, 7.17, 308.89
438.84, 7.63, 307.80
438.78, 7.73, 307.73
438.79, 7.82, 307.73
438.79, 7.90, 307.73
438.79, 7.98, 307.72
438.77, 8.06, 307.70
438.77, 8.14, 307.70
438.77, 8.22, 307.70
438.78, 8.30, 307.70
438.78, 8.38, 307.70
438.78, 8.46, 307.70
438.70, 8.55, 307.59
438.70, 8.63, 307.59
438.70, 8.70, 307.59
438.70, 8.78, 307.59
438.71, 8.85, 307.59
438.71, 8.93, 307.59
438.71, 9.00, 307.59
438.71, 9.08, 307.59
438.71, 9.15, 307.59
438.71, 9.23, 307.59
438.71, 9.30, 307.59
438.71, 9.38, 307.59
438.99, 7.14, 307.89
439.13, 7.15, 308.10
439.29, 7.15, 308.32
439.46, 7.16, 308.57
439.66, 7.16, 308.84
438.86, 7.65, 307.70
438.82, 7.74, 307.65
438.83, 7.82, 307.65
438.83, 7.91, 307.65
¯438.83, 7.99, 307.65
438.81, 8.07, 307.63
438.81, 8.15, 307.63
438.81, 8.23, 307.63
438.82, 8.31, 307.63
438.82, 8.38, 307.63
438.82, 8.46, 307.63
438.74, 8.55, 307.52
438.74, 8.63, 307.52
438.74, 8.70, 307.52
438.74, 8.78, 307.52
438.74, 8.85, 307.52
438.75, 8.93, 307.52
438.75, 9.00, 307.52
438.75, 9.08, 307.52
438.75, 9.15, 307.52
438.75, 9.23, 307.52
438.75, 9.30, 307.51
438.75, 9.38, 307.51
439.05, 7.14, 307.85
439.20, 7.14, 308.05
439.37, 7.15, 308.27
439.54, 7.16, 308.52
439.74, 7.16, 308.78
438.88, 7.67, 307.59
438.86, 7.75, 307.57
438.86, 7.83, 307.57
438.87, 7.91, 307.57
438.87, 7.99, 307.57
438.85, 8.08, 307.55
438.85, 8.16, 307.55
438.85, 8.23, 307.55
438.85, 8.31, 307.55
438.86, 8.39, 307.55
438.86, 8.47, 307.55
438.78, 8.56, 307.44
438.78, 8.63, 307.44
438.78, 8.71, 307.44
438.78, 8.78, 307.44
438.78, 8.86, 307.44
438.78, 8.93, 307.44
438.78, 9.00, 307.44
438.78, 9.08, 307.44
438.79, 9.15, 307.44
438.79, 9.22, 307.44
438.79, 9.30, 307.44
438.79, 9.37, 307.44
439.12, 7.14, 307.80
439.27, 7.14, 308.00
439.44, 7.15, 308.22
439.62, 7.15, 308.46
¯439.82, 7.16, 308.73
438.91, 7.68, 307.50
438.90, 7.76, 307.50
438.90, 7.84, 307.50
438.90, 7.92, 307.50
438.91, 8.00, 307.50
438.89, 8.08, 307.48
438.89, 8.16, 307.48
438.89, 8.24, 307.48
438.89, 8.32, 307.48
438.89, 8.39, 307.48
438.89, 8.47, 307.48
438.82, 8.56, 307.37
438.82, 8.63, 307.37
438.82, 8.71, 307.37
438.82, 8.78, 307.37
438.82, 8.86, 307.37
438.82, 8.93, 307.37
438.82, 9.00, 307.37
438.82, 9.08, 307.37
438.82, 9.15, 307.37
438.82, 9.22, 307.37
438.82, 9.30, 307.37
438.83, 9.37, 307.37
439.19, 7.14, 307.75
439.34, 7.14, 307.95
439.51, 7.15, 308.17
439.69, 7.15, 308.41
439.05, 7.56, 307.58
438.94, 7.69, 307.43
438.94, 7.77, 307.43
438.94, 7.85, 307.43
438.94, 7.93, 307.43
438.94, 8.01, 307.42
438.93, 8.09, 307.41
438.93, 8.17, 307.40
438.93, 8.24, 307.40
438.93, 8.32, 307.40
438.93, 8.40, 307.40
438.93, 8.47, 307.40
438.86, 8.56, 307.30
438.86, 8.64, 307.30
438.86, 8.71, 307.30
438.86, 8.78, 307.30
438.86, 8.86, 307.30
438.86, 8.93, 307.30
438.86, 9.00, 307.30
438.86, 9.08, 307.30
438.86, 9.15, 307.30
438.86, 9.22, 307.30
438.86, 9.30, 307.30
¯438.86, 9.37, 307.30
439.25, 7.13, 307.70
439.41, 7.14, 307.90
439.58, 7.15, 308.12
439.77, 7.15, 308.36
439.07, 7.57, 307.47
438.98, 7.70, 307.35
438.98, 7.78, 307.35
438.98, 7.86, 307.35
438.98, 7.94, 307.35
438.98, 8.01, 307.35
438.97, 8.10, 307.33
438.97, 8.17, 307.33
438.97, 8.25, 307.33
438.97, 8.33, 307.33
438.97, 8.40, 307.33
438.97, 8.48, 307.33
438.89, 8.57, 307.23
438.89, 8.64, 307.23
438.89, 8.71, 307.23
438.89, 8.79, 307.23
438.90, 8.86, 307.23
438.90, 8.93, 307.23
438.90, 9.00, 307.23
438.90, 9.08, 307.23
438.90, 9.15, 307.23
438.90, 9.22, 307.23
438.90, 9.29, 307.23
438.90, 9.37, 307.23
439.31, 7.13, 307.66
439.47, 7.14, 307.85
439.65, 7.14, 308.07
439.84, 7.15, 308.30
439.09, 7.59, 307.37
439.02, 7.71, 307.28
439.02, 7.78, 307.28
439.02, 7.86, 307.28
439.02, 7.94, 307.28
439.02, 8.02, 307.28
439.00, 8.10, 307.26
439.01, 8.18, 307.26
439.01, 8.25, 307.26
439.01, 8.33, 307.26
439.01, 8.41, 307.26
439.01, 8.48, 307.26
438.93, 8.57, 307.16
438.93, 8.64, 307.16
438.93, 8.71, 307.16
438.93, 8.79, 307.16
438.93, 8.86, 307.16
438.93, 8.93, 307.16
¯438.93, 9.00, 307.16
438.93, 9.08, 307.16
438.93, 9.15, 307.16
438.94, 9.22, 307.16
438.94, 9.29, 307.16
438.94, 9.36, 307.16
439.38, 7.13, 307.61
439.54, 7.14, 307.80
439.72, 7.14, 308.02
439.92, 7.15, 308.25
439.11, 7.61, 307.28
439.05, 7.71, 307.21
439.05, 7.79, 307.21
439.06, 7.87, 307.21
439.06, 7.95, 307.21
439.04, 8.03, 307.19
439.04, 8.11, 307.19
439.04, 8.18, 307.19
439.04, 8.26, 307.19
439.04, 8.33, 307.19
439.04, 8.41, 307.19
439.05, 8.48, 307.19
438.96, 8.57, 307.09
438.97, 8.64, 307.09
438.97, 8.72, 307.09
438.97, 8.79, 307.09
438.97, 8.86, 307.09
438.97, 8.93, 307.09
438.97, 9.00, 307.09
438.97, 9.08, 307.09
438.97, 9.15, 307.09
438.97, 9.22, 307.09
438.97, 9.29, 307.09
438.97, 9.36, 307.09
439.44, 7.13, 307.55
439.61, 7.13, 307.75
439.79, 7.14, 307.96
439.99, 7.14, 308.19
439.13, 7.62, 307.19
439.09, 7.72, 307.14
439.09, 7.80, 307.14
439.09, 7.88, 307.14
439.09, 7.95, 307.14
439.08, 8.04, 307.12
439.08, 8.11, 307.12
439.08, 8.19, 307.12
439.08, 8.26, 307.12
439.08, 8.34, 307.12
439.08, 8.41, 307.12
439.08, 8.49, 307.12
439.00, 8.57, 307.02
¯439.00, 8.65, 307.02
439.00, 8.72, 307.02
439.00, 8.79, 307.02
439.00, 8.86, 307.02
439.00, 8.93, 307.02
439.00, 9.00, 307.02
439.01, 9.08, 307.02
439.01, 9.15, 307.02
439.01, 9.22, 307.02
439.01, 9.29, 307.02
439.01, 9.36, 307.02
439.50, 7.13, 307.50
439.67, 7.13, 307.70
439.86, 7.14, 307.91
440.06, 7.14, 308.13
439.15, 7.64, 307.10
439.13, 7.73, 307.07
439.13, 7.81, 307.07
439.13, 7.88, 307.07
439.13, 7.96, 307.07
439.11, 8.04, 307.05
439.11, 8.12, 307.05
439.11, 8.19, 307.05
439.12, 8.27, 307.05
439.12, 8.34, 307.05
439.12, 8.42, 307.05
439.03, 8.50, 306.96
439.04, 8.58, 306.96
439.04, 8.65, 306.96
439.04, 8.72, 306.95
439.04, 8.79, 306.95
439.04, 8.86, 306.95
439.04, 8.93, 306.95
439.04, 9.00, 306.95
439.04, 9.07, 306.95
439.04, 9.15, 306.95
439.04, 9.22, 306.95
439.04, 9.29, 306.95
439.04, 9.36, 306.95
439.56, 7.13, 307.45
439.74, 7.13, 307.64
439.93, 7.13, 307.85
440.13, 7.14, 308.08
439.17, 7.65, 307.01
439.16, 7.73, 307.00
439.16, 7.81, 307.00
439.16, 7.89, 307.00
439.16, 7.96, 307.00
439.15, 8.05, 306.98
439.15, 8.12, 306.98
439.15, 8.20, 306.98
¯439.15, 8.27, 306.98
439.15, 8.34, 306.98
439.15, 8.42, 306.98
439.07, 8.51, 306.89
439.07, 8.58, 306.89
439.07, 8.65, 306.89
439.07, 8.72, 306.89
439.07, 8.79, 306.89
439.07, 8.86, 306.89
439.07, 8.93, 306.89
439.07, 9.00, 306.89
439.08, 9.07, 306.89
439.08, 9.14, 306.89
439.08, 9.22, 306.88
439.08, 9.29, 306.88
439.08, 9.36, 306.88
439.62, 7.12, 307.40
439.80, 7.13, 307.59
439.99, 7.13, 307.79
439.33, 7.52, 307.09
439.20, 7.66, 306.94
439.20, 7.74, 306.94
439.20, 7.82, 306.94
439.20, 7.89, 306.94
439.20, 7.97, 306.93
439.18, 8.05, 306.92
439.19, 8.13, 306.92
439.19, 8.20, 306.92
439.19, 8.27, 306.92
439.19, 8.35, 306.91
439.19, 8.42, 306.91
439.10, 8.51, 306.82
439.10, 8.58, 306.82
439.11, 8.65, 306.82
439.11, 8.72, 306.82
439.11, 8.79, 306.82
439.11, 8.86, 306.82
439.11, 8.93, 306.82
439.11, 9.00, 306.82
439.11, 9.07, 306.82
439.11, 9.14, 306.82
439.11, 9.21, 306.82
439.11, 9.28, 306.82
439.11, 9.35, 306.82
439.68, 7.12, 307.35
439.86, 7.13, 307.53
440.06, 7.13, 307.74
439.35, 7.54, 306.99
439.23, 7.67, 306.87
439.23, 7.75, 306.87
439.23, 7.82, 306.87
¯439.23, 7.90, 306.87
439.24, 7.97, 306.87
439.22, 8.05, 306.85
439.22, 8.13, 306.85
439.22, 8.20, 306.85
439.22, 8.28, 306.85
439.22, 8.35, 306.85
439.22, 8.42, 306.85
439.14, 8.51, 306.76
439.14, 8.58, 306.76
439.14, 8.65, 306.76
439.14, 8.72, 306.76
439.14, 8.79, 306.76
439.14, 8.86, 306.76
439.14, 8.93, 306.76
439.14, 9.00, 306.75
439.14, 9.07, 306.75
439.14, 9.14, 306.75
439.15, 9.21, 306.75
439.15, 9.28, 306.75
439.15, 9.35, 306.75
439.74, 7.12, 307.29
439.93, 7.12, 307.48
440.13, 7.13, 307.68
439.37, 7.55, 306.91
439.27, 7.67, 306.80
439.27, 7.75, 306.80
439.27, 7.83, 306.80
439.27, 7.90, 306.80
439.27, 7.98, 306.80
439.25, 8.06, 306.78
439.25, 8.13, 306.78
439.26, 8.21, 306.78
439.26, 8.28, 306.78
439.26, 8.35, 306.78
439.26, 8.43, 306.78
439.17, 8.51, 306.69
439.17, 8.58, 306.69
439.17, 8.65, 306.69
439.17, 8.72, 306.69
439.18, 8.79, 306.69
439.18, 8.86, 306.69
439.18, 8.93, 306.69
439.18, 9.00, 306.69
439.18, 9.07, 306.69
439.18, 9.14, 306.69
439.18, 9.21, 306.69
439.18, 9.28, 306.69
439.18, 9.35, 306.69
439.80, 7.12, 307.24
439.99, 7.12, 307.42
¯440.19, 7.13, 307.62
439.39, 7.57, 306.82
439.30, 7.68, 306.74
439.30, 7.76, 306.74
439.30, 7.83, 306.74
439.30, 7.91, 306.74
439.30, 7.98, 306.74
439.29, 8.06, 306.72
439.29, 8.14, 306.72
439.29, 8.21, 306.72
439.29, 8.28, 306.72
439.29, 8.36, 306.72
439.29, 8.43, 306.72
439.21, 8.52, 306.63
439.21, 8.59, 306.63
439.21, 8.66, 306.63
439.21, 8.73, 306.63
439.21, 8.80, 306.63
439.21, 8.86, 306.63
439.21, 8.93, 306.63
439.21, 9.00, 306.63
439.21, 9.07, 306.63
439.21, 9.14, 306.62
439.21, 9.21, 306.62
439.21, 9.28, 306.62
439.21, 9.35, 306.62
439.86, 7.12, 307.18
440.05, 7.12, 307.36
440.25, 7.12, 307.56
439.41, 7.58, 306.74
439.34, 7.68, 306.67
439.34, 7.76, 306.67
439.34, 7.84, 306.67
439.34, 7.91, 306.67
439.34, 7.99, 306.67
439.32, 8.07, 306.65
439.32, 8.14, 306.65
439.32, 8.21, 306.65
439.32, 8.29, 306.65
439.33, 8.36, 306.65
439.33, 8.43, 306.65
439.24, 8.52, 306.57
439.24, 8.59, 306.56
439.24, 8.66, 306.56
439.24, 8.73, 306.56
439.24, 8.80, 306.56
439.24, 8.86, 306.56
439.24, 8.93, 306.56
439.24, 9.00, 306.56
439.24, 9.07, 306.56
439.25, 9.14, 306.56
¯439.25, 9.21, 306.56
439.25, 9.28, 306.56
439.25, 9.35, 306.56
439.92, 7.11, 307.12
440.11, 7.12, 307.30
440.32, 7.12, 307.49
439.43, 7.59, 306.66
439.37, 7.69, 306.61
439.37, 7.77, 306.61
439.37, 7.84, 306.61
439.37, 7.92, 306.61
439.38, 7.99, 306.61
439.36, 8.07, 306.59
439.36, 8.14, 306.59
439.36, 8.22, 306.59
439.36, 8.29, 306.59
439.36, 8.36, 306.59
439.36, 8.43, 306.59
439.27, 8.52, 306.50
439.27, 8.59, 306.50
439.27, 8.66, 306.50
439.27, 8.73, 306.50
439.28, 8.80, 306.50
439.28, 8.87, 306.50
439.28, 8.93, 306.50
439.28, 9.00, 306.50
439.28, 9.07, 306.50
439.28, 9.14, 306.50
439.28, 9.21, 306.50
439.28, 9.28, 306.50
439.28, 9.35, 306.50
439.97, 7.11, 307.07
440.17, 7.12, 307.24
440.38, 7.12, 307.43
439.45, 7.60, 306.59
439.40, 7.69, 306.54
439.41, 7.77, 306.54
439.41, 7.84, 306.54
439.41, 7.92, 306.54
439.39, 8.00, 306.52
439.39, 8.07, 306.52
439.39, 8.15, 306.52
439.39, 8.22, 306.52
439.39, 8.29, 306.52
439.39, 8.36, 306.52
439.39, 8.43, 306.52
439.30, 8.52, 306.44
439.31, 8.59, 306.44
439.31, 8.66, 306.44
439.31, 8.73, 306.44
439.31, 8.80, 306.44
¯439.31, 8.87, 306.44
439.31, 8.93, 306.44
439.31, 9.00, 306.44
439.31, 9.07, 306.44
439.31, 9.14, 306.43
439.31, 9.21, 306.43
439.31, 9.28, 306.43
439.31, 9.34, 306.43
440.03, 7.11, 307.01
440.23, 7.11, 307.18
440.44, 7.12, 307.37
439.47, 7.61, 306.51
439.44, 7.70, 306.48
439.44, 7.77, 306.48
439.44, 7.85, 306.48
439.44, 7.92, 306.48
439.42, 8.00, 306.46
439.42, 8.08, 306.46
439.42, 8.15, 306.46
439.42, 8.22, 306.46
439.43, 8.29, 306.46
439.43, 8.36, 306.46
439.43, 8.44, 306.46
439.34, 8.52, 306.38
439.34, 8.59, 306.38
439.34, 8.66, 306.38
439.34, 8.73, 306.38
439.34, 8.80, 306.38
439.34, 8.87, 306.37
439.34, 8.93, 306.37
439.34, 9.00, 306.37
439.34, 9.07, 306.37
439.34, 9.14, 306.37
439.34, 9.21, 306.37
439.35, 9.27, 306.37
439.35, 9.34, 306.37
440.09, 7.11, 306.95
440.29, 7.11, 307.12
440.50, 7.11, 307.30
439.49, 7.62, 306.43
439.47, 7.70, 306.42
439.47, 7.78, 306.42
439.47, 7.85, 306.41
439.47, 7.93, 306.41
439.46, 8.01, 306.40
439.46, 8.08, 306.40
439.46, 8.15, 306.40
439.46, 8.22, 306.40
439.46, 8.29, 306.40
439.46, 8.37, 306.39
439.46, 8.44, 306.39
¯439.37, 8.52, 306.32
439.37, 8.59, 306.32
439.37, 8.66, 306.31
439.37, 8.73, 306.31
439.37, 8.80, 306.31
439.37, 8.87, 306.31
439.37, 8.93, 306.31
439.37, 9.00, 306.31
439.38, 9.07, 306.31
439.38, 9.14, 306.31
439.38, 9.21, 306.31
439.38, 9.27, 306.31
439.38, 9.34, 306.31
440.14, 7.11, 306.89
440.34, 7.11, 307.06
440.56, 7.11, 307.24
439.51, 7.63, 306.36
439.50, 7.70, 306.35
439.51, 7.78, 306.35
439.51, 7.85, 306.35
439.51, 7.93, 306.35
439.49, 8.01, 306.33
439.49, 8.08, 306.33
439.49, 8.15, 306.33
439.49, 8.22, 306.33
439.49, 8.30, 306.33
439.49, 8.37, 306.33
439.49, 8.44, 306.33
439.40, 8.52, 306.25
439.40, 8.59, 306.25
439.40, 8.66, 306.25
439.40, 8.73, 306.25
439.40, 8.80, 306.25
439.41, 8.87, 306.25
439.41, 8.93, 306.25
439.41, 9.00, 306.25
439.41, 9.07, 306.25
439.41, 9.14, 306.25
439.41, 9.20, 306.25
439.41, 9.27, 306.25
439.41, 9.34, 306.25
440.19, 7.10, 306.83
440.40, 7.11, 306.99
440.62, 7.11, 307.17
439.54, 7.63, 306.29
439.54, 7.71, 306.29
439.54, 7.78, 306.29
439.54, 7.86, 306.29
439.54, 7.93, 306.29
439.52, 8.01, 306.27
439.52, 8.08, 306.27
¯439.52, 8.15, 306.27
439.52, 8.23, 306.27
439.52, 8.30, 306.27
439.52, 8.37, 306.27
439.53, 8.44, 306.27
439.43, 8.52, 306.19
439.43, 8.59, 306.19
439.44, 8.66, 306.19
439.44, 8.73, 306.19
439.44, 8.80, 306.19
439.44, 8.87, 306.19
439.44, 8.93, 306.19
439.44, 9.00, 306.19
439.44, 9.07, 306.19
439.44, 9.14, 306.19
439.44, 9.20, 306.19
439.44, 9.27, 306.19
439.44, 9.34, 306.19
440.25, 7.10, 306.77
440.45, 7.10, 306.93
440.68, 7.11, 307.10
439.57, 7.64, 306.23
439.57, 7.71, 306.23
439.57, 7.79, 306.23
439.57, 7.86, 306.23
439.58, 7.93, 306.23
439.55, 8.01, 306.21
439.55, 8.08, 306.21
439.56, 8.16, 306.21
439.56, 8.23, 306.21
439.56, 8.30, 306.21
439.56, 8.37, 306.21
439.56, 8.44, 306.21
439.47, 8.53, 306.13
439.47, 8.59, 306.13
439.47, 8.66, 306.13
439.47, 8.73, 306.13
439.47, 8.80, 306.13
439.47, 8.87, 306.13
439.47, 8.93, 306.13
439.47, 9.00, 306.13
439.47, 9.07, 306.13
439.47, 9.13, 306.13
439.47, 9.20, 306.13
439.47, 9.27, 306.13
439.47, 9.34, 306.13
440.30, 7.10, 306.70
440.51, 7.10, 306.86
440.74, 7.10, 307.04
439.60, 7.64, 306.17
439.60, 7.71, 306.17
¯439.60, 7.79, 306.17
439.60, 7.86, 306.16
439.61, 7.93, 306.17
439.59, 8.01, 306.15
439.59, 8.09, 306.15
439.59, 8.16, 306.15
439.59, 8.23, 306.15
439.59, 8.30, 306.15
439.59, 8.37, 306.15
439.59, 8.44, 306.14
439.50, 8.53, 306.07
439.50, 8.59, 306.07
439.50, 8.66, 306.07
439.50, 8.73, 306.07
439.50, 8.80, 306.07
