ŸVERSION 0.7
FIELDS x y z
SIZE 8 8 8
TYPE F F F
COUNT 1 1 1
WIDTH 2269
HEIGHT 1
VIEWPOINT 439.66, 13.95, 277.05 1 443.38, 9.73, 257.22
POINTS 2269
DATA ascii
435.25, 7.79, 254.72
434.70, 7.80, 254.42
434.07, 7.80, 254.09
433.31, 7.80, 253.69
432.39, 7.79, 253.20
431.26, 7.78, 252.60
429.82, 7.75, 251.83
427.99, 7.71, 250.86
426.55, 7.79, 250.10
423.86, 7.77, 248.67
438.36, 7.73, 256.45
438.16, 7.74, 256.35
437.94, 7.75, 256.24
437.71, 7.75, 256.12
437.46, 7.76, 255.99
437.18, 7.77, 255.84
436.86, 7.77, 255.68
436.52, 7.78, 255.51
436.13, 7.78, 255.31
435.71, 7.79, 255.09
435.22, 7.79, 254.85
434.67, 7.79, 254.56
434.04, 7.80, 254.24
433.29, 7.80, 253.85
432.37, 7.79, 253.38
431.25, 7.78, 252.81
429.81, 7.75, 252.07
428.00, 7.71, 251.13
425.81, 7.69, 250.01
423.93, 7.77, 249.05
438.33, 7.73, 256.52
438.13, 7.74, 256.42
437.91, 7.74, 256.32
437.68, 7.75, 256.20
437.43, 7.76, 256.08
437.15, 7.77, 255.94
¯436.83, 7.77, 255.78
436.49, 7.78, 255.61
436.11, 7.78, 255.42
435.68, 7.79, 255.21
435.20, 7.79, 254.97
434.64, 7.79, 254.70
434.01, 7.80, 254.39
433.27, 7.80, 254.02
432.35, 7.79, 253.57
431.24, 7.77, 253.01
429.82, 7.75, 252.31
428.00, 7.71, 251.41
425.65, 7.67, 250.24
424.01, 7.77, 249.43
438.31, 7.73, 256.60
438.10, 7.73, 256.50
437.89, 7.74, 256.40
437.65, 7.75, 256.29
437.40, 7.76, 256.16
437.12, 7.76, 256.03
436.81, 7.77, 255.88
436.46, 7.78, 255.72
436.08, 7.78, 255.54
435.66, 7.79, 255.33
435.17, 7.79, 255.10
434.61, 7.79, 254.84
433.99, 7.80, 254.54
433.25, 7.80, 254.19
432.34, 7.79, 253.75
431.22, 7.77, 253.21
429.84, 7.75, 252.55
428.01, 7.71, 251.68
425.69, 7.67, 250.56
423.94, 7.76, 249.73
438.28, 7.73, 256.67
438.08, 7.73, 256.58
437.86, 7.74, 256.48
437.63, 7.75, 256.37
437.37, 7.75, 256.25
437.09, 7.76, 256.12
436.78, 7.77, 255.98
436.44, 7.77, 255.82
436.06, 7.78, 255.65
435.63, 7.79, 255.45
435.14, 7.79, 255.23
434.59, 7.79, 254.97
433.97, 7.80, 254.69
433.24, 7.80, 254.35
432.33, 7.79, 253.93
431.22, 7.77, 253.42
429.85, 7.76, 252.79
¯428.03, 7.71, 251.94
425.72, 7.67, 250.88
423.13, 7.67, 249.68
438.26, 7.73, 256.74
438.06, 7.73, 256.65
437.84, 7.74, 256.56
437.60, 7.75, 256.45
437.34, 7.75, 256.34
437.06, 7.76, 256.21
436.75, 7.77, 256.08
436.41, 7.77, 255.93
436.03, 7.78, 255.76
435.61, 7.78, 255.57
435.12, 7.79, 255.36
434.58, 7.79, 255.11
433.96, 7.80, 254.84
433.22, 7.80, 254.51
432.32, 7.79, 254.11
431.22, 7.78, 253.62
429.87, 7.76, 253.02
428.07, 7.72, 252.22
425.76, 7.67, 251.19
422.66, 7.61, 249.81
438.24, 7.72, 256.82
438.03, 7.73, 256.73
437.81, 7.74, 256.64
437.58, 7.74, 256.54
437.32, 7.75, 256.43
437.03, 7.76, 256.31
436.72, 7.76, 256.17
436.38, 7.77, 256.03
436.01, 7.78, 255.87
435.59, 7.78, 255.69
435.10, 7.79, 255.48
434.56, 7.79, 255.25
433.95, 7.80, 254.99
433.21, 7.80, 254.68
432.31, 7.79, 254.29
431.23, 7.78, 253.83
429.89, 7.76, 253.25
428.11, 7.72, 252.49
425.80, 7.67, 251.50
422.76, 7.62, 250.20
438.21, 7.72, 256.89
438.01, 7.73, 256.81
437.79, 7.73, 256.72
437.55, 7.74, 256.62
437.29, 7.75, 256.52
437.01, 7.75, 256.40
436.70, 7.76, 256.27
436.36, 7.77, 256.13
¯435.98, 7.77, 255.98
435.57, 7.78, 255.81
435.09, 7.79, 255.61
434.55, 7.79, 255.39
433.93, 7.80, 255.14
433.20, 7.80, 254.84
432.30, 7.79, 254.47
431.24, 7.78, 254.03
429.91, 7.76, 253.49
428.15, 7.72, 252.76
425.85, 7.67, 251.81
422.84, 7.62, 250.57
438.19, 7.72, 256.97
437.99, 7.73, 256.89
437.77, 7.73, 256.80
437.53, 7.74, 256.71
437.27, 7.75, 256.60
436.98, 7.75, 256.49
436.67, 7.76, 256.37
436.33, 7.76, 256.24
435.96, 7.77, 256.09
435.55, 7.78, 255.93
435.07, 7.79, 255.74
434.53, 7.79, 255.53
433.92, 7.80, 255.29
433.19, 7.80, 255.00
432.30, 7.79, 254.65
431.25, 7.78, 254.23
429.94, 7.76, 253.71
428.20, 7.73, 253.02
425.90, 7.68, 252.11
422.92, 7.62, 250.93
438.17, 7.72, 257.04
437.97, 7.72, 256.97
437.75, 7.73, 256.88
437.51, 7.74, 256.79
437.25, 7.74, 256.69
436.96, 7.75, 256.59
436.65, 7.76, 256.47
436.31, 7.76, 256.34
435.93, 7.77, 256.20
435.53, 7.78, 256.05
435.06, 7.79, 255.87
434.52, 7.79, 255.67
433.92, 7.80, 255.44
433.18, 7.80, 255.16
432.31, 7.79, 254.83
431.27, 7.78, 254.43
429.97, 7.77, 253.94
428.24, 7.73, 253.28
425.96, 7.68, 252.42
¯423.01, 7.62, 251.30
438.16, 7.72, 257.12
437.95, 7.72, 257.04
437.73, 7.73, 256.96
437.49, 7.74, 256.88
437.22, 7.74, 256.78
436.94, 7.75, 256.68
436.63, 7.75, 256.57
436.29, 7.76, 256.44
435.92, 7.77, 256.31
435.52, 7.78, 256.17
435.05, 7.79, 255.99
434.51, 7.79, 255.80
433.91, 7.80, 255.58
433.18, 7.80, 255.32
432.32, 7.79, 255.01
431.29, 7.79, 254.63
429.99, 7.77, 254.16
428.29, 7.73, 253.54
426.02, 7.68, 252.71
423.10, 7.62, 251.65
438.14, 7.71, 257.19
437.93, 7.72, 257.12
437.71, 7.73, 257.04
437.47, 7.73, 256.96
437.20, 7.74, 256.87
436.92, 7.74, 256.77
436.61, 7.75, 256.66
436.26, 7.76, 256.55
435.90, 7.77, 256.42
435.50, 7.78, 256.28
435.03, 7.78, 256.12
434.50, 7.79, 255.94
433.90, 7.80, 255.73
433.18, 7.80, 255.48
432.33, 7.79, 255.18
431.31, 7.79, 254.83
430.02, 7.77, 254.38
428.34, 7.74, 253.80
426.08, 7.68, 253.01
423.19, 7.62, 252.00
438.12, 7.71, 257.27
437.91, 7.72, 257.20
437.69, 7.72, 257.13
437.45, 7.73, 257.05
437.19, 7.74, 256.96
436.90, 7.74, 256.86
436.59, 7.75, 256.76
436.25, 7.76, 256.65
435.89, 7.77, 256.53
435.49, 7.78, 256.40
¯435.02, 7.78, 256.25
434.49, 7.79, 256.07
433.90, 7.80, 255.88
433.19, 7.80, 255.64
432.34, 7.80, 255.36
431.33, 7.79, 255.02
430.04, 7.77, 254.59
428.39, 7.74, 254.05
426.14, 7.68, 253.30
423.28, 7.63, 252.35
450.22, 7.57, 258.20
450.23, 7.67, 258.20
450.27, 7.77, 258.21
450.30, 7.86, 258.21
450.35, 7.95, 258.22
450.41, 8.04, 258.22
450.49, 8.13, 258.22
450.58, 8.21, 258.22
450.71, 8.29, 258.22
450.87, 8.37, 258.22
451.16, 8.43, 258.22
457.21, 7.53, 257.98
457.52, 7.68, 257.98
457.85, 7.84, 257.98
458.19, 8.00, 257.97
458.55, 8.17, 257.97
458.92, 8.35, 257.97
459.85, 8.50, 257.95
460.52, 8.68, 257.94
461.04, 8.90, 257.94
450.18, 7.58, 258.11
450.19, 7.69, 258.11
450.23, 7.78, 258.11
450.26, 7.88, 258.12
450.31, 7.97, 258.12
450.38, 8.05, 258.12
450.45, 8.14, 258.12
450.56, 8.22, 258.12
450.68, 8.30, 258.12
450.86, 8.38, 258.12
451.19, 8.43, 258.11
457.15, 7.55, 257.79
457.46, 7.70, 257.78
457.79, 7.86, 257.78
458.12, 8.02, 257.77
458.48, 8.19, 257.76
458.85, 8.37, 257.76
459.42, 8.54, 257.74
460.11, 8.72, 257.72
450.14, 7.60, 258.01
450.16, 7.70, 258.02
¯450.19, 7.80, 258.02
450.23, 7.89, 258.02
450.28, 7.98, 258.03
450.35, 8.07, 258.03
450.42, 8.15, 258.03
450.53, 8.23, 258.03
450.65, 8.31, 258.02
450.84, 8.38, 258.02
451.21, 8.43, 258.00
457.09, 7.57, 257.60
457.40, 7.72, 257.59
457.73, 7.88, 257.58
458.06, 8.04, 257.57
458.41, 8.21, 257.56
458.81, 8.39, 257.54
459.41, 8.56, 257.52
460.10, 8.74, 257.49
450.10, 7.62, 257.92
450.13, 7.72, 257.93
450.16, 7.81, 257.93
450.19, 7.90, 257.93
450.25, 7.99, 257.93
450.32, 8.08, 257.93
450.39, 8.16, 257.93
450.50, 8.24, 257.93
450.62, 8.32, 257.92
450.82, 8.39, 257.91
456.50, 7.48, 257.45
457.04, 7.59, 257.41
457.35, 7.74, 257.40
457.67, 7.89, 257.38
458.00, 8.06, 257.37
458.35, 8.23, 257.35
458.80, 8.40, 257.33
459.40, 8.57, 257.29
460.09, 8.75, 257.25
450.06, 7.63, 257.83
450.09, 7.73, 257.84
450.12, 7.82, 257.84
450.16, 7.92, 257.84
450.22, 8.00, 257.84
450.29, 8.09, 257.84
450.36, 8.17, 257.84
450.48, 8.25, 257.83
450.59, 8.33, 257.82
450.80, 8.40, 257.81
456.47, 7.50, 257.27
453.88, 8.11, 257.53
453.89, 8.26, 257.53
453.90, 8.41, 257.54
453.91, 8.56, 257.55
¯453.92, 8.71, 257.55
453.93, 8.86, 257.56
459.39, 8.58, 257.07
460.07, 8.76, 257.02
450.02, 7.65, 257.74
450.06, 7.74, 257.75
450.09, 7.84, 257.75
450.12, 7.93, 257.75
450.19, 8.01, 257.75
450.25, 8.10, 257.74
450.33, 8.18, 257.74
450.45, 8.26, 257.73
450.57, 8.34, 257.72
450.78, 8.41, 257.71
453.72, 7.99, 257.39
453.76, 8.14, 257.39
453.87, 8.27, 257.39
453.93, 8.41, 257.39
453.94, 8.56, 257.40
453.91, 8.72, 257.41
453.83, 8.87, 257.42
453.78, 9.03, 257.44
453.78, 9.17, 257.44
449.99, 7.66, 257.65
450.02, 7.75, 257.66
450.05, 7.85, 257.66
450.09, 7.94, 257.66
450.16, 8.02, 257.65
450.22, 8.11, 257.65
450.31, 8.19, 257.65
450.42, 8.27, 257.64
450.55, 8.35, 257.63
450.76, 8.41, 257.60
453.71, 8.00, 257.24
453.88, 8.12, 257.23
454.00, 8.26, 257.22
454.06, 8.40, 257.22
454.08, 8.55, 257.23
454.05, 8.71, 257.24
453.97, 8.87, 257.26
453.79, 9.03, 257.29
453.63, 9.19, 257.32
453.64, 9.33, 257.32
449.95, 7.67, 257.57
449.99, 7.77, 257.57
450.02, 7.86, 257.57
450.06, 7.95, 257.57
450.13, 8.03, 257.56
450.19, 8.12, 257.56
450.28, 8.20, 257.55
450.39, 8.28, 257.54
¯450.53, 8.36, 257.53
450.74, 8.42, 257.50
453.82, 7.98, 257.08
454.00, 8.11, 257.06
454.14, 8.24, 257.05
454.20, 8.39, 257.05
454.22, 8.54, 257.06
454.19, 8.70, 257.07
454.11, 8.86, 257.09
453.94, 9.03, 257.12
453.58, 9.20, 257.18
453.48, 9.35, 257.20
449.92, 7.69, 257.48
449.95, 7.78, 257.48
449.99, 7.87, 257.48
450.03, 7.96, 257.48
450.09, 8.04, 257.47
450.16, 8.13, 257.47
450.25, 8.21, 257.46
450.36, 8.29, 257.45
450.51, 8.36, 257.43
450.73, 8.42, 257.40
453.93, 7.97, 256.92
454.13, 8.09, 256.89
454.27, 8.23, 256.88
454.34, 8.37, 256.88
454.36, 8.53, 256.88
454.34, 8.69, 256.89
454.26, 8.85, 256.92
454.08, 9.02, 256.95
453.74, 9.20, 257.01
453.34, 9.36, 257.07
449.89, 7.70, 257.39
449.92, 7.79, 257.39
449.95, 7.88, 257.39
450.00, 7.97, 257.39
450.06, 8.05, 257.38
450.13, 8.14, 257.38
450.22, 8.22, 257.36
450.33, 8.30, 257.35
450.49, 8.37, 257.33
450.75, 8.43, 257.29
454.04, 7.95, 256.75
454.26, 8.07, 256.72
454.40, 8.21, 256.70
454.48, 8.36, 256.70
454.51, 8.52, 256.70
454.50, 8.68, 256.71
454.41, 8.85, 256.73
454.23, 9.02, 256.77
453.89, 9.19, 256.83
¯453.19, 9.38, 256.95
449.85, 7.71, 257.30
449.88, 7.80, 257.30
449.92, 7.89, 257.30
449.97, 7.98, 257.30
450.03, 8.06, 257.29
450.09, 8.15, 257.28
450.19, 8.23, 257.27
450.30, 8.31, 257.26
450.47, 8.37, 257.23
450.76, 8.43, 257.18
454.15, 7.94, 256.57
454.39, 8.06, 256.54
454.54, 8.20, 256.52
454.63, 8.35, 256.51
454.67, 8.50, 256.51
454.66, 8.67, 256.52
454.57, 8.84, 256.55
454.39, 9.01, 256.59
453.04, 9.25, 256.83
453.05, 9.39, 256.84
449.82, 7.72, 257.22
449.85, 7.81, 257.22
449.88, 7.90, 257.21
449.93, 7.99, 257.21
450.00, 8.07, 257.20
450.06, 8.16, 257.19
450.17, 8.23, 257.18
450.27, 8.31, 257.16
450.45, 8.38, 257.13
450.76, 8.43, 257.08
452.85, 8.17, 256.67
454.52, 8.04, 256.36
454.68, 8.18, 256.33
454.78, 8.33, 256.32
454.83, 8.49, 256.32
454.82, 8.66, 256.33
454.73, 8.83, 256.36
452.90, 9.13, 256.71
452.91, 9.26, 256.72
453.12, 9.39, 256.68
449.78, 7.73, 257.13
449.82, 7.82, 257.13
449.85, 7.91, 257.13
449.90, 8.00, 257.12
449.97, 8.08, 257.11
450.03, 8.17, 257.10
450.14, 8.24, 257.09
450.24, 8.32, 257.07
450.42, 8.39, 257.04
450.77, 8.43, 256.97
¯452.72, 8.19, 256.56
452.73, 8.33, 256.57
452.73, 8.47, 256.58
452.74, 8.60, 256.58
452.75, 8.74, 256.59
452.75, 8.87, 256.59
452.76, 9.01, 256.60
452.78, 9.14, 256.60
452.97, 9.27, 256.57
453.26, 9.39, 256.52
449.75, 7.74, 257.05
449.78, 7.83, 257.04
449.81, 7.92, 257.04
449.87, 8.00, 257.03
449.93, 8.09, 257.02
450.00, 8.17, 257.01
450.11, 8.25, 256.99
450.21, 8.33, 256.98
450.40, 8.39, 256.94
450.78, 8.43, 256.86
452.74, 8.19, 256.42
452.66, 8.34, 256.45
452.62, 8.49, 256.46
452.61, 8.62, 256.47
452.63, 8.75, 256.48
452.69, 8.88, 256.47
452.77, 9.01, 256.46
452.91, 9.14, 256.43
453.10, 9.26, 256.40
453.40, 9.39, 256.34
449.72, 7.75, 256.96
449.75, 7.84, 256.96
449.78, 7.93, 256.96
449.84, 8.01, 256.95
449.90, 8.10, 256.94
449.97, 8.18, 256.92
450.08, 8.26, 256.90
450.18, 8.33, 256.88
450.38, 8.40, 256.84
453.10, 7.99, 256.19
452.90, 8.17, 256.25
452.81, 8.32, 256.28
452.75, 8.47, 256.30
452.75, 8.61, 256.30
452.76, 8.74, 256.31
452.82, 8.87, 256.30
452.90, 9.00, 256.29
453.05, 9.13, 256.26
453.24, 9.26, 256.22
453.55, 9.39, 256.16
449.68, 7.75, 256.88
¯449.71, 7.85, 256.87
449.75, 7.94, 256.87
449.81, 8.02, 256.86
449.87, 8.10, 256.85
449.94, 8.19, 256.83
450.05, 8.26, 256.81
450.16, 8.34, 256.79
450.35, 8.40, 256.74
453.29, 7.95, 256.00
453.06, 8.14, 256.07
452.97, 8.30, 256.10
452.90, 8.45, 256.12
452.89, 8.59, 256.13
452.90, 8.73, 256.13
452.96, 8.86, 256.13
453.04, 9.00, 256.11
453.19, 9.13, 256.08
453.39, 9.26, 256.04
453.70, 9.39, 255.97
450.28, 7.56, 256.62
450.61, 7.56, 256.53
450.97, 7.57, 256.44
451.19, 7.63, 256.38
451.15, 7.76, 256.40
450.09, 8.15, 256.70
450.06, 8.26, 256.71
450.13, 8.34, 256.69
450.33, 8.41, 256.65
453.49, 7.91, 255.80
453.25, 8.11, 255.87
453.13, 8.27, 255.91
453.05, 8.43, 255.94
453.04, 8.57, 255.95
453.04, 8.72, 255.96
453.11, 8.85, 255.94
453.18, 8.99, 255.93
453.33, 9.12, 255.90
453.54, 9.25, 255.85
453.86, 9.39, 255.78
450.26, 7.56, 256.52
450.59, 7.57, 256.43
450.95, 7.58, 256.33
451.14, 7.64, 256.28
451.10, 7.77, 256.30
451.03, 7.91, 256.32
450.91, 8.06, 256.37
450.71, 8.22, 256.43
450.67, 8.34, 256.45
453.77, 7.86, 255.57
453.45, 8.07, 255.67
453.30, 8.25, 255.72
¯453.21, 8.41, 255.75
453.20, 8.55, 255.76
453.19, 8.70, 255.77
453.26, 8.84, 255.76
453.33, 8.98, 255.74
453.49, 9.11, 255.71
453.69, 9.25, 255.66
454.02, 9.38, 255.57
450.23, 7.56, 256.43
450.56, 7.57, 256.33
450.92, 7.58, 256.23
451.27, 7.60, 256.13
451.69, 7.61, 256.00
452.26, 7.60, 255.84
452.84, 7.60, 255.67
453.24, 7.66, 255.56
453.91, 7.67, 255.36
454.09, 7.80, 255.32
453.67, 8.03, 255.45
453.48, 8.22, 255.51
453.38, 8.38, 255.55
453.36, 8.54, 255.56
453.35, 8.68, 255.57
453.41, 8.83, 255.56
453.49, 8.97, 255.55
453.64, 9.10, 255.51
453.85, 9.24, 255.46
454.18, 9.38, 255.36
450.20, 7.57, 256.33
450.53, 7.58, 256.23
450.89, 7.58, 256.12
451.25, 7.60, 256.01
451.72, 7.60, 255.87
452.24, 7.60, 255.71
452.81, 7.60, 255.54
453.12, 7.68, 255.45
453.76, 7.70, 255.25
454.89, 7.64, 254.90
453.89, 7.99, 255.22
453.67, 8.19, 255.30
453.57, 8.36, 255.34
453.53, 8.51, 255.36
453.52, 8.67, 255.37
453.58, 8.81, 255.36
453.65, 8.96, 255.34
453.81, 9.10, 255.30
454.02, 9.24, 255.24
454.36, 9.38, 255.15
450.17, 7.57, 256.24
450.50, 7.58, 256.13
450.86, 7.59, 256.02
²451.23, 7.60, 255.90
451.71, 7.60, 255.75
452.22, 7.60, 255.58
452.74, 7.62, 255.41
453.05, 7.70, 255.32
453.28, 7.80, 255.25
453.31, 7.94, 255.24
453.35, 8.09, 255.24
453.38, 8.23, 255.24
453.41, 8.38, 255.23
453.45, 8.53, 255.23
453.70, 8.65, 255.16
453.75, 8.80, 255.15
453.82, 8.94, 255.13
453.98, 9.09, 255.09
454.19, 9.23, 255.03
454.54, 9.38, 254.92
450.14, 7.58, 256.14
450.47, 7.58, 256.03
450.82, 7.59, 255.91
451.22, 7.60, 255.78
451.68, 7.60, 255.62
452.20, 7.60, 255.45
452.68, 7.63, 255.29
452.98, 7.71, 255.19
452.95, 7.86, 255.21
452.96, 8.01, 255.21
452.97, 8.15, 255.22
452.99, 8.30, 255.22
453.00, 8.44, 255.22
453.01, 8.58, 255.22
453.02, 8.73, 255.23
453.03, 8.87, 255.23
453.05, 9.01, 255.23
453.06, 9.16, 255.23
453.07, 9.30, 255.24
453.08, 9.44, 255.24
453.10, 9.59, 255.24
453.11, 9.73, 255.24
453.12, 9.87, 255.25
453.13, 10.02, 255.25
453.15, 10.16, 255.25
453.16, 10.31, 255.25
450.11, 7.58, 256.05
450.44, 7.59, 255.93
450.79, 7.60, 255.81
451.20, 7.60, 255.67
451.66, 7.60, 255.50
452.17, 7.60, 255.32
452.61, 7.64, 255.17
452.76, 7.75, 255.12
µ452.77, 7.90, 255.13
452.78, 8.04, 255.13
452.78, 8.18, 255.13
452.79, 8.33, 255.14
452.80, 8.47, 255.14
452.81, 8.61, 255.15
452.81, 8.75, 255.15
452.82, 8.89, 255.15
452.83, 9.03, 255.16
452.83, 9.18, 255.16
452.84, 9.32, 255.17
452.85, 9.46, 255.17
452.86, 9.60, 255.17
452.86, 9.74, 255.18
452.87, 9.88, 255.18
452.88, 10.02, 255.19
452.88, 10.16, 255.19
452.89, 10.30, 255.19
450.08, 7.58, 255.95
450.40, 7.59, 255.83
450.76, 7.60, 255.70
451.17, 7.60, 255.55
451.63, 7.60, 255.38
452.15, 7.61, 255.19
452.54, 7.65, 255.05
452.62, 7.78, 255.03
452.63, 7.92, 255.03
452.63, 8.06, 255.04
452.64, 8.21, 255.04
452.64, 8.35, 255.05
452.64, 8.49, 255.05
452.65, 8.63, 255.06
452.65, 8.77, 255.06
452.66, 8.91, 255.06
452.67, 9.05, 255.07
452.67, 9.19, 255.07
452.68, 9.33, 255.08
452.69, 9.47, 255.08
452.69, 9.61, 255.08
452.70, 9.75, 255.09
452.71, 9.89, 255.09
452.71, 10.03, 255.10
452.72, 10.17, 255.10
452.73, 10.31, 255.10
450.05, 7.59, 255.86
450.37, 7.60, 255.73
450.73, 7.60, 255.60
451.15, 7.60, 255.44
451.61, 7.60, 255.26
452.12, 7.61, 255.06
452.47, 7.66, 254.93
µ452.52, 7.79, 254.92
452.53, 7.94, 254.92
452.53, 8.08, 254.93
452.54, 8.22, 254.93
452.54, 8.36, 254.94
452.54, 8.50, 254.94
452.55, 8.64, 254.95
452.55, 8.78, 254.95
452.56, 8.92, 254.96
452.56, 9.06, 254.96
452.57, 9.20, 254.97
452.57, 9.34, 254.97
452.57, 9.48, 254.97
452.58, 9.61, 254.98
452.58, 9.75, 254.98
452.59, 9.89, 254.99
452.59, 10.03, 254.99
452.60, 10.17, 255.00
452.60, 10.31, 255.00
450.01, 7.59, 255.76
450.34, 7.60, 255.63
450.70, 7.61, 255.49
451.12, 7.60, 255.33
451.58, 7.61, 255.14
452.09, 7.61, 254.94
452.40, 7.67, 254.81
452.44, 7.81, 254.81
452.44, 7.95, 254.81
452.44, 8.09, 254.82
452.45, 8.23, 254.82
452.45, 8.37, 254.83
452.45, 8.51, 254.83
452.45, 8.65, 254.84
452.46, 8.79, 254.84
452.46, 8.93, 254.85
452.46, 9.07, 254.85
452.47, 9.21, 254.86
452.47, 9.35, 254.86
452.47, 9.48, 254.87
452.48, 9.62, 254.87
452.48, 9.76, 254.88
452.49, 9.90, 254.88
452.49, 10.03, 254.88
452.50, 10.17, 254.89
452.50, 10.31, 254.89
449.98, 7.59, 255.67
450.31, 7.60, 255.54
450.66, 7.61, 255.39
451.08, 7.61, 255.21
451.54, 7.61, 255.02
452.06, 7.61, 254.81
µ452.33, 7.68, 254.70
452.38, 7.81, 254.68
452.38, 7.96, 254.69
452.39, 8.10, 254.69
452.39, 8.24, 254.70
452.39, 8.38, 254.70
452.39, 8.52, 254.71
452.40, 8.66, 254.71
452.40, 8.80, 254.72
452.40, 8.94, 254.72
452.40, 9.08, 254.73
452.41, 9.21, 254.73
452.41, 9.35, 254.74
452.41, 9.49, 254.74
452.41, 9.63, 254.75
452.41, 9.77, 254.75
452.42, 9.90, 254.76
452.42, 10.04, 254.76
452.42, 10.18, 254.77
452.42, 10.31, 254.78
449.95, 7.60, 255.58
450.27, 7.60, 255.44
450.63, 7.61, 255.28
451.05, 7.61, 255.10
451.51, 7.61, 254.90
451.99, 7.62, 254.69
452.26, 7.69, 254.58
452.33, 7.82, 254.55
452.33, 7.96, 254.56
452.34, 8.10, 254.57
452.34, 8.25, 254.57
452.34, 8.39, 254.58
452.34, 8.53, 254.58
452.34, 8.67, 254.59
452.34, 8.81, 254.59
452.34, 8.94, 254.60
452.35, 9.08, 254.60
452.35, 9.22, 254.61
452.35, 9.36, 254.61
452.35, 9.50, 254.62
452.36, 9.63, 254.62
452.36, 9.77, 254.63
452.36, 9.91, 254.63
452.36, 10.05, 254.64
452.36, 10.18, 254.64
452.37, 10.32, 254.65
449.91, 7.60, 255.48
450.24, 7.61, 255.34
450.59, 7.61, 255.18
451.01, 7.61, 254.99
451.47, 7.61, 254.78
µ451.92, 7.63, 254.58
452.19, 7.70, 254.47
452.32, 7.82, 254.41
452.32, 7.96, 254.42
452.32, 8.10, 254.42
452.32, 8.24, 254.43
452.32, 8.39, 254.44
452.32, 8.53, 254.44
452.32, 8.67, 254.45
452.32, 8.81, 254.45
452.32, 8.95, 254.46
452.32, 9.09, 254.47
452.32, 9.22, 254.47
452.32, 9.36, 254.48
452.33, 9.50, 254.48
452.33, 9.64, 254.49
452.33, 9.78, 254.49
452.33, 9.91, 254.50
452.33, 10.05, 254.50
452.33, 10.19, 254.51
452.33, 10.33, 254.52
449.88, 7.60, 255.39
450.20, 7.61, 255.24
450.56, 7.61, 255.07
450.98, 7.61, 254.88
451.44, 7.61, 254.66
451.85, 7.64, 254.47
452.12, 7.71, 254.35
452.31, 7.81, 254.26
452.31, 7.95, 254.27
452.31, 8.10, 254.28
452.31, 8.24, 254.29
452.31, 8.38, 254.29
452.30, 8.53, 254.30
452.30, 8.67, 254.30
452.31, 8.81, 254.31
452.31, 8.95, 254.32
452.31, 9.09, 254.32
452.31, 9.23, 254.33
452.31, 9.37, 254.33
452.31, 9.50, 254.34
452.31, 9.64, 254.34
452.31, 9.78, 254.35
452.31, 9.92, 254.36
452.31, 10.06, 254.36
452.31, 10.20, 254.37
452.31, 10.33, 254.37
449.84, 7.60, 255.30
450.16, 7.61, 255.14
450.52, 7.61, 254.97
450.94, 7.61, 254.77
³451.40, 7.61, 254.55
451.78, 7.64, 254.36
452.04, 7.72, 254.24
452.32, 7.80, 254.11
452.34, 7.94, 254.10
452.34, 8.09, 254.11
452.34, 8.23, 254.12
452.34, 8.37, 254.12
452.34, 8.52, 254.13
452.34, 8.66, 254.14
452.34, 8.80, 254.14
452.33, 8.94, 254.15
452.33, 9.09, 254.16
452.33, 9.23, 254.16
452.33, 9.37, 254.17
452.33, 9.51, 254.18
452.33, 9.65, 254.18
452.33, 9.79, 254.19
452.33, 9.93, 254.20
452.32, 10.06, 254.20
452.32, 10.20, 254.21
449.80, 7.60, 255.21
450.12, 7.61, 255.05
450.48, 7.62, 254.87
450.90, 7.61, 254.66
451.36, 7.61, 254.43
451.71, 7.65, 254.25
451.97, 7.73, 254.13
452.24, 7.81, 253.99
452.42, 7.92, 253.91
452.42, 8.06, 253.91
452.41, 8.21, 253.92
452.41, 8.36, 253.93
452.40, 8.50, 253.94
452.40, 8.65, 253.95
452.39, 8.79, 253.96
452.39, 8.94, 253.97
452.38, 9.08, 253.97
452.38, 9.22, 253.98
452.38, 9.37, 253.99
452.37, 9.51, 254.00
452.37, 9.65, 254.01
452.36, 9.79, 254.02
452.36, 9.93, 254.02
452.36, 10.07, 254.03
452.36, 10.21, 254.03
449.76, 7.61, 255.11
450.07, 7.61, 254.95
450.44, 7.62, 254.76
450.85, 7.61, 254.55
451.31, 7.61, 254.31
³451.64, 7.66, 254.14
451.89, 7.74, 254.01
452.17, 7.82, 253.88
452.49, 7.89, 253.71
452.64, 8.01, 253.64
452.62, 8.17, 253.65
452.61, 8.32, 253.67
452.59, 8.47, 253.68
452.57, 8.62, 253.70
452.56, 8.77, 253.71
452.54, 8.92, 253.73
452.53, 9.07, 253.74
452.51, 9.22, 253.75
452.50, 9.36, 253.77
452.50, 9.51, 253.77
452.49, 9.65, 253.78
452.49, 9.79, 253.79
452.48, 9.94, 253.80
452.48, 10.08, 253.81
452.47, 10.23, 253.82
449.72, 7.61, 255.02
450.03, 7.62, 254.86
450.39, 7.62, 254.66
450.81, 7.62, 254.44
451.27, 7.61, 254.19
451.57, 7.67, 254.03
451.82, 7.75, 253.90
452.12, 7.82, 253.75
452.43, 7.90, 253.58
452.84, 7.97, 253.36
454.28, 7.86, 252.59
454.28, 8.04, 252.59
454.29, 8.22, 252.60
454.29, 8.39, 252.60
454.30, 8.57, 252.61
454.31, 8.74, 252.61
454.31, 8.92, 252.61
454.32, 9.09, 252.62
454.32, 9.27, 252.62
454.33, 9.44, 252.63
454.34, 9.62, 252.63
454.34, 9.79, 252.63
454.35, 9.97, 252.64
454.35, 10.14, 252.64
454.36, 10.32, 252.65
449.67, 7.61, 254.93
449.98, 7.62, 254.76
450.35, 7.62, 254.56
450.76, 7.62, 254.33
451.22, 7.62, 254.08
451.49, 7.68, 253.93
³451.77, 7.75, 253.78
452.06, 7.82, 253.62
452.38, 7.90, 253.45
452.83, 7.96, 253.20
454.15, 7.88, 252.46
454.15, 8.05, 252.47
454.16, 8.23, 252.47
454.16, 8.41, 252.48
454.17, 8.58, 252.48
454.17, 8.76, 252.49
454.17, 8.93, 252.49
454.18, 9.10, 252.50
454.18, 9.28, 252.50
454.18, 9.45, 252.51
454.19, 9.62, 252.51
454.19, 9.80, 252.52
454.20, 9.97, 252.52
454.20, 10.14, 252.53
454.20, 10.32, 252.53
449.63, 7.61, 254.84
449.94, 7.62, 254.67
450.30, 7.62, 254.46
450.71, 7.62, 254.22
451.17, 7.62, 253.96
451.44, 7.68, 253.81
451.72, 7.75, 253.65
452.01, 7.82, 253.49
452.32, 7.90, 253.31
452.81, 7.95, 253.04
454.04, 7.89, 252.33
454.05, 8.06, 252.33
454.05, 8.24, 252.34
454.05, 8.42, 252.34
454.06, 8.59, 252.35
454.06, 8.76, 252.35
454.06, 8.94, 252.36
454.07, 9.11, 252.36
454.07, 9.29, 252.37
454.08, 9.46, 252.37
454.08, 9.63, 252.38
454.08, 9.80, 252.38
454.09, 9.98, 252.39
454.09, 10.15, 252.39
454.09, 10.32, 252.40
449.58, 7.62, 254.76
449.89, 7.62, 254.57
450.25, 7.62, 254.36
450.66, 7.62, 254.12
451.11, 7.62, 253.85
451.39, 7.68, 253.69
451.66, 7.75, 253.53
²451.96, 7.82, 253.36
452.27, 7.90, 253.18
452.79, 7.95, 252.87
453.98, 7.89, 252.17
453.98, 8.07, 252.17
453.98, 8.24, 252.18
453.99, 8.42, 252.18
453.99, 8.59, 252.19
453.99, 8.77, 252.19
453.99, 8.94, 252.20
453.99, 9.12, 252.21
454.00, 9.29, 252.21
454.00, 9.46, 252.22
454.00, 9.64, 252.22
454.00, 9.81, 252.23
454.01, 9.98, 252.23
454.01, 10.16, 252.24
454.01, 10.33, 252.24
449.53, 7.62, 254.67
449.84, 7.62, 254.48
450.20, 7.62, 254.26
450.61, 7.62, 254.01
451.04, 7.63, 253.75
451.33, 7.68, 253.57
451.61, 7.75, 253.41
451.90, 7.82, 253.23
452.21, 7.90, 253.04
452.77, 7.94, 252.71
453.94, 7.89, 251.99
453.94, 8.06, 252.00
453.94, 8.24, 252.00
453.94, 8.42, 252.01
453.94, 8.60, 252.02
453.94, 8.77, 252.02
453.94, 8.95, 252.03
453.94, 9.12, 252.04
453.94, 9.29, 252.04
453.94, 9.47, 252.05
453.94, 9.64, 252.06
453.94, 9.82, 252.06
453.94, 9.99, 252.07
453.95, 10.16, 252.07
449.48, 7.62, 254.58
449.79, 7.63, 254.39
450.15, 7.62, 254.16
450.55, 7.62, 253.91
450.97, 7.63, 253.64
451.28, 7.68, 253.45
451.55, 7.75, 253.28
451.84, 7.83, 253.10
452.16, 7.90, 252.91
³452.74, 7.94, 252.54
453.93, 7.88, 251.79
453.93, 8.06, 251.80
453.93, 8.24, 251.81
453.93, 8.41, 251.81
453.93, 8.59, 251.82
453.93, 8.77, 251.83
453.93, 8.94, 251.83
453.93, 9.12, 251.84
453.93, 9.30, 251.85
453.93, 9.47, 251.85
453.93, 9.65, 251.86
453.93, 9.82, 251.87
453.93, 10.00, 251.87
453.93, 10.17, 251.88
449.43, 7.62, 254.49
449.74, 7.63, 254.29
450.10, 7.63, 254.06
450.49, 7.63, 253.81
450.90, 7.64, 253.54
451.22, 7.68, 253.33
451.50, 7.75, 253.16
451.78, 7.83, 252.97
452.13, 7.90, 252.75
452.72, 7.93, 252.37
453.99, 7.85, 251.55
453.99, 8.04, 251.55
453.98, 8.22, 251.56
453.98, 8.40, 251.57
453.98, 8.58, 251.58
453.98, 8.76, 251.59
453.97, 8.94, 251.60
453.97, 9.12, 251.60
453.97, 9.29, 251.61
453.97, 9.47, 251.62
453.96, 9.65, 251.63
453.96, 9.83, 251.64
453.96, 10.00, 251.64
453.96, 10.18, 251.65
449.38, 7.62, 254.41
449.69, 7.63, 254.20
450.04, 7.63, 253.96
450.43, 7.63, 253.71
450.83, 7.64, 253.44
451.17, 7.68, 253.22
451.44, 7.75, 253.04
451.72, 7.83, 252.85
452.10, 7.89, 252.60
452.69, 7.92, 252.20
454.23, 7.79, 251.17
454.38, 7.96, 251.08
±454.32, 8.16, 251.12
454.27, 8.35, 251.16
454.21, 8.55, 251.21
454.16, 8.74, 251.25
454.15, 8.92, 251.26
454.14, 9.10, 251.28
454.14, 9.29, 251.29
454.13, 9.47, 251.30
454.12, 9.65, 251.31
454.11, 9.83, 251.32
454.11, 10.01, 251.34
454.10, 10.19, 251.35
449.33, 7.63, 254.32
449.63, 7.63, 254.11
449.99, 7.63, 253.87
450.36, 7.63, 253.61
450.75, 7.65, 253.34
451.09, 7.69, 253.11
451.38, 7.75, 252.91
451.66, 7.83, 252.72
452.07, 7.88, 252.44
452.66, 7.91, 252.04
454.20, 7.79, 250.97
455.39, 7.77, 250.15
456.51, 7.81, 249.38
457.83, 7.86, 248.47
459.08, 7.96, 247.61
459.46, 8.19, 247.36
459.86, 8.43, 247.09
449.27, 7.63, 254.24
449.58, 7.63, 254.02
449.92, 7.63, 253.78
450.30, 7.64, 253.51
450.67, 7.65, 253.24
451.01, 7.69, 253.01
451.32, 7.75, 252.79
451.60, 7.83, 252.59
452.04, 7.87, 252.28
452.60, 7.91, 251.89
454.13, 7.79, 250.79
455.44, 7.75, 249.86
456.56, 7.79, 249.07
458.02, 7.82, 248.03
459.04, 7.95, 247.31
459.42, 8.18, 247.05
460.08, 8.41, 246.59
449.22, 7.63, 254.15
449.52, 7.63, 253.93
449.86, 7.64, 253.69
450.23, 7.64, 253.42
450.60, 7.66, 253.14
¯450.93, 7.70, 252.91
451.26, 7.75, 252.67
451.54, 7.82, 252.46
452.00, 7.87, 252.13
452.51, 7.92, 251.76
454.07, 7.78, 250.61
455.54, 7.72, 249.53
456.61, 7.77, 248.75
458.15, 7.79, 247.63
458.99, 7.95, 247.02
459.38, 8.18, 246.74
460.39, 8.37, 246.01
449.16, 7.63, 254.07
449.46, 7.64, 253.85
449.79, 7.64, 253.60
450.16, 7.64, 253.32
450.52, 7.66, 253.05
450.85, 7.70, 252.80
451.19, 7.75, 252.54
451.47, 7.82, 252.34
451.96, 7.86, 251.97
452.42, 7.92, 251.63
454.00, 7.78, 250.43
455.64, 7.68, 249.20
456.66, 7.74, 248.43
458.23, 7.76, 247.25
458.91, 7.94, 246.74
459.35, 8.17, 246.42
460.33, 8.37, 245.68
449.10, 7.63, 253.99
449.39, 7.64, 253.76
449.72, 7.64, 253.51
450.08, 7.65, 253.23
450.44, 7.67, 252.95
450.76, 7.71, 252.70
451.11, 7.75, 252.43
451.41, 7.82, 252.21
451.88, 7.86, 251.84
452.32, 7.93, 251.50
453.92, 7.78, 250.26
455.74, 7.65, 248.85
456.71, 7.72, 248.10
458.14, 7.76, 246.99
458.82, 7.94, 246.47
459.51, 8.15, 245.94
449.03, 7.64, 253.91
449.33, 7.64, 253.68
449.65, 7.65, 253.42
450.01, 7.65, 253.14
450.36, 7.67, 252.86
450.68, 7.71, 252.60
¯451.02, 7.76, 252.33
451.36, 7.82, 252.07
451.79, 7.87, 251.72
452.23, 7.93, 251.38
453.84, 7.78, 250.08
455.79, 7.62, 248.53
456.84, 7.68, 247.69
458.04, 7.76, 246.73
458.73, 7.94, 246.19
459.45, 8.14, 245.62
448.97, 7.64, 253.84
449.26, 7.64, 253.60
449.58, 7.65, 253.33
449.94, 7.65, 253.04
450.28, 7.67, 252.76
450.59, 7.72, 252.51
450.93, 7.76, 252.23
451.30, 7.81, 251.93
451.70, 7.87, 251.61
452.13, 7.93, 251.25
453.70, 7.79, 249.96
454.41, 7.85, 249.38
456.87, 7.66, 247.35
457.95, 7.75, 246.47
458.63, 7.94, 245.92
459.39, 8.14, 245.30
448.90, 7.64, 253.76
449.19, 7.65, 253.52
449.51, 7.65, 253.25
449.86, 7.66, 252.95
450.20, 7.68, 252.67
450.51, 7.72, 252.41
450.84, 7.77, 252.13
451.21, 7.82, 251.82
451.60, 7.87, 251.49
452.04, 7.94, 251.13
453.51, 7.81, 249.88
454.19, 7.87, 249.30
456.90, 7.64, 247.01
457.85, 7.75, 246.21
458.53, 7.93, 245.64
459.32, 8.13, 244.98
448.84, 7.65, 253.68
449.12, 7.65, 253.44
449.44, 7.65, 253.17
449.78, 7.66, 252.87
450.11, 7.68, 252.58
450.42, 7.72, 252.31
450.75, 7.77, 252.03
451.12, 7.82, 251.71
451.51, 7.88, 251.37
¯451.94, 7.94, 251.00
453.31, 7.82, 249.80
453.98, 7.89, 249.23
456.93, 7.61, 246.65
457.75, 7.75, 245.94
458.45, 7.93, 245.35
459.25, 8.13, 244.66
448.77, 7.65, 253.61
449.05, 7.65, 253.36
449.36, 7.66, 253.08
449.70, 7.66, 252.78
450.03, 7.69, 252.49
450.33, 7.73, 252.22
450.66, 7.77, 251.93
451.03, 7.82, 251.60
451.42, 7.88, 251.25
451.84, 7.94, 250.88
453.10, 7.85, 249.75
453.77, 7.91, 249.15
456.96, 7.58, 246.29
457.65, 7.74, 245.68
458.36, 7.92, 245.05
459.57, 8.08, 243.98
448.70, 7.65, 253.54
448.98, 7.66, 253.28
449.28, 7.66, 253.00
449.62, 7.67, 252.69
449.94, 7.69, 252.40
450.24, 7.73, 252.13
450.57, 7.78, 251.82
450.93, 7.82, 251.49
451.32, 7.88, 251.14
451.73, 7.94, 250.76
452.76, 7.90, 249.81
453.56, 7.93, 249.08
456.95, 7.56, 245.96
457.55, 7.74, 245.41
458.27, 7.92, 244.76
459.41, 8.08, 243.72
448.63, 7.65, 253.46
448.91, 7.66, 253.21
449.21, 7.66, 252.92
449.54, 7.67, 252.61
449.86, 7.69, 252.31
450.15, 7.74, 252.03
450.48, 7.78, 251.72
450.84, 7.83, 251.39
451.22, 7.88, 251.03
451.63, 7.95, 250.64
452.53, 7.92, 249.79
453.35, 7.95, 249.01
¯456.87, 7.55, 245.68
457.44, 7.73, 245.15
458.17, 7.91, 244.46
459.24, 8.08, 243.46
448.56, 7.66, 253.39
448.83, 7.66, 253.13
449.13, 7.67, 252.84
449.46, 7.67, 252.52
449.77, 7.70, 252.22
450.06, 7.74, 251.94
450.39, 7.78, 251.62
450.74, 7.83, 251.28
451.12, 7.88, 250.91
451.53, 7.95, 250.52
452.30, 7.95, 249.77
453.15, 7.97, 248.95
456.78, 7.54, 245.40
457.33, 7.73, 244.88
458.07, 7.90, 244.16
459.06, 8.08, 243.21
448.49, 7.66, 253.32
448.76, 7.66, 253.06
449.05, 7.67, 252.77
449.37, 7.68, 252.44
449.68, 7.70, 252.14
449.97, 7.74, 251.85
450.29, 7.78, 251.52
450.64, 7.83, 251.18
451.02, 7.89, 250.81
451.42, 7.95, 250.40
452.07, 7.98, 249.75
452.46, 8.08, 249.36
456.69, 7.53, 245.12
457.22, 7.72, 244.61
457.89, 7.91, 243.94
458.89, 8.09, 242.94
448.42, 7.66, 253.25
448.68, 7.67, 252.98
448.97, 7.67, 252.69
449.28, 7.68, 252.36
449.59, 7.70, 252.05
449.88, 7.74, 251.75
450.20, 7.79, 251.43
450.54, 7.83, 251.07
450.91, 7.89, 250.70
451.31, 7.95, 250.29
451.85, 8.00, 249.73
452.23, 8.10, 249.35
456.60, 7.52, 244.84
457.10, 7.71, 244.33
457.71, 7.91, 243.72
¯458.73, 8.08, 242.67
448.34, 7.66, 253.19
448.60, 7.67, 252.91
448.88, 7.68, 252.61
449.20, 7.68, 252.28
449.50, 7.71, 251.97
449.79, 7.74, 251.66
450.10, 7.79, 251.33
450.44, 7.84, 250.97
450.81, 7.89, 250.59
451.20, 7.95, 250.17
451.63, 8.02, 249.72
452.00, 8.13, 249.34
453.16, 8.10, 248.11
456.97, 7.71, 244.07
457.52, 7.91, 243.50
458.56, 8.08, 242.40
448.27, 7.67, 253.12
448.52, 7.67, 252.84
448.80, 7.68, 252.54
449.11, 7.68, 252.21
449.41, 7.71, 251.88
449.69, 7.75, 251.57
450.01, 7.79, 251.23
450.34, 7.84, 250.87
450.70, 7.89, 250.48
451.09, 7.96, 250.06
451.42, 8.05, 249.70
451.77, 8.15, 249.33
452.39, 8.21, 248.65
456.81, 7.71, 243.84
457.32, 7.92, 243.29
448.19, 7.67, 253.05
448.44, 7.68, 252.78
448.72, 7.68, 252.47
449.02, 7.69, 252.13
449.32, 7.71, 251.80
449.60, 7.75, 251.48
449.91, 7.79, 251.14
450.24, 7.84, 250.77
450.59, 7.90, 250.38
450.94, 7.97, 249.99
451.21, 8.07, 249.69
451.55, 8.17, 249.32
451.91, 8.28, 248.91
456.64, 7.70, 243.62
457.13, 7.92, 243.07
448.11, 7.67, 252.99
448.36, 7.68, 252.71
448.63, 7.68, 252.40
448.93, 7.69, 252.06
¯449.23, 7.71, 251.71
449.50, 7.75, 251.39
449.81, 7.79, 251.05
450.13, 7.84, 250.67
450.48, 7.90, 250.28
450.76, 7.98, 249.96
450.87, 8.12, 249.83
451.33, 8.19, 249.31
451.68, 8.30, 248.91
456.47, 7.70, 243.39
456.95, 7.92, 242.85
448.03, 7.67, 252.93
448.28, 7.68, 252.64
448.54, 7.69, 252.33
448.84, 7.69, 251.98
449.14, 7.71, 251.63
449.41, 7.75, 251.31
449.71, 7.79, 250.96
450.03, 7.84, 250.58
450.37, 7.90, 250.18
450.58, 8.00, 249.93
450.69, 8.14, 249.80
450.80, 8.28, 249.68
451.45, 8.32, 248.91
456.30, 7.70, 243.16
456.77, 7.92, 242.61
447.96, 7.68, 252.87
448.19, 7.68, 252.58
448.45, 7.69, 252.26
448.74, 7.70, 251.91
449.04, 7.71, 251.55
449.31, 7.75, 251.22
449.60, 7.79, 250.87
449.92, 7.84, 250.48
450.26, 7.90, 250.07
450.40, 8.02, 249.90
450.51, 8.16, 249.78
450.61, 8.29, 249.65
451.23, 8.34, 248.90
451.58, 8.46, 248.48
456.59, 7.91, 242.37
447.88, 7.68, 252.81
448.11, 7.69, 252.52
448.36, 7.69, 252.19
448.65, 7.70, 251.83
448.95, 7.71, 251.46
449.21, 7.75, 251.14
449.50, 7.80, 250.78
449.81, 7.84, 250.39
450.13, 7.90, 249.99
450.23, 8.04, 249.87
¯450.33, 8.17, 249.75
450.43, 8.31, 249.63
450.53, 8.45, 249.50
451.34, 8.48, 248.48
456.95, 7.83, 241.45
447.79, 7.68, 252.75
448.02, 7.69, 252.45
448.27, 7.69, 252.13
448.56, 7.70, 251.76
448.85, 7.71, 251.38
449.11, 7.75, 251.05
449.40, 7.80, 250.69
449.70, 7.84, 250.29
449.96, 7.92, 249.97
450.05, 8.05, 249.85
450.15, 8.19, 249.73
450.25, 8.32, 249.60
450.35, 8.46, 249.47
450.45, 8.61, 249.34
458.56, 7.56, 238.89
447.71, 7.68, 252.69
447.94, 7.69, 252.39
448.18, 7.70, 252.07
448.47, 7.70, 251.69
448.76, 7.71, 251.31
449.01, 7.75, 250.97
449.29, 7.80, 250.60
449.59, 7.84, 250.20
449.79, 7.94, 249.94
449.88, 8.07, 249.82
449.98, 8.20, 249.70
450.07, 8.34, 249.58
450.17, 8.48, 249.45
450.27, 8.62, 249.32
447.63, 7.69, 252.63
447.85, 7.69, 252.33
448.09, 7.70, 252.00
448.37, 7.70, 251.62
448.66, 7.71, 251.23
448.91, 7.75, 250.89
449.18, 7.80, 250.52
449.48, 7.85, 250.11
449.63, 7.95, 249.92
449.71, 8.08, 249.80
449.80, 8.21, 249.68
449.90, 8.35, 249.55
449.99, 8.49, 249.43
450.09, 8.63, 249.30
450.19, 8.78, 249.16
447.55, 7.69, 252.58
447.76, 7.70, 252.28
¯448.00, 7.70, 251.94
448.28, 7.70, 251.56
448.56, 7.71, 251.15
448.81, 7.75, 250.81
449.08, 7.80, 250.43
449.37, 7.85, 250.02
449.46, 7.97, 249.89
449.55, 8.10, 249.77
449.63, 8.23, 249.65
449.72, 8.36, 249.53
449.81, 8.50, 249.41
449.91, 8.64, 249.28
450.00, 8.79, 249.14
450.10, 8.94, 249.01
447.46, 7.69, 252.53
447.67, 7.70, 252.22
447.91, 7.70, 251.88
448.18, 7.71, 251.49
448.46, 7.71, 251.08
448.70, 7.75, 250.73
448.97, 7.80, 250.35
449.22, 7.86, 249.98
449.30, 7.98, 249.87
449.38, 8.11, 249.75
449.47, 8.24, 249.63
449.55, 8.37, 249.51
449.64, 8.51, 249.38
449.73, 8.65, 249.26
449.82, 8.80, 249.12
449.92, 8.95, 248.99
450.02, 9.10, 248.85
447.38, 7.69, 252.47
447.58, 7.70, 252.17
447.81, 7.71, 251.82
448.08, 7.71, 251.43
448.36, 7.71, 251.00
448.60, 7.75, 250.65
448.86, 7.80, 250.27
449.07, 7.87, 249.95
449.15, 7.99, 249.83
449.22, 8.12, 249.73
449.30, 8.25, 249.61
449.39, 8.39, 249.49
449.47, 8.52, 249.36
449.56, 8.66, 249.24
449.65, 8.81, 249.10
449.74, 8.95, 248.97
449.83, 9.10, 248.83
447.29, 7.70, 252.42
447.49, 7.70, 252.11
447.72, 7.71, 251.76
¯447.98, 7.71, 251.36
448.26, 7.71, 250.93
448.49, 7.75, 250.58
448.75, 7.80, 250.19
448.92, 7.88, 249.92
449.02, 8.00, 249.77
449.08, 8.13, 249.67
449.15, 8.26, 249.57
449.22, 8.40, 249.47
449.30, 8.53, 249.34
449.39, 8.67, 249.22
449.47, 8.81, 249.09
449.56, 8.96, 248.95
449.65, 9.11, 248.81
449.74, 9.27, 248.67
447.20, 7.70, 252.37
447.40, 7.70, 252.06
447.63, 7.71, 251.71
447.88, 7.71, 251.30
448.16, 7.71, 250.86
448.39, 7.75, 250.50
448.63, 7.80, 250.11
448.77, 7.89, 249.89
448.87, 8.01, 249.74
448.94, 8.13, 249.62
449.01, 8.27, 249.52
449.08, 8.40, 249.41
449.15, 8.54, 249.30
449.22, 8.68, 249.20
449.30, 8.82, 249.07
449.38, 8.97, 248.93
449.47, 9.12, 248.80
449.56, 9.27, 248.66
449.65, 9.43, 248.51
447.12, 7.70, 252.33
447.31, 7.71, 252.01
447.53, 7.71, 251.65
447.78, 7.71, 251.24
448.06, 7.71, 250.79
448.28, 7.75, 250.43
448.52, 7.80, 250.03
448.62, 7.90, 249.86
448.72, 8.02, 249.71
448.81, 8.14, 249.57
448.87, 8.27, 249.46
448.94, 8.41, 249.36
449.00, 8.54, 249.25
449.07, 8.68, 249.14
449.14, 8.83, 249.03
449.21, 8.97, 248.91
449.29, 9.12, 248.78
¯449.38, 9.27, 248.64
449.47, 9.43, 248.50
447.03, 7.70, 252.28
447.22, 7.71, 251.96
447.43, 7.71, 251.60
447.68, 7.71, 251.19
447.95, 7.71, 250.73
448.17, 7.75, 250.35
448.39, 7.80, 249.98
448.48, 7.91, 249.84
448.57, 8.03, 249.69
448.66, 8.15, 249.53
448.73, 8.28, 249.41
448.80, 8.41, 249.30
448.86, 8.55, 249.20
448.93, 8.69, 249.09
448.99, 8.83, 248.97
449.06, 8.98, 248.86
449.13, 9.13, 248.74
449.20, 9.28, 248.62
449.29, 9.43, 248.48
449.37, 9.59, 248.34
446.94, 7.70, 252.24
447.12, 7.71, 251.91
447.34, 7.71, 251.54
447.57, 7.71, 251.13
447.84, 7.72, 250.67
448.06, 7.75, 250.28
448.25, 7.81, 249.96
448.33, 7.92, 249.81
448.42, 8.04, 249.66
448.51, 8.16, 249.51
448.59, 8.28, 249.36
448.66, 8.41, 249.25
448.72, 8.55, 249.14
448.78, 8.69, 249.03
448.85, 8.83, 248.92
448.91, 8.98, 248.80
448.98, 9.13, 248.69
449.05, 9.28, 248.57
449.12, 9.44, 248.44
449.20, 9.60, 248.32
449.28, 9.76, 248.17
446.85, 7.71, 252.19
447.03, 7.71, 251.87
447.24, 7.71, 251.49
447.47, 7.72, 251.08
447.73, 7.72, 250.61
447.95, 7.75, 250.21
448.10, 7.82, 249.93
448.19, 7.93, 249.79
¯448.27, 8.05, 249.64
448.36, 8.17, 249.48
448.44, 8.29, 249.33
448.52, 8.42, 249.20
448.58, 8.55, 249.09
448.64, 8.69, 248.98
448.70, 8.84, 248.86
448.77, 8.98, 248.75
448.83, 9.13, 248.63
448.90, 9.28, 248.51
448.97, 9.44, 248.39
449.04, 9.60, 248.26
449.11, 9.76, 248.13
446.76, 7.71, 252.15
446.94, 7.71, 251.82
447.14, 7.72, 251.44
447.36, 7.72, 251.03
447.61, 7.72, 250.56
447.84, 7.75, 250.15
447.96, 7.83, 249.91
448.04, 7.94, 249.76
448.12, 8.06, 249.61
448.21, 8.17, 249.46
448.29, 8.30, 249.30
448.38, 8.42, 249.14
448.44, 8.56, 249.03
448.50, 8.70, 248.92
448.56, 8.84, 248.81
448.62, 8.98, 248.69
448.68, 9.13, 248.58
448.75, 9.28, 248.45
448.82, 9.44, 248.33
448.88, 9.60, 248.20
448.95, 9.76, 248.07
449.12, 9.93, 247.76
446.67, 7.71, 252.11
446.84, 7.71, 251.77
447.04, 7.72, 251.40
447.26, 7.72, 250.98
447.50, 7.72, 250.51
447.72, 7.75, 250.08
447.82, 7.84, 249.89
447.90, 7.95, 249.74
447.98, 8.07, 249.59
448.06, 8.18, 249.44
448.14, 8.30, 249.28
448.22, 8.43, 249.12
448.29, 8.56, 248.98
448.35, 8.70, 248.87
448.41, 8.84, 248.76
448.47, 8.99, 248.64
°448.53, 9.13, 248.52
448.60, 9.29, 248.40
448.66, 9.44, 248.27
448.73, 9.60, 248.15
448.82, 9.76, 247.98
449.00, 9.93, 247.62
446.58, 7.71, 252.07
446.75, 7.72, 251.73
446.94, 7.72, 251.35
447.15, 7.72, 250.93
447.39, 7.72, 250.46
447.61, 7.75, 250.01
447.69, 7.85, 249.86
447.76, 7.96, 249.72
447.83, 8.07, 249.57
447.91, 8.19, 249.42
447.99, 8.31, 249.26
448.07, 8.43, 249.10
448.15, 8.56, 248.93
448.21, 8.70, 248.82
448.27, 8.84, 248.70
448.33, 8.99, 248.59
448.39, 9.14, 248.47
448.45, 9.29, 248.34
448.51, 9.44, 248.22
448.57, 9.60, 248.09
448.70, 9.76, 247.84
448.88, 9.93, 247.48
449.11, 10.11, 247.02
446.49, 7.71, 252.03
446.65, 7.72, 251.69
446.84, 7.72, 251.31
447.04, 7.72, 250.88
447.27, 7.72, 250.41
447.48, 7.75, 249.98
447.55, 7.86, 249.84
447.62, 7.97, 249.70
447.69, 8.08, 249.55
447.76, 8.20, 249.40
447.84, 8.32, 249.24
447.92, 8.44, 249.08
448.00, 8.57, 248.91
448.07, 8.70, 248.77
448.12, 8.84, 248.65
448.18, 8.99, 248.53
448.24, 9.14, 248.41
448.30, 9.29, 248.29
448.36, 9.44, 248.16
448.43, 9.60, 248.02
448.58, 9.76, 247.71
448.76, 9.93, 247.33
³448.99, 10.12, 246.87
446.39, 7.72, 252.00
446.56, 7.72, 251.65
446.74, 7.72, 251.26
446.93, 7.72, 250.84
447.16, 7.73, 250.36
447.35, 7.76, 249.96
447.41, 7.87, 249.82
447.48, 7.98, 249.68
447.55, 8.09, 249.53
447.62, 8.20, 249.37
447.69, 8.32, 249.22
447.77, 8.45, 249.06
447.84, 8.57, 248.89
447.93, 8.70, 248.72
447.98, 8.84, 248.60
448.03, 8.99, 248.48
448.09, 9.14, 248.36
448.15, 9.29, 248.24
448.21, 9.44, 248.11
448.31, 9.60, 247.89
448.46, 9.76, 247.57
448.64, 9.93, 247.19
448.86, 10.12, 246.71
449.10, 10.32, 246.20
446.30, 7.72, 251.96
446.46, 7.72, 251.61
446.63, 7.72, 251.22
446.83, 7.72, 250.80
447.04, 7.73, 250.32
447.22, 7.76, 249.92
447.27, 7.87, 249.80
447.34, 7.98, 249.66
447.41, 8.10, 249.51
447.47, 8.21, 249.35
447.54, 8.33, 249.20
447.62, 8.45, 249.04
447.69, 8.58, 248.87
447.77, 8.71, 248.70
447.84, 8.85, 248.55
447.89, 8.99, 248.43
447.94, 9.14, 248.31
448.00, 9.29, 248.18
448.06, 9.44, 248.06
448.19, 9.60, 247.76
448.34, 9.76, 247.43
448.51, 9.93, 247.04
448.73, 10.12, 246.55
446.21, 7.72, 251.93
446.36, 7.72, 251.57
446.53, 7.72, 251.19
±446.72, 7.73, 250.76
446.93, 7.73, 250.27
447.11, 7.76, 249.84
447.16, 7.87, 249.72
447.21, 7.98, 249.61
447.27, 8.10, 249.49
447.33, 8.22, 249.34
447.40, 8.34, 249.18
447.47, 8.46, 249.02
447.54, 8.58, 248.85
447.61, 8.71, 248.68
447.69, 8.85, 248.50
447.74, 8.99, 248.38
447.80, 9.14, 248.25
447.85, 9.29, 248.13
447.93, 9.44, 247.94
448.07, 9.59, 247.63
448.21, 9.76, 247.29
448.39, 9.93, 246.89
448.60, 10.12, 246.39
446.11, 7.72, 251.89
446.26, 7.72, 251.54
446.43, 7.72, 251.15
446.61, 7.73, 250.72
446.81, 7.73, 250.23
446.99, 7.76, 249.79
447.05, 7.86, 249.64
447.10, 7.98, 249.53
447.15, 8.10, 249.40
447.20, 8.22, 249.28
447.26, 8.34, 249.15
447.32, 8.46, 249.00
447.39, 8.59, 248.83
447.46, 8.72, 248.66
447.53, 8.85, 248.49
447.60, 8.99, 248.32
447.65, 9.14, 248.20
447.70, 9.29, 248.08
447.81, 9.44, 247.81
447.94, 9.59, 247.49
448.08, 9.76, 247.15
448.26, 9.93, 246.74
448.47, 10.12, 246.23
446.02, 7.72, 251.86
446.16, 7.72, 251.51
446.32, 7.73, 251.11
446.50, 7.73, 250.68
446.69, 7.73, 250.19
446.86, 7.76, 249.77
446.94, 7.86, 249.56
446.99, 7.97, 249.44
¯447.04, 8.09, 249.32
447.09, 8.21, 249.20
447.14, 8.33, 249.07
447.19, 8.46, 248.94
447.24, 8.59, 248.80
447.31, 8.72, 248.65
447.38, 8.85, 248.47
447.45, 8.99, 248.29
447.50, 9.14, 248.15
447.56, 9.29, 247.99
447.69, 9.43, 247.68
447.82, 9.59, 247.36
447.96, 9.75, 247.01
448.13, 9.93, 246.58
445.93, 7.72, 251.83
446.07, 7.72, 251.47
446.22, 7.73, 251.08
446.38, 7.73, 250.65
446.57, 7.73, 250.16
446.73, 7.77, 249.74
446.83, 7.85, 249.48
446.88, 7.96, 249.36
446.92, 8.08, 249.24
446.97, 8.20, 249.11
447.02, 8.33, 248.98
447.07, 8.45, 248.85
447.12, 8.58, 248.71
447.18, 8.72, 248.57
447.23, 8.85, 248.43
447.29, 8.99, 248.27
447.36, 9.14, 248.10
447.44, 9.28, 247.87
447.56, 9.43, 247.55
447.69, 9.59, 247.22
447.83, 9.75, 246.87
447.99, 9.93, 246.43
445.83, 7.72, 251.80
445.97, 7.73, 251.44
446.11, 7.73, 251.05
446.27, 7.73, 250.61
446.45, 7.73, 250.12
446.60, 7.77, 249.72
446.72, 7.84, 249.40
446.76, 7.96, 249.28
446.81, 8.07, 249.16
446.85, 8.20, 249.03
446.90, 8.32, 248.90
446.95, 8.45, 248.76
447.00, 8.58, 248.62
447.05, 8.71, 248.48
447.10, 8.85, 248.34
¯447.16, 8.99, 248.19
447.21, 9.13, 248.03
447.32, 9.28, 247.74
447.44, 9.43, 247.42
447.56, 9.58, 247.08
447.69, 9.75, 246.72
447.86, 9.93, 246.27
445.74, 7.73, 251.77
445.87, 7.73, 251.42
446.01, 7.73, 251.02
446.16, 7.73, 250.58
446.33, 7.74, 250.09
446.47, 7.77, 249.70
446.60, 7.83, 249.32
446.65, 7.95, 249.20
446.69, 8.07, 249.07
446.74, 8.19, 248.94
446.78, 8.31, 248.81
446.83, 8.44, 248.67
446.88, 8.57, 248.53
446.93, 8.71, 248.39
446.98, 8.84, 248.24
447.03, 8.99, 248.09
447.08, 9.13, 247.94
447.19, 9.27, 247.65
447.31, 9.42, 247.29
447.43, 9.58, 246.94
447.56, 9.75, 246.58
447.72, 9.93, 246.11
445.64, 7.73, 251.75
445.77, 7.73, 251.39
445.90, 7.73, 250.99
446.05, 7.73, 250.55
446.21, 7.74, 250.06
446.34, 7.78, 249.68
446.48, 7.83, 249.28
446.53, 7.94, 249.12
446.57, 8.06, 248.99
446.62, 8.18, 248.86
446.66, 8.31, 248.72
446.71, 8.43, 248.58
446.75, 8.57, 248.44
446.80, 8.70, 248.30
446.85, 8.84, 248.15
446.90, 8.98, 247.99
446.95, 9.13, 247.84
447.04, 9.27, 247.58
447.17, 9.42, 247.19
447.30, 9.58, 246.80
447.42, 9.75, 246.43
445.55, 7.73, 251.73
¯445.66, 7.73, 251.36
445.79, 7.73, 250.97
445.94, 7.74, 250.53
446.09, 7.74, 250.03
446.22, 7.78, 249.66
446.34, 7.83, 249.26
446.41, 7.93, 249.04
446.46, 8.05, 248.90
446.50, 8.17, 248.77
446.54, 8.30, 248.63
446.58, 8.43, 248.49
446.63, 8.56, 248.35
446.67, 8.69, 248.20
446.72, 8.83, 248.05
446.77, 8.97, 247.90
446.82, 9.12, 247.74
446.89, 9.27, 247.50
447.02, 9.42, 247.12
447.15, 9.57, 246.71
447.29, 9.74, 246.28
445.45, 7.73, 251.70
445.56, 7.73, 251.34
445.69, 7.73, 250.94
445.82, 7.74, 250.50
445.97, 7.74, 250.01
446.09, 7.79, 249.64
446.21, 7.84, 249.24
446.30, 7.92, 248.95
446.33, 8.04, 248.82
446.38, 8.16, 248.68
446.42, 8.29, 248.55
446.46, 8.42, 248.40
446.50, 8.55, 248.26
446.55, 8.69, 248.11
446.59, 8.83, 247.96
446.64, 8.97, 247.80
446.69, 9.12, 247.64
446.75, 9.26, 247.43
446.86, 9.41, 247.05
446.99, 9.57, 246.63
447.13, 9.74, 246.18
445.36, 7.73, 251.68
445.46, 7.73, 251.32
445.58, 7.73, 250.92
445.71, 7.74, 250.48
445.85, 7.74, 249.99
445.96, 7.79, 249.62
446.07, 7.84, 249.23
446.18, 7.91, 248.87
446.21, 8.03, 248.74
446.25, 8.15, 248.60
¯446.29, 8.28, 248.46
446.33, 8.41, 248.31
446.37, 8.54, 248.17
446.42, 8.68, 248.01
446.46, 8.82, 247.86
446.50, 8.96, 247.70
446.55, 9.11, 247.54
446.60, 9.26, 247.36
446.71, 9.41, 246.97
446.83, 9.57, 246.55
446.96, 9.74, 246.10
445.26, 7.73, 251.66
445.36, 7.73, 251.30
445.47, 7.74, 250.90
445.59, 7.74, 250.46
445.73, 7.75, 249.97
445.83, 7.79, 249.61
445.94, 7.84, 249.21
446.05, 7.90, 248.79
446.09, 8.02, 248.65
446.13, 8.14, 248.51
446.17, 8.27, 248.37
446.21, 8.40, 248.22
446.24, 8.53, 248.07
446.29, 8.67, 247.92
446.33, 8.81, 247.76
446.37, 8.96, 247.60
446.41, 9.10, 247.44
446.46, 9.26, 247.27
446.56, 9.41, 246.90
446.67, 9.57, 246.47
445.16, 7.73, 251.64
445.26, 7.73, 251.28
445.36, 7.74, 250.88
445.48, 7.74, 250.44
445.61, 7.75, 249.96
445.70, 7.80, 249.60
445.80, 7.85, 249.20
445.91, 7.90, 248.77
445.97, 8.01, 248.57
446.00, 8.13, 248.42
446.04, 8.26, 248.28
446.08, 8.39, 248.13
446.11, 8.53, 247.98
446.15, 8.66, 247.82
446.19, 8.80, 247.67
446.23, 8.95, 247.50
446.27, 9.10, 247.33
446.32, 9.25, 247.16
446.40, 9.40, 246.82
446.51, 9.56, 246.40
¯445.07, 7.73, 251.63
445.16, 7.74, 251.26
445.26, 7.74, 250.86
445.37, 7.74, 250.42
445.48, 7.75, 249.95
445.57, 7.80, 249.58
445.67, 7.85, 249.19
445.77, 7.90, 248.76
445.84, 8.00, 248.48
445.88, 8.12, 248.34
445.91, 8.25, 248.19
445.95, 8.38, 248.04
445.98, 8.52, 247.89
446.02, 8.65, 247.73
446.06, 8.80, 247.57
446.09, 8.94, 247.40
446.13, 9.09, 247.23
446.18, 9.25, 247.06
446.25, 9.40, 246.75
446.35, 9.56, 246.32
444.97, 7.73, 251.61
445.06, 7.74, 251.25
445.15, 7.74, 250.85
445.25, 7.74, 250.40
445.36, 7.75, 249.94
445.44, 7.80, 249.57
445.54, 7.85, 249.18
445.63, 7.91, 248.75
445.72, 7.99, 248.39
445.75, 8.11, 248.25
445.78, 8.24, 248.10
445.81, 8.37, 247.95
445.85, 8.51, 247.79
445.88, 8.65, 247.63
445.92, 8.79, 247.47
445.96, 8.93, 247.30
445.99, 9.09, 247.13
446.03, 9.24, 246.95
446.09, 9.40, 246.68
446.19, 9.56, 246.24
444.87, 7.73, 251.60
444.95, 7.74, 251.24
445.04, 7.74, 250.83
445.14, 7.74, 250.39
445.24, 7.75, 249.91
445.32, 7.80, 249.57
445.40, 7.85, 249.17
445.49, 7.91, 248.74
445.59, 7.97, 248.31
445.62, 8.10, 248.16
445.65, 8.23, 248.01
¯445.68, 8.36, 247.86
445.71, 8.50, 247.70
445.75, 8.64, 247.54
445.78, 8.78, 247.37
445.81, 8.93, 247.20
445.85, 9.08, 247.02
445.89, 9.23, 246.84
445.94, 9.39, 246.60
446.03, 9.55, 246.17
444.78, 7.74, 251.59
444.85, 7.74, 251.23
444.93, 7.74, 250.82
445.02, 7.74, 250.38
445.12, 7.75, 249.88
445.20, 7.80, 249.52
445.27, 7.85, 249.15
445.35, 7.91, 248.74
445.45, 7.97, 248.27
445.49, 8.09, 248.07
445.52, 8.22, 247.92
445.54, 8.35, 247.76
445.57, 8.49, 247.60
445.61, 8.63, 247.44
445.64, 8.77, 247.27
445.67, 8.92, 247.10
445.70, 9.07, 246.92
445.74, 9.23, 246.73
445.78, 9.39, 246.53
445.87, 9.55, 246.06
444.68, 7.74, 251.58
444.75, 7.74, 251.22
444.82, 7.74, 250.81
444.91, 7.75, 250.37
445.00, 7.75, 249.87
445.08, 7.79, 249.47
445.15, 7.85, 249.10
445.22, 7.91, 248.70
445.30, 7.97, 248.27
445.35, 8.07, 247.98
445.38, 8.21, 247.83
445.41, 8.34, 247.67
445.44, 8.48, 247.51
445.46, 8.62, 247.34
445.49, 8.76, 247.17
445.53, 8.91, 246.99
445.56, 9.06, 246.81
445.59, 9.22, 246.62
445.62, 9.38, 246.43
445.79, 9.53, 245.53
444.58, 7.74, 251.57
444.65, 7.74, 251.21
¯444.72, 7.74, 250.81
444.79, 7.75, 250.36
444.88, 7.75, 249.87
444.96, 7.78, 249.43
445.02, 7.84, 249.05
445.09, 7.90, 248.65
445.16, 7.96, 248.21
445.22, 8.06, 247.90
445.24, 8.19, 247.74
445.27, 8.33, 247.58
445.30, 8.46, 247.41
445.32, 8.61, 247.24
445.35, 8.75, 247.07
445.38, 8.90, 246.89
445.41, 9.05, 246.70
445.44, 9.21, 246.51
445.47, 9.38, 246.32
445.70, 9.52, 244.98
444.49, 7.74, 251.57
444.54, 7.74, 251.20
444.61, 7.74, 250.80
444.68, 7.75, 250.36
444.76, 7.75, 249.86
444.83, 7.77, 249.38
444.89, 7.83, 249.00
444.96, 7.89, 248.60
445.03, 7.96, 248.16
445.08, 8.05, 247.84
445.10, 8.18, 247.67
445.12, 8.32, 247.50
445.15, 8.46, 247.33
445.17, 8.60, 247.16
445.20, 8.74, 246.98
445.23, 8.89, 246.79
445.25, 9.05, 246.60
445.28, 9.21, 246.40
445.31, 9.37, 246.20
444.39, 7.74, 251.56
444.44, 7.74, 251.20
444.50, 7.75, 250.80
