žVERSION 0.7
FIELDS x y z
SIZE 8 8 8
TYPE F F F
COUNT 1 1 1
WIDTH 2271
HEIGHT 1
VIEWPOINT 370.34, 7.25, 351.19 1 350.76, 2.12, 355.09
POINTS 2271
DATA ascii
340.36, 1.03, 348.00
340.21, 1.22, 347.93
350.40, 0.97, 353.20
350.28, 0.97, 353.14
350.15, 0.97, 353.08
350.01, 0.97, 353.00
349.85, 0.97, 352.93
349.68, 0.98, 352.84
349.50, 0.98, 352.75
¯349.29, 0.98, 352.65
349.07, 0.98, 352.54
348.81, 0.99, 352.41
348.53, 0.99, 352.27
348.21, 0.99, 352.12
347.85, 1.00, 351.94
347.43, 1.00, 351.73
346.95, 1.01, 351.49
346.38, 1.01, 351.21
345.70, 1.02, 350.87
344.87, 1.03, 350.46
343.79, 1.03, 349.93
340.41, 0.84, 348.26
340.38, 1.04, 348.24
340.23, 1.23, 348.16
350.31, 0.94, 353.20
350.18, 0.94, 353.15
350.05, 0.94, 353.08
349.91, 0.95, 353.01
349.76, 0.95, 352.94
349.59, 0.95, 352.86
349.41, 0.96, 352.77
349.20, 0.96, 352.67
348.96, 0.96, 352.56
348.70, 0.96, 352.44
348.40, 0.97, 352.30
348.07, 0.97, 352.14
347.69, 0.97, 351.95
347.25, 0.97, 351.74
346.74, 0.98, 351.50
346.13, 0.98, 351.21
345.40, 0.98, 350.86
344.11, 0.94, 350.24
343.80, 1.04, 350.09
340.44, 0.85, 348.49
340.40, 1.05, 348.47
340.25, 1.24, 348.40
350.14, 0.87, 353.18
350.00, 0.88, 353.11
349.85, 0.88, 353.04
349.69, 0.88, 352.97
349.52, 0.88, 352.89
349.33, 0.88, 352.80
349.12, 0.88, 352.71
348.89, 0.88, 352.60
348.63, 0.88, 352.48
348.35, 0.88, 352.35
348.03, 0.88, 352.20
347.66, 0.88, 352.04
347.25, 0.89, 351.84
346.77, 0.89, 351.62
¯346.21, 0.89, 351.36
345.54, 0.89, 351.06
344.74, 0.89, 350.69
344.13, 0.95, 350.41
343.81, 1.05, 350.26
340.46, 0.86, 348.72
340.41, 1.05, 348.70
340.27, 1.24, 348.63
349.95, 0.81, 353.14
349.80, 0.80, 353.08
349.63, 0.80, 353.00
349.45, 0.80, 352.92
349.25, 0.79, 352.83
349.03, 0.79, 352.74
348.79, 0.79, 352.63
348.52, 0.78, 352.51
348.22, 0.78, 352.38
347.89, 0.77, 352.23
347.50, 0.76, 352.06
347.06, 0.76, 351.86
346.55, 0.75, 351.63
345.95, 0.74, 351.37
345.23, 0.72, 351.05
344.36, 0.71, 350.66
344.26, 0.83, 350.62
344.16, 0.96, 350.57
343.82, 1.06, 350.42
340.49, 0.87, 348.94
340.43, 1.06, 348.92
340.29, 1.25, 348.86
330.68, 0.93, 344.59
330.68, 1.28, 344.59
330.68, 1.62, 344.59
330.68, 1.97, 344.59
330.68, 2.31, 344.59
349.74, 0.73, 353.11
349.57, 0.72, 353.04
349.38, 0.72, 352.96
349.17, 0.71, 352.87
348.95, 0.70, 352.77
348.69, 0.69, 352.66
348.41, 0.68, 352.54
345.90, 0.03, 351.47
345.55, 0.06, 351.32
345.21, 0.10, 351.17
344.89, 0.15, 351.04
344.53, 0.20, 350.89
344.43, 0.32, 350.84
344.43, 0.45, 350.84
344.43, 0.59, 350.84
344.39, 0.72, 350.82
¯344.29, 0.84, 350.78
344.17, 0.97, 350.73
343.83, 1.07, 350.58
340.51, 0.88, 349.17
340.45, 1.07, 349.14
340.31, 1.26, 349.08
330.80, 0.95, 345.02
330.80, 1.29, 345.02
330.80, 1.63, 345.02
330.80, 1.97, 345.02
330.80, 2.31, 345.02
347.90, 0.00, 352.41
347.67, 0.00, 352.32
347.42, 0.00, 352.21
347.15, 0.00, 352.10
346.85, 0.01, 351.98
346.53, 0.01, 351.85
346.18, 0.01, 351.71
345.80, 0.02, 351.55
345.48, 0.05, 351.42
345.18, 0.10, 351.29
344.85, 0.15, 351.16
344.50, 0.20, 351.01
344.46, 0.33, 351.00
344.46, 0.47, 351.00
344.46, 0.61, 351.00
344.41, 0.73, 350.98
344.31, 0.85, 350.94
344.18, 0.97, 350.88
340.53, 0.70, 349.39
340.53, 0.89, 349.39
340.47, 1.08, 349.36
340.33, 1.26, 349.30
330.91, 0.96, 345.43
330.91, 1.30, 345.43
330.91, 1.63, 345.43
330.91, 1.97, 345.43
330.91, 2.31, 345.43
347.87, 0.00, 352.49
347.64, 0.00, 352.39
347.39, 0.00, 352.30
347.12, 0.01, 352.19
346.82, 0.01, 352.07
346.50, 0.01, 351.94
346.14, 0.01, 351.80
345.75, 0.02, 351.65
345.45, 0.06, 351.53
345.15, 0.10, 351.41
344.82, 0.15, 351.28
344.47, 0.21, 351.14
344.50, 0.35, 351.15
¯344.50, 0.49, 351.15
344.50, 0.62, 351.15
344.44, 0.74, 351.13
344.34, 0.87, 351.09
344.19, 0.98, 351.03
340.56, 0.71, 349.60
340.56, 0.90, 349.60
340.49, 1.09, 349.57
340.35, 1.27, 349.52
331.02, 0.97, 345.84
331.02, 1.30, 345.84
331.02, 1.64, 345.84
331.02, 1.97, 345.84
331.02, 2.31, 345.84
347.85, 0.00, 352.56
347.61, 0.00, 352.47
347.36, 0.00, 352.38
347.08, 0.01, 352.27
346.79, 0.01, 352.16
346.46, 0.01, 352.04
346.11, 0.01, 351.90
345.71, 0.02, 351.75
345.42, 0.06, 351.65
345.12, 0.11, 351.53
344.79, 0.16, 351.41
344.45, 0.21, 351.28
344.53, 0.37, 351.31
344.53, 0.50, 351.31
344.53, 0.63, 351.31
344.46, 0.76, 351.28
344.36, 0.88, 351.24
344.20, 0.99, 351.18
342.23, 0.90, 350.44
340.58, 0.91, 349.81
340.50, 1.09, 349.78
340.36, 1.28, 349.73
331.13, 0.98, 346.24
331.13, 1.31, 346.24
331.13, 1.64, 346.24
331.13, 1.97, 346.24
331.13, 2.30, 346.24
347.82, 0.00, 352.64
347.58, 0.00, 352.55
347.33, 0.00, 352.46
347.05, 0.01, 352.36
346.75, 0.01, 352.25
346.43, 0.01, 352.13
346.07, 0.01, 352.00
345.68, 0.02, 351.86
345.39, 0.06, 351.76
345.09, 0.11, 351.65
¯344.76, 0.16, 351.53
344.50, 0.23, 351.43
344.56, 0.38, 351.46
344.56, 0.51, 351.46
344.56, 0.65, 351.46
344.48, 0.77, 351.43
344.39, 0.89, 351.39
344.20, 1.00, 351.33
342.40, 0.93, 350.67
340.60, 0.92, 350.02
340.52, 1.10, 349.99
340.38, 1.28, 349.94
331.24, 0.99, 346.63
331.24, 1.32, 346.62
331.24, 1.65, 346.62
331.24, 1.98, 346.62
331.24, 2.30, 346.62
347.79, 0.00, 352.71
347.55, 0.00, 352.63
347.30, 0.00, 352.54
347.02, 0.01, 352.45
346.72, 0.01, 352.34
346.39, 0.01, 352.23
346.03, 0.01, 352.10
345.65, 0.02, 351.97
345.37, 0.07, 351.87
345.06, 0.11, 351.77
344.73, 0.16, 351.65
344.54, 0.25, 351.59
344.59, 0.40, 351.60
344.59, 0.53, 351.60
344.59, 0.66, 351.60
344.51, 0.78, 351.57
344.41, 0.90, 351.54
344.21, 1.00, 351.47
342.43, 0.94, 350.86
342.17, 1.08, 350.76
340.54, 1.11, 350.20
340.39, 1.29, 350.15
330.62, 0.97, 346.76
330.62, 1.30, 346.76
330.62, 1.64, 346.76
330.62, 1.97, 346.76
330.62, 2.31, 346.76
347.76, 0.00, 352.79
347.53, 0.00, 352.71
347.27, 0.00, 352.63
346.99, 0.01, 352.54
346.69, 0.01, 352.44
346.36, 0.01, 352.33
345.99, 0.01, 352.20
¯345.63, 0.02, 352.08
345.34, 0.07, 351.99
345.03, 0.12, 351.89
344.70, 0.17, 351.78
344.59, 0.27, 351.74
344.62, 0.41, 351.75
344.62, 0.54, 351.75
344.62, 0.67, 351.75
344.53, 0.79, 351.72
344.43, 0.91, 351.69
344.22, 1.01, 351.62
342.47, 0.95, 351.04
342.36, 1.10, 351.00
340.56, 1.11, 350.40
340.40, 1.29, 350.35
330.04, 0.94, 346.92
330.04, 1.29, 346.92
330.04, 1.63, 346.92
330.04, 1.97, 346.92
330.04, 2.31, 346.92
347.74, 0.00, 352.87
347.50, 0.00, 352.79
347.24, 0.00, 352.71
346.96, 0.01, 352.62
346.66, 0.01, 352.53
346.33, 0.01, 352.42
345.96, 0.01, 352.30
345.60, 0.03, 352.19
345.31, 0.07, 352.10
345.01, 0.12, 352.00
344.68, 0.17, 351.90
344.63, 0.29, 351.89
344.65, 0.43, 351.89
344.65, 0.56, 351.89
344.64, 0.68, 351.89
344.55, 0.80, 351.86
344.46, 0.91, 351.83
344.23, 1.02, 351.76
342.51, 0.96, 351.21
342.40, 1.11, 351.18
342.11, 1.24, 351.09
340.41, 1.29, 350.55
329.43, 0.92, 347.08
329.43, 1.27, 347.08
329.43, 1.62, 347.08
329.43, 1.96, 347.08
329.43, 2.31, 347.08
347.72, 0.00, 352.94
347.48, 0.00, 352.87
347.22, 0.00, 352.79
346.94, 0.01, 352.71
¯346.63, 0.01, 352.62
346.29, 0.01, 352.52
345.92, 0.01, 352.41
345.58, 0.03, 352.30
345.29, 0.07, 352.22
344.98, 0.12, 352.12
344.65, 0.17, 352.02
344.68, 0.31, 352.03
344.68, 0.44, 352.03
344.68, 0.57, 352.03
344.66, 0.69, 352.03
344.57, 0.81, 352.00
344.48, 0.92, 351.97
344.24, 1.02, 351.90
342.54, 0.97, 351.39
342.44, 1.12, 351.36
342.33, 1.27, 351.32
340.41, 1.30, 350.75
347.69, 0.00, 353.02
347.45, 0.00, 352.95
347.19, 0.00, 352.88
346.91, 0.01, 352.80
346.60, 0.01, 352.71
346.26, 0.01, 352.61
345.89, 0.01, 352.51
345.55, 0.03, 352.41
345.27, 0.08, 352.33
344.96, 0.12, 352.24
344.63, 0.17, 352.15
344.71, 0.32, 352.17
344.71, 0.45, 352.17
344.71, 0.58, 352.17
344.69, 0.70, 352.16
344.60, 0.82, 352.14
344.51, 0.93, 352.11
344.25, 1.03, 352.04
342.53, 0.97, 351.55
342.48, 1.12, 351.53
342.37, 1.27, 351.50
342.06, 1.41, 351.41
347.67, 0.00, 353.10
347.43, 0.00, 353.03
347.17, 0.00, 352.96
346.88, 0.01, 352.89
346.57, 0.01, 352.80
346.23, 0.01, 352.71
345.86, 0.01, 352.61
345.53, 0.03, 352.52
345.24, 0.08, 352.44
344.93, 0.13, 352.36
344.64, 0.18, 352.28
¯344.74, 0.34, 352.31
344.74, 0.46, 352.31
344.74, 0.59, 352.31
344.71, 0.71, 352.30
344.62, 0.82, 352.27
344.53, 0.94, 352.25
344.26, 1.03, 352.18
342.51, 0.97, 351.70
342.51, 1.13, 351.70
342.41, 1.28, 351.67
342.29, 1.43, 351.64
347.65, 0.00, 353.18
347.41, 0.00, 353.12
347.15, 0.00, 353.05
346.86, 0.01, 352.98
346.54, 0.01, 352.90
346.20, 0.01, 352.81
345.82, 0.01, 352.71
345.51, 0.04, 352.63
345.22, 0.08, 352.56
344.91, 0.13, 352.48
344.68, 0.20, 352.42
344.77, 0.35, 352.44
344.77, 0.48, 352.44
344.77, 0.60, 352.44
344.73, 0.72, 352.43
344.64, 0.83, 352.41
344.55, 0.95, 352.38
344.28, 1.04, 352.31
342.50, 0.98, 351.86
342.50, 1.13, 351.86
342.44, 1.29, 351.85
342.33, 1.43, 351.82
342.01, 1.58, 351.73
347.63, 0.00, 353.26
347.39, 0.00, 353.20
347.12, 0.00, 353.13
346.83, 0.00, 353.06
346.52, 0.00, 352.99
346.17, 0.01, 352.91
345.79, 0.01, 352.81
345.49, 0.04, 352.74
345.20, 0.08, 352.67
344.89, 0.13, 352.60
344.72, 0.22, 352.56
344.80, 0.36, 352.57
344.80, 0.49, 352.57
344.80, 0.61, 352.57
344.75, 0.73, 352.56
344.66, 0.84, 352.54
344.57, 0.95, 352.52
¯344.29, 1.05, 352.45
342.49, 0.98, 352.02
342.49, 1.14, 352.02
342.48, 1.29, 352.01
342.37, 1.44, 351.99
342.26, 1.59, 351.96
347.61, 0.00, 353.33
347.37, 0.00, 353.28
347.10, 0.00, 353.22
346.81, 0.00, 353.15
346.49, 0.00, 353.08
346.15, 0.00, 353.00
345.77, 0.01, 352.92
345.47, 0.04, 352.85
345.18, 0.08, 352.79
344.87, 0.13, 352.72
344.76, 0.23, 352.69
344.82, 0.37, 352.70
344.82, 0.50, 352.70
344.82, 0.62, 352.70
344.77, 0.74, 352.69
344.69, 0.85, 352.67
344.60, 0.96, 352.65
344.30, 1.05, 352.58
342.48, 0.98, 352.17
342.48, 1.14, 352.17
342.47, 1.29, 352.17
342.41, 1.44, 352.16
342.30, 1.59, 352.13
341.96, 1.74, 352.05
347.60, 0.00, 353.41
347.35, 0.00, 353.36
347.08, 0.00, 353.30
346.79, 0.00, 353.24
346.47, 0.00, 353.18
346.12, 0.00, 353.10
345.74, 0.00, 353.02
345.45, 0.04, 352.96
345.16, 0.09, 352.90
344.86, 0.13, 352.83
344.80, 0.25, 352.82
344.85, 0.38, 352.83
344.85, 0.51, 352.83
344.85, 0.63, 352.83
344.79, 0.75, 352.82
344.71, 0.86, 352.80
344.61, 0.97, 352.78
344.31, 1.06, 352.72
342.43, 0.98, 352.32
342.46, 1.14, 352.33
342.46, 1.30, 352.33
¯342.45, 1.45, 352.32
342.34, 1.60, 352.30
342.21, 1.75, 352.27
347.58, 0.00, 353.49
347.33, 0.00, 353.44
347.06, 0.00, 353.39
346.77, 0.00, 353.33
346.45, 0.00, 353.27
346.10, 0.00, 353.20
345.71, 0.00, 353.13
345.44, 0.04, 353.07
345.15, 0.09, 353.01
344.84, 0.14, 352.95
344.84, 0.26, 352.95
344.88, 0.40, 352.96
344.88, 0.52, 352.96
344.88, 0.64, 352.96
344.81, 0.75, 352.95
344.73, 0.86, 352.93
344.62, 0.97, 352.91
344.33, 1.06, 352.85
342.37, 0.98, 352.47
342.45, 1.14, 352.48
342.45, 1.30, 352.48
342.44, 1.45, 352.48
342.38, 1.60, 352.47
342.27, 1.75, 352.44
341.91, 1.90, 352.37
347.56, 0.00, 353.57
347.31, 0.00, 353.53
347.04, 0.00, 353.48
346.75, 0.00, 353.42
346.43, 0.00, 353.36
346.08, 0.00, 353.30
345.69, 0.00, 353.23
345.42, 0.05, 353.18
345.13, 0.09, 353.13
344.83, 0.14, 353.07
344.88, 0.28, 353.08
344.91, 0.41, 353.09
344.91, 0.53, 353.09
344.91, 0.65, 353.09
344.84, 0.76, 353.07
344.75, 0.87, 353.06
344.63, 0.98, 353.03
344.34, 1.07, 352.98
342.31, 0.98, 352.61
342.41, 1.14, 352.63
342.44, 1.30, 352.63
342.43, 1.45, 352.63
342.42, 1.61, 352.63
¯342.31, 1.76, 352.61
342.16, 1.91, 352.58
347.55, 0.00, 353.65
347.30, 0.00, 353.61
347.02, 0.00, 353.56
346.73, 0.00, 353.51
346.41, 0.00, 353.46
346.05, 0.00, 353.40
345.68, 0.01, 353.34
345.41, 0.05, 353.29
345.12, 0.09, 353.24
344.82, 0.14, 353.19
344.91, 0.29, 353.21
344.93, 0.42, 353.21
344.93, 0.54, 353.21
344.93, 0.66, 353.21
344.86, 0.77, 353.20
344.77, 0.88, 353.18
344.64, 0.98, 353.16
344.35, 1.07, 353.11
342.25, 0.97, 352.76
342.35, 1.14, 352.78
342.43, 1.30, 352.79
342.42, 1.45, 352.79
342.42, 1.61, 352.79
342.35, 1.76, 352.77
342.24, 1.91, 352.76
341.87, 2.06, 352.69
347.54, 0.00, 353.73
347.28, 0.00, 353.69
347.01, 0.00, 353.65
346.71, 0.00, 353.60
346.39, 0.00, 353.55
346.03, 0.00, 353.50
345.67, 0.01, 353.44
345.40, 0.05, 353.40
345.11, 0.09, 353.36
344.83, 0.15, 353.31
344.95, 0.30, 353.33
344.96, 0.42, 353.33
344.96, 0.55, 353.33
344.96, 0.67, 353.33
344.88, 0.77, 353.32
344.79, 0.88, 353.31
344.65, 0.99, 353.29
340.90, 0.66, 352.71
342.11, 0.96, 352.90
342.29, 1.14, 352.92
342.39, 1.30, 352.94
342.41, 1.45, 352.94
342.41, 1.61, 352.94
¯342.39, 1.76, 352.94
342.28, 1.91, 352.92
342.12, 2.07, 352.89
347.52, 0.00, 353.81
347.27, 0.00, 353.77
347.00, 0.00, 353.74
346.70, 0.00, 353.70
346.37, 0.00, 353.65
346.02, 0.00, 353.60
345.66, 0.01, 353.55
345.39, 0.05, 353.51
345.10, 0.10, 353.47
344.87, 0.16, 353.44
344.98, 0.31, 353.46
344.98, 0.43, 353.46
344.98, 0.55, 353.46
344.98, 0.67, 353.45
344.90, 0.78, 353.44
344.82, 0.89, 353.43
344.67, 0.99, 353.41
339.94, 0.54, 352.75
339.86, 0.72, 352.74
342.23, 1.13, 353.07
342.33, 1.30, 353.08
342.40, 1.46, 353.09
342.39, 1.61, 353.09
342.39, 1.76, 353.09
342.32, 1.91, 353.08
342.21, 2.07, 353.07
347.51, 0.00, 353.89
347.26, 0.00, 353.86
346.98, 0.00, 353.82
346.69, 0.00, 353.79
346.36, 0.00, 353.75
346.00, 0.00, 353.70
345.65, 0.01, 353.66
345.38, 0.05, 353.62
345.09, 0.10, 353.59
344.90, 0.18, 353.56
345.01, 0.32, 353.58
345.01, 0.44, 353.58
345.01, 0.56, 353.58
345.00, 0.68, 353.57
344.92, 0.79, 353.56
344.84, 0.89, 353.55
344.68, 0.99, 353.53
339.96, 0.55, 352.94
339.88, 0.73, 352.93
342.11, 1.12, 353.21
342.27, 1.29, 353.23
342.37, 1.45, 353.24
¯342.38, 1.61, 353.24
342.38, 1.76, 353.24
342.36, 1.91, 353.24
342.25, 2.07, 353.23
342.08, 2.22, 353.21
347.50, 0.00, 353.97
347.25, 0.00, 353.94
346.97, 0.00, 353.91
346.67, 0.00, 353.88
346.35, 0.00, 353.84
345.99, 0.00, 353.80
345.64, 0.01, 353.76
345.37, 0.05, 353.73
345.08, 0.10, 353.70
344.94, 0.19, 353.69
345.03, 0.33, 353.70
345.03, 0.45, 353.70
345.03, 0.57, 353.69
345.02, 0.69, 353.69
344.94, 0.79, 353.68
344.86, 0.90, 353.67
344.69, 1.00, 353.66
338.63, 0.39, 352.98
337.20, 0.45, 352.83
341.87, 1.10, 353.34
342.21, 1.29, 353.38
342.31, 1.45, 353.39
342.37, 1.61, 353.40
342.37, 1.76, 353.40
342.36, 1.92, 353.40
342.29, 2.07, 353.39
342.18, 2.22, 353.37
347.49, 0.00, 354.05
347.24, 0.00, 354.03
346.96, 0.00, 354.00
346.66, 0.00, 353.97
346.34, 0.00, 353.94
345.98, 0.00, 353.90
345.63, 0.01, 353.87
345.36, 0.05, 353.84
345.07, 0.10, 353.82
344.97, 0.20, 353.81
345.06, 0.34, 353.81
345.06, 0.46, 353.81
345.06, 0.58, 353.81
345.04, 0.69, 353.81
344.96, 0.80, 353.80
344.88, 0.91, 353.80
344.71, 1.00, 353.78
338.59, 0.39, 353.19
337.17, 0.45, 353.05
¯334.67, 0.45, 352.81
342.10, 1.28, 353.52
342.25, 1.45, 353.54
342.34, 1.61, 353.55
342.36, 1.76, 353.55
342.35, 1.92, 353.55
342.33, 2.07, 353.55
342.22, 2.22, 353.53
342.03, 2.38, 353.52
347.49, 0.00, 354.13
347.23, 0.00, 354.11
346.95, 0.00, 354.09
346.66, 0.00, 354.06
346.33, 0.00, 354.03
345.97, 0.00, 354.01
345.62, 0.01, 353.98
345.35, 0.06, 353.95
345.07, 0.10, 353.93
345.01, 0.21, 353.92
345.08, 0.35, 353.93
345.08, 0.47, 353.93
345.08, 0.58, 353.93
345.06, 0.70, 353.93
344.98, 0.80, 353.92
344.90, 0.91, 353.91
344.72, 1.01, 353.90
338.56, 0.39, 353.39
337.13, 0.45, 353.27
334.63, 0.45, 353.06
341.86, 1.27, 353.66
342.19, 1.45, 353.69
342.28, 1.61, 353.70
342.35, 1.76, 353.70
342.34, 1.92, 353.70
342.34, 2.07, 353.70
342.26, 2.22, 353.69
342.15, 2.38, 353.68
347.48, 0.00, 354.21
347.22, 0.00, 354.19
346.95, 0.00, 354.17
346.65, 0.00, 354.15
346.32, 0.00, 354.13
345.96, 0.00, 354.11
345.62, 0.01, 354.08
345.35, 0.06, 354.06
345.06, 0.10, 354.04
345.04, 0.22, 354.04
345.11, 0.35, 354.05
345.11, 0.47, 354.05
345.11, 0.59, 354.05
345.08, 0.70, 354.04
¯345.00, 0.81, 354.04
344.92, 0.92, 354.03
344.74, 1.01, 354.02
338.52, 0.39, 353.59
337.10, 0.45, 353.50
334.59, 0.45, 353.32
329.52, 0.32, 352.98
342.09, 1.44, 353.84
342.22, 1.61, 353.85
342.32, 1.76, 353.85
342.33, 1.92, 353.85
342.33, 2.07, 353.85
342.30, 2.22, 353.85
342.19, 2.38, 353.84
347.47, 0.00, 354.29
347.22, 0.00, 354.28
346.94, 0.00, 354.26
346.64, 0.00, 354.25
346.31, 0.00, 354.23
345.96, 0.00, 354.21
345.61, 0.01, 354.19
345.34, 0.06, 354.17
345.06, 0.10, 354.16
345.07, 0.23, 354.16
345.13, 0.36, 354.16
345.13, 0.48, 354.16
345.13, 0.60, 354.16
345.10, 0.71, 354.16
345.03, 0.81, 354.16
344.95, 0.92, 354.15
344.75, 1.01, 354.14
338.48, 0.38, 353.80
337.07, 0.45, 353.72
334.56, 0.45, 353.58
329.35, 0.31, 353.30
341.85, 1.43, 353.98
342.16, 1.60, 354.00
342.26, 1.76, 354.00
342.32, 1.92, 354.00
342.31, 2.07, 354.00
342.31, 2.22, 354.00
342.23, 2.38, 354.00
347.47, 0.00, 354.37
347.21, 0.00, 354.36
346.94, 0.00, 354.35
346.64, 0.00, 354.34
346.31, 0.00, 354.32
345.95, 0.00, 354.31
345.61, 0.02, 354.30
345.34, 0.06, 354.29
345.05, 0.10, 354.27
¯345.10, 0.24, 354.28
345.16, 0.37, 354.28
345.16, 0.49, 354.28
345.16, 0.60, 354.28
345.12, 0.71, 354.27
345.05, 0.82, 354.27
344.97, 0.92, 354.27
344.77, 1.02, 354.26
338.44, 0.38, 354.00
337.03, 0.44, 353.95
334.54, 0.44, 353.84
329.24, 0.30, 353.63
342.08, 1.60, 354.15
342.20, 1.76, 354.15
342.30, 1.92, 354.16
342.30, 2.07, 354.16
342.30, 2.22, 354.16
342.27, 2.38, 354.15
347.47, 0.00, 354.45
347.21, 0.00, 354.45
346.93, 0.00, 354.44
346.63, 0.00, 354.43
346.30, 0.00, 354.42
345.95, 0.00, 354.41
345.61, 0.02, 354.40
345.34, 0.06, 354.40
345.05, 0.10, 354.39
345.13, 0.24, 354.39
345.18, 0.38, 354.39
345.18, 0.49, 354.39
345.18, 0.61, 354.39
345.15, 0.72, 354.39
345.07, 0.82, 354.39
344.99, 0.93, 354.38
344.78, 1.02, 354.38
338.40, 0.38, 354.21
337.00, 0.44, 354.17
334.50, 0.44, 354.10
329.22, 0.30, 353.96
341.84, 1.59, 354.30
342.14, 1.76, 354.31
342.24, 1.92, 354.31
342.29, 2.07, 354.31
342.29, 2.22, 354.31
342.28, 2.38, 354.31
347.46, 0.00, 354.53
347.21, 0.00, 354.53
346.93, 0.00, 354.53
346.63, 0.00, 354.52
346.30, 0.00, 354.52
345.94, 0.00, 354.51
¯345.60, 0.02, 354.51
345.33, 0.06, 354.51
345.05, 0.11, 354.50
345.16, 0.25, 354.50
345.21, 0.38, 354.50
345.21, 0.50, 354.50
345.21, 0.61, 354.50
345.17, 0.72, 354.50
345.09, 0.83, 354.50
345.01, 0.93, 354.50
344.80, 1.02, 354.50
338.36, 0.37, 354.42
336.98, 0.44, 354.40
334.46, 0.44, 354.37
329.20, 0.30, 354.30
342.07, 1.76, 354.46
342.18, 1.92, 354.46
342.27, 2.07, 354.46
342.28, 2.22, 354.46
342.65, 2.37, 354.47
347.46, 0.00, 354.61
347.21, 0.00, 354.61
346.93, 0.00, 354.62
346.63, 0.00, 354.62
346.30, 0.00, 354.62
345.94, 0.00, 354.62
345.60, 0.02, 354.62
345.33, 0.06, 354.62
345.08, 0.11, 354.62
345.19, 0.26, 354.62
345.23, 0.39, 354.62
345.23, 0.50, 354.62
345.23, 0.62, 354.62
345.19, 0.73, 354.62
345.11, 0.83, 354.61
345.03, 0.94, 354.61
344.82, 1.02, 354.61
338.32, 0.37, 354.62
336.95, 0.44, 354.63
334.43, 0.44, 354.63
329.18, 0.30, 354.63
340.14, 1.51, 354.62
341.82, 1.75, 354.62
342.64, 1.93, 354.61
342.64, 2.07, 354.61
342.64, 2.22, 354.61
342.64, 2.37, 354.61
347.46, 0.00, 354.70
347.21, 0.00, 354.70
346.93, 0.00, 354.70
346.63, 0.00, 354.71
¯346.30, 0.00, 354.71
345.94, 0.00, 354.72
345.60, 0.02, 354.72
345.33, 0.06, 354.73
345.11, 0.12, 354.73
345.22, 0.27, 354.73
345.25, 0.39, 354.73
345.25, 0.51, 354.73
345.25, 0.62, 354.73
345.21, 0.73, 354.73
345.13, 0.83, 354.73
345.05, 0.94, 354.73
344.83, 1.03, 354.73
338.28, 0.37, 354.83
340.16, 0.77, 354.80
334.41, 0.44, 354.89
329.13, 0.30, 354.97
342.09, 1.45, 354.77
342.63, 1.63, 354.76
342.63, 1.78, 354.76
342.63, 1.93, 354.76
342.63, 2.07, 354.76
342.63, 2.22, 354.76
342.63, 2.37, 354.76
347.46, 0.00, 354.78
347.21, 0.00, 354.78
346.93, 0.00, 354.79
346.63, 0.00, 354.80
346.30, 0.00, 354.81
345.94, 0.00, 354.82
345.60, 0.02, 354.83
345.33, 0.06, 354.84
345.14, 0.13, 354.84
345.25, 0.27, 354.84
345.28, 0.40, 354.84
345.28, 0.51, 354.84
345.28, 0.63, 354.84
345.23, 0.74, 354.84
345.15, 0.84, 354.84
345.08, 0.94, 354.84
344.85, 1.03, 354.85
342.06, 0.82, 354.93
341.61, 0.93, 354.94
340.76, 1.01, 354.97
329.09, 0.29, 355.31
342.62, 1.48, 354.91
342.62, 1.63, 354.91
342.62, 1.78, 354.91
342.62, 1.93, 354.91
342.62, 2.07, 354.91
342.62, 2.22, 354.91
¯342.62, 2.37, 354.91
347.47, 0.00, 354.86
347.21, 0.00, 354.87
346.93, 0.00, 354.88
346.63, 0.00, 354.89
346.30, 0.00, 354.91
345.94, 0.00, 354.92
345.61, 0.02, 354.94
345.34, 0.06, 354.95
345.17, 0.14, 354.96
345.28, 0.28, 354.95
345.30, 0.40, 354.95
345.30, 0.52, 354.95
345.30, 0.63, 354.95
345.25, 0.74, 354.95
345.17, 0.84, 354.95
345.10, 0.94, 354.96
344.87, 1.03, 354.97
338.19, 0.36, 355.25
341.59, 0.92, 355.11
341.60, 1.09, 355.11
341.66, 1.26, 355.10
341.59, 1.42, 355.11
342.61, 1.63, 355.06
342.61, 1.78, 355.06
342.61, 1.93, 355.06
342.61, 2.07, 355.06
342.61, 2.22, 355.06
342.61, 2.37, 355.06
347.47, 0.00, 354.94
347.21, 0.00, 354.95
346.94, 0.00, 354.97
346.64, 0.00, 354.99
346.31, 0.00, 355.00
345.95, 0.00, 355.02
345.61, 0.02, 355.04
345.34, 0.06, 355.06
345.20, 0.14, 355.07
345.30, 0.28, 355.06
345.32, 0.41, 355.06
345.32, 0.52, 355.06
345.32, 0.64, 355.06
345.27, 0.74, 355.06
345.20, 0.84, 355.06
345.12, 0.95, 355.07
344.89, 1.03, 355.08
338.15, 0.35, 355.47
336.90, 0.43, 355.54
342.29, 1.15, 355.23
341.58, 1.25, 355.27
341.58, 1.42, 355.27
¯342.60, 1.63, 355.21
342.60, 1.78, 355.21
342.60, 1.93, 355.21
342.60, 2.07, 355.21
342.60, 2.22, 355.21
342.60, 2.37, 355.21
347.47, 0.00, 355.02
347.22, 0.00, 355.04
346.94, 0.00, 355.06
346.64, 0.00, 355.08
346.31, 0.00, 355.10
345.95, 0.00, 355.13
345.61, 0.01, 355.15
345.30, 0.05, 355.17
345.23, 0.15, 355.18
345.33, 0.29, 355.17
345.35, 0.41, 355.17
345.35, 0.53, 355.17
345.35, 0.64, 355.17
345.29, 0.74, 355.17
345.22, 0.85, 355.18
345.14, 0.95, 355.18
344.91, 1.03, 355.20
338.11, 0.34, 355.68
336.91, 0.43, 355.77
341.57, 1.09, 355.43
341.57, 1.25, 355.43
341.57, 1.41, 355.43
341.57, 1.58, 355.43
342.59, 1.78, 355.36
342.59, 1.93, 355.36
342.59, 2.07, 355.36
342.59, 2.22, 355.36
342.59, 2.37, 355.36
347.48, 0.00, 355.10
347.22, 0.00, 355.12
346.95, 0.00, 355.14
346.65, 0.00, 355.17
346.32, 0.00, 355.20
345.96, 0.00, 355.23
345.62, 0.01, 355.26
345.24, 0.03, 355.29
345.25, 0.15, 355.29
345.36, 0.29, 355.28
345.37, 0.41, 355.28
345.37, 0.53, 355.28
345.37, 0.64, 355.28
345.31, 0.75, 355.28
345.24, 0.85, 355.29
345.16, 0.95, 355.29
344.92, 1.04, 355.31
¯340.23, 0.60, 355.71
340.23, 0.78, 355.71
341.83, 1.11, 355.58
341.79, 1.27, 355.58
341.74, 1.42, 355.58
341.56, 1.58, 355.60
342.58, 1.78, 355.51
342.58, 1.93, 355.51
342.58, 2.08, 355.51
342.58, 2.22, 355.51
342.58, 2.37, 355.51
347.49, 0.00, 355.18
347.23, 0.00, 355.20
346.95, 0.00, 355.23
346.65, 0.00, 355.26
346.33, 0.00, 355.29
345.97, 0.00, 355.33
345.62, 0.01, 355.36
345.18, 0.01, 355.41
344.73, 0.02, 355.45
344.53, 0.10, 355.47
344.45, 0.21, 355.48
344.37, 0.32, 355.49
344.36, 0.45, 355.49
344.36, 0.58, 355.49
344.40, 0.71, 355.48
344.50, 0.85, 355.47
344.83, 1.02, 355.44
342.09, 0.82, 355.71
342.05, 0.97, 355.72
342.45, 1.16, 355.67
342.45, 1.32, 355.67
342.45, 1.47, 355.67
341.55, 1.58, 355.76
342.57, 1.78, 355.66
342.57, 1.93, 355.66
342.57, 2.08, 355.66
342.57, 2.23, 355.66
342.57, 2.37, 355.66
347.49, 0.00, 355.26
347.24, 0.00, 355.29
346.96, 0.00, 355.32
346.66, 0.00, 355.35
346.34, 0.00, 355.39
345.98, 0.00, 355.43
345.59, 0.00, 355.48
345.15, 0.00, 355.53
344.67, 0.00, 355.58
344.13, 0.00, 355.64
343.61, 0.02, 355.70
343.23, 0.08, 355.74
¯342.81, 0.15, 355.79
342.36, 0.22, 355.84
341.86, 0.30, 355.90
342.34, 0.53, 355.84
342.34, 0.69, 355.84
342.34, 0.84, 355.84
342.34, 1.00, 355.84
342.44, 1.16, 355.83
342.44, 1.32, 355.83
342.44, 1.47, 355.83
341.54, 1.58, 355.93
342.56, 1.93, 355.81
342.56, 2.08, 355.81
342.56, 2.23, 355.81
342.56, 2.38, 355.81
347.50, 0.00, 355.34
347.25, 0.00, 355.37
346.97, 0.00, 355.41
346.67, 0.00, 355.45
346.35, 0.00, 355.49
345.99, 0.00, 355.53
345.60, 0.00, 355.58
345.16, 0.00, 355.64
344.68, 0.00, 355.70
344.14, 0.00, 355.77
343.62, 0.02, 355.83
343.24, 0.08, 355.88
342.82, 0.15, 355.94
342.37, 0.22, 355.99
342.33, 0.37, 356.00
342.34, 0.53, 356.00
342.35, 0.69, 356.00
342.35, 0.84, 355.99
342.34, 1.00, 355.99
342.43, 1.16, 355.98
342.43, 1.31, 355.98
342.43, 1.47, 355.98
341.53, 1.57, 356.10
342.55, 1.93, 355.96
342.55, 2.08, 355.96
342.55, 2.23, 355.96
342.55, 2.38, 355.96
347.51, 0.00, 355.42
347.26, 0.00, 355.46
346.98, 0.00, 355.50
346.68, 0.00, 355.54
346.36, 0.00, 355.58
346.00, 0.00, 355.63
345.61, 0.00, 355.69
345.18, 0.00, 355.75
344.69, 0.00, 355.82
¯344.15, 0.00, 355.90
343.63, 0.02, 355.97
343.24, 0.08, 356.03
342.83, 0.15, 356.08
342.37, 0.22, 356.15
342.32, 0.37, 356.15
342.34, 0.53, 356.15
342.35, 0.69, 356.15
342.35, 0.84, 356.15
342.34, 1.00, 356.15
342.42, 1.16, 356.14
342.42, 1.31, 356.14
342.42, 1.46, 356.14
341.52, 1.57, 356.26
342.54, 2.08, 356.12
342.54, 2.23, 356.12
342.54, 2.38, 356.12
347.52, 0.00, 355.50
347.27, 0.00, 355.54
347.00, 0.00, 355.58
346.70, 0.00, 355.63
346.37, 0.00, 355.68
346.02, 0.00, 355.74
345.62, 0.00, 355.80
345.19, 0.00, 355.86
344.71, 0.00, 355.94
344.17, 0.00, 356.02
343.64, 0.02, 356.11
343.25, 0.08, 356.17
342.84, 0.15, 356.23
342.38, 0.22, 356.30
342.31, 0.36, 356.31
342.33, 0.52, 356.31
342.34, 0.68, 356.31
342.35, 0.84, 356.31
342.34, 0.99, 356.31
342.41, 1.16, 356.29
342.41, 1.31, 356.29
342.41, 1.46, 356.29
341.50, 1.57, 356.43
342.53, 2.08, 356.27
342.53, 2.23, 356.27
342.53, 2.38, 356.27
347.54, 0.00, 355.58
347.28, 0.00, 355.62
347.01, 0.00, 355.67
346.71, 0.00, 355.72
346.39, 0.00, 355.78
346.03, 0.00, 355.84
345.64, 0.00, 355.90
345.21, 0.00, 355.98
¯344.73, 0.00, 356.06
344.19, 0.00, 356.15
343.65, 0.02, 356.24
343.27, 0.08, 356.31
342.85, 0.14, 356.38
342.39, 0.21, 356.46
342.30, 0.36, 356.47
342.31, 0.52, 356.47
342.32, 0.68, 356.47
342.33, 0.83, 356.46
342.32, 0.99, 356.47
342.40, 1.15, 356.45
342.40, 1.31, 356.45
342.40, 1.46, 356.45
341.49, 1.57, 356.60
342.52, 2.08, 356.43
342.52, 2.23, 356.43
342.52, 2.38, 356.43
347.55, 0.00, 355.66
347.30, 0.00, 355.71
347.02, 0.00, 355.76
346.73, 0.00, 355.81
346.40, 0.00, 355.87
346.05, 0.00, 355.94
345.66, 0.00, 356.01
345.23, 0.00, 356.09
344.75, 0.00, 356.18
344.21, 0.00, 356.28
343.67, 0.01, 356.38
343.28, 0.08, 356.45
342.86, 0.14, 356.53
342.40, 0.21, 356.61
341.89, 0.29, 356.70
342.29, 0.51, 356.63
342.30, 0.67, 356.63
342.30, 0.83, 356.63
342.30, 0.98, 356.63
342.39, 1.15, 356.61
342.39, 1.31, 356.61
342.39, 1.46, 356.61
341.48, 1.57, 356.77
342.51, 2.23, 356.58
342.51, 2.38, 356.58
347.56, 0.00, 355.74
347.31, 0.00, 355.79
347.04, 0.00, 355.84
346.74, 0.00, 355.90
346.42, 0.00, 355.97
346.07, 0.00, 356.04
345.68, 0.00, 356.12
345.25, 0.00, 356.20
¯344.77, 0.00, 356.30
344.23, 0.00, 356.40
343.68, 0.01, 356.51
343.29, 0.07, 356.59
342.87, 0.14, 356.67
342.41, 0.21, 356.77
341.90, 0.28, 356.87
340.86, 0.29, 357.07
342.27, 0.66, 356.79
342.27, 0.82, 356.79
342.27, 0.98, 356.79
342.38, 1.15, 356.77
342.38, 1.30, 356.77
342.38, 1.46, 356.77
341.47, 1.57, 356.95
342.50, 2.23, 356.74
342.50, 2.38, 356.74
347.94, 0.14, 355.74
347.33, 0.00, 355.87
347.06, 0.00, 355.93
346.76, 0.00, 355.99
346.44, 0.00, 356.06
346.08, 0.00, 356.14
345.70, 0.00, 356.22
345.27, 0.00, 356.31
344.79, 0.00, 356.42
344.26, 0.00, 356.53
343.69, 0.01, 356.65
343.31, 0.07, 356.73
342.88, 0.14, 356.82
342.42, 0.20, 356.92
341.91, 0.28, 357.03
340.89, 0.29, 357.25
342.15, 0.64, 356.98
342.15, 0.80, 356.98
342.15, 0.96, 356.98
342.37, 1.14, 356.93
342.37, 1.30, 356.93
342.37, 1.46, 356.93
341.46, 1.57, 357.12
342.49, 2.39, 356.90
347.96, 0.14, 355.82
347.72, 0.14, 355.87
347.07, 0.00, 356.02
346.78, 0.00, 356.09
346.46, 0.00, 356.16
346.11, 0.00, 356.24
345.72, 0.00, 356.33
345.29, 0.00, 356.43
344.81, 0.00, 356.53
344.28, 0.00, 356.66
¯343.71, 0.01, 356.79
343.32, 0.07, 356.87
342.90, 0.13, 356.97
342.43, 0.20, 357.08
341.92, 0.28, 357.19
340.92, 0.29, 357.42
342.14, 0.64, 357.14
342.14, 0.80, 357.14
342.14, 0.96, 357.14
342.36, 1.14, 357.09
342.36, 1.30, 357.09
342.36, 1.45, 357.09
341.45, 1.57, 357.30
342.48, 2.39, 357.06
347.97, 0.14, 355.89
347.74, 0.14, 355.95
347.09, 0.00, 356.10
346.80, 0.00, 356.18
346.48, 0.00, 356.25
346.13, 0.00, 356.34
345.74, 0.00, 356.43
345.31, 0.00, 356.54
344.84, 0.00, 356.65
344.31, 0.00, 356.78
343.73, 0.00, 356.92
343.34, 0.07, 357.02
342.91, 0.13, 357.12
342.44, 0.20, 357.23
341.93, 0.27, 357.36
342.24, 0.49, 357.28
342.25, 0.65, 357.28
342.25, 0.81, 357.28
342.24, 0.97, 357.28
342.35, 1.14, 357.25
342.35, 1.29, 357.25
342.35, 1.45, 357.25
341.44, 1.56, 357.47
347.99, 0.14, 355.96
347.76, 0.14, 356.02
347.51, 0.14, 356.09
346.82, 0.00, 356.27
346.50, 0.00, 356.35
346.15, 0.00, 356.44
345.77, 0.00, 356.54
345.34, 0.00, 356.65
344.87, 0.00, 356.77
344.34, 0.00, 356.91
343.74, 0.00, 357.06
343.35, 0.06, 357.16
342.92, 0.13, 357.27
342.46, 0.19, 357.39
¯342.23, 0.32, 357.45
342.24, 0.48, 357.44
342.25, 0.64, 357.44
342.25, 0.81, 357.44
342.25, 0.96, 357.44
342.34, 1.13, 357.42
342.34, 1.29, 357.42
342.34, 1.45, 357.42
341.31, 1.56, 357.68
348.01, 0.14, 356.04
347.78, 0.14, 356.10
347.53, 0.14, 356.17
346.84, 0.00, 356.36
346.52, 0.00, 356.44
346.18, 0.00, 356.54
345.79, 0.00, 356.64
345.37, 0.00, 356.76
344.90, 0.00, 356.89
344.37, 0.00, 357.03
343.77, 0.00, 357.19
343.37, 0.06, 357.30
342.94, 0.12, 357.42
342.47, 0.19, 357.55
342.22, 0.31, 357.61
342.24, 0.48, 357.61
342.25, 0.64, 357.61
342.25, 0.80, 357.60
342.25, 0.96, 357.61
342.32, 1.13, 357.58
342.32, 1.29, 357.58
342.32, 1.45, 357.58
341.21, 1.55, 357.88
348.03, 0.14, 356.11
347.80, 0.14, 356.18
347.55, 0.14, 356.25
347.28, 0.14, 356.33
346.55, 0.00, 356.54
346.20, 0.00, 356.64
345.82, 0.00, 356.75
345.40, 0.00, 356.87
344.93, 0.00, 357.00
344.40, 0.00, 357.16
343.81, 0.00, 357.33
343.39, 0.05, 357.45
342.96, 0.12, 357.57
342.50, 0.19, 357.70
342.21, 0.30, 357.78
342.23, 0.47, 357.78
342.24, 0.63, 357.77
342.25, 0.80, 357.77
342.24, 0.96, 357.77
¯342.31, 1.12, 357.75
342.31, 1.28, 357.75
342.31, 1.44, 357.75
341.30, 1.55, 358.04
348.05, 0.14, 356.18
347.82, 0.14, 356.25
347.57, 0.14, 356.33
347.30, 0.14, 356.41
347.00, 0.14, 356.50
346.23, 0.00, 356.74
345.85, 0.00, 356.85
345.43, 0.00, 356.98
344.96, 0.00, 357.12
344.43, 0.00, 357.28
343.84, 0.00, 357.46
343.41, 0.05, 357.59
342.98, 0.12, 357.72
342.52, 0.18, 357.86
342.20, 0.29, 357.96
342.21, 0.46, 357.95
342.22, 0.62, 357.95
342.23, 0.79, 357.95
342.22, 0.95, 357.95
342.30, 1.12, 357.92
342.30, 1.28, 357.92
342.30, 1.44, 357.92
341.29, 1.55, 358.22
348.07, 0.14, 356.26
347.84, 0.14, 356.33
347.59, 0.14, 356.41
347.32, 0.14, 356.49
347.03, 0.14, 356.59
346.26, 0.00, 356.83
345.88, 0.00, 356.95
345.46, 0.00, 357.09
344.99, 0.00, 357.24
344.47, 0.00, 357.40
343.88, 0.00, 357.59
343.43, 0.05, 357.73
343.01, 0.11, 357.87
342.54, 0.18, 358.02
341.39, 0.15, 358.38
342.18, 0.45, 358.13
342.19, 0.61, 358.12
342.20, 0.78, 358.12
342.19, 0.94, 358.12
342.29, 1.12, 358.09
342.29, 1.28, 358.09
342.29, 1.44, 358.09
340.69, 1.52, 358.60
348.10, 0.14, 356.33
¯347.87, 0.14, 356.40
347.62, 0.14, 356.49
347.35, 0.14, 356.58
347.06, 0.14, 356.67
346.73, 0.14, 356.78
345.91, 0.00, 357.06
345.49, 0.00, 357.20
345.03, 0.00, 357.35
344.51, 0.00, 357.53
343.92, 0.00, 357.72
343.46, 0.04, 357.88
343.03, 0.11, 358.02
342.57, 0.18, 358.17
341.23, 0.11, 358.62
340.54, 0.19, 358.85
339.88, 0.29, 359.07
338.18, 0.27, 359.64
340.97, 0.81, 358.70
342.28, 1.11, 358.26
342.28, 1.27, 358.26
342.28, 1.43, 358.26
340.53, 1.51, 358.85
348.12, 0.14, 356.40
347.89, 0.14, 356.48
347.64, 0.14, 356.57
347.38, 0.14, 356.66
347.08, 0.14, 356.76
346.76, 0.14, 356.87
345.94, 0.00, 357.16
345.53, 0.00, 357.31
345.06, 0.00, 357.47
344.55, 0.00, 357.65
343.96, 0.00, 357.85
343.48, 0.04, 358.02
343.06, 0.10, 358.17
342.46, 0.15, 358.38
341.17, 0.09, 358.83
340.57, 0.18, 359.04
339.91, 0.28, 359.27
338.24, 0.27, 359.85
340.97, 0.80, 358.89
341.35, 1.02, 358.76
341.35, 1.20, 358.76
341.35, 1.37, 358.76
348.14, 0.14, 356.47
347.92, 0.14, 356.55
347.67, 0.14, 356.64
347.40, 0.14, 356.74
347.11, 0.14, 356.85
346.79, 0.14, 356.96
346.44, 0.14, 357.09
¯345.56, 0.00, 357.41
345.10, 0.00, 357.58
344.59, 0.00, 357.77
344.01, 0.00, 357.98
343.51, 0.04, 358.16
343.08, 0.10, 358.32
342.34, 0.12, 358.59
341.20, 0.09, 359.01
340.60, 0.18, 359.23
339.94, 0.28, 359.47
338.30, 0.27, 360.06
340.95, 0.79, 359.09
341.34, 1.01, 358.95
341.34, 1.19, 358.95
341.34, 1.37, 358.95
348.17, 0.14, 356.54
347.94, 0.14, 356.63
347.70, 0.14, 356.72
347.43, 0.14, 356.82
347.14, 0.14, 356.93
346.83, 0.14, 357.05
346.48, 0.14, 357.19
345.60, 0.00, 357.52
345.14, 0.00, 357.70
344.63, 0.00, 357.89
344.05, 0.00, 358.11
343.54, 0.03, 358.31
343.11, 0.10, 358.47
342.21, 0.08, 358.81
341.23, 0.09, 359.19
340.63, 0.18, 359.42
339.96, 0.27, 359.67
342.32, 0.77, 358.77
342.32, 0.94, 358.77
342.32, 1.10, 358.77
342.32, 1.27, 358.77
342.16, 1.42, 358.82
348.20, 0.14, 356.61
347.97, 0.14, 356.70
347.73, 0.14, 356.80
347.46, 0.14, 356.90
347.18, 0.14, 357.02
346.86, 0.14, 357.14
346.51, 0.14, 357.28
346.13, 0.14, 357.44
345.19, 0.00, 357.81
344.67, 0.00, 358.01
344.10, 0.00, 358.24
343.57, 0.03, 358.45
343.14, 0.09, 358.62
342.08, 0.05, 359.04
¯341.26, 0.08, 359.37
340.66, 0.17, 359.61
339.99, 0.27, 359.87
342.31, 0.76, 358.95
342.31, 0.93, 358.95
342.31, 1.09, 358.95
342.31, 1.26, 358.95
342.15, 1.41, 359.01
348.22, 0.14, 356.68
348.00, 0.14, 356.78
347.76, 0.14, 356.88
347.49, 0.14, 356.99
347.21, 0.14, 357.10
346.89, 0.14, 357.23
346.55, 0.14, 357.38
346.17, 0.14, 357.53
345.74, 0.14, 357.71
344.72, 0.00, 358.13
344.15, 0.00, 358.37
343.60, 0.02, 358.60
343.17, 0.09, 358.77
341.96, 0.01, 359.28
341.29, 0.08, 359.55
340.69, 0.17, 359.80
340.02, 0.26, 360.08
342.30, 0.75, 359.13
342.30, 0.92, 359.13
342.30, 1.09, 359.13
342.30, 1.26, 359.13
342.13, 1.41, 359.20
348.25, 0.14, 356.75
348.03, 0.14, 356.85
347.79, 0.14, 356.95
347.53, 0.14, 357.07
347.24, 0.14, 357.19
346.93, 0.14, 357.32
346.59, 0.14, 357.47
346.21, 0.14, 357.63
345.78, 0.14, 357.82
344.77, 0.00, 358.25
344.20, 0.00, 358.50
343.63, 0.02, 358.74
343.10, 0.06, 358.97
341.94, 0.00, 359.47
341.33, 0.07, 359.73
340.73, 0.16, 359.99
340.05, 0.26, 360.28
342.28, 0.75, 359.32
342.28, 0.91, 359.32
342.28, 1.08, 359.32
342.28, 1.25, 359.31
¯342.12, 1.41, 359.39
339.67, 1.45, 360.44
339.65, 1.66, 360.44
348.28, 0.14, 356.82
348.06, 0.14, 356.92
347.82, 0.14, 357.03
347.56, 0.14, 357.15
347.28, 0.14, 357.27
346.97, 0.14, 357.41
346.63, 0.14, 357.56
346.25, 0.14, 357.73
345.83, 0.14, 357.92
345.36, 0.14, 358.13
344.25, 0.00, 358.63
343.66, 0.01, 358.89
343.00, 0.03, 359.18
342.01, 0.00, 359.63
341.37, 0.06, 359.91
340.77, 0.15, 360.18
340.08, 0.25, 360.49
342.27, 0.74, 359.51
342.27, 0.91, 359.50
342.27, 1.08, 359.50
342.27, 1.24, 359.50
342.10, 1.40, 359.58
340.11, 1.47, 360.47
340.09, 1.67, 360.47
340.07, 1.87, 360.48
348.31, 0.14, 356.89
348.09, 0.14, 357.00
347.85, 0.14, 357.11
347.60, 0.14, 357.23
347.31, 0.14, 357.36
347.01, 0.14, 357.50
346.67, 0.14, 357.66
346.29, 0.14, 357.83
345.87, 0.14, 358.03
345.40, 0.14, 358.24
344.30, 0.00, 358.75
343.70, 0.01, 359.03
342.93, 0.00, 359.39
342.07, 0.00, 359.79
341.40, 0.06, 360.10
340.80, 0.15, 360.37
340.11, 0.24, 360.70
342.26, 0.73, 359.70
342.26, 0.90, 359.70
342.26, 1.07, 359.69
342.26, 1.24, 359.69
342.08, 1.40, 359.77
340.35, 1.48, 360.58
¯340.35, 1.68, 360.57
340.35, 1.88, 360.57
340.19, 2.07, 360.65
340.17, 2.27, 360.65
340.16, 2.48, 360.66
348.34, 0.14, 356.96
348.12, 0.14, 357.07
347.89, 0.14, 357.18
347.63, 0.14, 357.31
347.35, 0.14, 357.44
347.04, 0.14, 357.59
346.71, 0.14, 357.75
346.33, 0.14, 357.93
345.92, 0.14, 358.13
345.45, 0.14, 358.35
344.93, 0.14, 358.60
343.73, 0.00, 359.18
342.99, 0.00, 359.54
342.14, 0.00, 359.94
341.44, 0.05, 360.28
340.84, 0.14, 360.57
340.14, 0.24, 360.90
342.25, 0.72, 359.89
342.25, 0.89, 359.89
342.25, 1.06, 359.89
342.25, 1.23, 359.89
342.07, 1.39, 359.97
340.34, 1.47, 360.80
340.34, 1.67, 360.80
340.34, 1.87, 360.80
339.96, 2.07, 360.98
339.91, 2.28, 361.00
340.25, 2.48, 360.84
348.38, 0.14, 357.03
348.16, 0.14, 357.14
347.92, 0.14, 357.26
347.67, 0.14, 357.38
347.39, 0.14, 357.52
347.09, 0.14, 357.67
346.75, 0.14, 357.84
346.38, 0.14, 358.03
345.97, 0.14, 358.23
345.50, 0.14, 358.46
344.98, 0.14, 358.72
343.78, 0.00, 359.32
343.06, 0.00, 359.68
342.21, 0.00, 360.10
341.48, 0.05, 360.46
340.87, 0.14, 360.77
340.18, 0.23, 361.11
342.23, 0.71, 360.09
¯342.23, 0.88, 360.09
342.23, 1.05, 360.08
342.23, 1.23, 360.08
342.05, 1.39, 360.17
340.52, 1.68, 360.93
340.40, 1.88, 360.99
340.36, 2.08, 361.01
340.32, 2.28, 361.03
340.28, 2.48, 361.05
348.41, 0.14, 357.10
348.19, 0.14, 357.21
347.96, 0.14, 357.33
347.71, 0.14, 357.46
347.43, 0.14, 357.61
347.13, 0.14, 357.76
346.79, 0.14, 357.93
346.43, 0.14, 358.12
346.01, 0.14, 358.33
345.56, 0.14, 358.57
345.04, 0.14, 358.84
344.45, 0.14, 359.14
343.12, 0.00, 359.83
342.28, 0.00, 360.26
341.53, 0.04, 360.65
340.91, 0.13, 360.97
340.21, 0.22, 361.32
342.22, 0.69, 360.29
342.22, 0.87, 360.29
342.22, 1.04, 360.28
342.22, 1.22, 360.28
341.21, 1.32, 360.80
340.53, 1.48, 361.15
340.91, 1.69, 360.96
341.45, 1.90, 360.68
341.43, 2.08, 360.68
341.42, 2.27, 360.69
341.40, 2.45, 360.70
348.44, 0.14, 357.17
348.23, 0.14, 357.28
348.00, 0.14, 357.41
347.75, 0.14, 357.54
347.47, 0.14, 357.69
347.17, 0.14, 357.85
346.84, 0.14, 358.02
346.47, 0.14, 358.22
346.07, 0.14, 358.44
345.61, 0.14, 358.68
345.09, 0.14, 358.95
344.51, 0.14, 359.27
343.19, 0.00, 359.97
342.36, 0.00, 360.41
¯341.57, 0.03, 360.83
340.95, 0.12, 361.16
340.26, 0.22, 361.53
341.88, 0.64, 360.67
341.84, 0.82, 360.68
341.76, 0.99, 360.72
341.65, 1.17, 360.78
341.22, 1.32, 361.01
341.46, 1.52, 360.88
341.59, 1.71, 360.81
341.80, 1.90, 360.70
341.78, 2.08, 360.71
341.77, 2.27, 360.71
341.76, 2.45, 360.72
348.48, 0.14, 357.24
348.27, 0.14, 357.35
348.04, 0.14, 357.48
347.79, 0.14, 357.62
347.51, 0.14, 357.77
347.21, 0.14, 357.93
346.89, 0.14, 358.11
346.52, 0.14, 358.31
346.12, 0.14, 358.54
345.66, 0.14, 358.79
345.15, 0.14, 359.07
344.57, 0.14, 359.39
343.90, 0.14, 359.76
342.44, 0.00, 360.57
341.61, 0.03, 361.02
341.79, 0.25, 360.92
342.01, 0.46, 360.80
342.00, 0.65, 360.80
342.10, 0.84, 360.75
342.08, 1.02, 360.76
341.98, 1.19, 360.81
341.79, 1.35, 360.92
341.51, 1.52, 361.07
341.50, 1.71, 361.07
341.79, 1.90, 360.91
341.79, 2.08, 360.91
341.79, 2.27, 360.91
341.79, 2.45, 360.91
348.51, 0.14, 357.30
348.30, 0.14, 357.42
348.08, 0.14, 357.55
347.83, 0.14, 357.69
347.56, 0.14, 357.85
347.26, 0.14, 358.02
346.93, 0.14, 358.20
346.57, 0.14, 358.41
346.17, 0.14, 358.64
¯345.72, 0.14, 358.89
345.21, 0.14, 359.18
344.64, 0.14, 359.51
343.97, 0.14, 359.89
342.52, 0.00, 360.72
341.66, 0.02, 361.21
342.00, 0.27, 361.01
342.01, 0.45, 361.01
342.01, 0.64, 361.00
342.01, 0.82, 361.01
342.00, 1.00, 361.01
341.17, 1.11, 361.48
342.00, 1.36, 361.01
341.85, 1.54, 361.09
341.82, 1.72, 361.11
341.82, 1.90, 361.10
341.81, 2.09, 361.11
341.77, 2.27, 361.13
341.74, 2.45, 361.15
348.55, 0.14, 357.37
348.34, 0.14, 357.49
348.12, 0.14, 357.63
347.87, 0.14, 357.77
347.60, 0.14, 357.93
347.31, 0.14, 358.10
346.98, 0.14, 358.29
346.62, 0.14, 358.50
346.23, 0.14, 358.74
345.78, 0.14, 359.00
345.27, 0.14, 359.30
344.70, 0.14, 359.63
344.04, 0.14, 360.02
343.28, 0.14, 360.47
341.71, 0.01, 361.40
341.99, 0.25, 361.23
342.01, 0.44, 361.21
342.02, 0.63, 361.21
342.01, 0.81, 361.21
341.99, 0.99, 361.22
341.86, 1.16, 361.30
341.15, 1.30, 361.71
342.00, 1.54, 361.22
341.95, 1.72, 361.24
341.94, 1.90, 361.25
341.93, 2.09, 361.25
341.92, 2.27, 361.26
341.91, 2.45, 361.26
348.59, 0.14, 357.44
348.38, 0.14, 357.56
348.16, 0.14, 357.70
347.91, 0.14, 357.85
¯347.65, 0.14, 358.01
347.35, 0.14, 358.19
347.03, 0.14, 358.38
346.68, 0.14, 358.60
346.28, 0.14, 358.84
345.84, 0.14, 359.11
345.34, 0.14, 359.41
344.77, 0.14, 359.75
344.12, 0.14, 360.15
343.36, 0.14, 360.61
341.76, 0.01, 361.58
341.98, 0.23, 361.45
342.00, 0.42, 361.44
342.00, 0.61, 361.43
342.00, 0.80, 361.43
341.98, 0.98, 361.44
341.14, 1.09, 361.95
341.83, 1.34, 361.53
341.96, 1.53, 361.45
341.95, 1.72, 361.46
341.94, 1.90, 361.46
341.92, 2.09, 361.47
341.91, 2.27, 361.47
341.90, 2.46, 361.48
348.63, 0.14, 357.50
348.42, 0.14, 357.63
348.20, 0.14, 357.77
347.96, 0.14, 357.92
347.69, 0.14, 358.09
347.40, 0.14, 358.27
347.08, 0.14, 358.47
346.73, 0.14, 358.69
346.34, 0.14, 358.93
345.90, 0.14, 359.21
345.40, 0.14, 359.52
344.84, 0.14, 359.87
344.19, 0.14, 360.28
343.44, 0.14, 360.75
342.55, 0.14, 361.31
341.95, 0.21, 361.68
341.96, 0.41, 361.67
341.97, 0.60, 361.67
341.97, 0.78, 361.67
341.95, 0.97, 361.68
341.76, 1.14, 361.79
342.04, 1.35, 361.62
341.95, 1.53, 361.67
341.95, 1.72, 361.68
341.93, 1.90, 361.68
341.92, 2.09, 361.69
341.91, 2.27, 361.69
¯341.90, 2.46, 361.70
348.67, 0.14, 357.57
348.46, 0.14, 357.70
348.24, 0.14, 357.84
348.00, 0.14, 358.00
347.74, 0.14, 358.16
347.45, 0.14, 358.35
347.14, 0.14, 358.55
346.79, 0.14, 358.78
346.40, 0.14, 359.03
345.96, 0.14, 359.31
345.47, 0.14, 359.63
344.91, 0.14, 359.99
344.27, 0.14, 360.41
343.52, 0.14, 360.89
342.64, 0.14, 361.46
341.25, 0.08, 362.36
339.63, 0.03, 363.41
338.78, 0.14, 363.96
341.83, 0.76, 361.98
341.91, 0.96, 361.92
342.03, 1.16, 361.85
342.00, 1.34, 361.86
341.93, 1.52, 361.91
341.93, 1.71, 361.91
341.92, 1.90, 361.92
341.90, 2.09, 361.92
341.89, 2.28, 361.93
341.88, 2.47, 361.93
348.71, 0.14, 357.63
348.51, 0.14, 357.76
348.29, 0.14, 357.91
348.05, 0.14, 358.07
347.79, 0.14, 358.24
347.50, 0.14, 358.43
347.19, 0.14, 358.64
346.84, 0.14, 358.87
346.46, 0.14, 359.13
346.03, 0.14, 359.42
345.54, 0.14, 359.74
344.98, 0.14, 360.11
344.34, 0.14, 360.54
343.60, 0.14, 361.03
342.73, 0.14, 361.61
341.77, 0.15, 362.25
339.69, 0.02, 363.64
341.90, 0.56, 362.16
341.99, 0.76, 362.10
341.74, 0.93, 362.27
341.96, 1.14, 362.12
341.42, 1.29, 362.47
¯341.91, 1.52, 362.15
341.90, 1.71, 362.15
341.90, 1.90, 362.15
341.89, 2.09, 362.16
341.87, 2.28, 362.17
341.86, 2.47, 362.17
348.75, 0.14, 357.69
348.55, 0.14, 357.83
348.33, 0.14, 357.98
348.10, 0.14, 358.14
347.84, 0.14, 358.32
347.56, 0.14, 358.51
347.25, 0.14, 358.73
346.90, 0.14, 358.96
346.52, 0.14, 359.22
346.09, 0.14, 359.52
345.61, 0.14, 359.85
345.06, 0.14, 360.23
344.42, 0.14, 360.66
343.69, 0.14, 361.17
342.83, 0.14, 361.76
341.88, 0.15, 362.41
339.75, 0.01, 363.87
341.92, 0.55, 362.38
341.95, 0.75, 362.36
341.70, 0.91, 362.53
341.94, 1.13, 362.36
341.62, 1.30, 362.58
341.89, 1.51, 362.39
341.88, 1.70, 362.40
341.88, 1.90, 362.40
341.87, 2.09, 362.40
341.85, 2.28, 362.41
341.84, 2.47, 362.42
348.79, 0.14, 357.76
348.59, 0.14, 357.90
348.38, 0.14, 358.05
348.14, 0.14, 358.22
347.89, 0.14, 358.40
347.61, 0.14, 358.59
347.30, 0.14, 358.81
346.96, 0.14, 359.05
346.58, 0.14, 359.32
346.16, 0.14, 359.62
345.68, 0.14, 359.96
345.13, 0.14, 360.35
344.51, 0.14, 360.79
343.78, 0.14, 361.30
342.93, 0.14, 361.90
341.99, 0.15, 362.57
339.82, 0.00, 364.10
¯338.97, 0.11, 364.70
341.92, 0.73, 362.61
341.91, 0.92, 362.62
341.92, 1.12, 362.61
341.85, 1.31, 362.65
341.87, 1.51, 362.64
341.86, 1.70, 362.65
341.85, 1.90, 362.65
341.85, 2.09, 362.65
341.83, 2.28, 362.66
348.84, 0.14, 357.82
348.64, 0.14, 357.96
348.43, 0.14, 358.12
348.19, 0.14, 358.29
347.94, 0.14, 358.47
347.66, 0.14, 358.67
347.36, 0.14, 358.89
347.02, 0.14, 359.14
346.65, 0.14, 359.41
346.23, 0.14, 359.72
345.75, 0.14, 360.07
345.21, 0.14, 360.46
344.59, 0.14, 360.91
343.87, 0.14, 361.44
343.03, 0.14, 362.05
342.10, 0.15, 362.72
340.87, 0.15, 363.62
339.04, 0.11, 364.95
337.08, 0.11, 366.38
335.67, 0.24, 367.40
333.69, 0.36, 368.85
348.88, 0.14, 357.88
348.69, 0.14, 358.03
348.47, 0.14, 358.19
348.24, 0.14, 358.36
347.99, 0.14, 358.55
347.72, 0.14, 358.75
347.42, 0.14, 358.98
347.08, 0.14, 359.23
346.71, 0.14, 359.51
346.29, 0.14, 359.82
345.82, 0.14, 360.17
345.29, 0.14, 360.57
344.67, 0.14, 361.04
343.96, 0.14, 361.57
343.13, 0.14, 362.19
342.22, 0.16, 362.88
340.95, 0.15, 363.83
339.11, 0.10, 365.21
337.14, 0.10, 366.68
335.81, 0.23, 367.68
¯333.86, 0.36, 369.14
348.93, 0.14, 357.94
348.73, 0.14, 358.09
348.52, 0.14, 358.25
348.30, 0.14, 358.43
348.05, 0.14, 358.62
347.78, 0.14, 358.83
347.48, 0.14, 359.06
347.15, 0.14, 359.32
346.78, 0.14, 359.60
346.37, 0.14, 359.92
345.90, 0.14, 360.28
345.37, 0.14, 360.69
344.76, 0.14, 361.16
344.05, 0.14, 361.70
343.23, 0.14, 362.34
342.33, 0.16, 363.03
341.03, 0.14, 364.03
339.18, 0.09, 365.46
337.21, 0.08, 366.98
335.95, 0.23, 367.96
334.03, 0.36, 369.44
348.97, 0.14, 358.00
348.78, 0.14, 358.16
348.57, 0.14, 358.32
348.35, 0.14, 358.50
348.10, 0.14, 358.69
347.83, 0.14, 358.91
347.54, 0.14, 359.14
347.21, 0.14, 359.40
346.85, 0.14, 359.69
346.44, 0.14, 360.02
345.98, 0.14, 360.38
345.45, 0.14, 360.80
344.85, 0.14, 361.28
344.15, 0.14, 361.84
343.34, 0.14, 362.48
342.45, 0.16, 363.18
341.15, 0.14, 364.22
339.87, 0.17, 365.23
337.29, 0.07, 367.29
336.02, 0.22, 368.29
334.20, 0.36, 369.73
349.02, 0.14, 358.06
348.83, 0.14, 358.22
348.62, 0.14, 358.39
348.40, 0.14, 358.57
348.16, 0.14, 358.77
347.89, 0.14, 358.98
347.60, 0.14, 359.22
347.28, 0.14, 359.49
¯346.92, 0.14, 359.78
346.51, 0.14, 360.11
346.06, 0.14, 360.49
345.54, 0.14, 360.91
344.94, 0.14, 361.40
344.25, 0.14, 361.97
343.45, 0.14, 362.62
342.57, 0.16, 363.33
341.28, 0.14, 364.39
340.04, 0.17, 365.41
337.37, 0.06, 367.58
336.09, 0.21, 368.63
334.38, 0.36, 370.03
349.07, 0.14, 358.12
348.88, 0.14, 358.28
348.68, 0.14, 358.45
348.46, 0.14, 358.64
348.22, 0.14, 358.84
347.95, 0.14, 359.06
347.66, 0.14, 359.30
347.34, 0.14, 359.57
346.99, 0.14, 359.87
346.59, 0.14, 360.21
346.14, 0.14, 360.59
345.62, 0.14, 361.02
345.03, 0.14, 361.52
344.34, 0.14, 362.09
343.56, 0.14, 362.76
342.69, 0.16, 363.48
341.41, 0.14, 364.57
340.20, 0.17, 365.58
337.46, 0.05, 367.88
336.17, 0.20, 368.97
334.53, 0.35, 370.34
349.11, 0.14, 358.18
348.93, 0.14, 358.34
348.73, 0.14, 358.52
348.51, 0.14, 358.70
348.27, 0.14, 358.91
348.01, 0.14, 359.13
347.73, 0.14, 359.38
347.41, 0.14, 359.66
347.06, 0.14, 359.96
346.66, 0.14, 360.30
346.22, 0.14, 360.69
345.71, 0.14, 361.13
345.12, 0.14, 361.63
344.45, 0.14, 362.22
343.67, 0.14, 362.89
342.82, 0.16, 363.63
341.54, 0.14, 364.74
¯340.37, 0.18, 365.75
338.28, 0.14, 367.55
336.26, 0.18, 369.31
334.55, 0.33, 370.78
349.16, 0.14, 358.24
348.98, 0.14, 358.40
348.78, 0.14, 358.58
348.57, 0.14, 358.77
348.33, 0.14, 358.98
348.08, 0.14, 359.21
347.79, 0.14, 359.46
347.48, 0.14, 359.74
347.13, 0.14, 360.05
346.74, 0.14, 360.40
346.30, 0.14, 360.79
345.80, 0.14, 361.24
345.22, 0.14, 361.75
344.55, 0.14, 362.35
343.78, 0.14, 363.03
342.94, 0.16, 363.78
341.67, 0.14, 364.91
340.53, 0.18, 365.92
338.46, 0.14, 367.77
336.35, 0.17, 369.64
349.21, 0.14, 358.30
349.03, 0.14, 358.46
348.84, 0.14, 358.64
348.63, 0.14, 358.84
348.39, 0.14, 359.05
348.14, 0.14, 359.28
347.86, 0.14, 359.54
347.55, 0.14, 359.82
347.21, 0.14, 360.14
346.82, 0.14, 360.49
346.38, 0.14, 360.89
345.89, 0.14, 361.34
345.32, 0.14, 361.87
344.65, 0.14, 362.47
343.90, 0.14, 363.16
343.07, 0.16, 363.92
341.81, 0.14, 365.07
340.70, 0.18, 366.09
338.63, 0.14, 367.98
336.45, 0.16, 369.98
349.27, 0.14, 358.35
349.09, 0.14, 358.52
348.89, 0.14, 358.70
348.68, 0.14, 358.90
348.46, 0.14, 359.12
348.20, 0.14, 359.35
347.93, 0.14, 359.61
¯347.62, 0.14, 359.90
347.28, 0.14, 360.22
346.90, 0.14, 360.58
346.47, 0.14, 360.99
345.98, 0.14, 361.45
345.41, 0.14, 361.98
344.76, 0.14, 362.60
344.01, 0.14, 363.30
343.19, 0.16, 364.07
341.95, 0.14, 365.24
340.83, 0.18, 366.29
338.81, 0.14, 368.19
337.22, 0.23, 369.69
349.32, 0.14, 358.41
349.14, 0.14, 358.58
348.95, 0.14, 358.77
348.74, 0.14, 358.97
348.52, 0.14, 359.19
348.27, 0.14, 359.42
348.00, 0.14, 359.69
347.69, 0.14, 359.98
347.36, 0.14, 360.31
346.98, 0.14, 360.67
346.56, 0.14, 361.08
346.07, 0.14, 361.55
345.51, 0.14, 362.09
344.87, 0.14, 362.72
344.13, 0.14, 363.43
343.31, 0.16, 364.22
342.09, 0.14, 365.40
340.97, 0.18, 366.49
339.00, 0.14, 368.40
337.43, 0.23, 369.91
349.37, 0.14, 358.47
349.20, 0.14, 358.64
349.01, 0.14, 358.83
348.80, 0.14, 359.03
348.58, 0.14, 359.25
348.34, 0.14, 359.50
348.07, 0.14, 359.76
347.77, 0.14, 360.06
347.44, 0.14, 360.39
347.06, 0.14, 360.76
346.64, 0.14, 361.18
346.17, 0.14, 361.66
345.62, 0.14, 362.20
344.98, 0.14, 362.84
344.25, 0.14, 363.56
343.43, 0.16, 364.37
342.23, 0.14, 365.57
341.12, 0.18, 366.67
¯339.18, 0.14, 368.61
337.65, 0.23, 370.13
349.42, 0.14, 358.52
349.25, 0.14, 358.70
349.07, 0.14, 358.89
348.86, 0.14, 359.09
348.64, 0.14, 359.32
348.40, 0.14, 359.57
348.14, 0.14, 359.84
347.84, 0.14, 360.14
347.52, 0.14, 360.47
347.15, 0.14, 360.85
346.73, 0.14, 361.27
346.26, 0.14, 361.76
345.72, 0.14, 362.31
345.09, 0.14, 362.96
344.37, 0.14, 363.69
343.56, 0.16, 364.52
