žVERSION 0.7
FIELDS x y z
SIZE 8 8 8
TYPE F F F
COUNT 1 1 1
WIDTH 2271
HEIGHT 1
VIEWPOINT 333.51, 7.46, 361.02 1 337.43, 2.51, 341.40
POINTS 2271
DATA ascii
344.52, 1.49, 338.28
344.63, 1.60, 338.21
344.74, 1.71, 338.14
344.86, 1.82, 338.06
344.98, 1.93, 337.99
345.10, 2.05, 337.91
345.30, 2.17, 337.78
345.64, 2.29, 337.57
354.58, 2.32, 331.91
342.46, 0.35, 339.47
342.69, 0.35, 339.32
¯342.94, 0.35, 339.16
343.07, 0.40, 339.08
343.14, 0.48, 339.03
343.22, 0.56, 338.98
343.29, 0.64, 338.93
343.37, 0.72, 338.88
343.45, 0.81, 338.83
343.53, 0.89, 338.78
343.61, 0.98, 338.73
343.69, 1.07, 338.67
343.80, 1.15, 338.60
343.98, 1.23, 338.49
344.17, 1.30, 338.36
344.28, 1.40, 338.29
344.39, 1.50, 338.22
344.50, 1.61, 338.15
344.61, 1.71, 338.08
344.72, 1.82, 338.01
344.83, 1.94, 337.93
345.00, 2.05, 337.82
345.22, 2.17, 337.68
345.56, 2.29, 337.46
354.36, 2.32, 331.71
342.42, 0.35, 339.40
342.65, 0.35, 339.25
342.89, 0.35, 339.08
343.01, 0.41, 339.01
343.08, 0.49, 338.96
343.15, 0.56, 338.91
343.22, 0.64, 338.86
343.30, 0.73, 338.81
343.38, 0.81, 338.76
343.46, 0.89, 338.71
343.54, 0.98, 338.65
343.62, 1.07, 338.60
343.70, 1.16, 338.54
343.83, 1.24, 338.46
344.01, 1.32, 338.34
344.16, 1.41, 338.23
344.26, 1.51, 338.17
344.36, 1.62, 338.10
344.47, 1.72, 338.03
344.58, 1.83, 337.95
344.71, 1.94, 337.87
344.91, 2.05, 337.73
345.13, 2.17, 337.58
345.49, 2.29, 337.34
354.14, 2.32, 331.52
342.37, 0.35, 339.33
342.60, 0.35, 339.18
342.84, 0.35, 339.00
¯342.94, 0.41, 338.94
343.01, 0.49, 338.89
343.08, 0.57, 338.84
343.16, 0.65, 338.79
343.23, 0.73, 338.74
343.31, 0.81, 338.68
343.39, 0.90, 338.63
343.47, 0.98, 338.57
343.55, 1.07, 338.52
343.63, 1.16, 338.46
343.71, 1.26, 338.40
343.85, 1.34, 338.31
344.03, 1.42, 338.18
344.13, 1.52, 338.11
344.23, 1.62, 338.04
344.34, 1.73, 337.97
344.45, 1.84, 337.90
344.63, 1.94, 337.77
344.83, 2.05, 337.63
345.05, 2.17, 337.48
345.41, 2.29, 337.23
353.92, 2.32, 331.33
342.32, 0.35, 339.26
342.55, 0.35, 339.10
342.79, 0.35, 338.93
342.88, 0.42, 338.87
342.95, 0.49, 338.82
343.02, 0.57, 338.77
343.09, 0.65, 338.71
343.17, 0.73, 338.66
343.24, 0.82, 338.61
343.32, 0.90, 338.55
343.39, 0.99, 338.50
343.47, 1.08, 338.44
343.56, 1.17, 338.38
343.64, 1.26, 338.33
343.72, 1.35, 338.27
343.87, 1.44, 338.16
344.01, 1.53, 338.06
344.11, 1.63, 337.99
344.21, 1.74, 337.92
344.36, 1.84, 337.81
344.55, 1.95, 337.68
344.75, 2.06, 337.53
344.96, 2.17, 337.38
345.34, 2.29, 337.12
353.71, 2.32, 331.14
342.27, 0.35, 339.19
342.49, 0.35, 339.03
342.74, 0.35, 338.85
342.81, 0.42, 338.80
¯342.88, 0.50, 338.75
342.95, 0.58, 338.69
343.02, 0.66, 338.64
343.10, 0.74, 338.59
343.17, 0.82, 338.53
343.25, 0.90, 338.48
343.32, 0.99, 338.42
343.40, 1.08, 338.37
343.48, 1.17, 338.31
343.56, 1.26, 338.25
343.65, 1.35, 338.19
343.73, 1.45, 338.12
343.89, 1.54, 338.01
343.98, 1.64, 337.94
344.10, 1.74, 337.85
344.28, 1.84, 337.72
344.47, 1.95, 337.58
344.67, 2.06, 337.44
344.88, 2.17, 337.29
345.26, 2.29, 337.00
353.50, 2.33, 330.94
342.22, 0.35, 339.13
342.44, 0.35, 338.96
342.68, 0.35, 338.78
342.75, 0.42, 338.73
342.82, 0.50, 338.68
342.89, 0.58, 338.62
342.96, 0.66, 338.57
343.03, 0.74, 338.52
343.10, 0.82, 338.46
343.18, 0.91, 338.41
343.25, 0.99, 338.35
343.33, 1.08, 338.29
343.41, 1.17, 338.23
343.49, 1.26, 338.17
343.57, 1.36, 338.11
343.66, 1.45, 338.04
343.74, 1.55, 337.98
343.86, 1.65, 337.89
344.03, 1.74, 337.76
344.20, 1.84, 337.63
344.39, 1.95, 337.49
344.58, 2.06, 337.34
344.79, 2.17, 337.19
345.18, 2.29, 336.89
353.31, 2.33, 330.73
342.17, 0.35, 339.06
342.39, 0.35, 338.89
342.62, 0.35, 338.71
342.69, 0.43, 338.66
342.75, 0.50, 338.61
¯342.82, 0.58, 338.55
342.89, 0.66, 338.50
342.96, 0.74, 338.44
343.03, 0.83, 338.39
343.11, 0.91, 338.33
343.18, 1.00, 338.27
343.26, 1.08, 338.21
343.34, 1.17, 338.15
343.42, 1.27, 338.09
343.50, 1.36, 338.03
343.58, 1.46, 337.96
343.67, 1.55, 337.90
343.79, 1.65, 337.80
343.95, 1.74, 337.68
344.13, 1.84, 337.54
344.31, 1.95, 337.40
344.50, 2.06, 337.25
344.71, 2.17, 337.09
345.11, 2.29, 336.78
353.13, 2.33, 330.52
342.12, 0.35, 338.99
342.34, 0.35, 338.82
342.56, 0.35, 338.64
342.62, 0.43, 338.59
342.69, 0.51, 338.54
342.76, 0.58, 338.48
342.82, 0.66, 338.43
342.89, 0.75, 338.37
342.96, 0.83, 338.32
343.04, 0.91, 338.26
343.11, 1.00, 338.20
343.19, 1.09, 338.14
343.26, 1.18, 338.08
343.34, 1.27, 338.01
343.42, 1.36, 337.95
343.51, 1.46, 337.88
343.63, 1.55, 337.79
343.73, 1.65, 337.71
343.88, 1.74, 337.59
344.05, 1.84, 337.45
344.23, 1.95, 337.31
344.42, 2.06, 337.15
344.62, 2.17, 336.99
345.03, 2.29, 336.66
352.94, 2.33, 330.31
342.07, 0.35, 338.93
342.28, 0.35, 338.75
342.49, 0.36, 338.57
342.56, 0.43, 338.52
342.62, 0.51, 338.47
342.69, 0.59, 338.41
¯342.76, 0.67, 338.36
342.83, 0.75, 338.30
342.90, 0.83, 338.24
342.97, 0.91, 338.19
343.04, 1.00, 338.13
343.11, 1.09, 338.06
343.19, 1.18, 338.00
343.27, 1.27, 337.94
343.36, 1.36, 337.86
343.47, 1.45, 337.77
343.59, 1.54, 337.68
343.68, 1.64, 337.60
343.80, 1.75, 337.50
343.97, 1.84, 337.36
344.15, 1.95, 337.21
344.34, 2.06, 337.06
344.54, 2.18, 336.89
344.95, 2.29, 336.55
345.62, 2.42, 336.00
342.01, 0.35, 338.86
342.22, 0.35, 338.68
342.43, 0.36, 338.51
342.49, 0.43, 338.45
342.56, 0.51, 338.40
342.62, 0.59, 338.34
342.69, 0.67, 338.29
342.76, 0.75, 338.23
342.83, 0.83, 338.17
342.90, 0.92, 338.11
342.97, 1.00, 338.05
343.04, 1.09, 337.99
343.12, 1.18, 337.93
343.21, 1.27, 337.85
343.32, 1.35, 337.75
343.44, 1.44, 337.66
343.54, 1.54, 337.57
343.64, 1.64, 337.49
343.73, 1.74, 337.40
343.89, 1.85, 337.27
344.07, 1.95, 337.12
344.25, 2.06, 336.96
344.45, 2.18, 336.80
344.87, 2.29, 336.44
352.52, 2.33, 329.94
341.96, 0.35, 338.80
342.17, 0.35, 338.62
342.37, 0.36, 338.44
342.43, 0.44, 338.39
342.49, 0.51, 338.33
342.56, 0.59, 338.28
342.62, 0.67, 338.22
¯342.69, 0.75, 338.16
342.76, 0.83, 338.10
342.83, 0.92, 338.04
342.90, 1.00, 337.98
342.97, 1.09, 337.92
343.06, 1.18, 337.83
343.17, 1.26, 337.74
343.29, 1.35, 337.64
343.40, 1.44, 337.54
343.49, 1.54, 337.46
343.59, 1.64, 337.38
343.69, 1.74, 337.29
343.81, 1.85, 337.18
343.99, 1.95, 337.03
344.17, 2.06, 336.87
344.37, 2.18, 336.70
344.80, 2.29, 336.32
352.28, 2.33, 329.79
341.90, 0.35, 338.73
342.11, 0.35, 338.55
342.30, 0.36, 338.37
342.36, 0.44, 338.32
342.43, 0.51, 338.26
342.49, 0.59, 338.21
342.56, 0.67, 338.15
342.62, 0.75, 338.09
342.69, 0.84, 338.03
342.76, 0.92, 337.97
342.83, 1.01, 337.90
342.92, 1.09, 337.82
343.03, 1.17, 337.73
343.14, 1.25, 337.63
343.25, 1.34, 337.53
343.35, 1.43, 337.43
343.45, 1.53, 337.35
343.54, 1.63, 337.26
343.64, 1.74, 337.18
343.74, 1.85, 337.09
343.91, 1.95, 336.94
344.09, 2.06, 336.77
344.28, 2.18, 336.60
344.72, 2.29, 336.21
352.04, 2.33, 329.63
341.85, 0.35, 338.67
342.05, 0.35, 338.48
342.24, 0.36, 338.31
342.30, 0.44, 338.25
342.36, 0.52, 338.20
342.42, 0.59, 338.14
342.49, 0.67, 338.08
342.55, 0.75, 338.02
¯342.62, 0.84, 337.96
342.69, 0.92, 337.90
342.78, 1.00, 337.81
342.88, 1.08, 337.71
342.99, 1.16, 337.62
343.10, 1.25, 337.52
343.21, 1.33, 337.41
343.31, 1.43, 337.32
343.40, 1.53, 337.24
343.49, 1.63, 337.15
343.59, 1.73, 337.06
343.69, 1.84, 336.97
343.83, 1.95, 336.85
344.01, 2.06, 336.68
344.19, 2.18, 336.51
344.64, 2.29, 336.10
351.80, 2.34, 329.48
341.79, 0.35, 338.61
341.99, 0.35, 338.42
342.17, 0.36, 338.24
342.23, 0.44, 338.19
342.29, 0.52, 338.13
342.36, 0.59, 338.07
342.42, 0.67, 338.01
342.48, 0.75, 337.95
342.55, 0.84, 337.89
342.65, 0.91, 337.80
342.74, 0.99, 337.70
342.85, 1.07, 337.61
342.95, 1.15, 337.51
343.06, 1.24, 337.40
343.17, 1.33, 337.30
343.26, 1.42, 337.21
343.35, 1.52, 337.13
343.45, 1.63, 337.04
343.54, 1.73, 336.95
343.64, 1.84, 336.85
343.75, 1.95, 336.75
343.92, 2.06, 336.59
344.11, 2.18, 336.41
344.56, 2.29, 335.98
351.56, 2.34, 329.33
341.73, 0.35, 338.55
341.93, 0.35, 338.35
342.11, 0.36, 338.18
342.17, 0.44, 338.12
342.23, 0.52, 338.06
342.29, 0.59, 338.00
342.35, 0.67, 337.94
342.42, 0.75, 337.87
342.51, 0.83, 337.78
¯342.61, 0.90, 337.69
342.71, 0.98, 337.60
342.81, 1.06, 337.50
342.91, 1.14, 337.39
343.02, 1.23, 337.29
343.12, 1.32, 337.19
343.21, 1.42, 337.10
343.30, 1.52, 337.01
343.40, 1.62, 336.92
343.49, 1.73, 336.83
343.59, 1.84, 336.73
343.70, 1.95, 336.63
343.84, 2.06, 336.49
344.02, 2.18, 336.31
351.31, 2.07, 329.19
351.51, 2.34, 329.00
341.67, 0.35, 338.49
341.87, 0.35, 338.29
342.04, 0.36, 338.11
342.10, 0.44, 338.05
342.16, 0.52, 337.99
342.22, 0.59, 337.93
342.29, 0.67, 337.86
342.38, 0.74, 337.78
342.47, 0.82, 337.68
342.57, 0.89, 337.59
342.67, 0.97, 337.49
342.77, 1.05, 337.39
342.87, 1.14, 337.28
342.98, 1.22, 337.17
343.07, 1.32, 337.08
343.16, 1.41, 336.99
343.25, 1.51, 336.90
343.35, 1.62, 336.81
343.44, 1.72, 336.71
343.54, 1.83, 336.61
343.65, 1.94, 336.51
343.75, 2.06, 336.40
343.94, 2.18, 336.22
351.25, 2.06, 328.87
351.45, 2.33, 328.66
341.61, 0.35, 338.43
341.80, 0.35, 338.23
341.98, 0.36, 338.05
342.04, 0.44, 337.99
342.10, 0.52, 337.93
342.16, 0.59, 337.86
342.25, 0.66, 337.77
342.34, 0.73, 337.67
342.43, 0.81, 337.58
342.53, 0.88, 337.48
¯342.63, 0.96, 337.38
342.73, 1.04, 337.28
342.83, 1.13, 337.17
342.94, 1.21, 337.06
343.02, 1.31, 336.97
343.11, 1.41, 336.88
343.20, 1.51, 336.79
343.30, 1.61, 336.69
343.39, 1.72, 336.59
343.49, 1.83, 336.49
343.60, 1.94, 336.38
343.70, 2.06, 336.27
343.85, 2.18, 336.12
351.19, 2.06, 328.53
351.39, 2.33, 328.32
341.55, 0.35, 338.37
341.74, 0.35, 338.17
341.91, 0.36, 337.98
341.97, 0.44, 337.92
342.04, 0.51, 337.85
342.12, 0.58, 337.76
342.21, 0.65, 337.67
342.30, 0.72, 337.57
342.39, 0.80, 337.48
342.49, 0.87, 337.38
342.58, 0.95, 337.27
342.69, 1.03, 337.16
342.79, 1.12, 337.05
342.89, 1.21, 336.95
342.97, 1.30, 336.86
343.06, 1.40, 336.77
343.15, 1.50, 336.67
343.25, 1.61, 336.57
343.34, 1.71, 336.47
343.44, 1.82, 336.36
343.54, 1.94, 336.25
343.65, 2.06, 336.14
343.76, 2.18, 336.02
351.13, 2.05, 328.19
351.28, 2.33, 328.03
341.49, 0.35, 338.31
341.68, 0.35, 338.11
341.85, 0.36, 337.92
341.92, 0.43, 337.84
342.00, 0.50, 337.75
342.08, 0.57, 337.66
342.17, 0.64, 337.57
342.26, 0.71, 337.47
342.35, 0.78, 337.37
342.44, 0.86, 337.27
342.54, 0.94, 337.16
¯342.64, 1.02, 337.05
342.75, 1.11, 336.94
342.84, 1.20, 336.84
342.92, 1.30, 336.75
343.01, 1.39, 336.65
343.10, 1.50, 336.55
343.19, 1.60, 336.45
343.29, 1.71, 336.35
343.39, 1.82, 336.24
343.49, 1.93, 336.13
343.60, 2.05, 336.01
350.85, 1.78, 328.08
350.97, 2.05, 327.95
351.10, 2.33, 327.81
341.43, 0.35, 338.25
341.61, 0.35, 338.05
341.80, 0.36, 337.84
341.88, 0.42, 337.75
341.96, 0.49, 337.66
342.04, 0.55, 337.56
342.13, 0.63, 337.47
342.22, 0.70, 337.37
342.31, 0.77, 337.26
342.40, 0.85, 337.16
342.50, 0.93, 337.05
342.60, 1.01, 336.94
342.70, 1.10, 336.82
342.79, 1.19, 336.73
342.87, 1.29, 336.63
342.96, 1.39, 336.53
343.05, 1.49, 336.43
343.14, 1.59, 336.33
343.24, 1.70, 336.22
343.34, 1.82, 336.11
343.44, 1.93, 336.00
343.57, 2.05, 335.85
350.67, 1.78, 327.87
350.79, 2.05, 327.73
350.91, 2.33, 327.59
341.36, 0.35, 338.20
341.54, 0.35, 337.99
341.73, 0.35, 337.78
341.83, 0.41, 337.65
341.91, 0.47, 337.56
342.00, 0.54, 337.46
342.08, 0.61, 337.36
342.17, 0.69, 337.26
342.26, 0.76, 337.16
342.36, 0.84, 337.05
342.46, 0.92, 336.94
342.56, 1.00, 336.82
¯342.65, 1.09, 336.71
342.73, 1.18, 336.62
342.82, 1.28, 336.52
342.91, 1.38, 336.42
343.00, 1.48, 336.31
343.09, 1.59, 336.21
343.18, 1.70, 336.10
343.28, 1.81, 335.98
343.42, 1.92, 335.82
350.36, 1.51, 327.79
350.48, 1.78, 327.66
350.60, 2.05, 327.52
350.73, 2.33, 327.37
341.30, 0.35, 338.14
341.48, 0.35, 337.93
341.66, 0.35, 337.71
341.79, 0.40, 337.56
341.87, 0.46, 337.46
341.95, 0.53, 337.36
342.04, 0.60, 337.26
342.13, 0.67, 337.16
342.22, 0.75, 337.05
342.31, 0.83, 336.94
342.41, 0.91, 336.82
342.51, 0.99, 336.70
342.60, 1.08, 336.60
342.68, 1.17, 336.50
342.76, 1.27, 336.40
342.85, 1.37, 336.30
342.94, 1.48, 336.19
343.03, 1.58, 336.08
343.13, 1.69, 335.97
343.27, 1.80, 335.80
350.07, 1.24, 327.72
350.18, 1.51, 327.58
350.30, 1.78, 327.44
350.42, 2.05, 327.30
350.54, 2.33, 327.15
340.98, 0.49, 338.40
341.41, 0.35, 337.87
341.59, 0.35, 337.65
341.71, 0.39, 337.50
341.83, 0.45, 337.36
341.91, 0.51, 337.26
341.99, 0.59, 337.16
342.08, 0.66, 337.05
342.17, 0.73, 336.94
342.27, 0.81, 336.82
342.37, 0.89, 336.71
342.46, 0.98, 336.59
342.54, 1.07, 336.49
¯342.63, 1.17, 336.39
342.71, 1.26, 336.28
342.80, 1.37, 336.18
342.89, 1.47, 336.07
342.98, 1.58, 335.96
343.12, 1.68, 335.79
343.28, 1.79, 335.59
349.89, 1.24, 327.50
350.00, 1.50, 327.36
350.12, 1.78, 327.22
350.23, 2.05, 327.08
350.35, 2.33, 326.93
340.92, 0.49, 338.35
341.05, 0.51, 338.19
341.52, 0.35, 337.59
341.64, 0.39, 337.44
341.77, 0.44, 337.28
341.86, 0.50, 337.16
341.95, 0.57, 337.05
342.04, 0.65, 336.94
342.13, 0.72, 336.83
342.22, 0.80, 336.71
342.32, 0.88, 336.59
342.41, 0.97, 336.47
342.49, 1.06, 336.37
342.57, 1.16, 336.27
342.65, 1.26, 336.17
342.74, 1.36, 336.06
342.83, 1.46, 335.95
342.97, 1.56, 335.77
343.12, 1.67, 335.58
349.59, 0.97, 327.43
349.70, 1.23, 327.29
349.82, 1.50, 327.15
349.93, 1.77, 327.00
350.05, 2.05, 326.86
340.85, 0.50, 338.31
340.98, 0.51, 338.14
341.45, 0.35, 337.53
341.57, 0.39, 337.37
341.70, 0.43, 337.21
341.82, 0.49, 337.06
341.90, 0.56, 336.95
341.99, 0.63, 336.83
342.08, 0.71, 336.72
342.17, 0.79, 336.59
342.27, 0.87, 336.47
342.35, 0.96, 336.36
342.43, 1.05, 336.26
342.51, 1.15, 336.15
342.60, 1.25, 336.05
¯342.69, 1.35, 335.93
342.83, 1.44, 335.75
342.97, 1.54, 335.56
343.13, 1.65, 335.36
349.39, 0.97, 327.24
349.51, 1.23, 327.09
349.63, 1.50, 326.93
349.74, 1.77, 326.79
349.86, 2.05, 326.64
340.78, 0.50, 338.27
340.91, 0.51, 338.10
341.05, 0.53, 337.91
341.50, 0.39, 337.31
341.62, 0.43, 337.15
341.75, 0.48, 336.97
341.85, 0.54, 336.84
341.94, 0.62, 336.72
342.03, 0.69, 336.60
342.13, 0.77, 336.48
342.22, 0.85, 336.35
342.30, 0.95, 336.25
342.38, 1.04, 336.14
342.46, 1.14, 336.04
342.55, 1.24, 335.92
342.68, 1.33, 335.73
342.83, 1.42, 335.54
342.98, 1.53, 335.34
349.08, 0.71, 327.20
349.19, 0.97, 327.05
349.31, 1.23, 326.89
349.43, 1.50, 326.73
349.55, 1.77, 326.57
349.67, 2.05, 326.41
340.72, 0.50, 338.23
340.84, 0.52, 338.05
340.98, 0.53, 337.87
341.12, 0.55, 337.67
341.55, 0.43, 337.08
341.67, 0.48, 336.91
341.80, 0.53, 336.73
341.89, 0.60, 336.61
341.98, 0.68, 336.49
342.08, 0.76, 336.36
342.16, 0.84, 336.24
342.24, 0.94, 336.13
342.32, 1.03, 336.03
342.41, 1.13, 335.90
342.54, 1.21, 335.72
342.68, 1.31, 335.53
342.83, 1.40, 335.33
344.55, 1.22, 332.96
¯348.88, 0.70, 327.02
348.99, 0.96, 326.86
349.11, 1.23, 326.70
349.22, 1.50, 326.54
349.35, 1.77, 326.38
349.47, 2.05, 326.21
340.65, 0.50, 338.19
340.77, 0.52, 338.01
340.90, 0.54, 337.83
341.04, 0.55, 337.63
341.47, 0.43, 337.02
341.60, 0.47, 336.84
341.73, 0.52, 336.66
341.84, 0.59, 336.50
341.93, 0.66, 336.37
342.02, 0.74, 336.24
342.11, 0.83, 336.12
342.18, 0.92, 336.02
342.27, 1.02, 335.89
342.40, 1.10, 335.71
342.54, 1.19, 335.52
342.68, 1.28, 335.32
342.82, 1.38, 335.11
345.19, 1.08, 331.77
348.68, 0.70, 326.83
348.79, 0.96, 326.67
348.90, 1.23, 326.51
349.02, 1.49, 326.34
349.14, 1.77, 326.18
349.27, 2.05, 325.99
340.58, 0.51, 338.15
340.70, 0.52, 337.97
340.83, 0.54, 337.78
340.97, 0.56, 337.58
341.11, 0.57, 337.37
341.52, 0.47, 336.78
341.65, 0.52, 336.59
341.79, 0.57, 336.39
341.88, 0.65, 336.25
341.97, 0.73, 336.12
342.05, 0.82, 336.01
342.14, 0.91, 335.88
342.26, 0.99, 335.70
342.39, 1.07, 335.51
342.53, 1.16, 335.31
342.67, 1.26, 335.10
344.04, 1.10, 333.11
345.09, 1.06, 331.57
348.48, 0.70, 326.64
348.59, 0.96, 326.48
348.70, 1.22, 326.31
¯348.82, 1.49, 326.14
348.95, 1.77, 325.95
349.08, 2.05, 325.76
340.51, 0.51, 338.11
340.63, 0.52, 337.93
340.75, 0.54, 337.74
340.89, 0.56, 337.54
341.03, 0.58, 337.32
341.19, 0.60, 337.09
341.57, 0.52, 336.52
341.70, 0.57, 336.32
341.83, 0.63, 336.13
341.91, 0.71, 336.00
342.00, 0.80, 335.87
342.12, 0.88, 335.69
342.25, 0.96, 335.50
342.38, 1.05, 335.30
342.52, 1.14, 335.09
342.67, 1.23, 334.87
343.99, 1.08, 332.88
345.00, 1.05, 331.37
348.27, 0.69, 326.45
348.38, 0.96, 326.28
348.50, 1.22, 326.11
348.62, 1.49, 325.92
348.75, 1.76, 325.73
348.89, 2.04, 325.53
340.44, 0.51, 338.07
340.56, 0.53, 337.89
340.68, 0.54, 337.70
340.81, 0.56, 337.50
340.95, 0.58, 337.28
341.10, 0.60, 337.05
341.48, 0.52, 336.46
341.62, 0.57, 336.25
341.76, 0.62, 336.03
341.87, 0.69, 335.86
341.99, 0.77, 335.68
342.11, 0.85, 335.49
342.24, 0.93, 335.29
342.37, 1.02, 335.08
342.51, 1.11, 334.86
343.57, 0.98, 333.23
343.94, 1.06, 332.65
344.95, 1.03, 331.09
348.07, 0.69, 326.26
348.18, 0.95, 326.08
348.31, 1.22, 325.89
348.43, 1.49, 325.70
348.56, 1.76, 325.50
348.69, 2.04, 325.30
¯340.37, 0.51, 338.03
340.49, 0.53, 337.85
340.61, 0.55, 337.66
340.73, 0.56, 337.46
340.87, 0.58, 337.24
341.02, 0.60, 337.00
341.18, 0.63, 336.75
341.53, 0.56, 336.18
341.67, 0.62, 335.96
341.85, 0.66, 335.67
341.97, 0.74, 335.48
342.09, 0.82, 335.29
342.22, 0.90, 335.08
342.36, 0.99, 334.86
343.20, 0.88, 333.51
343.52, 0.96, 333.00
343.89, 1.04, 332.41
344.93, 1.00, 330.76
347.88, 0.68, 326.05
347.99, 0.94, 325.86
348.12, 1.21, 325.67
348.24, 1.48, 325.47
348.37, 1.76, 325.27
348.49, 2.04, 325.07
340.30, 0.52, 338.00
340.41, 0.53, 337.82
340.53, 0.55, 337.62
340.65, 0.57, 337.42
340.79, 0.58, 337.20
340.93, 0.61, 336.96
341.09, 0.63, 336.70
341.26, 0.65, 336.42
341.59, 0.61, 335.87
341.83, 0.63, 335.48
341.95, 0.70, 335.28
342.08, 0.78, 335.07
342.21, 0.87, 334.86
342.35, 0.96, 334.63
343.15, 0.86, 333.31
343.47, 0.94, 332.77
343.84, 1.02, 332.17
344.89, 0.97, 330.43
347.68, 0.68, 325.83
347.80, 0.94, 325.64
347.92, 1.20, 325.45
348.04, 1.48, 325.25
348.17, 1.76, 325.04
340.23, 0.52, 337.96
340.34, 0.53, 337.78
340.45, 0.55, 337.59
340.58, 0.57, 337.38
¯340.71, 0.59, 337.16
340.85, 0.61, 336.92
341.00, 0.63, 336.66
341.16, 0.65, 336.38
341.35, 0.68, 336.07
341.81, 0.59, 335.28
341.93, 0.67, 335.07
342.06, 0.75, 334.86
342.19, 0.83, 334.63
342.82, 0.77, 333.56
343.10, 0.84, 333.09
343.42, 0.91, 332.54
343.81, 0.99, 331.88
344.86, 0.95, 330.10
347.49, 0.67, 325.63
347.61, 0.93, 325.42
347.73, 1.20, 325.22
347.85, 1.47, 325.02
347.97, 1.75, 324.81
340.16, 0.52, 337.93
340.27, 0.54, 337.74
340.38, 0.55, 337.55
340.50, 0.57, 337.34
340.62, 0.59, 337.12
340.76, 0.61, 336.88
340.91, 0.63, 336.62
341.07, 0.66, 336.33
341.25, 0.68, 336.02
341.77, 0.56, 335.10
341.91, 0.63, 334.86
342.04, 0.71, 334.63
342.18, 0.80, 334.39
342.76, 0.74, 333.36
343.04, 0.81, 332.87
343.37, 0.89, 332.30
343.73, 0.97, 331.67
347.17, 0.41, 325.62
347.28, 0.66, 325.42
347.40, 0.93, 325.21
347.52, 1.19, 325.00
347.65, 1.47, 324.79
347.77, 1.75, 324.57
340.09, 0.52, 337.89
340.19, 0.54, 337.71
340.30, 0.55, 337.51
340.42, 0.57, 337.30
340.54, 0.59, 337.08
340.68, 0.61, 336.84
340.82, 0.63, 336.58
340.99, 0.65, 336.27
341.16, 0.68, 335.96
¯341.34, 0.71, 335.63
341.89, 0.59, 334.63
342.02, 0.68, 334.39
342.45, 0.65, 333.61
342.70, 0.72, 333.16
342.99, 0.79, 332.64
343.31, 0.86, 332.05
343.67, 0.95, 331.40
346.97, 0.40, 325.42
347.08, 0.66, 325.21
347.20, 0.92, 325.00
347.32, 1.19, 324.79
347.44, 1.46, 324.57
347.56, 1.75, 324.34
340.02, 0.52, 337.86
340.12, 0.54, 337.68
340.23, 0.56, 337.48
340.34, 0.57, 337.27
340.46, 0.59, 337.04
340.59, 0.61, 336.80
340.73, 0.64, 336.54
340.90, 0.65, 336.21
341.06, 0.68, 335.91
341.24, 0.71, 335.58
341.87, 0.55, 334.40
342.16, 0.57, 333.84
342.39, 0.63, 333.42
342.63, 0.70, 332.96
342.93, 0.76, 332.41
343.26, 0.84, 331.79
343.61, 0.92, 331.13
346.76, 0.39, 325.21
346.88, 0.65, 325.00
346.99, 0.91, 324.79
347.11, 1.18, 324.57
347.23, 1.46, 324.35
347.36, 1.74, 324.09
339.95, 0.52, 337.83
340.05, 0.54, 337.64
340.15, 0.56, 337.44
340.26, 0.58, 337.23
340.38, 0.60, 337.00
340.50, 0.62, 336.76
340.64, 0.64, 336.50
340.81, 0.65, 336.16
340.97, 0.68, 335.85
341.14, 0.71, 335.51
341.84, 0.51, 334.16
342.10, 0.54, 333.66
342.32, 0.61, 333.23
342.57, 0.67, 332.75
¯342.86, 0.74, 332.17
343.19, 0.81, 331.53
343.55, 0.89, 330.85
346.56, 0.38, 325.00
346.67, 0.64, 324.79
346.78, 0.91, 324.57
346.89, 1.18, 324.35
347.02, 1.45, 324.10
347.18, 1.73, 323.80
339.88, 0.53, 337.80
339.97, 0.54, 337.61
340.07, 0.56, 337.41
340.18, 0.58, 337.20
340.29, 0.60, 336.97
340.41, 0.62, 336.72
340.55, 0.64, 336.45
340.72, 0.65, 336.11
340.87, 0.68, 335.80
341.06, 0.70, 335.42
341.44, 0.64, 334.66
342.03, 0.52, 333.48
342.25, 0.58, 333.03
342.50, 0.64, 332.53
342.80, 0.71, 331.93
343.13, 0.78, 331.27
343.48, 0.87, 330.56
346.35, 0.37, 324.79
346.46, 0.63, 324.58
346.57, 0.90, 324.35
346.69, 1.17, 324.11
346.84, 1.44, 323.81
339.81, 0.53, 337.77
339.90, 0.54, 337.58
340.00, 0.56, 337.38
340.10, 0.58, 337.16
340.21, 0.60, 336.93
340.33, 0.62, 336.69
340.47, 0.64, 336.40
340.63, 0.65, 336.06
340.78, 0.68, 335.75
340.98, 0.69, 335.33
341.35, 0.63, 334.55
341.96, 0.49, 333.30
342.18, 0.55, 332.83
342.43, 0.62, 332.30
342.73, 0.68, 331.68
343.06, 0.75, 331.00
343.42, 0.84, 330.26
346.14, 0.36, 324.58
346.25, 0.62, 324.36
346.37, 0.89, 324.11
¯346.50, 1.16, 323.82
346.65, 1.44, 323.53
339.74, 0.53, 337.74
339.82, 0.55, 337.55
339.92, 0.56, 337.35
340.02, 0.58, 337.13
340.12, 0.60, 336.90
340.24, 0.62, 336.65
340.38, 0.63, 336.35
340.53, 0.65, 336.02
340.68, 0.68, 335.70
340.90, 0.68, 335.23
341.25, 0.62, 334.47
341.88, 0.47, 333.11
342.10, 0.53, 332.63
342.36, 0.59, 332.07
342.66, 0.65, 331.42
342.99, 0.72, 330.72
343.35, 0.81, 329.93
345.93, 0.35, 324.37
346.04, 0.61, 324.12
346.18, 0.87, 323.84
346.31, 1.15, 323.54
346.46, 1.43, 323.23
339.66, 0.53, 337.71
339.75, 0.55, 337.52
339.84, 0.56, 337.32
339.94, 0.58, 337.10
340.04, 0.60, 336.87
340.15, 0.62, 336.62
340.30, 0.63, 336.29
340.44, 0.65, 335.97
340.58, 0.68, 335.65
340.81, 0.66, 335.13
341.15, 0.62, 334.38
341.49, 0.59, 333.61
342.02, 0.50, 332.42
342.29, 0.56, 331.83
342.59, 0.62, 331.16
342.91, 0.69, 330.44
345.14, 0.22, 325.44
345.72, 0.34, 324.13
345.85, 0.59, 323.85
345.98, 0.86, 323.55
346.12, 1.14, 323.25
346.26, 1.42, 322.94
339.59, 0.53, 337.68
339.67, 0.55, 337.49
339.76, 0.57, 337.29
339.85, 0.58, 337.07
339.95, 0.60, 336.84
¯340.06, 0.62, 336.58
340.21, 0.63, 336.24
340.35, 0.65, 335.92
340.48, 0.67, 335.61
340.73, 0.65, 335.04
341.05, 0.61, 334.30
341.38, 0.58, 333.52
341.94, 0.47, 332.21
342.21, 0.52, 331.59
342.51, 0.59, 330.89
342.83, 0.66, 330.14
344.93, 0.21, 325.26
345.51, 0.32, 323.91
345.65, 0.58, 323.58
345.79, 0.85, 323.26
345.92, 1.12, 322.95
346.06, 1.41, 322.63
339.52, 0.53, 337.65
339.60, 0.55, 337.46
339.68, 0.57, 337.26
339.77, 0.59, 337.04
339.87, 0.61, 336.81
339.98, 0.62, 336.54
340.12, 0.62, 336.19
340.25, 0.65, 335.88
340.38, 0.67, 335.56
340.64, 0.64, 334.94
340.94, 0.60, 334.22
341.27, 0.57, 333.43
341.86, 0.44, 331.98
342.13, 0.49, 331.33
342.43, 0.55, 330.61
342.76, 0.62, 329.81
344.71, 0.20, 325.09
345.29, 0.31, 323.68
345.43, 0.57, 323.35
345.57, 0.83, 323.00
345.72, 1.11, 322.65
346.71, 1.28, 320.25
339.45, 0.53, 337.63
339.52, 0.55, 337.44
339.60, 0.57, 337.23
339.69, 0.59, 337.01
339.78, 0.61, 336.78
339.90, 0.62, 336.49
340.04, 0.62, 336.14
340.16, 0.64, 335.84
340.29, 0.67, 335.51
340.55, 0.63, 334.85
340.83, 0.59, 334.14
341.15, 0.56, 333.34
¯341.48, 0.55, 332.51
342.05, 0.46, 331.08
342.34, 0.52, 330.33
342.69, 0.58, 329.45
344.49, 0.19, 324.92
345.07, 0.30, 323.46
345.21, 0.56, 323.12
345.35, 0.82, 322.77
345.49, 1.10, 322.40
339.37, 0.54, 337.60
339.45, 0.55, 337.41
339.52, 0.57, 337.20
339.61, 0.59, 336.98
339.70, 0.61, 336.75
339.81, 0.62, 336.45
339.95, 0.62, 336.10
340.06, 0.64, 335.79
340.19, 0.67, 335.45
340.46, 0.62, 334.76
340.72, 0.59, 334.06
341.03, 0.56, 333.26
341.34, 0.55, 332.43
341.96, 0.42, 330.81
342.25, 0.48, 330.04
342.62, 0.54, 329.08
344.27, 0.18, 324.76
344.85, 0.28, 323.23
344.98, 0.54, 322.88
345.12, 0.81, 322.52
345.28, 1.09, 322.10
339.30, 0.54, 337.58
339.37, 0.55, 337.38
339.45, 0.57, 337.18
339.53, 0.59, 336.96
339.61, 0.61, 336.72
339.73, 0.61, 336.40
339.86, 0.62, 336.05
339.97, 0.64, 335.75
340.10, 0.66, 335.39
340.36, 0.61, 334.67
340.61, 0.58, 333.98
340.90, 0.55, 333.19
341.21, 0.54, 332.35
341.87, 0.39, 330.54
342.17, 0.44, 329.71
343.14, 0.26, 327.05
344.03, 0.18, 324.61
344.62, 0.27, 323.00
344.75, 0.53, 322.64
344.88, 0.80, 322.28
345.08, 1.07, 321.73
¯339.23, 0.54, 337.55
339.29, 0.55, 337.36
339.37, 0.57, 337.15
339.44, 0.59, 336.93
339.53, 0.61, 336.68
339.64, 0.61, 336.36
339.76, 0.61, 336.02
339.87, 0.64, 335.71
340.00, 0.65, 335.32
340.26, 0.60, 334.59
340.50, 0.57, 333.91
340.77, 0.55, 333.12
341.07, 0.54, 332.28
341.76, 0.35, 330.30
342.09, 0.39, 329.36
342.94, 0.25, 326.91
343.79, 0.17, 324.47
344.39, 0.25, 322.76
344.52, 0.52, 322.40
344.69, 0.78, 321.92
345.09, 1.01, 320.75
339.15, 0.54, 337.53
339.22, 0.56, 337.34
339.29, 0.57, 337.13
339.36, 0.59, 336.91
339.45, 0.60, 336.64
339.56, 0.61, 336.32
339.67, 0.61, 335.98
339.77, 0.64, 335.67
339.91, 0.64, 335.25
340.15, 0.59, 334.53
340.39, 0.57, 333.83
340.65, 0.55, 333.06
340.93, 0.53, 332.20
341.61, 0.34, 330.18
342.00, 0.35, 329.00
342.74, 0.24, 326.78
343.55, 0.17, 324.34
344.16, 0.24, 322.53
344.30, 0.50, 322.11
344.49, 0.76, 321.55
345.06, 0.95, 319.84
339.08, 0.54, 337.51
339.14, 0.56, 337.31
339.21, 0.57, 337.11
339.28, 0.59, 336.88
339.37, 0.60, 336.61
339.47, 0.60, 336.28
339.58, 0.61, 335.94
339.67, 0.64, 335.63
339.82, 0.63, 335.17
¯340.04, 0.59, 334.48
340.27, 0.56, 333.76
340.52, 0.54, 332.99
340.79, 0.53, 332.13
341.14, 0.50, 331.02
341.91, 0.30, 328.62
342.53, 0.23, 326.65
343.31, 0.16, 324.21
343.92, 0.22, 322.29
344.09, 0.47, 321.75
344.28, 0.73, 321.17
339.00, 0.54, 337.49
339.06, 0.56, 337.29
339.13, 0.57, 337.08
339.19, 0.59, 336.86
339.28, 0.60, 336.57
339.38, 0.60, 336.24
339.48, 0.61, 335.91
339.58, 0.64, 335.60
339.73, 0.62, 335.10
339.93, 0.58, 334.42
340.15, 0.55, 333.69
340.39, 0.54, 332.93
340.65, 0.52, 332.06
340.99, 0.49, 330.93
341.81, 0.25, 328.23
342.33, 0.22, 326.52
343.07, 0.15, 324.08
343.71, 0.19, 321.96
343.89, 0.44, 321.37
344.07, 0.71, 320.78
338.93, 0.54, 337.47
338.99, 0.56, 337.27
339.05, 0.58, 337.06
339.11, 0.59, 336.84
339.20, 0.60, 336.53
339.29, 0.60, 336.20
339.39, 0.61, 335.87
339.48, 0.63, 335.56
339.63, 0.61, 335.03
339.82, 0.58, 334.36
340.04, 0.55, 333.62
340.25, 0.53, 332.87
340.51, 0.52, 331.98
340.83, 0.49, 330.85
341.63, 0.24, 328.09
342.11, 0.22, 326.40
342.82, 0.15, 323.96
343.46, 0.18, 321.73
343.66, 0.42, 321.04
343.88, 0.67, 320.25
¯338.85, 0.54, 337.45
338.91, 0.56, 337.25
338.97, 0.58, 337.04
339.03, 0.59, 336.81
339.11, 0.59, 336.50
339.20, 0.59, 336.16
339.29, 0.61, 335.84
339.38, 0.63, 335.52
339.53, 0.60, 334.96
339.71, 0.57, 334.30
339.92, 0.54, 333.55
340.12, 0.53, 332.81
340.37, 0.51, 331.91
340.68, 0.48, 330.76
341.43, 0.23, 328.02
341.90, 0.21, 326.28
342.57, 0.14, 323.84
343.20, 0.16, 321.50
343.40, 0.40, 320.80
343.72, 0.63, 319.61
338.78, 0.54, 337.43
338.83, 0.56, 337.23
338.88, 0.58, 337.02
338.95, 0.59, 336.77
339.03, 0.59, 336.47
339.11, 0.59, 336.13
339.20, 0.60, 335.81
339.28, 0.63, 335.48
339.43, 0.60, 334.89
339.60, 0.57, 334.24
339.79, 0.54, 333.50
339.99, 0.53, 332.75
340.22, 0.51, 331.84
340.52, 0.47, 330.68
341.23, 0.23, 327.94
341.68, 0.20, 326.17
342.31, 0.14, 323.72
342.95, 0.14, 321.26
343.13, 0.39, 320.55
343.53, 0.59, 319.00
338.70, 0.54, 337.42
338.75, 0.56, 337.22
338.80, 0.58, 337.00
338.87, 0.59, 336.74
338.94, 0.59, 336.43
339.02, 0.59, 336.09
339.10, 0.60, 335.77
339.19, 0.62, 335.43
339.33, 0.59, 334.83
339.49, 0.56, 334.19
339.67, 0.53, 333.45
¯339.85, 0.52, 332.69
340.08, 0.50, 331.77
340.36, 0.47, 330.60
340.73, 0.41, 329.09
341.46, 0.20, 326.08
342.06, 0.13, 323.61
342.69, 0.13, 321.02
342.87, 0.37, 320.28
338.63, 0.54, 337.40
338.67, 0.56, 337.20
338.72, 0.58, 336.99
338.78, 0.58, 336.72
338.86, 0.58, 336.40
338.93, 0.58, 336.06
339.01, 0.60, 335.74
339.09, 0.62, 335.39
339.23, 0.58, 334.76
339.37, 0.55, 334.13
339.54, 0.53, 333.41
339.71, 0.52, 332.64
339.93, 0.50, 331.70
340.20, 0.46, 330.52
340.55, 0.41, 328.99
341.23, 0.19, 325.99
341.80, 0.13, 323.51
342.42, 0.11, 320.78
342.63, 0.34, 319.87
338.55, 0.54, 337.38
338.60, 0.56, 337.18
338.64, 0.58, 336.97
338.70, 0.58, 336.69
338.77, 0.58, 336.37
338.84, 0.58, 336.03
338.91, 0.60, 335.71
338.99, 0.61, 335.34
339.13, 0.57, 334.70
339.26, 0.55, 334.08
339.41, 0.53, 333.36
339.58, 0.51, 332.59
339.78, 0.49, 331.63
340.03, 0.46, 330.45
340.37, 0.40, 328.89
341.00, 0.19, 325.91
341.54, 0.12, 323.41
342.15, 0.09, 320.54
342.38, 0.31, 319.46
338.48, 0.54, 337.37
338.52, 0.56, 337.17
338.56, 0.58, 336.95
338.62, 0.58, 336.66
338.68, 0.58, 336.35
¯338.75, 0.58, 336.00
338.81, 0.60, 335.68
338.89, 0.61, 335.30
339.02, 0.56, 334.65
339.14, 0.54, 334.03
339.28, 0.52, 333.32
339.44, 0.51, 332.54
339.63, 0.48, 331.57
339.87, 0.45, 330.38
340.18, 0.39, 328.80
340.77, 0.18, 325.83
341.28, 0.12, 323.31
341.88, 0.07, 320.28
342.13, 0.27, 319.03
338.40, 0.54, 337.35
338.44, 0.56, 337.15
338.48, 0.57, 336.92
338.53, 0.57, 336.63
338.59, 0.57, 336.32
338.66, 0.57, 335.97
338.71, 0.59, 335.66
338.79, 0.60, 335.26
338.91, 0.56, 334.61
339.02, 0.54, 333.98
339.15, 0.52, 333.28
339.30, 0.51, 332.49
339.48, 0.48, 331.51
339.70, 0.44, 330.31
339.99, 0.38, 328.72
340.54, 0.18, 325.75
341.01, 0.11, 323.22
341.60, 0.05, 320.03
341.86, 0.24, 318.59
338.33, 0.54, 337.34
338.36, 0.56, 337.14
338.40, 0.57, 336.90
338.45, 0.57, 336.61
338.50, 0.57, 336.29
338.56, 0.57, 335.94
338.62, 0.59, 335.63
338.69, 0.60, 335.23
338.80, 0.55, 334.58
338.91, 0.53, 333.93
339.02, 0.51, 333.23
339.16, 0.50, 332.45
339.33, 0.47, 331.45
339.53, 0.44, 330.24
339.80, 0.38, 328.66
340.31, 0.17, 325.68
340.74, 0.11, 323.13
341.30, 0.04, 319.88
¯341.56, 0.22, 318.32
338.25, 0.54, 337.33
338.28, 0.56, 337.13
338.32, 0.57, 336.88
338.37, 0.57, 336.59
338.42, 0.57, 336.27
338.47, 0.57, 335.91
338.52, 0.59, 335.61
338.58, 0.59, 335.19
338.68, 0.55, 334.54
338.79, 0.53, 333.89
338.89, 0.51, 333.20
339.02, 0.50, 332.41
339.17, 0.47, 331.41
339.36, 0.43, 330.19
339.61, 0.38, 328.61
339.89, 0.33, 326.81
340.47, 0.10, 323.05
340.98, 0.03, 319.79
338.17, 0.54, 337.32
338.20, 0.56, 337.12
338.24, 0.57, 336.86
338.28, 0.56, 336.56
338.33, 0.56, 336.24
338.38, 0.56, 335.89
338.42, 0.59, 335.58
338.48, 0.59, 335.15
338.57, 0.55, 334.51
338.66, 0.52, 333.85
338.76, 0.51, 333.16
338.87, 0.49, 332.37
339.02, 0.47, 331.37
339.19, 0.43, 330.14
339.41, 0.37, 328.55
339.67, 0.33, 326.76
340.20, 0.10, 322.97
340.67, 0.03, 319.71
338.10, 0.54, 337.31
338.12, 0.56, 337.11
338.16, 0.56, 336.84
338.19, 0.56, 336.54
338.24, 0.56, 336.22
338.28, 0.56, 335.86
338.32, 0.58, 335.56
338.38, 0.58, 335.12
338.46, 0.54, 334.48
338.54, 0.51, 333.81
338.63, 0.50, 333.12
338.73, 0.49, 332.33
338.86, 0.46, 331.33
339.02, 0.43, 330.09
¯339.22, 0.37, 328.50
339.45, 0.33, 326.71
339.93, 0.09, 322.89
340.35, 0.02, 319.63
338.02, 0.54, 337.30
338.04, 0.56, 337.09
338.07, 0.56, 336.82
338.11, 0.56, 336.52
338.15, 0.56, 336.20
338.19, 0.56, 335.84
338.22, 0.58, 335.53
338.27, 0.57, 335.08
338.34, 0.54, 334.45
338.42, 0.51, 333.78
338.50, 0.50, 333.09
338.59, 0.49, 332.29
338.70, 0.46, 331.29
338.84, 0.42, 330.04
339.02, 0.36, 328.46
339.22, 0.33, 326.66
339.66, 0.09, 322.81
340.03, 0.02, 319.55
337.94, 0.54, 337.29
337.97, 0.56, 337.08
337.99, 0.56, 336.80
338.02, 0.56, 336.51
338.05, 0.55, 336.18
338.09, 0.55, 335.82
338.12, 0.57, 335.51
338.17, 0.57, 335.04
338.23, 0.53, 334.42
338.29, 0.51, 333.75
338.36, 0.50, 333.06
338.44, 0.48, 332.25
338.54, 0.46, 331.25
338.67, 0.41, 329.98
338.82, 0.36, 328.41
339.00, 0.32, 326.61
339.39, 0.08, 322.72
339.71, 0.01, 319.47
337.87, 0.54, 337.28
337.89, 0.55, 337.06
337.91, 0.55, 336.79
337.93, 0.55, 336.49
337.96, 0.55, 336.16
337.99, 0.55, 335.80
338.02, 0.57, 335.48
338.06, 0.56, 335.00
338.11, 0.53, 334.39
338.17, 0.50, 333.73
338.23, 0.49, 333.03
¯338.30, 0.48, 332.21
338.38, 0.45, 331.21
338.49, 0.41, 329.93
338.62, 0.36, 328.37
338.78, 0.32, 326.56
339.11, 0.07, 322.63
339.39, 0.01, 319.40
337.79, 0.54, 337.28
337.81, 0.55, 337.05
337.83, 0.55, 336.77
337.85, 0.55, 336.47
337.87, 0.55, 336.14
337.90, 0.55, 335.78
337.92, 0.57, 335.45
337.95, 0.55, 334.97
338.00, 0.53, 334.37
338.04, 0.50, 333.70
338.09, 0.49, 333.00
338.15, 0.47, 332.18
338.22, 0.45, 331.17
338.31, 0.40, 329.88
338.42, 0.35, 328.34
338.55, 0.31, 326.51
338.73, 0.24, 324.01
339.06, 0.00, 319.34
337.71, 0.54, 337.27
337.73, 0.55, 337.04
337.74, 0.55, 336.76
337.76, 0.55, 336.46
337.78, 0.55, 336.13
337.80, 0.54, 335.77
337.82, 0.56, 335.43
337.85, 0.55, 334.93
337.88, 0.52, 334.35
337.92, 0.50, 333.68
337.96, 0.49, 332.98
338.01, 0.47, 332.14
338.06, 0.44, 331.14
338.14, 0.40, 329.84
338.22, 0.35, 328.31
338.33, 0.31, 326.46
338.47, 0.23, 323.95
338.74, 0.00, 319.28
337.64, 0.54, 337.27
337.65, 0.55, 337.02
337.66, 0.55, 336.75
337.67, 0.54, 336.44
337.69, 0.54, 336.11
337.70, 0.54, 335.75
337.72, 0.56, 335.41
337.74, 0.54, 334.90
¯337.76, 0.52, 334.32
337.79, 0.50, 333.66
337.82, 0.48, 332.96
337.86, 0.46, 332.11
337.90, 0.44, 331.10
337.96, 0.39, 329.80
338.02, 0.35, 328.28
338.10, 0.30, 326.42
338.21, 0.23, 323.90
338.41, 0.00, 319.27
337.56, 0.54, 337.26
337.57, 0.54, 337.01
337.58, 0.54, 336.73
337.58, 0.54, 336.43
337.59, 0.54, 336.10
337.60, 0.54, 335.74
337.61, 0.55, 335.39
337.63, 0.53, 334.88
337.65, 0.51, 334.30
337.66, 0.49, 333.64
337.68, 0.48, 332.94
337.71, 0.46, 332.09
337.74, 0.43, 331.08
337.78, 0.39, 329.78
337.82, 0.35, 328.25
337.87, 0.30, 326.39
337.95, 0.23, 323.86
338.08, 0.00, 319.26
337.48, 0.54, 337.26
337.49, 0.54, 337.00
337.49, 0.54, 336.72
337.50, 0.54, 336.42
337.50, 0.54, 336.08
337.51, 0.54, 335.72
337.51, 0.55, 335.37
337.52, 0.53, 334.85
337.53, 0.51, 334.28
337.54, 0.49, 333.63
337.55, 0.48, 332.92
337.56, 0.46, 332.07
337.58, 0.43, 331.05
337.59, 0.39, 329.76
337.62, 0.34, 328.24
337.65, 0.30, 326.36
337.68, 0.22, 323.82
337.75, 0.00, 319.26
337.41, 0.54, 337.25
337.41, 0.54, 337.00
337.41, 0.54, 336.72
337.41, 0.53, 336.41
337.41, 0.53, 336.07
¯337.41, 0.53, 335.71
337.41, 0.54, 335.35
337.41, 0.52, 334.83
337.41, 0.51, 334.27
337.41, 0.49, 333.62
337.41, 0.47, 332.91
337.41, 0.45, 332.05
337.41, 0.43, 331.04
337.41, 0.38, 329.75
337.41, 0.34, 328.23
337.42, 0.29, 326.33
337.42, 0.22, 323.79
337.42, 0.00, 319.26
337.33, 0.54, 337.25
337.33, 0.54, 336.99
337.32, 0.53, 336.71
337.32, 0.53, 336.40
337.31, 0.53, 336.06
337.31, 0.53, 335.70
337.30, 0.54, 335.33
337.30, 0.52, 334.80
337.29, 0.50, 334.25
337.28, 0.48, 333.60
337.27, 0.47, 332.89
337.26, 0.45, 332.04
337.25, 0.42, 331.02
337.23, 0.38, 329.74
337.21, 0.34, 328.22
337.19, 0.29, 326.31
337.15, 0.21, 323.76
337.11, 0.14, 320.60
337.25, 0.53, 337.24
337.24, 0.53, 336.98
337.24, 0.53, 336.70
337.23, 0.53, 336.39
337.22, 0.53, 336.06
337.21, 0.52, 335.69
337.20, 0.53, 335.31
337.18, 0.51, 334.79
337.17, 0.50, 334.24
337.15, 0.48, 333.59
337.13, 0.47, 332.88
337.11, 0.45, 332.03
337.08, 0.42, 331.01
337.05, 0.38, 329.73
337.01, 0.34, 328.22
336.96, 0.29, 326.30
336.89, 0.21, 323.74
336.80, 0.14, 320.60
337.17, 0.53, 337.24
337.16, 0.53, 336.98
¯337.15, 0.53, 336.70
337.14, 0.53, 336.39
337.12, 0.52, 336.05
337.11, 0.52, 335.68
337.09, 0.53, 335.30
337.07, 0.50, 334.77
337.05, 0.49, 334.22
337.02, 0.48, 333.59
336.99, 0.46, 332.87
336.96, 0.44, 332.03
336.92, 0.42, 331.00
336.87, 0.38, 329.72
336.80, 0.34, 328.21
336.72, 0.28, 326.28
336.62, 0.21, 323.72
336.49, 0.14, 320.61
337.10, 0.53, 337.23
337.08, 0.53, 336.97
337.07, 0.53, 336.69
337.05, 0.52, 336.38
337.03, 0.52, 336.04
337.01, 0.52, 335.67
336.99, 0.52, 335.29
336.96, 0.50, 334.76
336.93, 0.49, 334.21
336.89, 0.48, 333.58
336.86, 0.46, 332.87
336.81, 0.44, 332.02
336.75, 0.41, 331.00
336.68, 0.37, 329.72
336.60, 0.33, 328.21
336.49, 0.28, 326.27
336.35, 0.20, 323.71
336.18, 0.14, 320.62
337.02, 0.53, 337.23
337.00, 0.52, 336.97
336.98, 0.52, 336.69
336.96, 0.52, 336.38
336.94, 0.52, 336.04
336.91, 0.51, 335.66
336.88, 0.52, 335.28
336.85, 0.50, 334.75
336.81, 0.49, 334.21
336.77, 0.47, 333.58
336.72, 0.46, 332.86
336.66, 0.44, 332.02
336.59, 0.41, 331.00
336.50, 0.37, 329.72
336.40, 0.33, 328.21
336.26, 0.28, 326.26
336.08, 0.20, 323.70
¯335.87, 0.14, 320.63
336.94, 0.52, 337.23
336.92, 0.52, 336.97
336.89, 0.52, 336.69
336.87, 0.52, 336.38
336.84, 0.51, 336.04
336.81, 0.51, 335.66
336.78, 0.51, 335.27
336.73, 0.49, 334.75
336.69, 0.48, 334.20
336.64, 0.47, 333.57
336.58, 0.46, 332.86
336.51, 0.44, 332.02
336.42, 0.41, 331.00
336.32, 0.37, 329.73
336.19, 0.33, 328.21
336.03, 0.27, 326.26
335.82, 0.20, 323.71
335.56, 0.14, 320.65
336.86, 0.52, 337.23
336.84, 0.52, 336.97
336.81, 0.52, 336.69
336.78, 0.51, 336.37
336.75, 0.51, 336.03
336.71, 0.51, 335.66
336.67, 0.51, 335.26
336.62, 0.49, 334.75
336.57, 0.48, 334.20
336.51, 0.47, 333.57
336.44, 0.45, 332.86
336.36, 0.44, 332.02
336.26, 0.41, 331.00
336.13, 0.37, 329.73
335.99, 0.33, 328.21
335.80, 0.27, 326.27
335.55, 0.19, 323.72
335.26, 0.14, 320.68
336.78, 0.52, 337.23
336.75, 0.52, 336.97
336.72, 0.51, 336.69
336.69, 0.51, 336.37
336.65, 0.51, 336.03
336.61, 0.50, 335.66
336.56, 0.50, 335.25
336.51, 0.49, 334.74
336.45, 0.48, 334.20
336.38, 0.46, 333.58
336.30, 0.45, 332.86
336.20, 0.43, 332.03
336.09, 0.41, 331.00
335.95, 0.37, 329.74
¯335.78, 0.32, 328.22
335.57, 0.27, 326.28
335.28, 0.19, 323.73
334.95, 0.14, 320.72
336.71, 0.52, 337.23
336.67, 0.51, 336.97
336.64, 0.51, 336.69
336.60, 0.51, 336.38
336.55, 0.50, 336.03
336.51, 0.50, 335.66
336.46, 0.50, 335.25
336.39, 0.48, 334.75
336.33, 0.47, 334.20
336.25, 0.46, 333.58
336.16, 0.45, 332.87
336.05, 0.43, 332.03
335.93, 0.40, 331.01
335.77, 0.37, 329.76
335.58, 0.32, 328.23
335.33, 0.27, 326.29
335.02, 0.19, 323.75
334.64, 0.14, 320.76
336.63, 0.51, 337.24
336.59, 0.51, 336.98
336.55, 0.51, 336.69
336.51, 0.50, 336.38
336.46, 0.50, 336.04
336.41, 0.50, 335.66
336.35, 0.49, 335.25
336.28, 0.48, 334.75
336.20, 0.47, 334.21
336.03, 0.31, 332.92
335.92, 0.30, 332.16
335.84, 0.34, 331.62
335.76, 0.40, 331.02
335.59, 0.36, 329.78
335.37, 0.32, 328.25
335.10, 0.26, 326.31
334.75, 0.19, 323.78
334.33, 0.14, 320.81
336.55, 0.51, 337.24
336.51, 0.51, 336.98
336.46, 0.50, 336.70
336.42, 0.50, 336.38
336.36, 0.50, 336.04
336.31, 0.49, 335.66
336.24, 0.49, 335.24
336.17, 0.48, 334.75
335.99, 0.32, 333.61
335.89, 0.31, 332.95
335.77, 0.29, 332.18
¯335.63, 0.27, 331.25
335.47, 0.26, 330.25
335.40, 0.36, 329.80
335.17, 0.32, 328.27
334.87, 0.26, 326.33
334.48, 0.19, 323.81
334.03, 0.14, 320.86
336.47, 0.51, 337.25
336.43, 0.51, 336.99
336.38, 0.50, 336.70
336.33, 0.50, 336.39
336.27, 0.49, 336.05
336.20, 0.49, 335.67
336.13, 0.48, 335.24
335.96, 0.33, 334.21
335.86, 0.32, 333.63
335.75, 0.31, 332.97
335.62, 0.29, 332.20
335.47, 0.27, 331.27
335.28, 0.23, 330.16
335.12, 0.26, 329.23
334.96, 0.32, 328.29
334.64, 0.26, 326.36
334.22, 0.19, 323.85
333.72, 0.14, 320.91
336.39, 0.51, 337.26
336.34, 0.50, 336.99
336.29, 0.50, 336.71
336.24, 0.50, 336.40
336.17, 0.49, 336.05
336.10, 0.49, 335.68
335.93, 0.34, 334.72
335.84, 0.33, 334.23
335.73, 0.32, 333.65
335.61, 0.31, 332.99
335.47, 0.29, 332.22
335.31, 0.27, 331.30
335.10, 0.23, 330.19
334.86, 0.19, 328.85
334.73, 0.29, 328.15
334.41, 0.26, 326.39
333.95, 0.19, 323.89
333.42, 0.14, 320.97
336.31, 0.50, 337.26
336.26, 0.50, 337.00
336.21, 0.50, 336.72
336.14, 0.49, 336.40
336.08, 0.49, 336.06
336.00, 0.48, 335.68
335.82, 0.34, 334.75
335.72, 0.33, 334.25
¯335.61, 0.32, 333.67
335.48, 0.31, 333.01
335.33, 0.29, 332.25
335.14, 0.27, 331.33
334.93, 0.23, 330.22
334.66, 0.19, 328.88
334.37, 0.17, 327.38
334.18, 0.26, 326.43
333.69, 0.18, 323.94
333.12, 0.14, 321.04
336.24, 0.50, 337.27
336.18, 0.50, 337.01
336.12, 0.49, 336.73
336.05, 0.49, 336.41
335.98, 0.48, 336.07
335.80, 0.34, 335.21
335.71, 0.34, 334.77
335.60, 0.33, 334.28
335.48, 0.32, 333.70
335.34, 0.31, 333.04
335.18, 0.29, 332.28
334.98, 0.27, 331.36
334.75, 0.23, 330.26
334.47, 0.19, 328.92
334.12, 0.14, 327.28
333.91, 0.23, 326.27
333.43, 0.18, 323.99
332.82, 0.14, 321.11
336.16, 0.50, 337.28
336.10, 0.49, 337.02
336.03, 0.49, 336.74
335.96, 0.49, 336.42
335.78, 0.35, 335.63
335.69, 0.34, 335.24
335.60, 0.34, 334.80
335.48, 0.33, 334.31
335.36, 0.32, 333.74
335.20, 0.31, 333.06
335.03, 0.29, 332.31
334.83, 0.26, 331.39
334.58, 0.23, 330.29
334.28, 0.19, 328.96
333.90, 0.14, 327.32
333.46, 0.09, 325.36
333.16, 0.18, 324.05
332.51, 0.14, 321.18
336.08, 0.50, 337.30
336.02, 0.49, 337.03
335.95, 0.49, 336.75
335.87, 0.48, 336.44
335.69, 0.35, 335.66
¯335.59, 0.34, 335.26
335.48, 0.34, 334.83
335.37, 0.33, 334.34
335.23, 0.32, 333.77
335.07, 0.30, 333.09
334.89, 0.29, 332.34
334.67, 0.26, 331.43
334.40, 0.23, 330.33
334.08, 0.19, 329.01
333.68, 0.14, 327.35
333.19, 0.08, 325.32
332.85, 0.16, 323.90
332.22, 0.14, 321.26
336.00, 0.49, 337.31
335.93, 0.49, 337.05
335.86, 0.49, 336.76
335.68, 0.35, 336.04
335.59, 0.35, 335.68
335.49, 0.34, 335.29
335.37, 0.34, 334.85
335.25, 0.33, 334.37
335.11, 0.32, 333.81
334.93, 0.31, 333.13
334.74, 0.29, 332.37
334.51, 0.26, 331.47
334.23, 0.23, 330.38
333.89, 0.19, 329.05
333.47, 0.13, 327.39
332.95, 0.08, 325.36
332.30, 0.01, 322.84
331.92, 0.14, 321.34
335.92, 0.49, 337.32
335.85, 0.49, 337.06
335.67, 0.35, 336.38
335.58, 0.35, 336.06
335.49, 0.35, 335.71
335.38, 0.34, 335.32
335.26, 0.34, 334.89
335.13, 0.33, 334.40
334.98, 0.33, 333.85
334.80, 0.31, 333.18
334.59, 0.29, 332.41
334.35, 0.26, 331.51
334.06, 0.23, 330.42
333.70, 0.19, 329.09
333.25, 0.13, 327.43
332.70, 0.07, 325.40
332.02, 0.01, 322.91
331.29, 0.00, 320.19
335.85, 0.49, 337.34
335.66, 0.35, 336.69
¯335.58, 0.35, 336.41
335.49, 0.35, 336.09
335.39, 0.35, 335.74
335.28, 0.34, 335.35
335.15, 0.34, 334.92
335.02, 0.33, 334.44
334.86, 0.33, 333.89
334.67, 0.31, 333.22
334.45, 0.29, 332.45
334.19, 0.26, 331.56
333.88, 0.23, 330.47
333.50, 0.18, 329.13
333.03, 0.13, 327.48
332.45, 0.07, 325.44
331.75, 0.01, 323.01
330.98, 0.00, 320.29
335.77, 0.49, 337.35
335.58, 0.35, 336.72
335.49, 0.35, 336.43
335.40, 0.35, 336.12
335.29, 0.35, 335.77
335.18, 0.34, 335.38
335.05, 0.34, 334.95
334.90, 0.33, 334.47
334.74, 0.33, 333.93
334.54, 0.31, 333.27
334.31, 0.29, 332.50
334.04, 0.26, 331.60
333.71, 0.23, 330.52
333.31, 0.18, 329.18
332.81, 0.13, 327.53
332.20, 0.06, 325.49
331.48, 0.02, 323.11
330.66, 0.00, 320.39
335.58, 0.35, 337.01
335.49, 0.35, 336.75
335.40, 0.35, 336.46
335.30, 0.35, 336.15
335.20, 0.35, 335.80
335.07, 0.34, 335.42
335.22, 0.59, 335.87
335.23, 0.71, 335.93
335.24, 0.82, 335.93
335.24, 0.92, 335.93
335.23, 1.03, 335.94
335.23, 1.13, 335.94
335.23, 1.24, 335.94
335.23, 1.34, 335.94
335.23, 1.44, 335.94
335.23, 1.55, 335.94
335.23, 1.65, 335.94
¯335.23, 1.75, 335.94
335.23, 1.85, 335.94
335.23, 1.95, 335.94
335.23, 2.05, 335.94
335.23, 2.15, 335.93
335.22, 2.25, 335.89
335.50, 0.35, 337.04
335.41, 0.35, 336.77
335.32, 0.35, 336.49
335.21, 0.35, 336.18
335.10, 0.35, 335.84
335.13, 0.49, 335.93
335.16, 0.62, 336.03
335.17, 0.73, 336.05
335.17, 0.84, 336.05
335.17, 0.94, 336.05
335.17, 1.05, 336.06
335.17, 1.15, 336.06
335.17, 1.25, 336.06
335.17, 1.36, 336.06
335.17, 1.46, 336.06
335.17, 1.56, 336.06
335.17, 1.66, 336.06
335.17, 1.76, 336.06
335.17, 1.86, 336.06
335.17, 1.96, 336.06
335.17, 2.06, 336.06
335.17, 2.16, 336.05
335.15, 2.26, 336.02
335.13, 2.35, 335.95
335.42, 0.35, 337.06
335.33, 0.35, 336.80
335.23, 0.35, 336.52
335.12, 0.35, 336.21
335.00, 0.35, 335.87
335.06, 0.51, 336.05
335.09, 0.64, 336.11
335.09, 0.75, 336.13
335.09, 0.85, 336.13
335.09, 0.95, 336.13
335.09, 1.06, 336.13
335.09, 1.16, 336.13
335.09, 1.26, 336.13
335.09, 1.36, 336.13
335.09, 1.46, 336.13
335.09, 1.56, 336.13
335.09, 1.66, 336.13
335.09, 1.76, 336.13
335.09, 1.86, 336.13
335.09, 1.96, 336.13
335.09, 2.06, 336.13
¯335.09, 2.16, 336.13
335.08, 2.26, 336.10
335.06, 2.35, 336.04
335.01, 2.45, 335.92
335.34, 0.35, 337.09
335.24, 0.35, 336.83
335.14, 0.35, 336.55
335.03, 0.35, 336.25
334.91, 0.35, 335.91
334.98, 0.52, 336.11
335.00, 0.64, 336.16
335.00, 0.75, 336.18
335.00, 0.85, 336.18
335.00, 0.96, 336.18
335.00, 1.06, 336.18
335.00, 1.16, 336.18
335.00, 1.26, 336.18
335.00, 1.36, 336.18
335.00, 1.47, 336.18
335.00, 1.57, 336.18
335.00, 1.67, 336.18
335.00, 1.76, 336.18
335.00, 1.86, 336.18
335.00, 1.96, 336.18
335.00, 2.06, 336.18
335.00, 2.16, 336.18
334.99, 2.26, 336.15
334.97, 2.35, 336.10
334.93, 2.45, 335.99
335.26, 0.35, 337.12
335.16, 0.35, 336.87
335.05, 0.35, 336.59
334.94, 0.35, 336.28
334.81, 0.35, 335.95
334.88, 0.51, 336.13
334.90, 0.64, 336.19
334.91, 0.75, 336.20
334.91, 0.85, 336.20
334.91, 0.95, 336.20
334.91, 1.06, 336.20
334.91, 1.16, 336.20
334.91, 1.26, 336.20
334.91, 1.36, 336.20
334.91, 1.46, 336.20
334.91, 1.56, 336.20
334.91, 1.66, 336.20
334.91, 1.76, 336.20
334.91, 1.86, 336.20
334.91, 1.96, 336.20
334.90, 2.06, 336.20
334.90, 2.16, 336.20
¯334.89, 2.26, 336.18
334.87, 2.35, 336.12
334.83, 2.45, 336.00
335.18, 0.35, 337.15
335.08, 0.35, 336.90
334.97, 0.35, 336.62
334.85, 0.35, 336.32
334.72, 0.35, 335.98
334.76, 0.50, 336.10
334.80, 0.63, 336.18
334.80, 0.74, 336.21
334.80, 0.84, 336.21
334.80, 0.95, 336.21
334.80, 1.05, 336.21
334.80, 1.15, 336.21
334.80, 1.25, 336.21
334.80, 1.36, 336.21
334.80, 1.46, 336.21
334.80, 1.56, 336.20
334.80, 1.66, 336.20
334.80, 1.76, 336.20
334.80, 1.86, 336.20
334.80, 1.96, 336.20
334.80, 2.06, 336.20
334.80, 2.16, 336.20
334.79, 2.25, 336.17
334.76, 2.35, 336.11
334.69, 2.45, 335.93
335.10, 0.35, 337.19
335.00, 0.35, 336.93
334.88, 0.35, 336.65
334.76, 0.35, 336.35
334.62, 0.35, 336.02
334.47, 0.35, 335.65
334.67, 0.60, 336.13
334.68, 0.72, 336.17
334.68, 0.82, 336.17
334.68, 0.93, 336.17
334.68, 1.03, 336.17
334.68, 1.14, 336.17
334.68, 1.24, 336.17
334.68, 1.34, 336.17
334.68, 1.45, 336.17
334.68, 1.55, 336.17
334.68, 1.65, 336.17
334.68, 1.75, 336.17
334.68, 1.85, 336.17
334.68, 1.95, 336.17
334.68, 2.05, 336.17
334.68, 2.15, 336.16
334.66, 2.25, 336.13
¯334.62, 2.35, 336.02
335.02, 0.35, 337.22
334.92, 0.35, 336.97
334.80, 0.35, 336.69
334.67, 0.35, 336.39
334.53, 0.35, 336.06
334.37, 0.35, 335.70
334.20, 0.34, 335.28
334.00, 0.34, 334.83
334.51, 0.77, 336.02
334.51, 0.88, 336.02
334.51, 0.99, 336.02
334.51, 1.10, 336.01
334.50, 1.20, 336.01
334.50, 1.31, 336.01
334.50, 1.41, 336.01
334.50, 1.52, 336.00
334.50, 1.62, 336.00
334.50, 1.73, 336.00
334.50, 1.83, 336.00
334.49, 1.93, 335.99
334.49, 2.04, 335.99
334.95, 0.35, 337.25
334.84, 0.35, 337.00
334.71, 0.35, 336.73
334.58, 0.35, 336.43
334.44, 0.35, 336.11
334.28, 0.35, 335.74
334.09, 0.34, 335.33
333.89, 0.34, 334.88
333.66, 0.33, 334.37
333.40, 0.32, 333.76
333.06, 0.29, 333.01
332.68, 0.27, 332.15
332.22, 0.23, 331.12
331.67, 0.19, 329.86
330.94, 0.12, 328.24
330.08, 0.06, 326.29
329.07, 0.01, 324.01
327.94, 0.00, 321.48
334.87, 0.35, 337.29
334.76, 0.35, 337.04
334.63, 0.35, 336.77
334.49, 0.35, 336.47
334.34, 0.35, 336.15
334.18, 0.35, 335.79
333.99, 0.34, 335.38
333.78, 0.34, 334.93
333.55, 0.33, 334.42
333.28, 0.32, 333.83
332.93, 0.30, 333.08
¯332.53, 0.27, 332.22
332.07, 0.23, 331.20
331.48, 0.19, 329.94
330.75, 0.12, 328.35
329.86, 0.06, 326.43
328.80, 0.01, 324.12
327.65, 0.00, 321.63
334.79, 0.35, 337.33
334.68, 0.35, 337.08
334.55, 0.35, 336.81
334.41, 0.35, 336.51
334.25, 0.35, 336.19
334.08, 0.35, 335.84
333.89, 0.34, 335.43
333.68, 0.34, 334.99
333.44, 0.33, 334.48
333.16, 0.33, 333.90
332.80, 0.30, 333.16
332.39, 0.27, 332.29
331.90, 0.23, 331.28
331.30, 0.19, 330.02
330.56, 0.13, 328.46
329.65, 0.07, 326.56
328.54, 0.00, 324.23
327.40, 0.01, 321.85
334.72, 0.35, 337.36
334.60, 0.35, 337.12
334.46, 0.35, 336.85
334.32, 0.35, 336.56
334.16, 0.35, 336.24
333.99, 0.35, 335.89
333.79, 0.34, 335.49
333.57, 0.34, 335.04
333.32, 0.33, 334.54
333.04, 0.33, 333.98
332.68, 0.30, 333.24
332.25, 0.27, 332.38
331.74, 0.23, 331.35
331.13, 0.19, 330.11
330.36, 0.13, 328.56
329.44, 0.07, 326.71
328.28, 0.00, 324.36
327.17, 0.02, 322.11
334.64, 0.35, 337.40
334.52, 0.35, 337.16
334.38, 0.35, 336.89
334.23, 0.35, 336.60
334.07, 0.35, 336.29
333.89, 0.35, 335.94
333.69, 0.34, 335.54
333.46, 0.34, 335.10
¯333.21, 0.34, 334.60
332.92, 0.33, 334.04
332.55, 0.30, 333.32
332.11, 0.27, 332.47
331.58, 0.23, 331.43
330.95, 0.18, 330.20
330.16, 0.13, 328.66
329.23, 0.07, 326.85
328.06, 0.01, 324.55
326.93, 0.03, 322.36
334.57, 0.35, 337.44
334.44, 0.35, 337.20
334.30, 0.35, 336.94
334.15, 0.35, 336.65
333.98, 0.35, 336.33
333.80, 0.35, 335.99
