ŸVERSION 0.7
FIELDS x y z
SIZE 8 8 8
TYPE F F F
COUNT 1 1 1
WIDTH 2266
HEIGHT 1
VIEWPOINT 406.18, 14.35, 245.57 1 426.29, 9.89, 246.49
POINTS 2266
DATA ascii
433.33, 8.43, 238.65
433.29, 8.62, 238.68
433.32, 8.80, 238.64
433.41, 8.98, 238.57
433.55, 9.15, 238.46
433.82, 9.33, 238.26
437.03, 9.46, 235.79
437.19, 9.70, 235.67
437.21, 9.95, 235.65
437.13, 10.20, 235.71
436.91, 10.44, 235.87
427.56, 7.69, 242.97
427.77, 7.69, 242.81
427.99, 7.70, 242.63
428.23, 7.70, 242.44
428.49, 7.71, 242.24
428.78, 7.71, 242.01
429.10, 7.72, 241.76
429.45, 7.72, 241.48
429.85, 7.73, 241.17
430.30, 7.73, 240.81
430.82, 7.74, 240.41
431.40, 7.75, 239.95
431.90, 7.79, 239.55
432.51, 7.83, 239.07
433.63, 7.80, 238.18
433.21, 8.06, 238.51
433.05, 8.27, 238.64
432.98, 8.46, 238.69
432.95, 8.64, 238.71
432.99, 8.82, 238.68
433.08, 8.99, 238.60
433.22, 9.16, 238.49
433.47, 9.34, 238.29
437.10, 9.45, 235.43
437.26, 9.70, 235.29
437.29, 9.95, 235.27
437.20, 10.21, 235.33
436.97, 10.45, 235.51
427.51, 7.69, 242.91
427.71, 7.69, 242.74
427.93, 7.69, 242.56
428.17, 7.70, 242.37
428.43, 7.70, 242.16
428.72, 7.71, 241.93
429.03, 7.72, 241.67
429.38, 7.72, 241.39
³429.77, 7.73, 241.08
430.22, 7.73, 240.71
430.73, 7.74, 240.30
431.29, 7.75, 239.84
431.77, 7.79, 239.45
432.38, 7.83, 238.96
433.17, 7.86, 238.32
432.85, 8.10, 238.57
432.70, 8.30, 238.69
432.65, 8.49, 238.73
432.63, 8.66, 238.74
432.67, 8.84, 238.71
432.76, 9.00, 238.63
432.90, 9.17, 238.51
433.14, 9.34, 238.32
433.81, 9.51, 237.77
437.34, 9.70, 234.90
437.37, 9.95, 234.88
437.28, 10.21, 234.95
437.04, 10.46, 235.13
427.46, 7.69, 242.84
427.66, 7.69, 242.68
427.88, 7.69, 242.50
428.11, 7.70, 242.30
428.37, 7.70, 242.08
428.65, 7.71, 241.85
428.96, 7.71, 241.59
429.31, 7.72, 241.30
429.69, 7.73, 240.98
430.13, 7.73, 240.61
430.63, 7.74, 240.20
431.19, 7.74, 239.73
431.65, 7.80, 239.34
432.24, 7.84, 238.86
432.77, 7.91, 238.41
432.51, 8.14, 238.62
432.38, 8.33, 238.73
432.33, 8.51, 238.76
432.33, 8.68, 238.77
432.36, 8.85, 238.74
432.46, 9.02, 238.65
432.59, 9.18, 238.53
432.82, 9.35, 238.34
433.48, 9.51, 237.79
437.42, 9.69, 234.50
437.45, 9.95, 234.47
437.35, 10.22, 234.54
435.87, 10.40, 235.78
427.41, 7.68, 242.78
427.60, 7.69, 242.61
427.82, 7.69, 242.43
±428.05, 7.70, 242.23
428.31, 7.70, 242.01
428.58, 7.71, 241.77
428.89, 7.71, 241.51
429.23, 7.72, 241.22
429.61, 7.73, 240.89
430.04, 7.73, 240.52
430.54, 7.74, 240.09
431.09, 7.74, 239.62
431.54, 7.80, 239.23
432.10, 7.84, 238.75
432.40, 7.96, 238.50
432.18, 8.17, 238.68
432.07, 8.36, 238.77
432.03, 8.53, 238.80
432.03, 8.70, 238.79
432.06, 8.87, 238.76
432.16, 9.03, 238.68
432.30, 9.19, 238.56
432.52, 9.35, 238.36
433.16, 9.52, 237.81
435.59, 9.69, 235.72
435.59, 9.93, 235.72
435.59, 10.16, 235.72
435.73, 10.40, 235.59
427.35, 7.68, 242.72
427.55, 7.69, 242.55
427.76, 7.69, 242.36
427.99, 7.70, 242.16
428.24, 7.70, 241.94
428.52, 7.71, 241.69
428.82, 7.71, 241.43
429.15, 7.72, 241.13
429.53, 7.72, 240.80
429.95, 7.73, 240.42
430.44, 7.73, 239.99
430.99, 7.74, 239.51
431.43, 7.80, 239.12
431.97, 7.84, 238.64
432.04, 8.00, 238.58
431.87, 8.20, 238.72
431.78, 8.39, 238.80
431.74, 8.56, 238.83
431.75, 8.72, 238.82
431.78, 8.88, 238.79
431.88, 9.04, 238.70
432.01, 9.20, 238.58
432.23, 9.36, 238.38
432.85, 9.52, 237.83
435.65, 9.69, 235.36
435.61, 9.93, 235.39
³435.66, 10.16, 235.34
435.81, 10.41, 235.20
427.30, 7.68, 242.66
427.49, 7.69, 242.49
427.70, 7.69, 242.30
427.93, 7.69, 242.09
428.18, 7.70, 241.86
428.45, 7.70, 241.62
428.75, 7.71, 241.35
429.08, 7.72, 241.04
429.45, 7.72, 240.71
429.86, 7.73, 240.33
430.35, 7.73, 239.89
430.88, 7.74, 239.40
431.32, 7.79, 239.00
431.84, 7.85, 238.54
431.71, 8.04, 238.65
431.57, 8.23, 238.77
431.51, 8.41, 238.82
431.51, 8.57, 238.82
431.51, 8.73, 238.82
431.51, 8.90, 238.81
431.61, 9.05, 238.72
431.74, 9.21, 238.60
431.95, 9.36, 238.40
432.55, 9.52, 237.86
435.44, 9.69, 235.23
435.48, 9.92, 235.19
435.41, 10.16, 235.25
435.39, 10.39, 235.26
427.24, 7.68, 242.60
427.43, 7.69, 242.42
427.64, 7.69, 242.23
427.86, 7.69, 242.02
428.11, 7.70, 241.79
428.38, 7.70, 241.54
428.67, 7.71, 241.27
429.00, 7.71, 240.96
429.36, 7.72, 240.62
429.77, 7.73, 240.24
430.25, 7.73, 239.79
430.78, 7.74, 239.30
431.21, 7.79, 238.89
431.66, 7.86, 238.47
431.49, 8.06, 238.63
431.49, 8.23, 238.63
431.49, 8.39, 238.62
433.10, 8.33, 237.12
433.16, 8.52, 237.06
431.49, 8.88, 238.61
431.49, 9.05, 238.61
³431.49, 9.21, 238.61
431.68, 9.37, 238.42
432.26, 9.52, 237.88
435.52, 9.68, 234.83
435.56, 9.92, 234.79
435.49, 10.16, 234.85
435.30, 10.39, 235.03
427.19, 7.68, 242.54
427.37, 7.68, 242.36
427.58, 7.69, 242.17
427.80, 7.69, 241.95
428.04, 7.70, 241.72
428.31, 7.70, 241.47
428.60, 7.71, 241.19
428.92, 7.71, 240.88
429.28, 7.72, 240.53
429.68, 7.73, 240.15
430.15, 7.73, 239.70
430.67, 7.74, 239.19
431.10, 7.79, 238.78
431.47, 7.87, 238.43
431.47, 8.04, 238.42
432.51, 8.02, 237.42
432.70, 8.18, 237.24
432.80, 8.35, 237.14
432.84, 8.54, 237.09
432.83, 8.73, 237.11
432.74, 8.93, 237.19
431.47, 9.20, 238.40
431.47, 9.37, 238.40
431.99, 9.52, 237.90
435.60, 9.68, 234.42
435.64, 9.92, 234.38
435.57, 10.17, 234.44
435.36, 10.40, 234.64
427.13, 7.68, 242.48
427.31, 7.68, 242.30
427.52, 7.69, 242.10
427.73, 7.69, 241.89
427.97, 7.70, 241.65
428.23, 7.70, 241.39
428.52, 7.71, 241.11
428.84, 7.71, 240.80
429.19, 7.72, 240.45
429.54, 7.74, 240.10
430.05, 7.73, 239.60
430.56, 7.74, 239.09
429.46, 8.16, 240.17
429.37, 8.31, 240.26
429.34, 8.45, 240.28
429.31, 8.58, 240.31
³429.33, 8.70, 240.29
429.35, 8.83, 240.27
429.39, 8.95, 240.23
429.46, 9.07, 240.16
432.43, 8.95, 237.23
432.24, 9.14, 237.41
431.44, 9.36, 238.19
431.72, 9.52, 237.92
435.68, 9.67, 234.00
435.73, 9.92, 233.95
435.65, 10.17, 234.02
435.44, 10.41, 234.23
427.07, 7.68, 242.43
427.25, 7.68, 242.24
427.45, 7.69, 242.04
427.67, 7.69, 241.82
427.90, 7.69, 241.58
428.16, 7.70, 241.32
428.44, 7.70, 241.03
428.76, 7.71, 240.71
429.11, 7.72, 240.36
429.42, 7.75, 240.04
429.95, 7.73, 239.51
429.35, 8.03, 240.11
429.24, 8.19, 240.21
429.17, 8.34, 240.28
429.14, 8.47, 240.31
429.12, 8.60, 240.33
429.13, 8.72, 240.31
429.15, 8.84, 240.29
429.20, 8.96, 240.24
429.26, 9.08, 240.17
429.35, 9.19, 240.08
431.94, 9.15, 237.45
431.42, 9.36, 237.98
433.77, 9.46, 235.59
435.77, 9.67, 233.55
435.81, 9.92, 233.50
435.74, 10.18, 233.58
435.51, 10.42, 233.80
427.01, 7.68, 242.37
427.19, 7.68, 242.18
427.39, 7.68, 241.98
427.60, 7.69, 241.76
427.83, 7.69, 241.51
428.09, 7.70, 241.25
428.37, 7.70, 240.96
428.67, 7.71, 240.63
429.02, 7.71, 240.28
429.31, 7.75, 239.97
429.32, 7.88, 239.96
³429.12, 8.07, 240.16
429.04, 8.22, 240.25
428.97, 8.36, 240.31
428.95, 8.49, 240.33
428.93, 8.61, 240.35
428.95, 8.73, 240.33
428.96, 8.85, 240.31
429.01, 8.97, 240.25
429.07, 9.09, 240.19
429.17, 9.20, 240.09
429.29, 9.32, 239.96
431.40, 9.35, 237.76
433.52, 9.46, 235.54
434.04, 9.67, 234.99
434.04, 9.90, 234.99
434.03, 10.12, 234.99
434.03, 10.35, 234.99
426.95, 7.68, 242.31
427.13, 7.68, 242.12
427.32, 7.68, 241.92
427.53, 7.69, 241.69
427.76, 7.69, 241.45
428.01, 7.70, 241.18
428.29, 7.70, 240.88
428.59, 7.71, 240.56
428.92, 7.72, 240.20
429.19, 7.76, 239.91
429.08, 7.92, 240.02
428.92, 8.10, 240.20
428.84, 8.24, 240.28
428.79, 8.38, 240.33
428.76, 8.51, 240.35
428.75, 8.63, 240.37
428.77, 8.75, 240.35
428.78, 8.87, 240.32
428.83, 8.98, 240.27
428.89, 9.09, 240.20
428.98, 9.21, 240.10
429.10, 9.32, 239.97
429.31, 9.44, 239.75
433.51, 9.46, 235.23
433.61, 9.67, 235.12
433.66, 9.89, 235.07
433.61, 10.11, 235.11
433.60, 10.33, 235.12
426.89, 7.68, 242.26
427.07, 7.68, 242.07
427.26, 7.68, 241.86
427.46, 7.69, 241.63
427.69, 7.69, 241.38
427.93, 7.69, 241.11
³428.21, 7.70, 240.81
428.51, 7.71, 240.48
428.81, 7.72, 240.14
429.08, 7.76, 239.85
428.86, 7.96, 240.09
428.72, 8.13, 240.23
428.64, 8.27, 240.31
428.60, 8.40, 240.35
428.58, 8.52, 240.38
428.57, 8.65, 240.38
428.59, 8.76, 240.36
428.61, 8.88, 240.34
428.66, 8.99, 240.28
428.71, 9.10, 240.22
428.80, 9.21, 240.12
428.92, 9.33, 239.99
429.12, 9.44, 239.76
433.52, 9.45, 234.90
433.69, 9.67, 234.71
433.74, 9.89, 234.65
433.70, 10.11, 234.69
433.54, 10.33, 234.86
426.83, 7.67, 242.21
427.00, 7.68, 242.01
427.19, 7.68, 241.80
427.39, 7.68, 241.57
427.62, 7.69, 241.32
427.86, 7.69, 241.04
428.12, 7.70, 240.74
428.42, 7.70, 240.40
428.70, 7.73, 240.08
428.93, 7.78, 239.82
428.64, 8.00, 240.15
428.53, 8.15, 240.26
428.46, 8.29, 240.34
428.43, 8.42, 240.37
428.41, 8.54, 240.40
428.41, 8.66, 240.40
428.42, 8.77, 240.38
428.44, 8.89, 240.36
428.49, 9.00, 240.29
428.54, 9.11, 240.23
428.63, 9.22, 240.13
428.74, 9.33, 240.00
428.94, 9.44, 239.77
433.59, 9.44, 234.48
433.77, 9.66, 234.28
433.83, 9.89, 234.21
433.78, 10.12, 234.26
433.62, 10.34, 234.44
426.77, 7.67, 242.15
±426.94, 7.68, 241.95
427.12, 7.68, 241.74
427.32, 7.68, 241.51
427.54, 7.69, 241.25
427.78, 7.69, 240.97
428.04, 7.70, 240.67
428.33, 7.70, 240.33
428.59, 7.73, 240.03
428.61, 7.85, 240.00
428.43, 8.03, 240.20
428.35, 8.18, 240.30
428.28, 8.32, 240.37
428.26, 8.44, 240.40
428.24, 8.56, 240.42
428.24, 8.67, 240.41
428.26, 8.79, 240.39
428.27, 8.90, 240.37
428.32, 9.01, 240.31
428.37, 9.12, 240.25
428.46, 9.23, 240.14
428.57, 9.34, 240.02
428.76, 9.45, 239.79
433.67, 9.43, 234.05
433.86, 9.66, 233.83
433.92, 9.89, 233.75
433.87, 10.13, 233.80
433.69, 10.35, 234.00
426.71, 7.67, 242.10
426.88, 7.67, 241.90
427.06, 7.68, 241.68
427.25, 7.68, 241.45
427.47, 7.69, 241.19
427.70, 7.69, 240.91
427.96, 7.70, 240.60
428.24, 7.70, 240.25
428.48, 7.74, 239.97
428.40, 7.89, 240.06
428.24, 8.06, 240.25
428.17, 8.20, 240.33
428.11, 8.34, 240.39
428.09, 8.46, 240.42
428.07, 8.57, 240.44
428.08, 8.69, 240.43
428.09, 8.80, 240.41
428.12, 8.91, 240.38
428.16, 9.01, 240.32
428.21, 9.12, 240.26
428.30, 9.23, 240.15
428.40, 9.34, 240.03
428.58, 9.45, 239.80
430.25, 9.52, 237.80
³433.95, 9.65, 233.35
434.02, 9.89, 233.27
433.96, 10.13, 233.33
433.77, 10.36, 233.55
426.65, 7.67, 242.05
426.81, 7.67, 241.85
426.99, 7.68, 241.63
427.18, 7.68, 241.39
427.39, 7.68, 241.13
427.62, 7.69, 240.84
427.87, 7.69, 240.53
428.14, 7.70, 240.20
428.37, 7.74, 239.92
428.20, 7.92, 240.12
428.07, 8.09, 240.28
428.00, 8.23, 240.36
427.95, 8.35, 240.41
427.93, 8.47, 240.44
427.92, 8.59, 240.46
427.93, 8.70, 240.44
427.94, 8.81, 240.42
427.96, 8.92, 240.39
428.01, 9.02, 240.33
428.05, 9.13, 240.27
428.14, 9.24, 240.16
428.23, 9.34, 240.04
428.42, 9.45, 239.82
430.09, 9.52, 237.74
434.05, 9.64, 232.85
434.12, 9.89, 232.75
434.06, 10.14, 232.82
433.85, 10.37, 233.07
426.58, 7.67, 242.00
426.74, 7.67, 241.79
426.92, 7.68, 241.57
427.11, 7.68, 241.33
427.31, 7.68, 241.07
427.54, 7.69, 240.78
427.79, 7.69, 240.46
428.04, 7.71, 240.14
428.26, 7.75, 239.86
428.01, 7.96, 240.17
427.90, 8.11, 240.31
427.84, 8.25, 240.39
427.80, 8.37, 240.43
427.78, 8.49, 240.45
427.76, 8.60, 240.47
427.77, 8.71, 240.45
427.79, 8.82, 240.44
427.81, 8.93, 240.40
427.85, 9.03, 240.34
³427.90, 9.14, 240.28
427.98, 9.24, 240.17
428.07, 9.35, 240.06
428.25, 9.45, 239.83
429.94, 9.52, 237.68
432.17, 9.66, 234.84
432.17, 9.86, 234.83
432.16, 10.07, 234.83
432.16, 10.28, 234.83
426.52, 7.67, 241.95
426.68, 7.67, 241.74
426.85, 7.67, 241.52
427.03, 7.68, 241.27
427.24, 7.68, 241.01
427.46, 7.69, 240.72
427.70, 7.69, 240.40
427.93, 7.71, 240.09
428.06, 7.78, 239.92
427.83, 7.99, 240.22
427.74, 8.14, 240.34
427.68, 8.27, 240.41
427.65, 8.39, 240.45
427.63, 8.50, 240.47
427.62, 8.62, 240.49
427.63, 8.72, 240.47
427.64, 8.83, 240.45
427.66, 8.93, 240.41
427.71, 9.04, 240.36
427.75, 9.14, 240.30
427.83, 9.24, 240.19
427.92, 9.35, 240.07
428.09, 9.46, 239.84
429.78, 9.52, 237.62
432.14, 9.65, 234.54
432.09, 9.86, 234.59
432.13, 10.07, 234.54
432.23, 10.29, 234.40
426.45, 7.67, 241.90
426.61, 7.67, 241.69
426.78, 7.67, 241.46
426.96, 7.68, 241.22
427.16, 7.68, 240.95
427.38, 7.68, 240.65
427.62, 7.69, 240.33
427.83, 7.72, 240.04
427.81, 7.84, 240.07
427.66, 8.02, 240.27
427.58, 8.16, 240.37
427.52, 8.29, 240.44
427.50, 8.41, 240.47
427.48, 8.52, 240.49
³427.47, 8.63, 240.50
427.48, 8.73, 240.48
427.49, 8.84, 240.46
427.52, 8.94, 240.42
427.56, 9.04, 240.37
427.60, 9.15, 240.31
427.68, 9.25, 240.20
427.77, 9.35, 240.08
427.93, 9.46, 239.86
429.63, 9.52, 237.57
432.23, 9.65, 234.05
432.19, 9.86, 234.11
432.22, 10.08, 234.05
432.34, 10.31, 233.90
426.39, 7.67, 241.85
426.54, 7.67, 241.64
426.70, 7.67, 241.41
426.88, 7.67, 241.16
427.08, 7.68, 240.89
427.29, 7.68, 240.59
427.53, 7.69, 240.27
427.72, 7.72, 239.99
427.62, 7.88, 240.13
427.49, 8.05, 240.31
427.43, 8.18, 240.39
427.37, 8.31, 240.46
427.35, 8.42, 240.49
427.34, 8.53, 240.51
427.33, 8.64, 240.51
427.34, 8.75, 240.49
427.35, 8.85, 240.48
427.38, 8.95, 240.43
427.42, 9.05, 240.38
427.46, 9.15, 240.32
427.54, 9.25, 240.21
427.62, 9.36, 240.09
427.78, 9.46, 239.87
429.48, 9.51, 237.51
432.34, 9.64, 233.53
432.29, 9.86, 233.59
432.33, 10.09, 233.54
432.45, 10.32, 233.36
426.32, 7.66, 241.81
426.47, 7.67, 241.59
426.63, 7.67, 241.36
426.81, 7.67, 241.11
427.00, 7.68, 240.83
427.21, 7.68, 240.53
427.43, 7.69, 240.21
427.62, 7.72, 239.94
427.45, 7.91, 240.18
²427.33, 8.07, 240.35
427.28, 8.20, 240.42
427.23, 8.32, 240.48
427.21, 8.44, 240.50
427.20, 8.55, 240.52
427.20, 8.65, 240.52
427.21, 8.76, 240.51
427.22, 8.86, 240.49
427.25, 8.96, 240.44
427.28, 9.06, 240.39
427.32, 9.16, 240.33
427.40, 9.26, 240.22
427.48, 9.36, 240.10
427.63, 9.46, 239.88
429.32, 9.51, 237.46
432.45, 9.63, 232.98
432.40, 9.86, 233.05
432.44, 10.09, 232.99
432.57, 10.33, 232.79
426.25, 7.66, 241.76
426.40, 7.67, 241.54
426.56, 7.67, 241.31
426.73, 7.67, 241.06
426.92, 7.68, 240.78
427.12, 7.68, 240.48
427.34, 7.69, 240.16
427.52, 7.72, 239.89
427.29, 7.94, 240.23
427.18, 8.09, 240.37
427.13, 8.22, 240.44
427.09, 8.34, 240.50
427.08, 8.45, 240.52
427.06, 8.56, 240.54
427.06, 8.66, 240.54
427.07, 8.77, 240.52
427.08, 8.87, 240.50
427.11, 8.97, 240.45
427.15, 9.06, 240.40
427.19, 9.16, 240.33
427.26, 9.26, 240.23
427.34, 9.36, 240.11
427.48, 9.46, 239.89
429.17, 9.51, 237.40
432.57, 9.62, 232.40
432.51, 9.86, 232.47
432.56, 10.10, 232.40
426.18, 7.66, 241.71
426.33, 7.66, 241.50
426.48, 7.67, 241.26
426.65, 7.67, 241.00
426.84, 7.67, 240.73
¯427.04, 7.68, 240.42
427.24, 7.69, 240.12
427.35, 7.76, 239.95
427.13, 7.97, 240.27
427.04, 8.11, 240.40
426.99, 8.24, 240.47
426.96, 8.36, 240.52
426.94, 8.46, 240.54
426.93, 8.57, 240.56
426.93, 8.67, 240.55
426.94, 8.77, 240.53
426.95, 8.88, 240.51
426.98, 8.97, 240.46
427.02, 9.07, 240.41
427.06, 9.17, 240.34
427.12, 9.26, 240.24
427.20, 9.36, 240.12
427.34, 9.46, 239.91
429.02, 9.51, 237.35
426.12, 7.66, 241.67
426.26, 7.66, 241.45
426.41, 7.67, 241.21
426.57, 7.67, 240.95
426.75, 7.67, 240.67
426.95, 7.68, 240.36
427.14, 7.70, 240.07
427.13, 7.81, 240.08
426.98, 7.99, 240.31
426.90, 8.13, 240.42
426.88, 8.25, 240.45
426.88, 8.35, 240.45
426.88, 8.46, 240.45
426.88, 8.56, 240.45
426.88, 8.66, 240.44
426.88, 8.77, 240.44
426.88, 8.87, 240.44
426.88, 8.97, 240.44
426.89, 9.08, 240.42
426.93, 9.17, 240.35
426.99, 9.27, 240.25
427.07, 9.37, 240.13
427.20, 9.46, 239.92
428.87, 9.51, 237.30
426.05, 7.66, 241.63
426.18, 7.66, 241.41
426.33, 7.66, 241.17
426.49, 7.67, 240.90
426.67, 7.67, 240.62
426.86, 7.67, 240.31
427.04, 7.70, 240.03
426.94, 7.86, 240.18
¯426.86, 8.00, 240.30
426.86, 8.11, 240.29
426.86, 8.22, 240.29
427.60, 8.06, 239.11
427.67, 8.16, 239.00
427.71, 8.28, 238.92
427.74, 8.40, 238.87
427.75, 8.52, 238.84
427.75, 8.65, 238.84
426.86, 8.96, 240.27
426.86, 9.06, 240.27
426.86, 9.17, 240.27
426.86, 9.27, 240.26
426.94, 9.37, 240.13
427.06, 9.47, 239.93
428.72, 9.51, 237.25
425.98, 7.66, 241.58
426.11, 7.66, 241.36
426.26, 7.66, 241.12
426.41, 7.67, 240.86
426.59, 7.67, 240.57
426.78, 7.67, 240.26
426.94, 7.70, 239.98
426.85, 7.86, 240.13
426.85, 7.97, 240.13
426.85, 8.08, 240.12
427.37, 7.98, 239.26
427.45, 8.07, 239.11
427.52, 8.17, 239.00
427.56, 8.29, 238.93
427.59, 8.41, 238.88
427.60, 8.53, 238.86
427.59, 8.66, 238.86
427.58, 8.79, 238.88
427.54, 8.92, 238.94
426.84, 9.15, 240.09
426.84, 9.26, 240.09
426.84, 9.37, 240.09
426.93, 9.47, 239.94
428.58, 9.50, 237.19
425.91, 7.66, 241.54
426.04, 7.66, 241.32
426.18, 7.66, 241.07
426.33, 7.66, 240.81
426.50, 7.67, 240.52
426.68, 7.67, 240.21
426.84, 7.70, 239.94
426.83, 7.82, 239.95
426.83, 7.93, 239.95
427.12, 7.92, 239.44
427.24, 7.99, 239.25
¯427.31, 8.08, 239.11
427.37, 8.19, 239.01
427.41, 8.30, 238.94
427.43, 8.42, 238.89
427.44, 8.54, 238.87
427.44, 8.67, 238.88
427.42, 8.80, 238.90
427.38, 8.93, 238.96
427.32, 9.06, 239.06
427.22, 9.20, 239.23
426.82, 9.36, 239.91
426.82, 9.47, 239.91
428.43, 9.50, 237.14
425.84, 7.66, 241.50
425.97, 7.66, 241.28
426.10, 7.66, 241.03
426.25, 7.66, 240.76
426.42, 7.67, 240.47
426.59, 7.68, 240.17
426.74, 7.70, 239.90
426.81, 7.78, 239.77
426.81, 7.90, 239.77
427.01, 7.92, 239.42
427.10, 8.00, 239.24
427.17, 8.10, 239.12
427.23, 8.20, 239.01
427.26, 8.31, 238.95
427.28, 8.43, 238.91
427.29, 8.55, 238.89
427.29, 8.68, 238.89
427.27, 8.81, 238.92
427.23, 8.94, 238.98
427.17, 9.07, 239.08
427.07, 9.20, 239.25
426.81, 9.35, 239.72
426.80, 9.46, 239.72
429.65, 9.44, 234.67
425.77, 7.65, 241.46
425.89, 7.66, 241.23
426.03, 7.66, 240.99
426.17, 7.66, 240.72
426.33, 7.66, 240.42
426.49, 7.68, 240.13
426.64, 7.71, 239.86
426.79, 7.74, 239.58
426.79, 7.86, 239.58
426.88, 7.93, 239.40
426.97, 8.01, 239.24
427.03, 8.11, 239.12
427.08, 8.21, 239.02
427.11, 8.32, 238.96
¯427.13, 8.44, 238.92
427.14, 8.56, 238.90
427.14, 8.69, 238.91
427.12, 8.81, 238.93
427.08, 8.94, 239.00
427.02, 9.07, 239.10
426.93, 9.21, 239.28
426.79, 9.34, 239.53
426.78, 9.45, 239.53
430.00, 9.41, 233.62
425.69, 7.65, 241.43
425.82, 7.65, 241.19
425.95, 7.66, 240.94
426.09, 7.66, 240.67
426.25, 7.66, 240.38
426.39, 7.68, 240.09
426.54, 7.71, 239.82
426.69, 7.74, 239.53
426.77, 7.82, 239.38
426.77, 7.94, 239.37
426.84, 8.02, 239.23
426.90, 8.12, 239.12
426.94, 8.22, 239.03
426.97, 8.33, 238.97
426.99, 8.45, 238.94
427.00, 8.57, 238.92
426.99, 8.70, 238.93
426.98, 8.82, 238.95
426.94, 8.95, 239.02
426.88, 9.08, 239.12
426.78, 9.21, 239.30
426.76, 9.33, 239.33
426.76, 9.44, 239.33
430.50, 9.37, 232.22
425.62, 7.65, 241.39
425.74, 7.65, 241.16
425.87, 7.66, 240.90
426.01, 7.66, 240.63
426.16, 7.66, 240.33
426.30, 7.68, 240.06
426.44, 7.71, 239.78
426.59, 7.74, 239.49
426.75, 7.77, 239.17
426.75, 7.89, 239.17
426.75, 8.02, 239.16
426.76, 8.13, 239.13
426.80, 8.23, 239.04
426.83, 8.34, 238.98
426.85, 8.46, 238.95
426.86, 8.58, 238.93
426.85, 8.70, 238.94
¯426.83, 8.83, 238.97
426.79, 8.96, 239.04
426.74, 9.08, 239.13
426.74, 9.20, 239.13
426.74, 9.32, 239.12
430.17, 9.15, 232.39
425.55, 7.65, 241.35
425.66, 7.65, 241.12
425.79, 7.65, 240.86
425.92, 7.66, 240.59
426.07, 7.66, 240.29
426.20, 7.68, 240.02
426.34, 7.71, 239.75
426.48, 7.74, 239.45
426.64, 7.77, 239.13
426.79, 7.82, 238.82
426.95, 7.87, 238.48
426.72, 8.10, 238.94
426.72, 8.22, 238.94
426.72, 8.34, 238.94
426.72, 8.46, 238.93
426.72, 8.59, 238.93
426.72, 8.71, 238.92
426.72, 8.83, 238.92
426.72, 8.95, 238.92
426.72, 9.07, 238.91
425.48, 7.65, 241.32
425.59, 7.65, 241.08
425.71, 7.65, 240.83
425.84, 7.66, 240.55
425.98, 7.66, 240.25
426.11, 7.68, 239.99
426.24, 7.71, 239.71
426.38, 7.74, 239.41
426.53, 7.78, 239.09
426.68, 7.82, 238.77
426.84, 7.87, 238.44
426.99, 7.93, 238.11
427.13, 8.00, 237.80
427.60, 7.96, 236.81
428.12, 7.94, 235.73
429.56, 7.65, 232.70
431.89, 7.21, 227.80
425.40, 7.65, 241.28
425.51, 7.65, 241.04
425.63, 7.65, 240.79
425.76, 7.65, 240.51
425.89, 7.66, 240.21
426.01, 7.68, 239.95
426.13, 7.71, 239.68
426.27, 7.74, 239.38
¯426.42, 7.78, 239.06
426.56, 7.82, 238.73
426.72, 7.87, 238.39
426.86, 7.93, 238.08
427.00, 8.01, 237.77
427.37, 8.00, 236.96
428.02, 7.91, 235.54
429.36, 7.65, 232.61
425.33, 7.65, 241.25
425.43, 7.65, 241.01
425.55, 7.65, 240.75
425.67, 7.65, 240.47
425.80, 7.66, 240.18
425.91, 7.69, 239.92
426.03, 7.71, 239.64
426.16, 7.74, 239.34
426.31, 7.78, 239.02
426.45, 7.82, 238.69
426.60, 7.87, 238.35
426.73, 7.93, 238.04
426.87, 8.01, 237.73
427.14, 8.03, 237.11
427.53, 8.04, 236.23
429.17, 7.65, 232.53
425.25, 7.64, 241.22
425.35, 7.65, 240.98
425.47, 7.65, 240.72
425.58, 7.65, 240.43
425.70, 7.66, 240.16
425.81, 7.69, 239.89
425.93, 7.72, 239.61
426.06, 7.75, 239.31
426.20, 7.78, 238.99
426.34, 7.82, 238.65
426.48, 7.87, 238.31
426.61, 7.93, 238.01
426.74, 8.01, 237.70
426.93, 8.07, 237.25
427.35, 8.05, 236.26
428.96, 7.64, 232.46
425.18, 7.64, 241.19
425.28, 7.64, 240.94
425.38, 7.65, 240.68
425.50, 7.65, 240.40
425.60, 7.67, 240.14
425.71, 7.69, 239.87
425.83, 7.72, 239.58
425.95, 7.75, 239.28
426.08, 7.78, 238.95
426.22, 7.82, 238.61
426.36, 7.87, 238.27
¯426.48, 7.94, 237.98
426.61, 8.01, 237.66
426.74, 8.09, 237.33
427.16, 8.06, 236.29
427.26, 8.19, 236.06
425.10, 7.64, 241.15
425.20, 7.64, 240.91
425.30, 7.65, 240.65
425.41, 7.65, 240.36
425.51, 7.67, 240.11
425.61, 7.70, 239.86
425.72, 7.72, 239.56
425.85, 7.75, 239.25
425.97, 7.78, 238.92
426.11, 7.82, 238.57
426.24, 7.87, 238.24
426.35, 7.94, 237.94
426.47, 8.01, 237.63
426.60, 8.09, 237.29
426.99, 8.07, 236.32
427.07, 8.20, 236.09
427.16, 8.33, 235.86
425.03, 7.64, 241.13
425.12, 7.64, 240.88
425.22, 7.64, 240.62
425.32, 7.65, 240.33
425.42, 7.67, 240.09
425.50, 7.70, 239.85
425.62, 7.73, 239.55
425.74, 7.75, 239.23
425.86, 7.78, 238.89
425.99, 7.82, 238.54
426.12, 7.87, 238.21
426.23, 7.94, 237.91
426.34, 8.01, 237.60
426.47, 8.09, 237.26
426.78, 8.10, 236.44
426.89, 8.21, 236.12
426.98, 8.34, 235.89
424.95, 7.64, 241.10
425.04, 7.64, 240.85
425.13, 7.64, 240.59
425.24, 7.64, 240.30
425.32, 7.67, 240.07
425.40, 7.71, 239.84
425.51, 7.73, 239.54
425.62, 7.76, 239.22
425.75, 7.78, 238.87
425.88, 7.82, 238.51
426.00, 7.87, 238.18
426.10, 7.94, 237.88
¯426.21, 8.01, 237.57
426.33, 8.09, 237.23
426.55, 8.13, 236.61
426.72, 8.22, 236.15
426.80, 8.34, 235.92
426.88, 8.48, 235.68
424.87, 7.64, 241.07
424.96, 7.64, 240.82
425.05, 7.64, 240.56
425.15, 7.64, 240.27
425.23, 7.67, 240.04
425.30, 7.71, 239.82
425.40, 7.74, 239.53
425.51, 7.76, 239.21
425.63, 7.79, 238.86
425.76, 7.82, 238.48
425.87, 7.87, 238.15
425.97, 7.94, 237.85
426.08, 8.01, 237.54
426.20, 8.09, 237.20
426.34, 8.17, 236.78
426.54, 8.23, 236.18
426.62, 8.35, 235.96
426.70, 8.48, 235.72
426.78, 8.62, 235.47
424.80, 7.64, 241.04
424.88, 7.64, 240.80
424.97, 7.64, 240.53
425.06, 7.64, 240.24
425.13, 7.68, 240.02
425.20, 7.71, 239.80
425.29, 7.74, 239.53
425.40, 7.77, 239.21
425.51, 7.80, 238.86
425.63, 7.83, 238.48
425.73, 7.89, 238.19
425.85, 7.94, 237.82
425.95, 8.01, 237.51
426.06, 8.09, 237.17
426.18, 8.17, 236.81
426.37, 8.23, 236.21
426.44, 8.36, 235.99
426.52, 8.49, 235.75
426.59, 8.63, 235.51
424.72, 7.63, 241.02
424.80, 7.64, 240.77
424.88, 7.64, 240.50
424.97, 7.64, 240.22
425.04, 7.68, 240.00
425.11, 7.71, 239.78
425.19, 7.75, 239.52
¯425.28, 7.77, 239.20
425.39, 7.80, 238.86
425.51, 7.83, 238.48
425.59, 7.90, 238.21
425.68, 7.97, 237.94
425.82, 8.01, 237.48
425.92, 8.09, 237.14
426.04, 8.17, 236.78
426.20, 8.24, 236.24
426.27, 8.37, 236.02
426.34, 8.50, 235.79
426.41, 8.63, 235.55
426.49, 8.77, 235.30
424.64, 7.63, 241.00
424.72, 7.63, 240.75
424.80, 7.64, 240.48
424.88, 7.64, 240.20
424.94, 7.68, 239.99
425.01, 7.72, 239.76
425.08, 7.75, 239.52
425.17, 7.78, 239.20
425.28, 7.81, 238.85
425.39, 7.84, 238.48
425.46, 7.90, 238.21
425.50, 8.00, 238.07
425.62, 8.06, 237.68
425.79, 8.09, 237.11
425.89, 8.17, 236.75
426.03, 8.25, 236.27
426.10, 8.38, 236.05
426.16, 8.50, 235.82
426.23, 8.64, 235.59
426.30, 8.78, 235.34
426.38, 8.93, 235.08
424.56, 7.63, 240.97
424.63, 7.63, 240.72
424.71, 7.63, 240.45
424.79, 7.64, 240.18
424.85, 7.68, 239.97
424.91, 7.72, 239.74
424.98, 7.76, 239.50
425.06, 7.79, 239.20
425.16, 7.81, 238.85
425.26, 7.84, 238.48
425.34, 7.91, 238.21
425.37, 8.01, 238.07
425.41, 8.11, 237.93
425.56, 8.15, 237.42
425.73, 8.19, 236.79
425.87, 8.26, 236.30
425.93, 8.38, 236.09
¯425.99, 8.51, 235.86
426.05, 8.64, 235.62
426.12, 8.78, 235.38
426.19, 8.93, 235.12
424.48, 7.63, 240.95
424.55, 7.63, 240.70
424.62, 7.63, 240.43
424.69, 7.65, 240.16
424.75, 7.68, 239.95
424.81, 7.72, 239.72
424.87, 7.76, 239.48
424.95, 7.79, 239.20
425.04, 7.82, 238.85
425.14, 7.85, 238.48
425.21, 7.91, 238.21
425.25, 8.01, 238.07
425.28, 8.11, 237.93
425.34, 8.20, 237.72
425.49, 8.24, 237.14
425.67, 8.29, 236.48
425.76, 8.39, 236.12
425.82, 8.52, 235.89
425.88, 8.65, 235.66
425.94, 8.79, 235.42
426.01, 8.93, 235.16
426.08, 9.08, 234.90
424.41, 7.63, 240.93
424.47, 7.63, 240.68
424.54, 7.63, 240.40
424.60, 7.65, 240.15
424.66, 7.68, 239.93
424.71, 7.72, 239.71
424.77, 7.76, 239.47
424.84, 7.80, 239.20
424.93, 7.82, 238.85
425.02, 7.85, 238.48
425.09, 7.92, 238.21
425.12, 8.02, 238.08
425.15, 8.12, 237.94
425.19, 8.22, 237.79
425.27, 8.30, 237.46
425.42, 8.34, 236.85
425.58, 8.41, 236.23
425.65, 8.53, 235.95
425.70, 8.66, 235.71
425.77, 8.79, 235.46
425.83, 8.94, 235.21
425.89, 9.09, 234.94
425.96, 9.24, 234.67
424.33, 7.63, 240.91
424.39, 7.63, 240.66
¯424.45, 7.63, 240.38
424.51, 7.65, 240.13
424.56, 7.68, 239.92
424.61, 7.72, 239.69
424.67, 7.76, 239.45
424.73, 7.80, 239.19
424.81, 7.83, 238.86
424.90, 7.86, 238.48
424.96, 7.92, 238.22
424.99, 8.02, 238.08
425.02, 8.12, 237.94
425.06, 8.22, 237.79
425.09, 8.33, 237.64
425.20, 8.40, 237.19
425.35, 8.45, 236.55
425.47, 8.54, 236.02
425.53, 8.66, 235.78
425.58, 8.80, 235.54
425.64, 8.94, 235.28
425.70, 9.09, 235.00
425.77, 9.24, 234.72
425.83, 9.40, 234.43
424.25, 7.63, 240.89
424.30, 7.63, 240.64
424.37, 7.63, 240.36
424.42, 7.65, 240.12
424.47, 7.68, 239.90
424.52, 7.72, 239.68
424.57, 7.76, 239.44
424.63, 7.80, 239.18
424.70, 7.83, 238.86
424.78, 7.86, 238.49
424.84, 7.93, 238.22
424.87, 8.02, 238.08
424.90, 8.12, 237.94
424.93, 8.23, 237.80
424.96, 8.33, 237.65
424.99, 8.44, 237.50
425.12, 8.50, 236.92
425.26, 8.57, 236.28
425.35, 8.67, 235.85
425.40, 8.81, 235.61
425.46, 8.95, 235.35
425.51, 9.09, 235.09
425.57, 9.24, 234.81
425.64, 9.41, 234.52
424.17, 7.62, 240.88
424.22, 7.63, 240.62
424.28, 7.63, 240.34
424.33, 7.65, 240.11
424.37, 7.68, 239.89
±424.42, 7.72, 239.66
424.47, 7.76, 239.42
424.52, 7.80, 239.17
424.58, 7.84, 238.86
424.66, 7.87, 238.50
424.72, 7.93, 238.22
424.74, 8.03, 238.08
424.77, 8.13, 237.95
424.80, 8.23, 237.80
424.83, 8.33, 237.65
424.86, 8.44, 237.50
424.91, 8.54, 237.25
425.03, 8.61, 236.63
425.15, 8.70, 236.08
425.23, 8.81, 235.68
425.28, 8.95, 235.43
425.33, 9.10, 235.17
425.38, 9.25, 234.90
425.44, 9.41, 234.61
423.85, 7.64, 252.58
423.89, 7.64, 252.85
423.93, 7.64, 253.15
423.98, 7.64, 253.48
424.03, 7.64, 253.83
424.09, 7.65, 254.20
424.15, 7.65, 254.63
424.22, 7.65, 255.10
424.29, 7.65, 255.62
424.38, 7.65, 256.25
424.47, 7.66, 256.86
424.56, 7.69, 257.50
424.62, 7.77, 257.94
424.66, 7.90, 258.18
424.69, 8.03, 258.43
424.72, 8.17, 258.68
424.76, 8.31, 258.95
424.79, 8.45, 259.24
424.83, 8.61, 259.54
424.88, 8.77, 259.87
424.94, 8.93, 260.31
425.00, 9.10, 260.77
425.06, 9.28, 261.25
425.14, 9.48, 261.84
425.35, 9.68, 263.31
425.66, 9.93, 265.45
425.65, 10.20, 265.45
425.64, 10.47, 265.45
423.93, 7.64, 252.57
423.98, 7.64, 252.84
424.03, 7.64, 253.14
424.08, 7.64, 253.46
²424.13, 7.64, 253.82
424.19, 7.65, 254.19
424.26, 7.65, 254.61
424.33, 7.65, 255.08
424.42, 7.66, 255.60
424.52, 7.66, 256.22
424.62, 7.66, 256.87
424.72, 7.69, 257.52
424.79, 7.77, 257.95
424.82, 7.90, 258.19
424.86, 8.03, 258.43
424.90, 8.17, 258.69
424.93, 8.31, 258.96
424.98, 8.46, 259.25
425.02, 8.61, 259.54
425.07, 8.77, 259.88
425.14, 8.93, 260.32
425.20, 9.10, 260.78
425.28, 9.29, 261.27
425.37, 9.48, 261.89
425.61, 9.69, 263.39
425.93, 9.94, 265.45
425.92, 10.21, 265.45
425.91, 10.47, 265.45
424.02, 7.64, 252.56
424.07, 7.64, 252.83
424.12, 7.64, 253.13
424.17, 7.64, 253.45
424.23, 7.64, 253.80
424.30, 7.65, 254.17
424.37, 7.66, 254.58
424.45, 7.66, 255.05
424.54, 7.66, 255.57
424.65, 7.66, 256.19
424.77, 7.66, 256.89
424.88, 7.68, 257.53
424.95, 7.77, 257.95
424.99, 7.90, 258.19
425.03, 8.03, 258.44
425.07, 8.17, 258.70
425.11, 8.31, 258.97
425.16, 8.46, 259.25
425.21, 8.61, 259.55
425.26, 8.77, 259.89
425.33, 8.93, 260.33
425.41, 9.10, 260.79
425.49, 9.29, 261.29
425.60, 9.48, 261.95
425.87, 9.69, 263.55
426.20, 9.95, 265.45
426.19, 10.22, 265.45
²426.18, 10.48, 265.45
424.10, 7.64, 252.54
424.15, 7.64, 252.82
424.21, 7.64, 253.11
424.27, 7.64, 253.43
424.34, 7.65, 253.79
424.41, 7.65, 254.16
424.48, 7.66, 254.56
424.57, 7.66, 255.02
424.67, 7.67, 255.54
424.78, 7.67, 256.15
424.92, 7.66, 256.88
425.04, 7.68, 257.55
425.12, 7.77, 257.96
425.16, 7.90, 258.20
425.20, 8.03, 258.45
425.25, 8.17, 258.71
425.29, 8.31, 258.98
425.34, 8.46, 259.26
425.40, 8.61, 259.56
425.46, 8.77, 259.90
425.53, 8.93, 260.34
425.62, 9.11, 260.80
425.71, 9.29, 261.30
425.84, 9.49, 262.06
426.48, 9.69, 265.45
426.47, 9.96, 265.45
426.46, 10.22, 265.45
426.45, 10.49, 265.45
424.19, 7.64, 252.53
424.24, 7.64, 252.80
424.30, 7.64, 253.10
424.37, 7.65, 253.42
424.44, 7.65, 253.77
424.51, 7.65, 254.14
424.59, 7.66, 254.54
424.68, 7.67, 255.00
424.79, 7.67, 255.51
424.91, 7.67, 256.12
425.06, 7.66, 256.84
425.20, 7.68, 257.56
425.28, 7.77, 257.96
425.33, 7.89, 258.20
425.38, 8.03, 258.45
425.42, 8.16, 258.71
425.48, 8.31, 258.98
425.53, 8.46, 259.27
425.58, 8.61, 259.56
425.65, 8.77, 259.91
425.74, 8.94, 260.35
425.83, 9.11, 260.82
³425.93, 9.30, 261.33
426.13, 9.49, 262.35
426.75, 9.69, 265.45
426.74, 9.96, 265.45
426.74, 10.23, 265.45
426.73, 10.50, 265.45
424.27, 7.64, 252.51
424.33, 7.65, 252.78
424.39, 7.65, 253.08
424.46, 7.65, 253.40
424.54, 7.65, 253.75
424.62, 7.65, 254.12
424.70, 7.66, 254.52
424.80, 7.67, 254.97
424.91, 7.68, 255.48
425.04, 7.68, 256.08
425.20, 7.67, 256.80
425.37, 7.67, 257.57
425.45, 7.76, 257.97
425.50, 7.89, 258.21
425.55, 8.02, 258.46
425.60, 8.16, 258.72
425.66, 8.31, 258.99
425.72, 8.46, 259.28
425.78, 8.61, 259.57
425.85, 8.77, 259.92
425.94, 8.94, 260.37
426.04, 9.11, 260.85
426.15, 9.30, 261.36
426.42, 9.48, 262.66
427.02, 9.70, 265.45
427.02, 9.97, 265.45
427.01, 10.24, 265.45
427.00, 10.51, 265.45
424.35, 7.65, 252.49
424.41, 7.65, 252.77
424.48, 7.65, 253.06
424.56, 7.65, 253.38
424.64, 7.65, 253.73
424.72, 7.66, 254.10
424.82, 7.67, 254.50
424.92, 7.68, 254.94
425.03, 7.68, 255.45
425.17, 7.68, 256.04
425.34, 7.68, 256.75
425.53, 7.67, 257.58
425.62, 7.76, 257.97
425.67, 7.89, 258.21
425.73, 8.02, 258.46
425.78, 8.16, 258.73
425.84, 8.30, 259.01
±425.91, 8.45, 259.30
425.98, 8.61, 259.61
425.94, 8.81, 259.46
425.93, 9.00, 259.45
425.93, 9.18, 259.47
425.95, 9.36, 259.60
426.73, 9.48, 262.98
425.96, 9.73, 259.66
425.94, 9.92, 259.59
427.29, 10.25, 265.45
427.28, 10.52, 265.45
424.43, 7.65, 252.48
424.50, 7.65, 252.75
424.57, 7.65, 253.04
424.65, 7.65, 253.36
424.74, 7.65, 253.71
424.83, 7.66, 254.08
424.93, 7.67, 254.48
425.03, 7.68, 254.91
425.16, 7.69, 255.41
425.30, 7.69, 256.00
425.48, 7.68, 256.71
425.68, 7.67, 257.53
425.79, 7.76, 257.97
425.85, 7.89, 258.22
425.91, 8.02, 258.49
425.97, 8.16, 258.76
426.04, 8.30, 259.04
426.10, 8.45, 259.34
426.13, 8.63, 259.45
426.09, 8.82, 259.32
426.08, 9.01, 259.31
426.09, 9.19, 259.33
426.11, 9.37, 259.46
426.14, 9.55, 259.57
426.12, 9.74, 259.51
426.10, 9.92, 259.45
424.52, 7.65, 252.46
424.59, 7.65, 252.73
424.66, 7.65, 253.02
424.75, 7.65, 253.34
424.84, 7.65, 253.69
424.94, 7.66, 254.06
425.04, 7.67, 254.45
425.15, 7.68, 254.89
425.28, 7.69, 255.37
425.43, 7.69, 255.95
425.61, 7.69, 256.66
425.82, 7.68, 257.46
425.96, 7.75, 258.00
426.02, 7.88, 258.25
±426.09, 8.01, 258.51
426.16, 8.15, 258.79
426.23, 8.30, 259.07
426.30, 8.45, 259.37
426.28, 8.64, 259.30
426.24, 8.83, 259.18
426.24, 9.02, 259.17
426.24, 9.20, 259.20
426.27, 9.38, 259.32
426.29, 9.56, 259.43
426.27, 9.74, 259.37
426.25, 9.93, 259.31
424.60, 7.65, 252.44
424.67, 7.65, 252.71
424.75, 7.65, 253.00
424.84, 7.65, 253.31
424.94, 7.66, 253.66
425.04, 7.66, 254.03
425.15, 7.67, 254.43
425.27, 7.68, 254.86
425.40, 7.69, 255.35
425.56, 7.70, 255.91
425.75, 7.69, 256.61
425.95, 7.70, 257.34
426.12, 7.76, 257.95
426.21, 7.87, 258.27
426.28, 8.01, 258.54
426.35, 8.14, 258.82
426.43, 8.29, 259.10
426.50, 8.44, 259.41
426.43, 8.65, 259.14
426.39, 8.85, 259.04
426.39, 9.03, 259.03
426.39, 9.21, 259.07
426.42, 9.38, 259.19
426.44, 9.57, 259.29
426.42, 9.75, 259.23
426.40, 9.93, 259.17
426.41, 10.12, 259.21
426.40, 10.30, 259.21
424.68, 7.65, 252.41
424.76, 7.65, 252.68
424.84, 7.66, 252.97
424.94, 7.66, 253.29
425.04, 7.66, 253.64
425.15, 7.66, 254.01
425.26, 7.67, 254.40
425.39, 7.68, 254.84
425.53, 7.69, 255.32
425.68, 7.71, 255.86
425.87, 7.71, 256.52
³426.08, 7.72, 257.22
426.28, 7.76, 257.89
426.37, 7.87, 258.24
426.47, 8.00, 258.57
426.54, 8.14, 258.85
426.62, 8.29, 259.14
426.71, 8.44, 259.44
426.57, 8.67, 259.00
426.54, 8.86, 258.91
426.53, 9.04, 258.89
426.54, 9.21, 258.94
426.57, 9.39, 259.06
426.59, 9.57, 259.15
426.57, 9.75, 259.09
426.55, 9.94, 259.03
426.56, 10.12, 259.07
426.55, 10.30, 259.07
424.76, 7.65, 252.39
424.84, 7.66, 252.66
424.93, 7.66, 252.95
425.03, 7.66, 253.26
425.14, 7.66, 253.61
425.25, 7.66, 253.98
425.37, 7.67, 254.37
425.50, 7.68, 254.81
425.65, 7.70, 255.29
425.81, 7.71, 255.82
425.99, 7.73, 256.41
426.20, 7.74, 257.10
426.43, 7.77, 257.84
426.53, 7.88, 258.18
426.64, 8.00, 258.55
426.74, 8.13, 258.87
426.82, 8.28, 259.17
426.90, 8.44, 259.44
426.72, 8.68, 258.85
426.69, 8.87, 258.77
426.68, 9.05, 258.76
426.69, 9.22, 258.81
426.72, 9.40, 258.93
426.74, 9.58, 259.01
426.72, 9.76, 258.95
426.70, 9.94, 258.89
426.85, 10.13, 259.41
426.72, 10.30, 259.00
424.84, 7.66, 252.37
424.93, 7.66, 252.63
425.02, 7.66, 252.92
425.12, 7.66, 253.24
425.23, 7.66, 253.58
425.35, 7.67, 253.95
±425.48, 7.68, 254.34
425.62, 7.69, 254.78
425.77, 7.70, 255.25
425.95, 7.71, 255.79
426.11, 7.74, 256.30
426.33, 7.76, 256.98
426.57, 7.78, 257.75
426.69, 7.88, 258.13
426.81, 8.00, 258.49
426.93, 8.13, 258.87
427.03, 8.27, 259.20
426.94, 8.49, 258.96
426.86, 8.69, 258.71
426.83, 8.88, 258.64
426.82, 9.06, 258.63
426.84, 9.23, 258.68
426.87, 9.40, 258.80
426.89, 9.58, 258.87
426.87, 9.76, 258.82
426.84, 9.94, 258.76
427.10, 10.14, 259.56
427.02, 10.32, 259.32
424.93, 7.66, 252.34
425.01, 7.66, 252.61
425.11, 7.66, 252.89
425.22, 7.66, 253.21
425.33, 7.66, 253.55
425.46, 7.67, 253.92
425.59, 7.68, 254.31
425.73, 7.69, 254.74
425.90, 7.70, 255.22
426.08, 7.71, 255.76
426.24, 7.75, 256.23
426.45, 7.78, 256.86
426.70, 7.80, 257.61
426.85, 7.89, 258.07
426.97, 8.01, 258.43
427.10, 8.13, 258.81
427.23, 8.27, 259.21
427.06, 8.51, 258.74
427.03, 8.70, 258.65
427.02, 8.88, 258.64
427.01, 9.06, 258.63
427.01, 9.23, 258.63
427.02, 9.41, 258.67
427.04, 9.59, 258.74
427.01, 9.77, 258.68
426.99, 9.95, 258.63
425.01, 7.66, 252.32
425.10, 7.66, 252.58
425.20, 7.66, 252.87
¯425.31, 7.66, 253.18
425.43, 7.67, 253.52
425.56, 7.67, 253.89
425.70, 7.68, 254.28
425.85, 7.69, 254.71
426.02, 7.70, 255.19
426.21, 7.71, 255.73
426.38, 7.75, 256.21
426.56, 7.80, 256.73
426.82, 7.82, 257.48
427.01, 7.89, 258.01
427.13, 8.01, 258.37
427.27, 8.14, 258.75
427.40, 8.27, 259.15
427.35, 8.48, 259.00
427.34, 8.66, 258.99
427.33, 8.85, 258.98
427.32, 9.04, 258.97
427.31, 9.22, 258.97
427.31, 9.40, 258.96
427.30, 9.59, 258.95
427.29, 9.77, 258.94
427.28, 9.95, 258.93
425.09, 7.66, 252.29
425.18, 7.66, 252.55
425.29, 7.66, 252.84
425.40, 7.67, 253.15
425.53, 7.67, 253.48
425.66, 7.67, 253.86
425.81, 7.68, 254.25
425.97, 7.69, 254.68
426.14, 7.70, 255.16
426.34, 7.71, 255.69
426.52, 7.75, 256.18
426.70, 7.80, 256.67
426.95, 7.83, 257.34
427.17, 7.90, 257.96
427.30, 8.02, 258.31
427.43, 8.14, 258.69
427.58, 8.28, 259.09
427.68, 8.44, 259.36
427.67, 8.63, 259.36
428.06, 8.74, 260.41
428.22, 8.92, 260.86
428.39, 9.11, 261.34
425.17, 7.66, 252.26
425.27, 7.66, 252.52
425.38, 7.66, 252.80
425.49, 7.67, 253.11
425.62, 7.67, 253.45
425.77, 7.67, 253.82
¯425.92, 7.68, 254.22
426.08, 7.69, 254.65
426.27, 7.70, 255.12
426.47, 7.71, 255.66
426.66, 7.75, 256.15
426.85, 7.80, 256.64
427.07, 7.85, 257.21
427.33, 7.90, 257.90
427.46, 8.02, 258.25
427.60, 8.15, 258.62
427.76, 8.28, 259.03
427.96, 8.41, 259.57
428.14, 8.57, 260.04
428.30, 8.74, 260.47
428.47, 8.92, 260.92
428.65, 9.11, 261.41
425.25, 7.66, 252.23
425.35, 7.66, 252.49
425.46, 7.67, 252.77
425.59, 7.67, 253.08
425.72, 7.67, 253.41
425.87, 7.68, 253.78
426.03, 7.68, 254.18
426.20, 7.69, 254.61
426.39, 7.70, 255.09
426.60, 7.71, 255.62
426.81, 7.75, 256.13
427.00, 7.80, 256.61
427.21, 7.86, 257.15
427.49, 7.90, 257.84
427.63, 8.02, 258.19
427.78, 8.15, 258.59
427.98, 8.27, 259.09
428.20, 8.40, 259.64
428.37, 8.56, 260.09
428.54, 8.73, 260.52
428.73, 8.91, 260.99
428.92, 9.11, 261.48
425.32, 7.66, 252.20
425.43, 7.67, 252.46
425.55, 7.67, 252.74
425.68, 7.67, 253.04
425.82, 7.67, 253.38
425.97, 7.68, 253.74
426.13, 7.68, 254.14
426.32, 7.69, 254.57
426.51, 7.70, 255.05
426.73, 7.71, 255.58
426.95, 7.74, 256.09
427.15, 7.80, 256.58
427.37, 7.85, 257.12
²427.62, 7.92, 257.73
427.80, 8.02, 258.16
428.00, 8.14, 258.64
428.21, 8.26, 259.15
428.44, 8.39, 259.70
428.61, 8.55, 260.14
428.80, 8.73, 260.58
428.99, 8.91, 261.05
429.19, 9.11, 261.55
431.22, 9.18, 266.41
431.23, 9.48, 266.47
425.40, 7.67, 252.17
425.51, 7.67, 252.42
425.64, 7.67, 252.70
425.77, 7.67, 253.01
425.91, 7.68, 253.34
426.07, 7.68, 253.70
426.24, 7.69, 254.09
426.43, 7.69, 254.53
426.64, 7.70, 255.01
426.86, 7.71, 255.54
427.09, 7.74, 256.06
427.30, 7.79, 256.55
427.53, 7.85, 257.09
427.79, 7.92, 257.68
428.01, 8.01, 258.21
428.22, 8.12, 258.68
428.44, 8.25, 259.20
428.68, 8.38, 259.77
428.86, 8.55, 260.19
429.05, 8.72, 260.64
429.25, 8.91, 261.11
429.47, 9.10, 261.62
431.45, 9.19, 266.19
431.47, 9.49, 266.26
431.49, 9.79, 266.32
431.51, 10.09, 266.38
431.59, 10.40, 266.58
431.59, 10.70, 266.60
425.48, 7.67, 252.13
425.60, 7.67, 252.39
425.72, 7.67, 252.67
425.86, 7.67, 252.97
426.00, 7.68, 253.29
426.16, 7.68, 253.65
426.34, 7.69, 254.05
426.54, 7.69, 254.48
426.76, 7.70, 254.97
426.99, 7.71, 255.49
427.23, 7.74, 256.03
427.45, 7.79, 256.52
µ427.69, 7.85, 257.05
427.96, 7.92, 257.64
428.22, 8.00, 258.22
428.44, 8.11, 258.73
428.68, 8.23, 259.26
428.92, 8.37, 259.81
429.11, 8.54, 260.24
429.31, 8.71, 260.69
429.53, 8.90, 261.18
431.82, 8.89, 266.26
431.68, 9.20, 265.99
431.70, 9.50, 266.05
431.72, 9.80, 266.11
431.74, 10.10, 266.17
432.06, 10.42, 266.88
432.06, 10.73, 266.90
425.56, 7.67, 252.10
425.68, 7.67, 252.35
425.81, 7.67, 252.63
425.95, 7.68, 252.93
426.10, 7.68, 253.25
426.26, 7.69, 253.60
426.45, 7.69, 254.00
426.65, 7.70, 254.43
426.88, 7.70, 254.92
427.12, 7.71, 255.45
427.38, 7.74, 255.99
427.60, 7.79, 256.48
427.85, 7.85, 257.01
428.12, 7.91, 257.60
428.40, 8.00, 258.19
428.67, 8.10, 258.78
428.92, 8.22, 259.32
429.17, 8.36, 259.86
429.37, 8.53, 260.29
429.58, 8.71, 260.75
429.84, 8.89, 261.32
432.02, 8.90, 265.98
431.88, 9.21, 265.70
431.81, 9.51, 265.58
431.75, 9.80, 265.45
431.68, 10.09, 265.33
431.62, 10.38, 265.21
431.56, 10.66, 265.09
425.64, 7.67, 252.06
425.76, 7.67, 252.32
425.89, 7.68, 252.59
426.03, 7.68, 252.88
426.19, 7.68, 253.20
426.36, 7.69, 253.56
426.55, 7.69, 253.95
µ426.76, 7.70, 254.38
426.99, 7.71, 254.86
427.25, 7.71, 255.40
427.52, 7.74, 255.96
427.76, 7.79, 256.44
428.01, 7.85, 256.97
428.29, 7.91, 257.56
428.58, 8.00, 258.15
428.87, 8.09, 258.76
429.17, 8.21, 259.38
429.42, 8.35, 259.90
429.63, 8.52, 260.34
429.90, 8.69, 260.92
430.22, 8.87, 261.58
432.22, 8.92, 265.71
432.10, 9.22, 265.49
432.04, 9.52, 265.37
431.97, 9.81, 265.24
431.90, 10.10, 265.12
431.84, 10.38, 265.00
431.78, 10.66, 264.89
425.71, 7.67, 252.03
425.84, 7.67, 252.28
425.97, 7.68, 252.55
426.12, 7.68, 252.84
426.28, 7.69, 253.16
426.46, 7.69, 253.51
426.65, 7.70, 253.90
426.87, 7.70, 254.32
427.11, 7.71, 254.80
427.38, 7.72, 255.34
427.67, 7.73, 255.92
427.91, 7.79, 256.40
428.17, 7.85, 256.93
428.46, 7.91, 257.51
428.76, 7.99, 258.11
429.06, 8.09, 258.72
429.40, 8.20, 259.40
429.67, 8.34, 259.95
429.96, 8.50, 260.53
430.27, 8.67, 261.16
433.42, 8.51, 267.43
432.42, 8.93, 265.44
432.33, 9.23, 265.28
432.26, 9.53, 265.16
432.19, 9.82, 265.04
432.12, 10.10, 264.92
432.06, 10.38, 264.80
431.99, 10.66, 264.69
425.79, 7.67, 251.99
425.92, 7.68, 252.24
²426.06, 7.68, 252.50
426.21, 7.68, 252.79
426.37, 7.69, 253.11
426.55, 7.69, 253.46
426.75, 7.70, 253.84
426.97, 7.71, 254.27
427.22, 7.71, 254.74
427.50, 7.72, 255.28
427.81, 7.73, 255.88
428.05, 7.78, 256.36
428.33, 7.84, 256.88
428.63, 7.91, 257.47
428.94, 7.99, 258.07
429.26, 8.09, 258.68
429.61, 8.20, 259.36
430.01, 8.31, 260.15
430.32, 8.47, 260.76
430.66, 8.65, 261.42
433.63, 8.53, 267.12
432.61, 8.94, 265.18
432.27, 9.26, 264.55
432.26, 9.54, 264.54
432.25, 9.82, 264.53
432.29, 10.11, 264.62
432.34, 10.39, 264.73
432.39, 10.68, 264.83
425.87, 7.67, 251.95
426.00, 7.68, 252.19
426.14, 7.68, 252.46
426.29, 7.69, 252.75
426.46, 7.69, 253.06
426.65, 7.70, 253.41
426.85, 7.70, 253.79
427.08, 7.71, 254.21
427.33, 7.72, 254.68
427.62, 7.72, 255.21
427.94, 7.73, 255.82
428.20, 7.78, 256.31
428.49, 7.84, 256.83
428.80, 7.91, 257.42
429.12, 7.99, 258.03
429.45, 8.09, 258.64
429.83, 8.19, 259.36
430.31, 8.30, 260.25
430.71, 8.45, 260.99
431.07, 8.62, 261.68
433.84, 8.55, 266.82
432.80, 8.96, 264.92
432.49, 9.26, 264.35
432.48, 9.55, 264.34
432.47, 9.83, 264.34
µ432.51, 10.11, 264.43
432.56, 10.40, 264.53
432.61, 10.69, 264.63
425.94, 7.68, 251.91
426.07, 7.68, 252.15
426.22, 7.68, 252.41
426.38, 7.69, 252.70
426.55, 7.69, 253.01
426.74, 7.70, 253.35
426.95, 7.71, 253.73
427.18, 7.71, 254.15
427.44, 7.72, 254.62
427.74, 7.73, 255.14
428.07, 7.73, 255.75
428.35, 7.78, 256.26
428.64, 7.84, 256.79
428.97, 7.91, 257.37
429.31, 7.98, 257.99
429.65, 8.08, 258.60
430.07, 8.18, 259.37
430.57, 8.29, 260.27
431.11, 8.42, 261.24
432.33, 8.48, 263.45
432.35, 8.75, 263.50
432.99, 8.97, 264.67
432.70, 9.27, 264.16
432.69, 9.55, 264.15
432.68, 9.83, 264.14
432.73, 10.12, 264.23
432.78, 10.40, 264.33
432.83, 10.69, 264.44
426.02, 7.68, 251.87
426.15, 7.68, 252.11
426.30, 7.69, 252.37
426.46, 7.69, 252.65
426.64, 7.70, 252.96
426.83, 7.70, 253.30
427.05, 7.71, 253.67
427.29, 7.71, 254.09
427.55, 7.72, 254.55
427.86, 7.73, 255.08
428.20, 7.74, 255.68
428.50, 7.78, 256.21
428.80, 7.84, 256.74
429.13, 7.90, 257.32
429.49, 7.98, 257.94
429.86, 8.07, 258.59
430.31, 8.17, 259.38
430.83, 8.28, 260.29
431.44, 8.40, 261.36
432.54, 8.49, 263.27
µ432.56, 8.76, 263.32
433.18, 8.98, 264.42
432.92, 9.28, 263.96
432.91, 9.56, 263.96
432.89, 9.84, 263.95
432.94, 10.12, 264.04
432.99, 10.41, 264.14
433.04, 10.69, 264.24
426.09, 7.68, 251.83
426.23, 7.68, 252.07
426.38, 7.69, 252.32
426.55, 7.69, 252.60
426.73, 7.70, 252.91
426.93, 7.70, 253.24
427.15, 7.71, 253.62
427.39, 7.72, 254.03
427.66, 7.73, 254.49
427.98, 7.73, 255.01
428.33, 7.74, 255.61
428.65, 7.78, 256.16
428.96, 7.84, 256.68
429.30, 7.90, 257.26
429.68, 7.98, 257.89
430.09, 8.06, 258.59
430.56, 8.16, 259.39
431.10, 8.27, 260.31
431.89, 8.37, 261.64
433.12, 8.45, 263.73
433.10, 8.73, 263.71
433.49, 8.98, 264.37
433.48, 9.27, 264.37
433.46, 9.56, 264.35
433.44, 9.85, 264.33
433.42, 10.13, 264.30
433.39, 10.42, 264.26
433.37, 10.71, 264.24
426.16, 7.68, 251.79
426.31, 7.68, 252.02
426.46, 7.69, 252.28
426.63, 7.69, 252.55
426.82, 7.70, 252.86
427.02, 7.71, 253.19
427.24, 7.71, 253.56
427.49, 7.72, 253.96
427.77, 7.73, 254.42
428.09, 7.73, 254.95
428.46, 7.74, 255.54
428.80, 7.77, 256.11
429.12, 7.83, 256.63
429.47, 7.90, 257.21
429.89, 7.97, 257.89
²430.32, 8.05, 258.60
430.81, 8.15, 259.40
431.37, 8.26, 260.33
434.15, 8.05, 264.86
434.13, 8.36, 264.83
434.64, 8.60, 265.69
434.23, 8.95, 265.03
434.25, 9.25, 265.08
434.28, 9.55, 265.13
434.30, 9.86, 265.17
434.32, 10.16, 265.22
433.57, 10.42, 264.01
433.60, 10.71, 264.06
426.24, 7.68, 251.74
426.39, 7.68, 251.98
426.55, 7.69, 252.23
426.72, 7.70, 252.51
426.91, 7.70, 252.80
427.11, 7.71, 253.13
427.34, 7.72, 253.49
427.60, 7.72, 253.90
427.88, 7.73, 254.36
428.21, 7.74, 254.88
428.58, 7.74, 255.47
428.95, 7.77, 256.05
429.28, 7.83, 256.57
429.64, 7.90, 257.15
430.11, 7.95, 257.89
430.55, 8.04, 258.60
431.06, 8.14, 259.40
431.67, 8.25, 260.37
435.31, 7.92, 266.14
436.18, 8.14, 267.53
435.76, 8.53, 266.87
435.73, 8.86, 266.84
435.71, 9.20, 266.81
435.68, 9.53, 266.78
426.31, 7.68, 251.70
426.46, 7.69, 251.93
426.63, 7.69, 252.18
426.80, 7.70, 252.46
426.99, 7.70, 252.75
427.21, 7.71, 253.08
427.44, 7.72, 253.44
427.70, 7.73, 253.83
427.99, 7.73, 254.29
428.33, 7.74, 254.80
428.71, 7.75, 255.39
429.11, 7.77, 256.00
429.44, 7.83, 256.52
429.84, 7.89, 257.13
¯430.33, 7.94, 257.89
430.79, 8.03, 258.60
431.32, 8.13, 259.41
432.38, 8.16, 261.04
426.38, 7.68, 251.65
426.54, 7.69, 251.89
426.70, 7.69, 252.13
426.89, 7.70, 252.40
427.08, 7.70, 252.70
427.30, 7.71, 253.02
427.54, 7.72, 253.38
427.80, 7.73, 253.77
428.10, 7.73, 254.22
428.45, 7.74, 254.73
428.83, 7.75, 255.31
429.26, 7.76, 255.94
429.60, 7.82, 256.46
430.04, 7.87, 257.12
430.56, 7.93, 257.89
431.04, 8.02, 258.61
431.58, 8.12, 259.42
426.45, 7.69, 251.60
426.61, 7.69, 251.84
426.78, 7.69, 252.08
426.97, 7.70, 252.35
427.17, 7.71, 252.64
427.39, 7.71, 252.96
427.63, 7.72, 253.32
427.90, 7.73, 253.71
428.21, 7.74, 254.15
428.56, 7.74, 254.66
428.96, 7.75, 255.23
429.41, 7.76, 255.88
429.77, 7.82, 256.42
430.25, 7.86, 257.11
430.79, 7.92, 257.89
431.29, 8.00, 258.61
432.00, 8.07, 259.65
426.52, 7.69, 251.56
426.69, 7.69, 251.79
426.86, 7.69, 252.03
427.05, 7.70, 252.30
427.26, 7.71, 252.59
427.48, 7.71, 252.90
427.73, 7.72, 253.25
428.01, 7.73, 253.64
428.32, 7.74, 254.08
428.67, 7.75, 254.58
429.08, 7.75, 255.15
429.54, 7.76, 255.80
429.97, 7.80, 256.40
¯430.46, 7.85, 257.10
431.02, 7.90, 257.88
431.54, 7.99, 258.61
432.60, 8.00, 260.10
426.59, 7.69, 251.51
426.76, 7.69, 251.73
426.94, 7.69, 251.98
427.13, 7.70, 252.24
427.34, 7.71, 252.53
427.57, 7.71, 252.84
427.82, 7.72, 253.19
428.11, 7.73, 253.57
428.42, 7.74, 254.00
428.79, 7.75, 254.50
429.20, 7.76, 255.07
429.67, 7.76, 255.71
430.16, 7.79, 256.38
430.68, 7.83, 257.08
431.26, 7.89, 257.87
431.90, 7.95, 258.76
433.33, 7.91, 260.71
426.66, 7.69, 251.46
426.83, 7.69, 251.68
427.01, 7.70, 251.93
427.21, 7.70, 252.19
427.43, 7.71, 252.47
427.66, 7.72, 252.78
427.92, 7.72, 253.12
428.21, 7.73, 253.51
428.53, 7.74, 253.93
428.90, 7.75, 254.42
429.32, 7.76, 254.98
429.80, 7.77, 255.62
430.32, 7.79, 256.31
430.89, 7.82, 257.07
431.49, 7.87, 257.87
432.36, 7.90, 259.01
434.10, 7.81, 261.31
426.73, 7.69, 251.41
426.90, 7.69, 251.63
427.09, 7.70, 251.87
427.29, 7.70, 252.13
427.51, 7.71, 252.41
427.75, 7.72, 252.72
428.01, 7.72, 253.06
428.30, 7.73, 253.44
428.63, 7.74, 253.86
429.01, 7.75, 254.34
429.44, 7.76, 254.89
429.93, 7.77, 255.53
430.47, 7.79, 256.22
¯431.05, 7.82, 256.97
431.77, 7.85, 257.90
432.85, 7.84, 259.28
436.06, 7.51, 263.40
426.80, 7.69, 251.35
426.97, 7.69, 251.57
427.16, 7.70, 251.81
427.37, 7.70, 252.07
427.59, 7.71, 252.35
427.84, 7.72, 252.65
428.10, 7.73, 252.99
428.40, 7.73, 253.36
428.74, 7.75, 253.78
429.12, 7.75, 254.26
429.56, 7.76, 254.80
430.06, 7.77, 255.43
430.61, 7.79, 256.13
431.21, 7.82, 256.87
431.98, 7.84, 257.84
433.36, 7.78, 259.56
436.54, 7.47, 263.53
426.86, 7.69, 251.30
427.04, 7.70, 251.52
427.24, 7.70, 251.75
427.45, 7.70, 252.01
427.67, 7.71, 252.29
427.92, 7.72, 252.59
428.20, 7.73, 252.92
428.50, 7.74, 253.29
428.84, 7.75, 253.70
429.23, 7.76, 254.17
429.67, 7.76, 254.71
430.18, 7.77, 255.34
430.76, 7.79, 256.03
431.37, 7.82, 256.77
432.19, 7.83, 257.78
433.64, 7.76, 259.54
437.04, 7.43, 263.66
426.93, 7.69, 251.25
427.11, 7.70, 251.46
427.31, 7.70, 251.70
427.53, 7.71, 251.95
427.76, 7.71, 252.22
428.01, 7.72, 252.52
428.29, 7.73, 252.85
428.60, 7.74, 253.22
428.94, 7.75, 253.62
429.33, 7.76, 254.09
429.79, 7.77, 254.62
430.31, 7.78, 255.24
430.90, 7.79, 255.94
¯431.52, 7.82, 256.67
432.41, 7.82, 257.73
433.89, 7.76, 259.47
437.57, 7.39, 263.80
426.99, 7.70, 251.19
427.18, 7.70, 251.40
427.38, 7.70, 251.64
427.60, 7.71, 251.89
427.84, 7.71, 252.16
428.09, 7.72, 252.45
428.38, 7.73, 252.78
428.69, 7.74, 253.14
429.04, 7.75, 253.54
429.44, 7.76, 254.00
429.90, 7.77, 254.53
430.43, 7.78, 255.14
431.04, 7.79, 255.84
431.68, 7.82, 256.58
432.63, 7.81, 257.67
434.14, 7.75, 259.40
437.77, 7.40, 263.56
427.06, 7.70, 251.14
427.25, 7.70, 251.35
427.45, 7.70, 251.57
427.67, 7.71, 251.82
427.92, 7.71, 252.09
