ŸVERSION 0.7
FIELDS x y z
SIZE 8 8 8
TYPE F F F
COUNT 1 1 1
WIDTH 2271
HEIGHT 1
VIEWPOINT 400.53, 14.82, 310.65 1 381.53, 9.32, 304.86
POINTS 2271
DATA ascii
373.90, 7.36, 311.48
373.28, 7.41, 311.86
372.75, 7.50, 312.17
379.41, 7.32, 308.24
379.21, 7.32, 308.37
379.00, 7.32, 308.50
378.77, 7.33, 308.64
378.53, 7.33, 308.80
378.26, 7.33, 308.96
377.97, 7.33, 309.14
377.64, 7.34, 309.35
377.27, 7.33, 309.58
376.86, 7.33, 309.83
376.42, 7.34, 310.10
375.93, 7.35, 310.41
375.39, 7.35, 310.75
374.71, 7.35, 311.17
373.97, 7.36, 311.63
373.36, 7.41, 312.01
379.45, 7.32, 308.31
379.25, 7.32, 308.44
379.04, 7.32, 308.57
378.81, 7.33, 308.72
378.57, 7.33, 308.87
378.30, 7.33, 309.05
378.01, 7.33, 309.23
377.69, 7.34, 309.44
377.32, 7.33, 309.68
376.91, 7.33, 309.94
¯376.48, 7.34, 310.22
375.99, 7.34, 310.53
375.45, 7.35, 310.88
374.77, 7.35, 311.31
374.05, 7.36, 311.77
373.44, 7.41, 312.17
379.49, 7.32, 308.38
379.29, 7.32, 308.51
379.08, 7.32, 308.64
378.86, 7.33, 308.79
378.62, 7.33, 308.95
378.35, 7.33, 309.13
378.06, 7.33, 309.32
377.74, 7.33, 309.53
377.37, 7.33, 309.78
376.96, 7.33, 310.05
376.53, 7.33, 310.33
376.05, 7.34, 310.65
375.52, 7.35, 311.00
374.83, 7.35, 311.46
374.13, 7.36, 311.92
373.53, 7.41, 312.32
379.52, 7.32, 308.44
379.33, 7.32, 308.58
379.12, 7.32, 308.72
378.90, 7.32, 308.87
378.66, 7.33, 309.03
378.40, 7.33, 309.21
378.11, 7.33, 309.41
377.79, 7.33, 309.62
377.43, 7.33, 309.87
377.02, 7.33, 310.15
376.59, 7.33, 310.45
376.11, 7.34, 310.77
375.58, 7.35, 311.13
374.90, 7.34, 311.60
374.22, 7.36, 312.07
373.61, 7.41, 312.48
379.56, 7.32, 308.51
379.37, 7.32, 308.64
379.17, 7.32, 308.79
378.95, 7.32, 308.94
378.71, 7.33, 309.11
378.45, 7.33, 309.29
378.17, 7.33, 309.49
377.85, 7.33, 309.72
377.48, 7.33, 309.97
377.08, 7.33, 310.26
376.65, 7.33, 310.56
376.18, 7.34, 310.89
375.65, 7.35, 311.26
¯374.96, 7.34, 311.75
374.30, 7.36, 312.21
379.60, 7.32, 308.58
379.42, 7.32, 308.71
379.21, 7.32, 308.86
378.99, 7.32, 309.02
378.76, 7.33, 309.19
378.50, 7.33, 309.37
378.22, 7.33, 309.58
377.90, 7.33, 309.81
377.54, 7.33, 310.07
377.14, 7.33, 310.36
376.71, 7.33, 310.67
376.25, 7.34, 311.01
375.71, 7.35, 311.39
375.03, 7.34, 311.89
374.38, 7.36, 312.35
379.65, 7.32, 308.64
379.46, 7.32, 308.78
379.26, 7.32, 308.93
379.04, 7.32, 309.09
378.81, 7.33, 309.26
378.55, 7.33, 309.45
378.27, 7.33, 309.66
377.96, 7.33, 309.90
377.60, 7.33, 310.16
377.20, 7.33, 310.46
376.77, 7.33, 310.78
376.31, 7.34, 311.12
375.78, 7.34, 311.52
375.10, 7.33, 312.03
374.47, 7.36, 312.50
379.69, 7.32, 308.70
379.50, 7.32, 308.84
379.31, 7.32, 309.00
379.09, 7.32, 309.16
378.86, 7.33, 309.34
378.60, 7.33, 309.54
378.33, 7.33, 309.75
378.01, 7.33, 309.99
377.66, 7.33, 310.26
377.26, 7.32, 310.56
376.84, 7.33, 310.89
376.38, 7.34, 311.24
375.85, 7.34, 311.65
375.17, 7.33, 312.17
379.73, 7.32, 308.77
379.55, 7.32, 308.91
379.35, 7.32, 309.07
379.14, 7.32, 309.23
378.91, 7.32, 309.42
¯378.66, 7.33, 309.61
378.38, 7.33, 309.83
378.07, 7.33, 310.08
377.72, 7.33, 310.35
377.33, 7.32, 310.66
376.91, 7.33, 311.00
376.45, 7.33, 311.36
375.92, 7.34, 311.78
375.25, 7.33, 312.31
379.78, 7.32, 308.83
379.60, 7.32, 308.98
379.40, 7.32, 309.13
379.19, 7.32, 309.31
378.96, 7.32, 309.49
378.71, 7.33, 309.69
378.44, 7.33, 309.91
378.13, 7.33, 310.17
377.78, 7.33, 310.45
377.40, 7.32, 310.76
376.98, 7.32, 311.11
376.52, 7.33, 311.47
375.99, 7.34, 311.91
375.32, 7.33, 312.45
379.82, 7.32, 308.89
379.64, 7.32, 309.04
379.45, 7.32, 309.20
379.24, 7.32, 309.38
379.02, 7.32, 309.57
378.77, 7.33, 309.77
378.50, 7.33, 310.00
378.19, 7.33, 310.25
377.85, 7.32, 310.54
377.46, 7.32, 310.86
377.05, 7.32, 311.21
376.60, 7.33, 311.59
376.07, 7.33, 312.03
375.43, 7.33, 312.57
379.87, 7.32, 308.95
379.69, 7.32, 309.10
379.50, 7.32, 309.27
379.29, 7.32, 309.45
379.07, 7.32, 309.64
378.83, 7.33, 309.85
378.56, 7.33, 310.08
378.25, 7.33, 310.34
377.91, 7.32, 310.64
377.53, 7.32, 310.96
377.12, 7.32, 311.32
376.67, 7.33, 311.70
376.14, 7.33, 312.16
375.55, 7.34, 312.67
¯379.92, 7.32, 309.01
379.74, 7.32, 309.17
379.55, 7.32, 309.34
379.35, 7.32, 309.52
379.13, 7.32, 309.71
378.88, 7.32, 309.93
378.62, 7.33, 310.16
378.32, 7.33, 310.43
377.98, 7.32, 310.73
377.60, 7.32, 311.06
377.20, 7.32, 311.42
376.75, 7.33, 311.82
376.22, 7.33, 312.28
375.67, 7.34, 312.77
379.96, 7.31, 309.07
379.79, 7.32, 309.23
379.60, 7.32, 309.40
379.40, 7.32, 309.59
379.18, 7.32, 309.79
378.94, 7.32, 310.00
378.68, 7.33, 310.24
378.38, 7.32, 310.51
378.05, 7.32, 310.82
377.67, 7.32, 311.16
377.27, 7.32, 311.52
376.83, 7.33, 311.93
376.30, 7.33, 312.41
375.79, 7.35, 312.88
380.01, 7.31, 309.13
379.84, 7.32, 309.29
379.66, 7.32, 309.47
379.46, 7.32, 309.65
379.24, 7.32, 309.86
379.00, 7.32, 310.08
378.75, 7.33, 310.32
378.45, 7.32, 310.60
378.12, 7.32, 310.91
377.75, 7.32, 311.26
377.35, 7.32, 311.63
376.91, 7.33, 312.04
376.39, 7.33, 312.52
375.91, 7.36, 312.97
380.06, 7.31, 309.19
379.89, 7.32, 309.36
379.71, 7.32, 309.53
379.51, 7.32, 309.72
379.30, 7.32, 309.93
379.07, 7.32, 310.15
378.81, 7.33, 310.40
378.52, 7.32, 310.68
378.19, 7.32, 311.00
¯377.82, 7.32, 311.35
377.43, 7.32, 311.73
376.99, 7.32, 312.15
376.51, 7.33, 312.62
376.03, 7.36, 313.07
380.11, 7.31, 309.25
379.95, 7.31, 309.42
379.77, 7.32, 309.60
379.57, 7.32, 309.79
379.36, 7.32, 310.00
379.13, 7.32, 310.23
378.87, 7.32, 310.48
378.58, 7.32, 310.77
378.26, 7.32, 311.09
377.90, 7.32, 311.45
377.51, 7.32, 311.83
377.08, 7.32, 312.26
376.62, 7.34, 312.71
376.15, 7.37, 313.17
380.17, 7.31, 309.31
380.00, 7.31, 309.48
379.82, 7.32, 309.66
379.63, 7.32, 309.86
379.42, 7.32, 310.07
379.19, 7.32, 310.30
378.94, 7.32, 310.56
378.65, 7.32, 310.85
378.33, 7.32, 311.17
377.97, 7.32, 311.54
377.59, 7.32, 311.93
377.16, 7.32, 312.37
376.74, 7.34, 312.80
376.28, 7.37, 313.27
380.22, 7.31, 309.37
380.05, 7.31, 309.54
379.88, 7.32, 309.72
379.69, 7.32, 309.92
379.48, 7.32, 310.14
379.26, 7.32, 310.37
379.01, 7.32, 310.63
378.72, 7.32, 310.93
378.41, 7.32, 311.26
378.05, 7.31, 311.63
377.68, 7.32, 312.03
377.25, 7.32, 312.47
376.85, 7.35, 312.89
376.40, 7.38, 313.36
380.27, 7.31, 309.42
380.11, 7.31, 309.60
379.94, 7.32, 309.78
379.75, 7.32, 309.99
¯379.54, 7.32, 310.21
379.32, 7.32, 310.45
379.08, 7.32, 310.71
378.80, 7.32, 311.01
378.48, 7.32, 311.35
378.13, 7.31, 311.73
377.76, 7.32, 312.13
377.34, 7.32, 312.57
376.97, 7.36, 312.98
376.53, 7.39, 313.45
380.32, 7.31, 309.48
380.17, 7.31, 309.65
379.99, 7.31, 309.84
379.81, 7.32, 310.05
379.61, 7.32, 310.27
379.39, 7.32, 310.52
379.15, 7.32, 310.78
378.87, 7.32, 311.09
378.56, 7.32, 311.43
378.21, 7.31, 311.82
377.85, 7.32, 312.22
377.44, 7.32, 312.68
377.07, 7.36, 313.09
376.65, 7.39, 313.54
380.38, 7.31, 309.53
380.22, 7.31, 309.71
380.05, 7.31, 309.91
379.87, 7.32, 310.11
379.67, 7.32, 310.34
379.45, 7.32, 310.59
379.22, 7.32, 310.86
378.94, 7.32, 311.17
378.64, 7.32, 311.52
378.30, 7.31, 311.91
377.93, 7.32, 312.32
377.53, 7.32, 312.78
377.17, 7.36, 313.19
376.78, 7.40, 313.63
380.43, 7.31, 309.59
380.28, 7.31, 309.77
380.11, 7.31, 309.97
379.93, 7.32, 310.18
379.74, 7.32, 310.41
379.52, 7.32, 310.66
379.29, 7.32, 310.93
379.02, 7.32, 311.25
378.72, 7.31, 311.60
378.38, 7.31, 311.99
378.02, 7.31, 312.41
377.63, 7.32, 312.87
377.27, 7.36, 313.30
¯376.91, 7.40, 313.72
380.49, 7.31, 309.64
380.34, 7.31, 309.83
380.17, 7.31, 310.02
380.00, 7.31, 310.24
379.80, 7.32, 310.47
379.59, 7.32, 310.73
379.36, 7.32, 311.00
379.09, 7.32, 311.33
378.80, 7.31, 311.68
378.47, 7.31, 312.08
378.11, 7.31, 312.51
377.73, 7.32, 312.97
377.37, 7.36, 313.40
377.02, 7.41, 313.82
380.55, 7.31, 309.70
380.40, 7.31, 309.88
380.24, 7.31, 310.08
380.06, 7.31, 310.30
379.87, 7.32, 310.54
379.66, 7.32, 310.79
379.43, 7.32, 311.08
379.17, 7.32, 311.40
378.88, 7.31, 311.76
378.55, 7.31, 312.17
378.21, 7.31, 312.60
377.83, 7.32, 313.07
377.48, 7.36, 313.50
377.13, 7.41, 313.93
380.61, 7.31, 309.75
380.46, 7.31, 309.94
380.30, 7.31, 310.14
380.13, 7.31, 310.36
379.94, 7.31, 310.60
379.73, 7.32, 310.86
379.51, 7.32, 311.15
379.25, 7.32, 311.48
378.96, 7.31, 311.85
378.64, 7.31, 312.26
378.30, 7.31, 312.69
377.93, 7.32, 313.17
377.58, 7.36, 313.61
377.24, 7.41, 314.04
380.66, 7.31, 309.80
380.52, 7.31, 309.99
380.36, 7.31, 310.20
380.19, 7.31, 310.42
380.01, 7.31, 310.66
379.81, 7.32, 310.93
379.59, 7.32, 311.22
379.33, 7.32, 311.55
¯379.05, 7.31, 311.92
378.73, 7.31, 312.34
378.40, 7.31, 312.78
378.03, 7.32, 313.26
377.69, 7.36, 313.71
377.35, 7.41, 314.15
380.72, 7.31, 309.85
380.58, 7.31, 310.05
380.43, 7.31, 310.25
380.26, 7.31, 310.48
380.08, 7.31, 310.73
379.88, 7.32, 310.99
379.66, 7.32, 311.29
379.41, 7.31, 311.63
379.13, 7.31, 312.00
378.82, 7.31, 312.43
378.50, 7.31, 312.86
378.13, 7.32, 313.35
377.80, 7.36, 313.81
377.46, 7.41, 314.25
380.78, 7.31, 309.90
380.64, 7.31, 310.10
380.49, 7.31, 310.31
380.33, 7.31, 310.54
380.15, 7.31, 310.79
379.95, 7.31, 311.06
379.74, 7.32, 311.35
379.49, 7.31, 311.70
379.22, 7.31, 312.08
378.91, 7.31, 312.51
378.59, 7.31, 312.95
378.24, 7.32, 313.45
377.90, 7.35, 313.91
377.58, 7.41, 314.36
380.84, 7.31, 309.95
380.71, 7.31, 310.15
380.56, 7.31, 310.36
380.40, 7.31, 310.60
380.22, 7.31, 310.85
380.03, 7.31, 311.12
379.82, 7.32, 311.42
379.58, 7.31, 311.77
379.31, 7.31, 312.16
379.01, 7.31, 312.59
378.69, 7.31, 313.04
378.34, 7.32, 313.54
378.01, 7.35, 314.01
380.91, 7.31, 310.00
380.77, 7.31, 310.20
380.62, 7.31, 310.42
380.46, 7.31, 310.65
¯380.29, 7.31, 310.91
380.10, 7.31, 311.18
379.90, 7.32, 311.49
379.66, 7.31, 311.84
379.40, 7.31, 312.23
379.10, 7.31, 312.67
378.79, 7.31, 313.12
378.45, 7.32, 313.63
378.13, 7.35, 314.11
380.97, 7.31, 310.05
380.83, 7.31, 310.25
380.69, 7.31, 310.47
380.54, 7.31, 310.71
380.37, 7.31, 310.96
380.18, 7.31, 311.25
379.98, 7.31, 311.55
379.75, 7.31, 311.91
379.49, 7.31, 312.31
379.20, 7.31, 312.74
378.90, 7.31, 313.20
378.56, 7.32, 313.72
378.24, 7.35, 314.20
381.03, 7.31, 310.09
380.90, 7.31, 310.30
380.76, 7.31, 310.52
380.61, 7.31, 310.76
380.44, 7.31, 311.02
380.26, 7.31, 311.31
380.06, 7.31, 311.62
379.83, 7.31, 311.98
379.58, 7.31, 312.38
379.30, 7.31, 312.82
379.00, 7.31, 313.28
378.67, 7.32, 313.80
378.35, 7.35, 314.30
381.10, 7.31, 310.14
380.97, 7.31, 310.35
380.83, 7.31, 310.57
380.68, 7.31, 310.82
380.52, 7.31, 311.08
380.34, 7.31, 311.37
380.14, 7.31, 311.68
379.92, 7.31, 312.04
379.67, 7.31, 312.45
379.40, 7.31, 312.89
379.10, 7.31, 313.36
378.78, 7.32, 313.89
378.47, 7.35, 314.40
381.16, 7.31, 310.18
381.03, 7.31, 310.39
380.90, 7.31, 310.62
¯380.75, 7.31, 310.87
380.59, 7.31, 311.14
380.42, 7.31, 311.43
380.23, 7.31, 311.74
380.01, 7.31, 312.11
379.76, 7.31, 312.52
379.50, 7.31, 312.97
379.21, 7.31, 313.44
378.89, 7.32, 313.98
381.23, 7.31, 310.23
381.10, 7.31, 310.44
380.97, 7.31, 310.67
380.82, 7.31, 310.92
380.67, 7.31, 311.19
380.50, 7.31, 311.48
380.31, 7.31, 311.81
380.10, 7.31, 312.17
379.86, 7.31, 312.59
379.60, 7.31, 313.04
379.32, 7.31, 313.52
379.01, 7.32, 314.06
381.29, 7.31, 310.27
381.17, 7.31, 310.48
381.04, 7.31, 310.72
380.90, 7.31, 310.97
380.75, 7.31, 311.24
380.58, 7.31, 311.54
380.40, 7.31, 311.87
380.19, 7.31, 312.24
379.96, 7.31, 312.65
379.70, 7.31, 313.11
379.43, 7.31, 313.60
379.12, 7.32, 314.14
381.36, 7.31, 310.31
381.24, 7.31, 310.53
381.11, 7.31, 310.76
380.98, 7.31, 311.02
380.82, 7.31, 311.30
380.66, 7.31, 311.60
380.48, 7.31, 311.93
380.28, 7.31, 312.30
380.05, 7.31, 312.72
379.80, 7.31, 313.18
379.53, 7.31, 313.67
379.24, 7.32, 314.22
381.43, 7.31, 310.35
381.31, 7.31, 310.57
381.19, 7.31, 310.81
381.05, 7.31, 311.07
380.90, 7.31, 311.35
380.74, 7.31, 311.65
¯380.57, 7.31, 311.98
380.37, 7.31, 312.36
380.15, 7.31, 312.78
379.91, 7.31, 313.25
379.64, 7.31, 313.75
379.35, 7.32, 314.30
381.50, 7.31, 310.39
381.38, 7.31, 310.61
381.26, 7.31, 310.85
381.13, 7.31, 311.11
380.99, 7.31, 311.40
380.83, 7.31, 311.71
380.66, 7.31, 312.04
380.47, 7.31, 312.42
380.25, 7.31, 312.84
380.01, 7.31, 313.31
379.76, 7.31, 313.82
379.47, 7.32, 314.38
381.56, 7.31, 310.43
381.45, 7.31, 310.65
381.34, 7.31, 310.90
381.21, 7.31, 311.16
381.07, 7.31, 311.44
380.91, 7.31, 311.76
380.75, 7.31, 312.10
380.56, 7.31, 312.48
380.35, 7.31, 312.90
380.12, 7.31, 313.38
379.87, 7.31, 313.89
384.33, 7.52, 300.11
384.34, 7.56, 299.99
384.36, 7.60, 299.86
384.37, 7.64, 299.73
384.38, 7.69, 299.60
384.40, 7.73, 299.45
384.41, 7.78, 299.31
384.43, 7.83, 299.15
384.44, 7.88, 298.99
384.46, 7.94, 298.82
384.49, 7.97, 298.53
384.52, 8.00, 298.20
384.56, 8.04, 297.85
384.60, 8.08, 297.46
384.65, 8.13, 297.03
384.70, 8.17, 296.49
384.77, 8.22, 295.85
384.85, 8.27, 295.11
384.95, 8.32, 294.14
385.08, 8.37, 292.92
385.27, 8.42, 291.11
385.61, 8.44, 287.89
¯384.26, 7.52, 300.11
384.27, 7.56, 299.98
384.28, 7.60, 299.86
384.29, 7.64, 299.73
384.30, 7.69, 299.59
384.31, 7.73, 299.45
384.33, 7.78, 299.30
384.34, 7.83, 299.15
384.35, 7.88, 298.98
384.37, 7.93, 298.81
384.40, 7.97, 298.52
384.42, 8.00, 298.20
384.46, 8.04, 297.84
384.49, 8.08, 297.45
384.53, 8.13, 297.02
384.58, 8.17, 296.49
384.64, 8.21, 295.84
384.71, 8.26, 295.09
384.79, 8.31, 294.13
384.90, 8.37, 292.92
385.07, 8.42, 291.15
385.36, 8.44, 287.96
384.19, 7.52, 300.10
384.19, 7.56, 299.98
384.20, 7.60, 299.85
384.21, 7.64, 299.72
384.22, 7.69, 299.59
384.23, 7.73, 299.44
384.24, 7.78, 299.30
384.25, 7.83, 299.14
384.27, 7.88, 298.98
384.28, 7.93, 298.80
384.30, 7.97, 298.51
384.33, 8.00, 298.19
384.35, 8.04, 297.83
384.38, 8.08, 297.44
384.42, 8.13, 297.01
384.46, 8.17, 296.48
384.51, 8.21, 295.83
384.56, 8.26, 295.09
384.64, 8.31, 294.12
384.73, 8.37, 292.93
384.87, 8.42, 291.17
385.11, 8.44, 288.03
384.11, 7.52, 300.10
384.12, 7.56, 299.98
384.13, 7.60, 299.85
384.14, 7.64, 299.72
384.14, 7.68, 299.58
384.15, 7.73, 299.44
384.16, 7.78, 299.29
¯384.17, 7.83, 299.14
384.18, 7.88, 298.97
384.19, 7.93, 298.79
384.21, 7.96, 298.50
384.23, 8.00, 298.18
384.25, 8.04, 297.82
384.27, 8.08, 297.43
384.30, 8.12, 297.00
384.33, 8.17, 296.47
384.37, 8.21, 295.83
384.42, 8.26, 295.08
384.48, 8.31, 294.12
384.56, 8.37, 292.93
384.67, 8.42, 291.19
384.87, 8.44, 288.10
384.04, 7.52, 300.10
384.05, 7.56, 299.97
384.05, 7.60, 299.84
384.06, 7.64, 299.71
384.06, 7.68, 299.58
384.07, 7.73, 299.43
384.08, 7.78, 299.29
384.08, 7.83, 299.13
384.09, 7.88, 298.97
384.10, 7.93, 298.78
384.11, 7.96, 298.49
384.13, 8.00, 298.17
384.14, 8.03, 297.82
384.16, 8.07, 297.43
384.18, 8.12, 296.99
384.21, 8.16, 296.46
384.24, 8.21, 295.82
384.28, 8.26, 295.08
384.33, 8.31, 294.11
384.38, 8.36, 292.92
384.47, 8.42, 291.20
384.62, 8.44, 288.18
383.97, 7.52, 300.10
383.97, 7.55, 299.97
383.98, 7.59, 299.84
383.98, 7.64, 299.71
383.98, 7.68, 299.57
383.99, 7.73, 299.43
383.99, 7.77, 299.28
384.00, 7.82, 299.13
384.00, 7.88, 298.96
384.01, 7.92, 298.77
384.02, 7.96, 298.48
384.03, 7.99, 298.17
384.04, 8.03, 297.81
384.05, 8.07, 297.42
¯384.07, 8.12, 296.99
384.09, 8.16, 296.46
384.11, 8.21, 295.82
384.14, 8.25, 295.08
384.17, 8.30, 294.11
384.21, 8.36, 292.92
384.27, 8.41, 291.22
384.38, 8.44, 288.26
383.90, 7.52, 300.11
383.90, 7.55, 299.97
383.90, 7.59, 299.84
383.90, 7.63, 299.71
383.90, 7.68, 299.57
383.91, 7.72, 299.43
383.91, 7.77, 299.28
383.91, 7.82, 299.12
383.91, 7.87, 298.96
383.92, 7.92, 298.77
383.92, 7.96, 298.48
383.93, 7.99, 298.16
383.94, 8.03, 297.81
383.94, 8.07, 297.42
383.95, 8.11, 296.98
383.96, 8.16, 296.45
383.98, 8.20, 295.82
383.99, 8.25, 295.07
384.01, 8.30, 294.11
384.04, 8.36, 292.92
384.08, 8.41, 291.24
384.14, 8.44, 288.34
383.82, 7.52, 300.11
383.82, 7.56, 299.98
383.82, 7.59, 299.84
383.82, 7.63, 299.70
383.82, 7.68, 299.57
383.83, 7.72, 299.42
383.83, 7.77, 299.28
383.83, 7.82, 299.12
383.83, 7.87, 298.96
383.83, 7.92, 298.76
383.83, 7.95, 298.47
383.83, 7.99, 298.15
383.83, 8.03, 297.80
383.83, 8.07, 297.41
383.84, 8.11, 296.98
383.84, 8.15, 296.45
383.85, 8.20, 295.82
383.85, 8.25, 295.08
383.86, 8.30, 294.11
383.87, 8.35, 292.92
383.88, 8.41, 291.26
¯383.90, 8.44, 288.42
383.75, 7.52, 300.12
383.75, 7.56, 299.98
383.75, 7.59, 299.84
383.75, 7.63, 299.70
383.75, 7.67, 299.56
383.74, 7.72, 299.42
383.74, 7.77, 299.27
383.74, 7.82, 299.12
383.74, 7.87, 298.95
383.74, 7.92, 298.76
383.73, 7.95, 298.47
383.73, 7.98, 298.15
383.73, 8.02, 297.80
383.73, 8.06, 297.41
383.72, 8.11, 296.97
383.72, 8.15, 296.44
383.71, 8.20, 295.82
383.71, 8.25, 295.08
383.70, 8.29, 294.11
383.69, 8.35, 292.93
383.68, 8.41, 291.28
383.67, 8.44, 288.51
383.68, 7.52, 300.12
383.68, 7.56, 299.99
383.67, 7.59, 299.85
383.67, 7.63, 299.70
383.67, 7.67, 299.56
383.66, 7.72, 299.42
383.66, 7.76, 299.27
383.65, 7.81, 299.12
383.65, 7.87, 298.95
383.64, 7.91, 298.75
383.64, 7.95, 298.46
383.63, 7.98, 298.14
383.62, 8.02, 297.80
383.62, 8.06, 297.41
383.61, 8.11, 296.97
383.59, 8.15, 296.44
383.58, 8.19, 295.82
383.57, 8.24, 295.08
383.55, 8.29, 294.12
383.52, 8.35, 292.93
383.49, 8.40, 291.31
383.44, 8.44, 288.59
383.61, 7.52, 300.13
383.60, 7.56, 300.00
383.60, 7.59, 299.86
383.59, 7.63, 299.71
383.59, 7.67, 299.56
383.58, 7.71, 299.42
¯383.57, 7.76, 299.27
383.57, 7.81, 299.11
383.56, 7.86, 298.95
383.55, 7.91, 298.75
383.54, 7.94, 298.46
383.53, 7.98, 298.14
383.52, 8.02, 297.79
383.51, 8.06, 297.41
383.49, 8.10, 296.97
383.47, 8.15, 296.44
383.45, 8.19, 295.82
383.42, 8.24, 295.08
383.39, 8.29, 294.12
383.35, 8.34, 292.94
383.29, 8.40, 291.33
383.21, 8.44, 288.68
383.54, 7.52, 300.14
383.53, 7.56, 300.00
383.52, 7.59, 299.86
383.51, 7.63, 299.72
383.51, 7.67, 299.57
383.50, 7.71, 299.42
383.49, 7.76, 299.27
383.48, 7.81, 299.11
383.47, 7.86, 298.95
383.46, 7.91, 298.75
383.45, 7.94, 298.46
383.43, 7.97, 298.14
383.41, 8.01, 297.79
383.40, 8.06, 297.41
383.37, 8.10, 296.97
383.35, 8.14, 296.44
383.32, 8.19, 295.82
383.28, 8.24, 295.09
383.23, 8.29, 294.13
383.18, 8.34, 292.94
383.10, 8.40, 291.36
382.98, 8.44, 288.78
383.46, 7.52, 300.14
383.46, 7.56, 300.01
383.45, 7.59, 299.87
383.44, 7.63, 299.73
383.43, 7.67, 299.58
383.42, 7.71, 299.42
383.41, 7.76, 299.27
383.40, 7.81, 299.11
383.38, 7.86, 298.95
383.37, 7.90, 298.75
383.35, 7.94, 298.46
383.33, 7.97, 298.14
383.31, 8.01, 297.79
¯383.28, 8.05, 297.40
383.26, 8.10, 296.97
383.22, 8.14, 296.44
383.18, 8.18, 295.82
383.14, 8.23, 295.10
383.08, 8.28, 294.14
383.01, 8.34, 292.95
382.91, 8.39, 291.37
382.75, 8.44, 288.87
382.56, 8.53, 285.78
383.39, 7.52, 300.15
383.38, 7.56, 300.02
383.37, 7.59, 299.88
383.36, 7.63, 299.74
383.35, 7.67, 299.59
383.33, 7.71, 299.43
383.32, 7.75, 299.27
383.31, 7.80, 299.11
383.30, 7.85, 298.95
383.28, 7.90, 298.75
383.26, 7.93, 298.45
383.23, 7.97, 298.13
383.20, 8.01, 297.79
383.17, 8.05, 297.40
383.14, 8.09, 296.97
383.10, 8.13, 296.44
383.05, 8.18, 295.82
383.00, 8.23, 295.10
382.92, 8.28, 294.15
382.83, 8.33, 292.97
382.71, 8.39, 291.39
382.53, 8.44, 288.97
382.37, 8.58, 286.87
383.32, 7.52, 300.16
383.31, 7.56, 300.03
383.30, 7.59, 299.89
383.28, 7.63, 299.75
383.27, 7.67, 299.60
383.25, 7.71, 299.44
383.24, 7.75, 299.27
383.22, 7.80, 299.11
383.21, 7.85, 298.95
383.19, 7.90, 298.75
383.16, 7.93, 298.45
383.13, 7.96, 298.13
383.10, 8.00, 297.79
383.06, 8.04, 297.40
383.02, 8.09, 296.98
382.98, 8.13, 296.44
382.92, 8.18, 295.82
382.85, 8.23, 295.11
¯382.77, 8.28, 294.16
382.66, 8.33, 292.99
382.52, 8.39, 291.42
382.31, 8.44, 289.07
382.12, 8.58, 287.04
383.25, 7.52, 300.17
383.24, 7.56, 300.04
383.22, 7.59, 299.90
383.21, 7.63, 299.76
383.19, 7.67, 299.61
383.17, 7.71, 299.45
383.15, 7.75, 299.28
383.14, 7.79, 299.11
383.12, 7.85, 298.95
383.10, 7.89, 298.75
383.06, 7.93, 298.46
383.03, 7.96, 298.14
382.99, 8.00, 297.79
382.95, 8.04, 297.40
382.91, 8.09, 296.98
382.85, 8.13, 296.44
382.79, 8.17, 295.82
382.71, 8.22, 295.11
382.61, 8.27, 294.18
382.49, 8.33, 293.01
382.33, 8.38, 291.45
382.12, 8.46, 289.45
381.88, 8.58, 287.21
383.18, 7.52, 300.18
383.16, 7.55, 300.05
383.15, 7.59, 299.91
383.13, 7.63, 299.77
383.11, 7.67, 299.62
383.09, 7.71, 299.46
383.07, 7.75, 299.30
383.05, 7.79, 299.12
383.03, 7.84, 298.95
383.00, 7.89, 298.75
382.97, 7.92, 298.46
382.93, 7.96, 298.14
382.89, 7.99, 297.79
382.84, 8.04, 297.40
382.79, 8.08, 296.98
382.73, 8.12, 296.45
382.65, 8.17, 295.83
382.57, 8.22, 295.11
382.46, 8.27, 294.21
382.32, 8.32, 293.04
382.14, 8.38, 291.49
381.97, 8.49, 290.07
381.65, 8.58, 287.37
¯383.11, 7.52, 300.19
383.09, 7.55, 300.06
383.07, 7.59, 299.92
383.05, 7.63, 299.78
383.03, 7.66, 299.63
383.01, 7.70, 299.47
382.99, 7.75, 299.31
382.96, 7.79, 299.14
382.94, 7.84, 298.95
382.91, 7.89, 298.76
382.87, 7.92, 298.46
382.83, 7.95, 298.14
382.78, 7.99, 297.79
382.73, 8.03, 297.41
382.67, 8.08, 296.98
382.60, 8.12, 296.46
382.52, 8.16, 295.83
382.42, 8.21, 295.12
382.31, 8.27, 294.23
382.15, 8.32, 293.07
381.95, 8.38, 291.52
381.82, 8.51, 290.57
381.42, 8.58, 287.54
383.04, 7.52, 300.20
383.02, 7.55, 300.07
383.00, 7.59, 299.94
382.98, 7.63, 299.79
382.95, 7.66, 299.64
382.93, 7.70, 299.49
382.90, 7.75, 299.32
382.88, 7.79, 299.15
382.85, 7.84, 298.97
382.82, 7.88, 298.76
382.78, 7.91, 298.47
382.73, 7.95, 298.15
382.68, 7.99, 297.80
382.62, 8.03, 297.41
382.56, 8.07, 296.99
382.48, 8.12, 296.46
382.39, 8.16, 295.84
382.28, 8.21, 295.12
382.15, 8.27, 294.26
381.98, 8.32, 293.10
381.76, 8.37, 291.56
381.66, 8.53, 290.95
381.19, 8.58, 287.71
382.97, 7.52, 300.22
382.95, 7.55, 300.09
382.92, 7.59, 299.95
382.90, 7.62, 299.81
382.88, 7.66, 299.66
¯382.85, 7.70, 299.50
382.82, 7.74, 299.34
382.79, 7.79, 299.16
382.76, 7.83, 298.98
382.73, 7.88, 298.77
382.68, 7.91, 298.47
382.63, 7.94, 298.15
382.57, 7.98, 297.80
382.51, 8.02, 297.42
382.44, 8.07, 297.00
382.35, 8.11, 296.47
382.25, 8.16, 295.85
382.14, 8.21, 295.13
382.00, 8.26, 294.27
381.81, 8.31, 293.13
381.57, 8.37, 291.60
381.47, 8.53, 290.99
380.97, 8.58, 287.88
382.90, 7.52, 300.23
382.87, 7.55, 300.10
382.85, 7.59, 299.96
382.82, 7.62, 299.82
382.80, 7.66, 299.67
382.77, 7.70, 299.51
382.74, 7.74, 299.34
382.71, 7.78, 299.17
382.67, 7.83, 298.99
382.64, 7.87, 298.78
382.58, 7.91, 298.48
382.53, 7.94, 298.16
382.47, 7.98, 297.81
382.40, 8.02, 297.43
382.32, 8.07, 297.01
382.23, 8.11, 296.48
382.12, 8.15, 295.86
381.99, 8.20, 295.14
381.84, 8.26, 294.28
381.65, 8.31, 293.16
381.43, 8.39, 291.95
381.27, 8.52, 291.04
380.73, 8.58, 287.99
382.83, 7.52, 300.24
382.80, 7.55, 300.11
382.77, 7.58, 299.97
382.75, 7.62, 299.83
382.72, 7.66, 299.68
382.69, 7.70, 299.52
382.65, 7.74, 299.35
382.62, 7.78, 299.18
382.58, 7.83, 298.99
382.54, 7.87, 298.78
¯382.49, 7.90, 298.49
382.43, 7.94, 298.17
382.36, 7.97, 297.82
382.29, 8.02, 297.44
382.20, 8.06, 297.02
382.10, 8.10, 296.49
381.99, 8.15, 295.87
381.85, 8.20, 295.15
381.68, 8.25, 294.29
381.48, 8.31, 293.20
381.31, 8.41, 292.33
381.07, 8.52, 291.09
380.51, 8.58, 288.10
382.76, 7.51, 300.25
382.73, 7.55, 300.12
382.70, 7.58, 299.98
382.67, 7.62, 299.84
382.64, 7.65, 299.68
382.60, 7.69, 299.53
382.57, 7.73, 299.36
382.53, 7.78, 299.18
382.49, 7.82, 299.00
382.45, 7.87, 298.79
382.57, 8.10, 299.39
382.57, 8.19, 299.41
382.57, 8.28, 299.42
382.57, 8.36, 299.43
382.57, 8.45, 299.44
382.57, 8.54, 299.44
382.57, 8.62, 299.45
382.57, 8.71, 299.46
382.57, 8.79, 299.46
382.57, 8.88, 299.47
382.57, 8.96, 299.47
382.57, 9.04, 299.48
382.57, 9.13, 299.48
382.57, 9.21, 299.49
382.56, 9.29, 299.49
382.56, 9.37, 299.50
382.56, 9.46, 299.50
382.56, 9.54, 299.49
382.68, 7.51, 300.26
382.65, 7.54, 300.13
382.62, 7.58, 299.99
382.59, 7.61, 299.84
382.56, 7.65, 299.69
382.52, 7.69, 299.53
382.49, 7.73, 299.37
382.45, 7.77, 299.19
382.52, 7.95, 299.53
382.53, 8.05, 299.59
¯382.53, 8.14, 299.60
382.53, 8.22, 299.60
382.53, 8.31, 299.61
382.52, 8.39, 299.61
382.52, 8.48, 299.61
382.52, 8.56, 299.61
382.52, 8.64, 299.62
382.52, 8.72, 299.62
382.52, 8.81, 299.62
382.52, 8.89, 299.62
382.52, 8.97, 299.62
382.51, 9.05, 299.63
382.51, 9.13, 299.63
382.51, 9.21, 299.63
382.51, 9.29, 299.63
382.51, 9.37, 299.63
382.51, 9.45, 299.64
382.51, 9.53, 299.63
382.61, 7.50, 300.27
382.58, 7.54, 300.13
382.55, 7.57, 300.00
382.51, 7.61, 299.85
382.48, 7.64, 299.70
382.44, 7.68, 299.54
382.40, 7.72, 299.38
382.44, 7.87, 299.57
382.46, 7.98, 299.66
382.47, 8.07, 299.69
382.47, 8.15, 299.69
382.46, 8.24, 299.69
382.46, 8.32, 299.70
382.46, 8.40, 299.70
382.46, 8.49, 299.70
382.46, 8.57, 299.70
382.46, 8.65, 299.70
382.46, 8.73, 299.70
382.45, 8.81, 299.70
382.45, 8.89, 299.71
382.45, 8.97, 299.71
382.45, 9.05, 299.71
382.45, 9.13, 299.71
382.45, 9.21, 299.71
382.45, 9.29, 299.71
382.45, 9.37, 299.71
382.44, 9.45, 299.72
382.44, 9.53, 299.71
382.54, 7.50, 300.28
382.51, 7.53, 300.14
382.47, 7.57, 300.01
382.44, 7.60, 299.86
382.40, 7.64, 299.71
¯382.36, 7.68, 299.55
382.32, 7.72, 299.38
382.38, 7.89, 299.67
382.39, 7.99, 299.73
382.40, 8.08, 299.75
382.40, 8.16, 299.75
382.40, 8.24, 299.75
382.39, 8.33, 299.75
382.39, 8.41, 299.76
382.39, 8.49, 299.76
382.39, 8.57, 299.76
382.39, 8.65, 299.76
382.39, 8.73, 299.76
382.39, 8.81, 299.76
382.38, 8.89, 299.76
382.38, 8.97, 299.76
382.38, 9.05, 299.76
382.38, 9.13, 299.76
382.38, 9.21, 299.76
382.38, 9.29, 299.77
382.38, 9.37, 299.77
382.37, 9.45, 299.77
382.37, 9.53, 299.76
382.47, 7.50, 300.29
382.43, 7.53, 300.15
382.40, 7.56, 300.02
382.36, 7.60, 299.87
382.32, 7.63, 299.72
382.28, 7.67, 299.56
382.28, 7.77, 299.57
382.31, 7.89, 299.72
382.32, 7.99, 299.77
382.33, 8.08, 299.79
382.33, 8.16, 299.79
382.32, 8.25, 299.79
382.32, 8.33, 299.79
382.32, 8.41, 299.79
382.32, 8.49, 299.80
382.32, 8.57, 299.80
382.32, 8.65, 299.80
382.32, 8.73, 299.80
382.31, 8.81, 299.80
382.31, 8.89, 299.80
382.31, 8.97, 299.80
382.31, 9.05, 299.80
382.31, 9.13, 299.80
382.31, 9.21, 299.80
382.30, 9.29, 299.80
382.30, 9.37, 299.80
382.30, 9.45, 299.80
382.30, 9.53, 299.80
¯382.40, 7.49, 300.30
382.36, 7.52, 300.16
382.32, 7.56, 300.03
382.28, 7.59, 299.88
382.24, 7.63, 299.73
382.19, 7.67, 299.57
382.20, 7.77, 299.61
382.24, 7.89, 299.75
382.25, 7.99, 299.79
382.25, 8.08, 299.81
382.25, 8.16, 299.82
382.25, 8.25, 299.82
382.25, 8.33, 299.82
382.25, 8.41, 299.82
382.24, 8.49, 299.82
382.24, 8.57, 299.82
382.24, 8.65, 299.82
382.24, 8.73, 299.82
382.24, 8.81, 299.82
382.24, 8.89, 299.82
382.23, 8.97, 299.82
382.23, 9.05, 299.82
382.23, 9.13, 299.82
382.23, 9.21, 299.82
382.23, 9.29, 299.82
382.23, 9.37, 299.82
382.23, 9.45, 299.82
382.22, 9.53, 299.82
382.33, 7.49, 300.31
382.29, 7.52, 300.18
382.25, 7.55, 300.04
382.20, 7.59, 299.89
382.16, 7.62, 299.74
382.11, 7.66, 299.58
382.06, 7.70, 299.42
382.15, 7.89, 299.75
382.17, 7.99, 299.80
382.17, 8.08, 299.82
382.17, 8.16, 299.83
382.17, 8.24, 299.83
382.17, 8.32, 299.83
382.17, 8.41, 299.83
382.16, 8.49, 299.83
382.16, 8.57, 299.83
382.16, 8.65, 299.83
382.16, 8.73, 299.83
382.16, 8.81, 299.83
382.16, 8.89, 299.83
382.15, 8.97, 299.83
382.15, 9.05, 299.83
382.15, 9.13, 299.83
¯382.15, 9.21, 299.83
382.15, 9.29, 299.83
382.15, 9.37, 299.83
382.14, 9.45, 299.83
382.14, 9.52, 299.82
382.26, 7.49, 300.33
382.21, 7.51, 300.19
382.17, 7.55, 300.05
382.12, 7.58, 299.90
382.08, 7.62, 299.75
382.03, 7.66, 299.59
381.97, 7.70, 299.43
382.06, 7.87, 299.72
382.08, 7.97, 299.79
382.09, 8.07, 299.81
382.09, 8.15, 299.82
382.08, 8.23, 299.82
382.08, 8.32, 299.82
382.08, 8.40, 299.82
382.08, 8.48, 299.82
382.08, 8.56, 299.82
382.07, 8.64, 299.82
382.07, 8.72, 299.81
382.07, 8.80, 299.81
382.07, 8.88, 299.81
382.07, 8.96, 299.81
382.07, 9.04, 299.81
382.06, 9.12, 299.81
382.06, 9.20, 299.81
382.06, 9.28, 299.81
382.06, 9.36, 299.81
382.06, 9.44, 299.81
382.05, 9.52, 299.81
382.19, 7.49, 300.36
382.14, 7.51, 300.21
382.09, 7.54, 300.06
382.05, 7.58, 299.92
382.00, 7.61, 299.77
381.94, 7.65, 299.61
381.89, 7.69, 299.44
381.83, 7.74, 299.26
381.98, 7.95, 299.74
381.99, 8.05, 299.78
381.99, 8.14, 299.79
381.99, 8.22, 299.79
381.99, 8.30, 299.78
381.99, 8.39, 299.78
381.98, 8.47, 299.78
381.98, 8.55, 299.78
381.98, 8.63, 299.78
381.98, 8.71, 299.78
¯381.98, 8.80, 299.78
381.97, 8.88, 299.78
381.97, 8.96, 299.78
381.97, 9.04, 299.77
381.97, 9.12, 299.77
381.97, 9.20, 299.77
381.96, 9.28, 299.77
381.96, 9.36, 299.77
381.96, 9.44, 299.77
381.96, 9.52, 299.76
382.12, 7.49, 300.38
382.07, 7.51, 300.24
382.02, 7.54, 300.09
381.97, 7.57, 299.93
381.92, 7.61, 299.78
381.86, 7.65, 299.62
381.80, 7.69, 299.45
381.74, 7.73, 299.28
381.68, 7.78, 299.09
381.87, 8.02, 299.68
381.88, 8.11, 299.71
381.88, 8.20, 299.71
381.88, 8.28, 299.70
381.87, 8.36, 299.70
381.87, 8.45, 299.70
381.87, 8.53, 299.69
381.86, 8.61, 299.69
381.86, 8.70, 299.69
381.86, 8.78, 299.69
381.86, 8.86, 299.68
381.85, 8.95, 299.68
381.85, 9.03, 299.68
381.85, 9.11, 299.67
381.84, 9.19, 299.67
381.84, 9.28, 299.66
381.84, 9.36, 299.66
381.84, 9.44, 299.65
381.83, 9.53, 299.64
382.06, 7.48, 300.41
382.00, 7.51, 300.27
381.95, 7.54, 300.12
381.89, 7.57, 299.96
381.83, 7.60, 299.79
381.78, 7.64, 299.63
381.72, 7.68, 299.47
381.65, 7.72, 299.29
381.59, 7.77, 299.11
381.52, 7.82, 298.91
381.42, 7.85, 298.65
381.31, 7.89, 298.33
381.19, 7.92, 297.99
¯381.05, 7.96, 297.60
380.90, 8.01, 297.18
380.72, 8.05, 296.69
380.51, 8.09, 296.08
380.26, 8.14, 295.37
380.22, 8.28, 295.29
379.90, 8.34, 294.37
379.48, 8.40, 293.21
378.92, 8.47, 291.62
378.13, 8.56, 289.39
381.99, 7.48, 300.44
381.93, 7.51, 300.29
381.88, 7.54, 300.14
381.82, 7.57, 299.99
381.76, 7.60, 299.82
381.69, 7.63, 299.65
381.63, 7.68, 299.48
381.56, 7.72, 299.31
381.50, 7.76, 299.12
381.42, 7.81, 298.93
381.33, 7.85, 298.67
381.21, 7.88, 298.36
381.08, 7.92, 298.01
380.94, 7.96, 297.63
380.78, 8.00, 297.20
380.60, 8.04, 296.72
380.37, 8.09, 296.11
380.18, 8.16, 295.58
380.08, 8.28, 295.34
379.74, 8.33, 294.40
379.30, 8.40, 293.24
378.72, 8.47, 291.66
377.90, 8.55, 289.45
381.92, 7.48, 300.46
381.87, 7.51, 300.32
381.81, 7.54, 300.17
381.75, 7.57, 300.02
381.68, 7.60, 299.85
381.61, 7.63, 299.68
381.54, 7.67, 299.50
381.48, 7.71, 299.32
381.40, 7.76, 299.14
381.33, 7.80, 298.94
381.23, 7.84, 298.69
381.11, 7.88, 298.38
380.97, 7.91, 298.03
380.82, 7.95, 297.65
380.66, 7.99, 297.22
380.47, 8.04, 296.74
380.24, 8.08, 296.14
380.10, 8.18, 295.80
¯379.94, 8.27, 295.37
379.57, 8.33, 294.43
379.12, 8.39, 293.27
378.52, 8.46, 291.70
377.67, 8.55, 289.52
381.85, 7.48, 300.49
381.80, 7.51, 300.35
381.74, 7.54, 300.20
381.67, 7.57, 300.05
381.61, 7.60, 299.88
381.54, 7.63, 299.71
381.46, 7.67, 299.53
381.39, 7.71, 299.34
381.31, 7.75, 299.15
381.23, 7.80, 298.96
381.13, 7.84, 298.72
381.01, 7.87, 298.40
380.86, 7.91, 298.05
380.71, 7.95, 297.67
380.54, 7.99, 297.25
380.34, 8.03, 296.77
380.10, 8.08, 296.17
380.02, 8.19, 295.98
379.79, 8.26, 295.39
379.41, 8.32, 294.46
378.94, 8.39, 293.31
378.31, 8.46, 291.74
377.45, 8.54, 289.59
381.79, 7.48, 300.52
381.73, 7.51, 300.38
381.67, 7.54, 300.23
381.60, 7.57, 300.08
381.53, 7.60, 299.91
381.46, 7.63, 299.74
381.38, 7.67, 299.56
381.30, 7.70, 299.37
381.22, 7.74, 299.17
381.13, 7.79, 298.97
381.04, 7.83, 298.74
380.90, 7.87, 298.42
380.76, 7.90, 298.08
380.60, 7.94, 297.69
380.42, 7.98, 297.27
380.22, 8.03, 296.79
379.97, 8.07, 296.21
379.94, 8.20, 296.15
379.64, 8.26, 295.42
379.25, 8.31, 294.50
378.76, 8.38, 293.34
378.11, 8.45, 291.78
377.22, 8.54, 289.66
¯381.72, 7.48, 300.55
381.66, 7.51, 300.41
381.60, 7.54, 300.26
381.53, 7.57, 300.11
381.46, 7.60, 299.95
381.38, 7.63, 299.78
381.30, 7.66, 299.60
381.22, 7.70, 299.41
381.13, 7.74, 299.20
381.04, 7.78, 298.99
380.94, 7.83, 298.76
380.80, 7.86, 298.45
380.65, 7.90, 298.10
380.48, 7.93, 297.72
380.30, 7.98, 297.30
380.09, 8.02, 296.82
379.91, 8.09, 296.41
379.83, 8.20, 296.23
379.49, 8.25, 295.45
379.09, 8.31, 294.53
378.58, 8.37, 293.37
377.91, 8.44, 291.83
376.99, 8.53, 289.73
381.66, 7.48, 300.58
381.59, 7.51, 300.44
381.53, 7.53, 300.29
381.46, 7.56, 300.14
381.38, 7.60, 299.98
381.31, 7.63, 299.81
381.23, 7.66, 299.63
381.14, 7.70, 299.44
381.05, 7.74, 299.24
380.95, 7.78, 299.03
380.84, 7.82, 298.79
380.70, 7.85, 298.47
380.54, 7.89, 298.13
380.37, 7.93, 297.75
380.18, 7.97, 297.32
379.96, 8.02, 296.85
379.85, 8.11, 296.61
379.70, 8.20, 296.28
379.34, 8.25, 295.49
378.92, 8.30, 294.57
378.40, 8.37, 293.41
377.70, 8.44, 291.87
376.77, 8.52, 289.81
381.59, 7.48, 300.61
381.53, 7.50, 300.47
381.46, 7.53, 300.33
381.39, 7.56, 300.17
381.31, 7.59, 300.01
¯381.23, 7.63, 299.85
381.15, 7.66, 299.67
381.06, 7.70, 299.48
380.96, 7.74, 299.28
380.86, 7.78, 299.07
380.75, 7.82, 298.82
380.60, 7.85, 298.50
380.43, 7.88, 298.15
380.25, 7.92, 297.77
380.05, 7.96, 297.35
379.83, 8.01, 296.88
379.78, 8.12, 296.77
379.57, 8.20, 296.33
379.19, 8.24, 295.52
378.76, 8.30, 294.61
378.22, 8.36, 293.45
377.50, 8.43, 291.93
376.54, 8.52, 289.88
381.53, 7.48, 300.64
381.46, 7.50, 300.50
381.39, 7.53, 300.36
381.32, 7.56, 300.21
381.24, 7.59, 300.05
381.16, 7.62, 299.88
381.07, 7.66, 299.70
380.98, 7.70, 299.52
380.88, 7.74, 299.32
380.77, 7.77, 299.09
380.65, 7.81, 298.84
380.49, 7.84, 298.53
380.32, 7.88, 298.18
380.14, 7.91, 297.80
379.93, 7.96, 297.38
379.74, 8.02, 297.00
379.71, 8.14, 296.92
379.44, 8.19, 296.38
379.04, 8.23, 295.56
378.60, 8.29, 294.64
378.04, 8.35, 293.49
377.30, 8.42, 291.98
375.60, 8.43, 288.49
381.46, 7.47, 300.67
381.39, 7.50, 300.53
381.32, 7.53, 300.39
381.24, 7.56, 300.24
381.16, 7.59, 300.08
381.08, 7.62, 299.92
380.99, 7.66, 299.74
380.90, 7.69, 299.56
380.79, 7.73, 299.35
380.67, 7.77, 299.12
¯380.55, 7.81, 298.87
380.39, 7.84, 298.56
380.22, 7.87, 298.21
380.02, 7.91, 297.83
379.81, 7.95, 297.41
379.70, 8.04, 297.18
379.59, 8.13, 296.97
379.31, 8.19, 296.43
378.89, 8.23, 295.59
378.43, 8.28, 294.68
377.85, 8.35, 293.54
377.10, 8.42, 292.04
375.36, 8.42, 288.59
381.40, 7.47, 300.70
381.33, 7.50, 300.57
381.25, 7.53, 300.42
381.17, 7.56, 300.28
381.09, 7.59, 300.12
381.00, 7.62, 299.95
380.91, 7.66, 299.78
380.81, 7.69, 299.59
380.70, 7.72, 299.37
380.58, 7.76, 299.14
380.45, 7.80, 298.90
380.29, 7.83, 298.59
380.11, 7.87, 298.25
379.91, 7.90, 297.86
379.69, 7.94, 297.44
379.64, 8.05, 297.34
379.47, 8.13, 297.03
379.19, 8.19, 296.49
378.86, 8.25, 295.86
378.26, 8.28, 294.71
377.67, 8.34, 293.58
376.89, 8.41, 292.09
375.13, 8.42, 288.70
381.33, 7.47, 300.73
381.26, 7.50, 300.60
381.18, 7.53, 300.46
381.10, 7.56, 300.31
381.02, 7.59, 300.16
380.93, 7.62, 299.99
380.83, 7.65, 299.81
380.73, 7.68, 299.61
380.61, 7.72, 299.40
380.49, 7.75, 299.17
380.35, 7.79, 298.93
380.19, 7.83, 298.63
380.00, 7.86, 298.28
379.80, 7.90, 297.90
379.61, 7.95, 297.55
¯379.57, 8.06, 297.49
379.35, 8.13, 297.08
379.07, 8.19, 296.57
378.72, 8.24, 295.91
378.09, 8.27, 294.75
377.49, 8.33, 293.63
376.68, 8.40, 292.14
374.89, 8.41, 288.81
381.27, 7.47, 300.77
381.19, 7.50, 300.63
381.12, 7.52, 300.49
381.03, 7.55, 300.35
380.95, 7.58, 300.19
380.85, 7.62, 300.03
380.75, 7.65, 299.84
380.64, 7.68, 299.64
380.52, 7.71, 299.43
380.39, 7.75, 299.20
380.25, 7.79, 298.96
380.09, 7.82, 298.66
379.90, 7.85, 298.32
379.68, 7.89, 297.93
379.57, 7.97, 297.74
379.47, 8.07, 297.57
379.24, 8.12, 297.14
378.97, 8.19, 296.67
378.58, 8.24, 295.97
377.92, 8.26, 294.79
377.30, 8.33, 293.68
376.47, 8.40, 292.19
375.87, 8.54, 291.12
375.91, 8.77, 291.20
375.91, 9.00, 291.21
375.91, 9.22, 291.21
375.91, 9.45, 291.22
375.91, 9.67, 291.23
381.21, 7.47, 300.80
381.13, 7.49, 300.67
381.05, 7.52, 300.53
380.96, 7.55, 300.38
380.87, 7.58, 300.23
380.77, 7.61, 300.06
380.67, 7.64, 299.87
380.55, 7.67, 299.67
380.43, 7.70, 299.46
380.30, 7.74, 299.23
380.15, 7.78, 298.99
379.99, 7.82, 298.70
379.79, 7.85, 298.35
379.57, 7.88, 297.97
379.52, 7.99, 297.90
¯379.36, 8.06, 297.62
379.12, 8.12, 297.20
378.85, 8.19, 296.73
378.44, 8.24, 296.03
377.76, 8.25, 294.84
377.12, 8.32, 293.73
376.26, 8.39, 292.25
375.79, 8.55, 291.43
375.80, 8.77, 291.46
375.80, 9.00, 291.47
375.80, 9.22, 291.47
375.80, 9.44, 291.47
375.79, 9.66, 291.48
381.15, 7.47, 300.85
381.06, 7.49, 300.70
380.98, 7.52, 300.57
380.89, 7.55, 300.42
380.80, 7.58, 300.26
380.69, 7.60, 300.09
380.58, 7.63, 299.90
380.46, 7.66, 299.70
380.34, 7.70, 299.49
380.20, 7.73, 299.26
380.05, 7.77, 299.02
379.89, 7.81, 298.74
379.68, 7.84, 298.39
379.51, 7.90, 298.10
379.47, 8.00, 298.04
379.25, 8.06, 297.67
379.00, 8.12, 297.26
378.72, 8.18, 296.79
378.31, 8.23, 296.09
377.59, 8.25, 294.88
376.93, 8.31, 293.77
376.05, 8.38, 292.30
375.60, 8.55, 291.55
375.61, 8.77, 291.58
375.61, 8.99, 291.58
375.61, 9.21, 291.58
375.60, 9.44, 291.58
375.60, 9.66, 291.58
381.09, 7.47, 300.89
381.00, 7.49, 300.74
380.91, 7.52, 300.60
380.82, 7.54, 300.45
380.72, 7.57, 300.29
380.61, 7.60, 300.11
380.50, 7.63, 299.93
380.38, 7.66, 299.73
380.24, 7.69, 299.52
380.11, 7.73, 299.29
¯379.95, 7.77, 299.05
379.79, 7.80, 298.78
379.58, 7.84, 298.43
379.49, 7.92, 298.29
379.38, 8.00, 298.12
379.14, 8.05, 297.73
378.88, 8.11, 297.31
378.60, 8.18, 296.85
378.17, 8.23, 296.15
377.42, 8.24, 294.92
376.74, 8.30, 293.83
375.84, 8.37, 292.36
375.31, 8.53, 291.50
375.34, 8.76, 291.56
375.34, 8.98, 291.56
375.33, 9.21, 291.55
375.32, 9.43, 291.55
375.32, 9.66, 291.55
381.04, 7.48, 300.94
380.93, 7.49, 300.77
380.84, 7.51, 300.64
380.75, 7.54, 300.48
380.64, 7.56, 300.32
380.53, 7.59, 300.14
380.41, 7.62, 299.96
380.29, 7.65, 299.76
380.15, 7.68, 299.55
380.01, 7.72, 299.32
379.85, 7.76, 299.08
379.69, 7.80, 298.82
379.47, 7.83, 298.47
379.45, 7.94, 298.44
379.28, 8.00, 298.17
379.03, 8.05, 297.79
378.76, 8.11, 297.36
378.48, 8.17, 296.92
378.03, 8.22, 296.22
377.25, 8.23, 294.97
376.55, 8.29, 293.88
375.63, 8.37, 292.42
373.59, 8.37, 289.20
370.82, 8.43, 284.82
380.98, 7.48, 300.98
380.87, 7.49, 300.82
380.77, 7.51, 300.67
380.67, 7.53, 300.51
380.56, 7.56, 300.35
380.45, 7.58, 300.18
380.33, 7.61, 299.99
380.20, 7.64, 299.79
380.06, 7.68, 299.58
¯379.91, 7.71, 299.36
379.75, 7.75, 299.11
379.58, 7.79, 298.85
379.45, 7.86, 298.65
379.40, 7.95, 298.58
379.17, 8.00, 298.23
378.92, 8.05, 297.84
378.64, 8.10, 297.42
378.35, 8.17, 296.98
377.96, 8.23, 296.38
377.13, 8.23, 295.10
376.36, 8.29, 293.92
374.71, 8.27, 291.39
373.32, 8.36, 289.27
370.82, 8.44, 285.44
380.92, 7.47, 301.02
380.81, 7.49, 300.86
380.71, 7.50, 300.70
380.60, 7.53, 300.55
380.49, 7.55, 300.38
380.37, 7.58, 300.21
380.25, 7.61, 300.02
380.11, 7.64, 299.83
379.97, 7.67, 299.62
379.82, 7.70, 299.39
379.65, 7.74, 299.15
379.48, 7.78, 298.89
379.44, 7.88, 298.83
379.30, 7.95, 298.63
379.07, 7.99, 298.28
378.81, 8.04, 297.90
378.52, 8.10, 297.48
378.23, 8.17, 297.04
377.89, 8.24, 296.54
377.29, 8.28, 295.65
376.16, 8.28, 293.97
374.48, 8.26, 291.47
373.05, 8.35, 289.35
370.74, 8.45, 285.91
380.86, 7.47, 301.06
380.75, 7.49, 300.91
380.64, 7.50, 300.75
380.53, 7.52, 300.59
380.41, 7.55, 300.42
380.29, 7.57, 300.24
380.16, 7.60, 300.06
380.02, 7.63, 299.86
379.88, 7.66, 299.65
379.72, 7.70, 299.43
379.55, 7.73, 299.18
379.45, 7.80, 299.03
¯379.40, 7.90, 298.97
379.20, 7.94, 298.67
378.96, 7.99, 298.34
378.70, 8.04, 297.96
378.41, 8.09, 297.54
378.10, 8.16, 297.10
377.76, 8.23, 296.61
377.14, 8.28, 295.72
375.97, 8.27, 294.02
374.25, 8.25, 291.54
372.86, 8.35, 289.55
370.66, 8.46, 286.37
380.80, 7.47, 301.10
380.69, 7.49, 300.95
380.58, 7.50, 300.79
380.46, 7.52, 300.63
380.35, 7.54, 300.47
380.22, 7.57, 300.29
380.08, 7.60, 300.10
379.94, 7.62, 299.90
379.79, 7.65, 299.69
379.63, 7.69, 299.46
379.46, 7.73, 299.23
379.44, 7.83, 299.21
379.31, 7.90, 299.03
379.09, 7.94, 298.72
378.86, 7.99, 298.40
378.58, 8.03, 298.01
378.29, 8.09, 297.60
377.97, 8.16, 297.16
377.63, 8.23, 296.68
376.99, 8.27, 295.79
375.77, 8.26, 294.07
374.02, 8.24, 291.62
372.68, 8.35, 289.75
370.75, 8.48, 287.05
380.75, 7.47, 301.15
380.63, 7.49, 301.00
380.52, 7.50, 300.84
380.40, 7.52, 300.68
380.28, 7.54, 300.51
380.15, 7.57, 300.34
380.01, 7.59, 300.15
379.86, 7.62, 299.95
379.70, 7.65, 299.74
379.53, 7.68, 299.51
379.48, 7.77, 299.44
379.41, 7.85, 299.34
379.21, 7.89, 299.07
378.98, 7.93, 298.76
378.75, 7.98, 298.45
¯378.47, 8.03, 298.07
378.17, 8.09, 297.67
377.84, 8.15, 297.22
377.49, 8.22, 296.75
376.84, 8.27, 295.86
375.57, 8.25, 294.13
373.78, 8.23, 291.70
372.50, 8.35, 289.95
370.75, 8.49, 287.58
380.69, 7.47, 301.19
380.58, 7.49, 301.04
380.46, 7.50, 300.88
380.33, 7.52, 300.72
380.21, 7.54, 300.56
380.08, 7.56, 300.38
379.94, 7.59, 300.20
379.79, 7.62, 300.00
379.62, 7.65, 299.79
379.53, 7.71, 299.66
379.47, 7.79, 299.59
379.32, 7.84, 299.39
379.12, 7.88, 299.12
378.88, 7.92, 298.81
378.65, 7.98, 298.51
378.36, 8.02, 298.13
378.06, 8.08, 297.73
377.71, 8.14, 297.28
377.36, 8.22, 296.82
376.77, 8.27, 296.04
375.37, 8.24, 294.18
373.54, 8.22, 291.76
372.32, 8.35, 290.16
370.74, 8.50, 288.07
380.63, 7.47, 301.24
380.52, 7.48, 301.09
380.40, 7.50, 300.93
380.27, 7.51, 300.77
380.14, 7.54, 300.60
380.01, 7.56, 300.43
379.86, 7.59, 300.25
379.71, 7.61, 300.05
379.58, 7.66, 299.89
379.55, 7.75, 299.85
379.42, 7.80, 299.69
379.22, 7.84, 299.44
379.02, 7.88, 299.18
378.77, 7.92, 298.86
378.54, 7.97, 298.56
378.25, 8.02, 298.19
377.94, 8.08, 297.79
377.58, 8.14, 297.34
¯377.23, 8.21, 296.89
376.71, 8.28, 296.23
375.17, 8.23, 294.24
373.28, 8.21, 291.82
372.07, 8.34, 290.27
370.72, 8.51, 288.54
380.58, 7.47, 301.28
380.46, 7.48, 301.14
380.34, 7.50, 300.98
380.20, 7.51, 300.81
380.07, 7.53, 300.65
379.93, 7.56, 300.48
379.79, 7.58, 300.30
379.70, 7.64, 300.19
379.65, 7.72, 300.13
379.53, 7.77, 299.98
379.34, 7.80, 299.74
379.13, 7.83, 299.49
378.92, 7.87, 299.23
378.67, 7.91, 298.91
378.42, 7.96, 298.60
378.14, 8.01, 298.26
377.82, 8.07, 297.86
377.46, 8.13, 297.41
377.09, 8.21, 296.95
376.66, 8.29, 296.41
374.97, 8.22, 294.30
373.03, 8.20, 291.89
371.79, 8.33, 290.34
370.46, 8.51, 288.69
380.52, 7.47, 301.33
380.40, 7.48, 301.18
380.28, 7.50, 301.03
380.14, 7.51, 300.87
380.00, 7.53, 300.70
379.90, 7.57, 300.58
379.86, 7.65, 300.53
379.76, 7.70, 300.41
379.62, 7.73, 300.24
379.45, 7.76, 300.03
379.25, 7.79, 299.80
379.04, 7.83, 299.54
378.83, 7.87, 299.28
378.56, 7.90, 298.96
378.30, 7.95, 298.65
378.03, 8.01, 298.32
377.70, 8.06, 297.92
377.33, 8.13, 297.48
376.95, 8.20, 297.01
376.52, 8.29, 296.49
375.60, 8.32, 295.38
¯372.80, 8.19, 291.99
371.50, 8.32, 290.41
370.08, 8.49, 288.69
380.67, 7.59, 301.61
380.54, 7.59, 301.46
380.40, 7.59, 301.30
380.26, 7.61, 301.14
380.14, 7.63, 300.99
380.01, 7.65, 300.84
379.87, 7.68, 300.67
379.72, 7.70, 300.49
379.55, 7.73, 300.30
379.37, 7.76, 300.09
379.17, 7.79, 299.85
378.94, 7.82, 299.59
378.73, 7.86, 299.33
378.46, 7.90, 299.01
378.19, 7.94, 298.69
377.92, 8.00, 298.39
377.58, 8.06, 297.98
377.21, 8.12, 297.55
376.81, 8.19, 297.08
376.38, 8.28, 296.57
375.43, 8.32, 295.46
372.57, 8.18, 292.09
371.21, 8.31, 290.48
369.69, 8.48, 288.69
380.62, 7.59, 301.66
380.50, 7.60, 301.52
380.38, 7.61, 301.38
380.25, 7.62, 301.23
380.11, 7.64, 301.07
379.96, 7.66, 300.90
379.80, 7.68, 300.73
379.65, 7.70, 300.55
379.48, 7.73, 300.35
379.30, 7.76, 300.15
379.09, 7.79, 299.91
378.86, 7.82, 299.65
378.63, 7.86, 299.39
378.35, 7.89, 299.06
378.07, 7.94, 298.74
377.81, 8.00, 298.45
377.46, 8.05, 298.04
377.09, 8.12, 297.62
376.66, 8.19, 297.14
376.23, 8.27, 296.65
375.38, 8.32, 295.67
372.34, 8.18, 292.19
370.88, 8.29, 290.52
369.29, 8.46, 288.70
¯380.57, 7.59, 301.70
380.45, 7.60, 301.57
380.33, 7.61, 301.43
380.19, 7.62, 301.28
380.05, 7.64, 301.13
379.90, 7.66, 300.96
379.74, 7.67, 300.78
379.58, 7.70, 300.61
379.40, 7.73, 300.41
379.22, 7.76, 300.20
379.00, 7.78, 299.96
378.77, 7.81, 299.71
378.53, 7.85, 299.44
378.24, 7.88, 299.12
377.95, 7.93, 298.79
377.69, 7.99, 298.51
377.33, 8.04, 298.11
376.96, 8.11, 297.69
376.52, 8.18, 297.21
376.08, 8.27, 296.72
375.33, 8.33, 295.89
373.21, 8.28, 293.52
370.56, 8.28, 290.57
380.52, 7.59, 301.75
380.40, 7.60, 301.62
380.27, 7.61, 301.48
380.14, 7.62, 301.33
379.99, 7.64, 301.18
379.84, 7.65, 301.01
379.68, 7.67, 300.84
379.51, 7.70, 300.66
379.33, 7.72, 300.46
379.14, 7.75, 300.26
378.92, 7.78, 300.02
378.69, 7.81, 299.77
378.44, 7.84, 299.50
378.15, 7.88, 299.18
377.84, 7.92, 298.85
377.57, 7.98, 298.56
377.22, 8.04, 298.18
376.83, 8.10, 297.76
376.38, 8.17, 297.28
375.93, 8.26, 296.79
375.29, 8.34, 296.10
374.21, 8.40, 294.93
371.67, 8.39, 292.18
380.47, 7.59, 301.80
380.35, 7.60, 301.67
380.22, 7.61, 301.53
380.08, 7.62, 301.38
379.94, 7.64, 301.23
¯379.78, 7.65, 301.07
379.61, 7.67, 300.89
379.45, 7.70, 300.72
379.26, 7.72, 300.52
379.07, 7.75, 300.32
378.84, 7.77, 300.08
378.61, 7.81, 299.84
378.34, 7.84, 299.55
378.05, 7.87, 299.25
377.72, 7.91, 298.91
377.44, 7.97, 298.61
377.10, 8.03, 298.26
376.70, 8.10, 297.83
376.24, 8.17, 297.36
375.77, 8.25, 296.86
375.24, 8.35, 296.30
374.15, 8.41, 295.16
373.43, 8.54, 294.40
380.43, 7.59, 301.84
380.30, 7.60, 301.72
380.17, 7.61, 301.58
380.03, 7.62, 301.44
379.88, 7.64, 301.29
379.72, 7.65, 301.12
379.55, 7.67, 300.95
379.38, 7.69, 300.78
379.19, 7.72, 300.58
378.99, 7.75, 300.38
378.76, 7.77, 300.14
378.52, 7.80, 299.90
378.24, 7.83, 299.61
377.95, 7.87, 299.32
377.61, 7.90, 298.97
377.31, 7.96, 298.66
376.99, 8.03, 298.33
376.57, 8.09, 297.90
376.11, 8.16, 297.44
375.61, 8.24, 296.93
375.08, 8.34, 296.38
374.10, 8.42, 295.39
373.79, 8.58, 295.07
371.22, 8.62, 292.44
380.38, 7.59, 301.89
380.25, 7.60, 301.77
380.12, 7.61, 301.64
379.97, 7.62, 301.49
379.82, 7.63, 301.34
379.66, 7.65, 301.18
379.49, 7.67, 301.00
379.32, 7.69, 300.84
379.12, 7.72, 300.64
¯378.92, 7.74, 300.44
378.68, 7.76, 300.20
378.44, 7.80, 299.96
378.14, 7.82, 299.67
377.86, 7.86, 299.39
377.49, 7.89, 299.03
377.18, 7.95, 298.71
376.87, 8.02, 298.41
376.43, 8.08, 297.97
375.97, 8.15, 297.52
375.46, 8.24, 297.00
374.91, 8.33, 296.46
374.05, 8.42, 295.61
373.74, 8.59, 295.30
373.41, 8.77, 294.97
380.33, 7.58, 301.94
380.21, 7.60, 301.82
380.07, 7.61, 301.69
379.92, 7.62, 301.54
379.77, 7.63, 301.40
379.61, 7.65, 301.24
379.42, 7.66, 301.06
379.25, 7.69, 300.90
379.06, 7.71, 300.71
378.85, 7.74, 300.50
378.60, 7.76, 300.27
378.35, 7.79, 300.03
378.04, 7.82, 299.73
377.77, 7.86, 299.46
377.38, 7.89, 299.09
377.05, 7.94, 298.77
376.73, 8.01, 298.46
376.30, 8.07, 298.05
375.83, 8.15, 297.59
375.30, 8.23, 297.08
374.74, 8.33, 296.54
374.00, 8.43, 295.83
373.69, 8.59, 295.53
373.36, 8.77, 295.21
380.29, 7.58, 301.99
380.16, 7.60, 301.87
380.02, 7.61, 301.74
379.87, 7.62, 301.60
379.71, 7.63, 301.45
379.55, 7.65, 301.30
379.36, 7.66, 301.12
379.19, 7.69, 300.96
378.99, 7.71, 300.77
378.77, 7.73, 300.57
378.53, 7.76, 300.34
378.27, 7.79, 300.09
¯377.95, 7.81, 299.79
377.67, 7.85, 299.53
377.27, 7.88, 299.15
376.92, 7.93, 298.82
376.59, 8.00, 298.52
376.17, 8.07, 298.12
375.69, 8.14, 297.67
375.14, 8.22, 297.15
374.56, 8.32, 296.61
373.89, 8.43, 295.98
373.57, 8.59, 295.68
373.23, 8.77, 295.37
372.84, 8.95, 295.00
380.24, 7.58, 302.04
380.11, 7.60, 301.92
379.97, 7.61, 301.79
379.82, 7.62, 301.65
379.66, 7.63, 301.51
379.49, 7.65, 301.35
379.30, 7.66, 301.18
379.13, 7.68, 301.02
378.93, 7.71, 300.84
378.70, 7.73, 300.63
378.46, 7.76, 300.41
378.18, 7.78, 300.16
377.87, 7.81, 299.87
377.56, 7.84, 299.59
377.16, 7.87, 299.22
376.78, 7.92, 298.88
376.45, 7.99, 298.58
376.04, 8.06, 298.20
375.55, 8.13, 297.75
374.98, 8.21, 297.23
374.39, 8.31, 296.69
373.76, 8.42, 296.12
373.43, 8.59, 295.82
373.09, 8.76, 295.51
372.67, 8.95, 295.13
380.20, 7.58, 302.09
380.07, 7.59, 301.97
379.93, 7.61, 301.85
379.77, 7.62, 301.71
379.61, 7.63, 301.56
379.44, 7.65, 301.41
379.25, 7.66, 301.24
379.06, 7.68, 301.08
378.86, 7.71, 300.90
378.63, 7.73, 300.69
378.38, 7.75, 300.48
378.10, 7.78, 300.22
377.78, 7.80, 299.94
¯377.46, 7.84, 299.66
377.06, 7.87, 299.30
376.65, 7.91, 298.93
376.31, 7.98, 298.63
375.92, 8.05, 298.29
375.40, 8.12, 297.83
374.83, 8.20, 297.32
373.94, 8.27, 296.53
373.63, 8.42, 296.25
373.30, 8.59, 295.96
372.93, 8.76, 295.64
372.49, 8.94, 295.25
380.15, 7.58, 302.14
380.02, 7.59, 302.02
379.88, 7.61, 301.90
379.72, 7.62, 301.76
379.56, 7.63, 301.62
379.38, 7.64, 301.47
379.19, 7.66, 301.30
379.00, 7.68, 301.14
378.80, 7.70, 300.97
378.55, 7.72, 300.76
378.31, 7.75, 300.55
378.02, 7.77, 300.29
377.70, 7.80, 300.02
377.36, 7.83, 299.72
376.96, 7.86, 299.38
376.52, 7.90, 299.00
376.17, 7.97, 298.69
375.78, 8.04, 298.36
375.26, 8.11, 297.91
374.68, 8.19, 297.41
373.81, 8.26, 296.66
373.50, 8.42, 296.39
373.16, 8.58, 296.11
372.77, 8.76, 295.77
372.32, 8.94, 295.38
371.83, 9.14, 294.96
380.11, 7.58, 302.19
379.97, 7.59, 302.08
379.83, 7.60, 301.96
379.67, 7.61, 301.82
379.50, 7.63, 301.68
379.33, 7.64, 301.53
379.13, 7.66, 301.37
378.94, 7.68, 301.20
378.74, 7.70, 301.04
378.48, 7.72, 300.82
378.24, 7.75, 300.62
