ŸVERSION 0.7
FIELDS x y z
SIZE 8 8 8
TYPE F F F
COUNT 1 1 1
WIDTH 2271
HEIGHT 1
VIEWPOINT 438.45, 14.90, 251.30 1 445.31, 9.38, 269.94
POINTS 2271
DATA ascii
447.54, 7.06, 275.29
447.80, 7.05, 275.67
448.07, 7.04, 276.10
448.38, 7.04, 276.57
448.73, 7.03, 277.10
¯449.13, 7.02, 277.70
449.60, 7.01, 278.41
450.14, 7.00, 279.23
450.61, 7.03, 279.94
451.12, 7.08, 280.73
453.19, 6.74, 283.85
453.59, 6.90, 284.47
454.02, 7.08, 285.14
446.64, 7.09, 273.77
446.81, 7.08, 274.01
446.99, 7.08, 274.28
447.19, 7.07, 274.57
447.40, 7.07, 274.88
447.64, 7.06, 275.24
447.90, 7.05, 275.62
448.19, 7.05, 276.04
448.50, 7.04, 276.51
448.86, 7.03, 277.03
449.27, 7.03, 277.63
449.75, 7.01, 278.34
450.31, 7.00, 279.16
450.80, 7.03, 279.89
452.34, 6.79, 282.13
453.45, 6.74, 283.77
453.86, 6.90, 284.39
454.30, 7.08, 285.06
446.72, 7.09, 273.72
446.89, 7.09, 273.96
447.07, 7.08, 274.23
447.28, 7.07, 274.52
447.50, 7.07, 274.83
447.74, 7.06, 275.18
448.01, 7.05, 275.56
448.30, 7.05, 275.98
448.62, 7.04, 276.44
448.99, 7.04, 276.97
449.41, 7.03, 277.57
449.90, 7.01, 278.27
450.47, 7.00, 279.09
451.00, 7.03, 279.84
453.36, 6.57, 283.19
453.72, 6.73, 283.72
454.12, 6.90, 284.30
454.58, 7.08, 284.97
446.79, 7.09, 273.67
446.97, 7.09, 273.92
447.16, 7.08, 274.18
447.36, 7.08, 274.46
447.59, 7.07, 274.78
447.84, 7.06, 275.12
448.11, 7.06, 275.50
¯448.41, 7.05, 275.91
448.74, 7.05, 276.38
449.12, 7.04, 276.90
449.47, 7.06, 277.39
450.06, 7.02, 278.20
450.64, 7.00, 279.01
451.28, 7.00, 279.90
453.69, 6.55, 283.22
454.06, 6.71, 283.74
454.45, 6.89, 284.30
454.88, 7.08, 284.90
446.87, 7.10, 273.63
447.05, 7.09, 273.87
447.24, 7.09, 274.12
447.45, 7.08, 274.41
447.68, 7.07, 274.72
447.93, 7.07, 275.06
448.21, 7.06, 275.44
448.52, 7.05, 275.85
448.86, 7.05, 276.31
449.24, 7.04, 276.82
449.56, 7.08, 277.25
450.11, 7.05, 277.99
450.81, 7.00, 278.94
452.32, 6.76, 280.95
454.02, 6.53, 283.23
454.41, 6.69, 283.77
454.82, 6.87, 284.33
455.35, 7.05, 285.07
446.94, 7.10, 273.58
447.12, 7.09, 273.81
447.32, 7.09, 274.07
447.53, 7.08, 274.35
447.77, 7.08, 274.66
448.03, 7.07, 275.00
448.32, 7.06, 275.38
448.63, 7.06, 275.79
448.98, 7.05, 276.24
449.33, 7.06, 276.71
449.66, 7.09, 277.13
450.14, 7.09, 277.77
450.84, 7.04, 278.68
453.30, 6.54, 281.86
454.36, 6.51, 283.25
454.76, 6.67, 283.79
455.24, 6.84, 284.44
447.02, 7.10, 273.53
447.20, 7.10, 273.76
447.40, 7.09, 274.02
447.62, 7.08, 274.30
447.86, 7.08, 274.60
¯448.12, 7.07, 274.94
448.42, 7.06, 275.31
448.74, 7.06, 275.72
449.09, 7.05, 276.17
449.42, 7.07, 276.59
449.75, 7.11, 277.01
450.18, 7.13, 277.56
450.87, 7.08, 278.44
453.61, 6.51, 281.89
454.70, 6.48, 283.27
455.14, 6.65, 283.84
455.83, 6.78, 284.72
447.09, 7.10, 273.48
447.28, 7.10, 273.71
447.48, 7.09, 273.96
447.70, 7.09, 274.24
447.95, 7.08, 274.54
448.22, 7.07, 274.87
448.52, 7.07, 275.24
448.84, 7.06, 275.65
449.21, 7.05, 276.10
449.51, 7.09, 276.48
449.85, 7.12, 276.89
450.21, 7.16, 277.35
450.90, 7.12, 278.19
453.93, 6.49, 281.90
455.05, 6.46, 283.28
455.70, 6.58, 284.10
456.45, 6.71, 285.03
447.16, 7.10, 273.43
447.35, 7.10, 273.66
447.56, 7.09, 273.91
447.79, 7.09, 274.18
448.04, 7.08, 274.48
448.31, 7.08, 274.81
448.62, 7.07, 275.18
448.95, 7.06, 275.58
449.30, 7.07, 275.99
449.60, 7.10, 276.36
449.94, 7.14, 276.77
450.31, 7.18, 277.22
450.92, 7.16, 277.95
454.23, 6.47, 281.88
455.38, 6.44, 283.26
456.24, 6.52, 284.31
447.23, 7.11, 273.37
447.42, 7.10, 273.60
447.64, 7.10, 273.85
447.87, 7.09, 274.12
448.12, 7.09, 274.41
448.40, 7.08, 274.74
¯448.71, 7.07, 275.11
449.06, 7.06, 275.51
449.38, 7.08, 275.88
449.69, 7.11, 276.25
450.03, 7.15, 276.65
450.40, 7.19, 277.09
450.94, 7.20, 277.72
452.28, 7.03, 279.27
455.61, 6.45, 283.12
456.51, 6.53, 284.18
447.30, 7.11, 273.32
447.50, 7.10, 273.55
447.72, 7.10, 273.79
447.95, 7.09, 274.06
448.21, 7.09, 274.35
448.49, 7.08, 274.67
448.81, 7.07, 275.03
449.16, 7.07, 275.43
449.46, 7.09, 275.78
449.78, 7.13, 276.13
450.12, 7.16, 276.52
450.49, 7.21, 276.96
450.96, 7.24, 277.49
452.30, 7.07, 278.99
455.84, 6.45, 282.97
456.77, 6.53, 284.04
447.37, 7.11, 273.27
447.58, 7.10, 273.49
447.80, 7.10, 273.73
448.03, 7.09, 274.00
448.30, 7.09, 274.29
448.59, 7.08, 274.61
448.91, 7.08, 274.96
449.24, 7.08, 275.33
449.51, 7.12, 275.63
449.85, 7.14, 276.00
450.20, 7.18, 276.40
450.59, 7.22, 276.82
451.01, 7.27, 277.29
452.31, 7.11, 278.72
456.06, 6.46, 282.82
457.06, 6.53, 283.93
447.45, 7.11, 273.22
447.65, 7.10, 273.44
447.87, 7.10, 273.68
448.12, 7.10, 273.94
448.39, 7.09, 274.22
448.68, 7.08, 274.54
449.01, 7.08, 274.89
449.29, 7.10, 275.19
449.46, 7.18, 275.38
¯449.78, 7.21, 275.73
450.14, 7.24, 276.12
450.54, 7.27, 276.55
450.99, 7.31, 277.04
452.23, 7.17, 278.36
456.28, 6.47, 282.66
459.67, 6.06, 286.27
447.52, 7.11, 273.16
447.72, 7.11, 273.38
447.95, 7.10, 273.62
448.20, 7.10, 273.87
448.47, 7.09, 274.16
448.77, 7.09, 274.47
449.11, 7.08, 274.82
449.33, 7.13, 275.06
449.50, 7.20, 275.24
449.71, 7.27, 275.46
450.06, 7.30, 275.83
450.44, 7.34, 276.23
450.87, 7.38, 276.68
451.67, 7.35, 277.51
456.48, 6.48, 282.49
447.58, 7.11, 273.10
447.80, 7.11, 273.32
448.03, 7.10, 273.55
448.28, 7.10, 273.81
448.56, 7.09, 274.09
448.87, 7.09, 274.40
449.21, 7.08, 274.75
449.37, 7.15, 274.92
449.54, 7.22, 275.10
449.72, 7.30, 275.28
449.98, 7.36, 275.55
450.35, 7.40, 275.93
450.76, 7.44, 276.35
451.29, 7.47, 276.89
453.02, 7.27, 278.63
447.65, 7.11, 273.05
447.87, 7.11, 273.26
448.10, 7.10, 273.49
448.36, 7.10, 273.75
448.64, 7.09, 274.02
448.96, 7.09, 274.33
449.25, 7.10, 274.63
449.42, 7.17, 274.79
449.58, 7.24, 274.96
449.76, 7.32, 275.14
449.95, 7.40, 275.33
450.26, 7.46, 275.64
450.65, 7.50, 276.03
451.09, 7.55, 276.47
¯452.35, 7.45, 277.71
447.72, 7.11, 272.99
447.94, 7.11, 273.20
448.18, 7.11, 273.43
448.44, 7.10, 273.68
448.73, 7.10, 273.96
449.05, 7.09, 274.26
449.30, 7.12, 274.50
449.46, 7.19, 274.66
449.63, 7.27, 274.83
449.80, 7.34, 275.00
449.99, 7.42, 275.18
450.18, 7.51, 275.38
450.55, 7.56, 275.73
450.97, 7.61, 276.14
451.87, 7.58, 277.00
458.33, 6.55, 283.14
447.79, 7.11, 272.93
448.01, 7.11, 273.14
448.26, 7.11, 273.36
448.52, 7.10, 273.61
448.81, 7.10, 273.88
449.13, 7.09, 274.19
449.34, 7.14, 274.38
449.50, 7.21, 274.53
449.66, 7.29, 274.69
449.84, 7.36, 274.86
450.03, 7.45, 275.04
450.22, 7.53, 275.23
450.45, 7.62, 275.45
450.86, 7.67, 275.83
451.51, 7.69, 276.44
453.08, 7.56, 277.90
447.86, 7.12, 272.87
448.08, 7.11, 273.08
448.33, 7.11, 273.30
448.60, 7.10, 273.54
448.90, 7.10, 273.81
449.22, 7.09, 274.11
449.37, 7.16, 274.25
449.54, 7.23, 274.40
449.70, 7.31, 274.56
449.88, 7.38, 274.72
450.06, 7.47, 274.90
450.26, 7.55, 275.08
450.46, 7.64, 275.27
450.75, 7.72, 275.53
451.19, 7.78, 275.94
452.48, 7.70, 277.11
447.92, 7.12, 272.81
448.15, 7.11, 273.01
¯448.40, 7.11, 273.23
448.68, 7.10, 273.47
448.98, 7.10, 273.74
449.26, 7.11, 273.99
449.41, 7.18, 274.13
449.57, 7.25, 274.27
449.74, 7.33, 274.43
449.92, 7.40, 274.59
450.10, 7.49, 274.75
450.29, 7.57, 274.93
450.50, 7.66, 275.12
450.71, 7.76, 275.31
451.06, 7.83, 275.62
452.07, 7.80, 276.52
447.99, 7.12, 272.75
448.22, 7.11, 272.95
448.47, 7.11, 273.16
448.75, 7.11, 273.40
449.06, 7.10, 273.66
449.29, 7.13, 273.87
449.45, 7.20, 274.01
449.61, 7.27, 274.15
449.78, 7.35, 274.30
449.95, 7.42, 274.45
450.14, 7.50, 274.61
450.33, 7.59, 274.79
450.53, 7.68, 274.97
450.75, 7.77, 275.15
450.97, 7.87, 275.35
451.70, 7.89, 275.98
452.71, 7.90, 276.85
448.05, 7.12, 272.68
448.29, 7.12, 272.88
448.54, 7.11, 273.10
448.83, 7.11, 273.33
449.14, 7.10, 273.59
449.33, 7.15, 273.75
449.48, 7.22, 273.89
449.64, 7.29, 274.02
449.81, 7.36, 274.17
449.99, 7.44, 274.32
450.17, 7.52, 274.48
450.36, 7.61, 274.64
450.57, 7.70, 274.82
450.78, 7.79, 275.00
450.99, 7.90, 275.18
451.21, 8.00, 275.37
451.87, 8.05, 275.92
452.71, 8.10, 276.63
448.11, 7.12, 272.62
448.35, 7.12, 272.81
¯448.62, 7.11, 273.02
448.90, 7.11, 273.26
449.22, 7.10, 273.51
449.37, 7.17, 273.64
449.52, 7.24, 273.76
449.68, 7.31, 273.90
449.83, 7.39, 274.03
449.99, 7.47, 274.16
450.16, 7.55, 274.30
450.34, 7.64, 274.45
450.52, 7.73, 274.60
450.71, 7.83, 274.76
450.91, 7.93, 274.93
451.12, 8.04, 275.11
451.35, 8.15, 275.30
451.87, 8.23, 275.73
452.70, 8.30, 276.40
448.18, 7.12, 272.55
448.42, 7.12, 272.74
448.68, 7.11, 272.95
448.97, 7.11, 273.18
449.24, 7.12, 273.39
449.35, 7.20, 273.49
449.49, 7.27, 273.60
449.64, 7.35, 273.72
449.79, 7.43, 273.84
449.94, 7.51, 273.97
450.11, 7.59, 274.10
450.28, 7.68, 274.24
450.45, 7.77, 274.39
450.64, 7.87, 274.54
450.83, 7.97, 274.70
451.04, 8.08, 274.86
451.26, 8.19, 275.04
451.50, 8.30, 275.24
451.87, 8.41, 275.53
452.68, 8.49, 276.18
448.24, 7.12, 272.49
448.48, 7.12, 272.67
448.75, 7.12, 272.88
449.04, 7.11, 273.10
449.26, 7.15, 273.27
449.36, 7.23, 273.35
449.46, 7.31, 273.43
449.60, 7.39, 273.54
449.74, 7.47, 273.66
449.90, 7.55, 273.78
450.05, 7.63, 273.91
450.22, 7.72, 274.04
450.39, 7.81, 274.17
450.57, 7.91, 274.32
¯450.76, 8.00, 274.47
450.96, 8.11, 274.63
451.17, 8.22, 274.79
451.40, 8.33, 274.97
451.64, 8.45, 275.17
451.90, 8.58, 275.37
452.66, 8.68, 275.96
448.29, 7.13, 272.42
448.54, 7.12, 272.60
448.81, 7.12, 272.80
449.10, 7.12, 273.02
449.28, 7.17, 273.15
449.38, 7.25, 273.23
449.48, 7.33, 273.31
449.58, 7.42, 273.39
449.70, 7.50, 273.48
449.85, 7.58, 273.60
450.00, 7.67, 273.72
450.16, 7.75, 273.84
450.33, 7.84, 273.97
450.51, 7.94, 274.11
450.69, 8.04, 274.25
450.88, 8.14, 274.40
451.08, 8.25, 274.55
451.30, 8.36, 274.72
451.54, 8.48, 274.90
451.79, 8.61, 275.10
452.05, 8.74, 275.30
452.64, 8.86, 275.75
448.35, 7.13, 272.34
448.60, 7.13, 272.52
448.87, 7.13, 272.72
449.16, 7.12, 272.93
449.30, 7.19, 273.03
449.39, 7.27, 273.11
449.49, 7.35, 273.18
449.60, 7.44, 273.26
449.70, 7.53, 273.34
449.81, 7.62, 273.43
449.95, 7.70, 273.53
450.11, 7.79, 273.65
450.27, 7.88, 273.78
450.44, 7.97, 273.90
450.62, 8.07, 274.04
450.81, 8.17, 274.18
451.00, 8.28, 274.33
451.21, 8.39, 274.48
451.44, 8.51, 274.65
451.68, 8.63, 274.83
451.94, 8.76, 275.03
452.21, 8.90, 275.23
¯452.62, 9.04, 275.54
448.40, 7.13, 272.27
448.65, 7.13, 272.45
448.93, 7.13, 272.64
449.22, 7.13, 272.85
449.32, 7.21, 272.92
449.41, 7.29, 272.99
449.51, 7.37, 273.06
449.61, 7.46, 273.14
449.72, 7.55, 273.22
449.82, 7.64, 273.30
449.93, 7.73, 273.38
450.06, 7.82, 273.47
450.22, 7.91, 273.59
450.38, 8.00, 273.71
450.56, 8.10, 273.84
450.74, 8.20, 273.97
450.93, 8.31, 274.11
451.13, 8.42, 274.25
451.35, 8.53, 274.41
451.58, 8.65, 274.58
451.83, 8.78, 274.76
452.09, 8.92, 274.95
452.36, 9.06, 275.15
452.66, 9.21, 275.37
448.45, 7.14, 272.20
448.71, 7.14, 272.37
448.98, 7.13, 272.56
449.24, 7.15, 272.73
449.33, 7.23, 272.80
449.43, 7.31, 272.87
449.53, 7.39, 272.94
449.63, 7.48, 273.02
449.73, 7.56, 273.09
449.84, 7.65, 273.17
449.95, 7.75, 273.25
450.06, 7.84, 273.33
450.17, 7.94, 273.41
450.32, 8.03, 273.52
450.49, 8.13, 273.64
450.67, 8.23, 273.76
450.85, 8.33, 273.90
451.05, 8.44, 274.03
451.25, 8.56, 274.18
451.48, 8.68, 274.34
451.72, 8.80, 274.51
451.97, 8.94, 274.69
452.24, 9.08, 274.88
452.52, 9.23, 275.08
452.82, 9.39, 275.29
448.50, 7.14, 272.12
¯448.76, 7.14, 272.29
449.04, 7.14, 272.48
449.26, 7.17, 272.62
449.35, 7.25, 272.69
449.44, 7.33, 272.76
449.54, 7.41, 272.82
449.64, 7.50, 272.90
449.75, 7.58, 272.97
449.85, 7.67, 273.04
449.96, 7.76, 273.12
450.07, 7.86, 273.20
450.19, 7.95, 273.28
450.30, 8.05, 273.36
450.43, 8.16, 273.45
450.60, 8.26, 273.57
450.78, 8.36, 273.69
450.97, 8.47, 273.82
451.17, 8.58, 273.96
451.39, 8.70, 274.11
451.62, 8.82, 274.27
451.86, 8.95, 274.43
452.12, 9.09, 274.61
452.39, 9.24, 274.80
452.68, 9.39, 275.00
453.01, 9.56, 275.22
448.55, 7.14, 272.05
448.81, 7.14, 272.21
449.09, 7.14, 272.39
449.27, 7.19, 272.51
449.37, 7.27, 272.58
449.46, 7.35, 272.64
449.56, 7.43, 272.71
449.66, 7.51, 272.78
449.76, 7.60, 272.85
449.87, 7.69, 272.92
449.97, 7.78, 272.99
450.08, 7.87, 273.07
450.20, 7.97, 273.15
450.32, 8.07, 273.23
450.44, 8.17, 273.31
450.56, 8.28, 273.39
450.71, 8.38, 273.50
450.90, 8.49, 273.62
451.09, 8.60, 273.75
451.29, 8.72, 273.89
451.52, 8.84, 274.03
451.75, 8.97, 274.19
452.00, 9.10, 274.36
452.27, 9.25, 274.53
452.58, 9.40, 274.74
452.92, 9.56, 274.97
¯448.60, 7.15, 271.97
448.86, 7.15, 272.13
449.15, 7.15, 272.31
449.29, 7.20, 272.40
449.38, 7.28, 272.46
449.48, 7.36, 272.53
449.57, 7.45, 272.59
449.67, 7.53, 272.66
449.77, 7.62, 272.73
449.88, 7.71, 272.79
449.99, 7.80, 272.87
450.10, 7.89, 272.94
450.21, 7.99, 273.01
450.33, 8.08, 273.09
450.45, 8.19, 273.17
450.57, 8.29, 273.25
450.70, 8.40, 273.34
450.83, 8.51, 273.43
451.01, 8.62, 273.54
451.21, 8.74, 273.67
451.42, 8.86, 273.81
451.65, 8.98, 273.96
451.91, 9.12, 274.12
452.19, 9.26, 274.31
452.50, 9.41, 274.51
452.83, 9.57, 274.72
448.65, 7.15, 271.90
448.91, 7.15, 272.05
449.20, 7.15, 272.23
449.30, 7.22, 272.29
449.40, 7.30, 272.35
449.49, 7.38, 272.41
449.59, 7.46, 272.48
449.69, 7.55, 272.54
449.79, 7.63, 272.61
449.89, 7.72, 272.67
450.00, 7.81, 272.74
450.11, 7.90, 272.81
450.22, 8.00, 272.89
450.34, 8.10, 272.96
450.46, 8.20, 273.04
450.58, 8.30, 273.12
450.71, 8.41, 273.20
450.84, 8.52, 273.28
450.97, 8.64, 273.37
451.12, 8.75, 273.47
451.33, 8.87, 273.60
451.58, 9.00, 273.75
451.84, 9.13, 273.92
452.13, 9.27, 274.09
452.43, 9.41, 274.28
¯452.75, 9.57, 274.48
453.09, 9.74, 274.70
448.69, 7.16, 271.82
448.96, 7.15, 271.97
449.23, 7.16, 272.13
449.32, 7.24, 272.19
449.41, 7.32, 272.24
449.50, 7.40, 272.30
449.60, 7.48, 272.36
449.70, 7.56, 272.42
449.80, 7.65, 272.49
449.91, 7.74, 272.55
450.01, 7.83, 272.62
450.12, 7.92, 272.69
450.23, 8.01, 272.76
450.35, 8.11, 272.83
450.47, 8.21, 272.90
450.59, 8.32, 272.98
450.72, 8.42, 273.06
450.84, 8.53, 273.14
450.99, 8.65, 273.23
451.17, 8.76, 273.34
451.30, 8.88, 273.42
451.53, 9.01, 273.56
451.79, 9.14, 273.72
452.06, 9.27, 273.88
452.35, 9.42, 274.06
452.67, 9.58, 274.25
453.00, 9.74, 274.46
448.74, 7.16, 271.74
449.01, 7.16, 271.89
449.24, 7.18, 272.03
449.33, 7.25, 272.08
449.42, 7.33, 272.14
449.52, 7.41, 272.19
449.61, 7.49, 272.25
449.71, 7.58, 272.31
449.81, 7.66, 272.37
449.92, 7.75, 272.43
450.02, 7.84, 272.50
450.13, 7.93, 272.56
450.24, 8.03, 272.63
450.36, 8.13, 272.70
450.48, 8.23, 272.77
450.61, 8.33, 272.85
450.77, 8.43, 272.95
450.93, 8.54, 273.05
451.11, 8.65, 273.15
451.25, 8.77, 273.24
451.39, 8.89, 273.32
451.52, 9.02, 273.40
¯451.73, 9.15, 273.52
452.00, 9.28, 273.68
452.28, 9.43, 273.85
452.59, 9.58, 274.03
452.91, 9.74, 274.22
448.78, 7.16, 271.66
449.05, 7.16, 271.81
449.26, 7.19, 271.92
449.35, 7.27, 271.97
449.44, 7.35, 272.03
449.53, 7.43, 272.08
449.63, 7.51, 272.14
449.73, 7.59, 272.20
449.83, 7.68, 272.26
449.93, 7.77, 272.32
450.03, 7.86, 272.38
450.14, 7.95, 272.44
450.26, 8.04, 272.51
450.41, 8.13, 272.59
450.56, 8.23, 272.68
450.71, 8.33, 272.77
450.88, 8.43, 272.87
451.05, 8.54, 272.96
451.21, 8.65, 273.06
451.34, 8.77, 273.13
451.47, 8.89, 273.21
451.61, 9.02, 273.29
451.75, 9.15, 273.38
451.93, 9.29, 273.48
452.21, 9.43, 273.64
452.51, 9.58, 273.81
452.83, 9.75, 274.00
448.83, 7.17, 271.58
449.10, 7.17, 271.73
449.27, 7.21, 271.82
449.36, 7.29, 271.87
449.45, 7.36, 271.92
449.54, 7.44, 271.97
449.64, 7.52, 272.03
449.74, 7.61, 272.08
449.84, 7.69, 272.14
449.94, 7.78, 272.20
450.08, 7.86, 272.28
450.21, 7.95, 272.35
450.36, 8.04, 272.43
450.51, 8.13, 272.52
450.66, 8.23, 272.60
450.82, 8.32, 272.69
450.99, 8.43, 272.78
451.16, 8.54, 272.88
451.29, 8.65, 272.95
¯451.42, 8.77, 273.03
451.56, 8.90, 273.11
451.70, 9.03, 273.19
451.84, 9.16, 273.27
451.99, 9.30, 273.35
452.15, 9.44, 273.44
452.44, 9.59, 273.61
452.75, 9.75, 273.78
453.08, 9.92, 273.96
448.87, 7.17, 271.50
449.14, 7.17, 271.64
449.28, 7.23, 271.72
449.37, 7.30, 271.77
449.46, 7.38, 271.82
449.56, 7.46, 271.87
449.65, 7.54, 271.92
449.77, 7.62, 271.99
449.90, 7.69, 272.05
450.03, 7.77, 272.13
450.17, 7.86, 272.20
450.31, 7.94, 272.27
450.46, 8.03, 272.35
450.61, 8.13, 272.43
450.76, 8.22, 272.52
450.93, 8.32, 272.61
451.10, 8.43, 272.70
451.24, 8.54, 272.78
451.37, 8.66, 272.85
451.50, 8.78, 272.92
451.64, 8.90, 273.00
451.78, 9.03, 273.08
451.93, 9.16, 273.16
452.08, 9.30, 273.24
452.24, 9.44, 273.33
452.40, 9.59, 273.42
452.67, 9.75, 273.56
453.00, 9.92, 273.74
448.91, 7.17, 271.42
449.18, 7.17, 271.56
449.30, 7.24, 271.62
449.38, 7.32, 271.66
449.49, 7.39, 271.72
449.61, 7.46, 271.78
449.73, 7.53, 271.84
449.86, 7.61, 271.91
449.99, 7.69, 271.98
450.12, 7.77, 272.05
450.26, 7.85, 272.12
450.40, 7.94, 272.19
450.55, 8.03, 272.27
450.71, 8.12, 272.35
¯450.87, 8.22, 272.44
451.03, 8.32, 272.52
451.20, 8.43, 272.61
451.32, 8.54, 272.68
451.45, 8.66, 272.75
451.59, 8.78, 272.82
451.73, 8.91, 272.89
451.87, 9.04, 272.97
452.02, 9.17, 273.05
452.17, 9.31, 273.13
452.33, 9.45, 273.21
452.49, 9.60, 273.30
452.66, 9.75, 273.39
452.91, 9.91, 273.52
448.95, 7.18, 271.34
449.22, 7.18, 271.47
449.34, 7.24, 271.53
449.45, 7.31, 271.59
449.57, 7.38, 271.65
449.69, 7.45, 271.71
449.82, 7.53, 271.77
449.94, 7.60, 271.83
450.08, 7.68, 271.90
450.21, 7.76, 271.97
450.35, 7.85, 272.04
450.50, 7.94, 272.11
450.65, 8.03, 272.19
450.81, 8.12, 272.27
450.97, 8.22, 272.35
451.14, 8.32, 272.44
451.28, 8.43, 272.51
451.40, 8.54, 272.57
451.54, 8.66, 272.64
451.67, 8.78, 272.71
451.81, 8.91, 272.78
451.96, 9.04, 272.86
452.11, 9.17, 272.94
452.26, 9.31, 273.02
452.42, 9.46, 273.10
452.59, 9.60, 273.18
452.76, 9.76, 273.27
452.94, 9.92, 273.37
448.99, 7.18, 271.26
449.25, 7.19, 271.38
449.40, 7.24, 271.45
449.53, 7.30, 271.51
449.65, 7.37, 271.57
449.77, 7.45, 271.63
449.90, 7.52, 271.69
450.03, 7.60, 271.76
450.16, 7.68, 271.82
¯450.30, 7.76, 271.89
450.45, 7.84, 271.96
450.60, 7.93, 272.03
450.75, 8.02, 272.11
450.91, 8.12, 272.18
451.08, 8.21, 272.27
451.23, 8.32, 272.34
451.36, 8.43, 272.40
451.49, 8.55, 272.47
451.62, 8.67, 272.53
451.76, 8.79, 272.60
451.90, 8.91, 272.67
452.05, 9.04, 272.75
452.20, 9.18, 272.82
452.36, 9.32, 272.90
452.52, 9.46, 272.98
452.69, 9.61, 273.07
452.86, 9.77, 273.15
453.01, 9.92, 273.23
449.03, 7.18, 271.18
449.27, 7.20, 271.29
449.42, 7.25, 271.36
449.58, 7.31, 271.43
449.73, 7.37, 271.50
449.85, 7.44, 271.56
449.98, 7.51, 271.62
450.12, 7.59, 271.68
450.25, 7.67, 271.74
450.40, 7.75, 271.81
450.54, 7.84, 271.88
450.70, 7.93, 271.95
450.85, 8.02, 272.02
451.02, 8.11, 272.10
451.18, 8.21, 272.18
451.31, 8.32, 272.24
451.44, 8.43, 272.30
451.57, 8.55, 272.36
451.70, 8.67, 272.43
451.84, 8.79, 272.49
451.99, 8.92, 272.56
452.14, 9.05, 272.64
452.29, 9.18, 272.71
452.45, 9.32, 272.79
452.60, 9.47, 272.86
452.74, 9.62, 272.93
452.88, 9.77, 273.00
453.03, 9.93, 273.07
449.08, 7.18, 271.10
449.29, 7.21, 271.19
449.44, 7.26, 271.26
449.60, 7.32, 271.33
¯449.76, 7.37, 271.40
449.93, 7.43, 271.48
450.07, 7.51, 271.54
450.20, 7.58, 271.60
450.34, 7.66, 271.66
450.49, 7.75, 271.73
450.64, 7.83, 271.79
450.79, 7.92, 271.86
450.95, 8.01, 271.94
451.12, 8.11, 272.01
451.26, 8.21, 272.08
451.39, 8.32, 272.13
451.52, 8.44, 272.19
451.65, 8.55, 272.26
451.79, 8.67, 272.32
451.93, 8.79, 272.39
452.08, 8.92, 272.45
452.22, 9.05, 272.52
452.35, 9.19, 272.58
452.48, 9.33, 272.65
452.62, 9.47, 272.71
452.76, 9.62, 272.78
452.91, 9.78, 272.85
453.06, 9.93, 272.92
449.12, 7.18, 271.02
449.31, 7.22, 271.10
449.46, 7.27, 271.17
449.62, 7.32, 271.23
449.78, 7.38, 271.30
449.96, 7.44, 271.37
450.13, 7.50, 271.45
450.29, 7.58, 271.52
450.43, 7.66, 271.58
450.58, 7.74, 271.64
450.73, 7.83, 271.71
450.89, 7.92, 271.78
451.06, 8.01, 271.85
451.21, 8.11, 271.92
451.34, 8.21, 271.97
451.46, 8.32, 272.03
451.60, 8.44, 272.09
451.73, 8.55, 272.15
451.87, 8.67, 272.21
452.00, 8.80, 272.27
452.12, 8.93, 272.32
452.25, 9.06, 272.38
452.38, 9.20, 272.44
452.51, 9.34, 272.50
452.65, 9.48, 272.56
452.79, 9.63, 272.63
452.94, 9.78, 272.69
¯453.09, 9.94, 272.76
449.16, 7.18, 270.94
449.34, 7.22, 271.01
449.49, 7.28, 271.07
449.64, 7.33, 271.14
449.81, 7.39, 271.20
449.98, 7.45, 271.27
450.15, 7.51, 271.34
450.34, 7.58, 271.42
450.53, 7.65, 271.50
450.68, 7.73, 271.56
450.83, 7.82, 271.62
450.99, 7.91, 271.69
451.16, 8.00, 271.76
451.29, 8.11, 271.81
451.41, 8.21, 271.87
451.54, 8.32, 271.92
451.67, 8.44, 271.98
451.79, 8.56, 272.03
451.91, 8.68, 272.08
452.03, 8.81, 272.13
452.15, 8.93, 272.19
452.27, 9.07, 272.24
452.40, 9.20, 272.30
452.54, 9.34, 272.36
452.67, 9.48, 272.42
452.82, 9.63, 272.48
452.96, 9.79, 272.54
453.11, 9.94, 272.61
449.20, 7.18, 270.86
449.36, 7.23, 270.92
449.51, 7.29, 270.98
449.66, 7.34, 271.04
449.83, 7.40, 271.10
450.00, 7.46, 271.17
450.18, 7.52, 271.24
450.36, 7.59, 271.31
450.56, 7.66, 271.39
450.76, 7.73, 271.47
450.93, 7.81, 271.54
451.10, 7.90, 271.60
451.24, 8.00, 271.66
451.36, 8.11, 271.71
451.48, 8.22, 271.76
451.59, 8.33, 271.81
451.70, 8.45, 271.85
451.81, 8.57, 271.90
451.93, 8.69, 271.95
452.05, 8.81, 272.00
452.17, 8.94, 272.05
452.30, 9.07, 272.11
¯452.43, 9.21, 272.16
452.56, 9.35, 272.22
452.70, 9.49, 272.27
452.84, 9.64, 272.33
452.99, 9.79, 272.39
449.23, 7.19, 270.77
449.38, 7.24, 270.83
449.53, 7.29, 270.88
449.68, 7.35, 270.94
449.85, 7.41, 271.00
450.02, 7.47, 271.07
450.20, 7.53, 271.14
450.38, 7.60, 271.21
450.58, 7.66, 271.28
450.78, 7.74, 271.36
451.00, 7.81, 271.44
451.19, 7.90, 271.51
451.29, 8.00, 271.55
451.40, 8.11, 271.59
451.51, 8.22, 271.64
451.61, 8.34, 271.68
451.73, 8.45, 271.73
451.84, 8.57, 271.77
451.96, 8.69, 271.82
452.08, 8.82, 271.87
452.20, 8.95, 271.92
452.33, 9.08, 271.97
452.46, 9.21, 272.02
452.59, 9.35, 272.07
452.73, 9.50, 272.13
452.87, 9.64, 272.19
453.01, 9.80, 272.25
449.25, 7.20, 270.68
449.39, 7.25, 270.74
449.55, 7.30, 270.79
449.70, 7.36, 270.85
449.87, 7.41, 270.91
450.04, 7.47, 270.97
450.22, 7.54, 271.03
450.40, 7.60, 271.10
450.60, 7.67, 271.17
450.80, 7.74, 271.24
451.02, 7.82, 271.32
451.22, 7.90, 271.39
451.32, 8.01, 271.43
451.42, 8.12, 271.47
451.53, 8.23, 271.51
451.64, 8.34, 271.56
451.75, 8.46, 271.60
451.87, 8.58, 271.64
451.98, 8.70, 271.69
¯452.10, 8.83, 271.73
452.23, 8.95, 271.78
452.35, 9.08, 271.83
452.48, 9.22, 271.88
452.62, 9.36, 271.93
452.75, 9.50, 271.99
452.89, 9.65, 272.04
453.04, 9.80, 272.10
449.27, 7.20, 270.59
449.41, 7.26, 270.64
449.56, 7.31, 270.70
449.72, 7.36, 270.75
449.89, 7.42, 270.81
450.06, 7.48, 270.87
450.24, 7.55, 270.93
450.42, 7.61, 270.99
450.62, 7.68, 271.06
450.82, 7.75, 271.13
451.10, 7.82, 271.22
451.25, 7.91, 271.27
451.35, 8.02, 271.31
451.45, 8.13, 271.35
451.56, 8.24, 271.39
451.67, 8.35, 271.43
451.78, 8.47, 271.47
451.89, 8.59, 271.51
452.01, 8.71, 271.56
452.13, 8.83, 271.60
452.25, 8.96, 271.65
452.38, 9.09, 271.70
452.51, 9.23, 271.74
452.64, 9.36, 271.79
452.78, 9.51, 271.84
452.92, 9.65, 271.90
453.07, 9.80, 271.95
449.28, 7.21, 270.51
449.43, 7.26, 270.55
449.58, 7.32, 270.60
449.74, 7.37, 270.65
449.90, 7.43, 270.71
450.08, 7.49, 270.76
450.25, 7.55, 270.82
450.44, 7.62, 270.88
450.64, 7.69, 270.95
450.90, 7.75, 271.03
451.17, 7.81, 271.12
451.27, 7.92, 271.16
451.37, 8.02, 271.19
451.48, 8.13, 271.23
451.58, 8.24, 271.27
451.69, 8.36, 271.31
¯451.80, 8.47, 271.35
451.92, 8.59, 271.39
452.03, 8.71, 271.43
452.15, 8.84, 271.47
452.28, 8.97, 271.51
452.40, 9.10, 271.56
452.53, 9.23, 271.61
452.67, 9.37, 271.65
452.80, 9.51, 271.70
452.95, 9.66, 271.75
453.09, 9.81, 271.80
449.30, 7.22, 270.42
449.45, 7.27, 270.46
449.60, 7.32, 270.51
449.76, 7.38, 270.56
449.92, 7.44, 270.61
450.09, 7.50, 270.66
450.27, 7.56, 270.72
450.46, 7.63, 270.78
450.70, 7.68, 270.85
450.97, 7.75, 270.93
451.20, 7.82, 271.01
451.30, 7.92, 271.04
451.40, 8.03, 271.08
451.51, 8.14, 271.11
451.61, 8.25, 271.15
451.72, 8.36, 271.18
451.83, 8.48, 271.22
451.95, 8.60, 271.26
452.06, 8.72, 271.30
452.18, 8.84, 271.34
452.30, 8.97, 271.38
452.43, 9.10, 271.43
452.56, 9.24, 271.47
452.69, 9.38, 271.51
452.83, 9.52, 271.56
452.97, 9.66, 271.61
453.12, 9.81, 271.66
449.32, 7.22, 270.33
449.46, 7.28, 270.37
449.62, 7.33, 270.42
449.77, 7.39, 270.46
449.94, 7.44, 270.51
450.11, 7.50, 270.56
450.29, 7.57, 270.62
450.52, 7.62, 270.68
450.77, 7.68, 270.76
451.04, 7.74, 270.84
451.22, 7.83, 270.89
451.32, 7.93, 270.92
451.43, 8.04, 270.96
¯451.53, 8.14, 270.99
451.64, 8.26, 271.03
451.75, 8.37, 271.06
451.86, 8.48, 271.10
451.97, 8.60, 271.13
452.09, 8.72, 271.17
452.21, 8.85, 271.21
452.33, 8.98, 271.25
452.46, 9.11, 271.29
452.59, 9.24, 271.33
452.72, 9.38, 271.38
452.86, 9.52, 271.42
453.00, 9.67, 271.47
449.33, 7.23, 270.24
449.48, 7.28, 270.28
449.63, 7.34, 270.32
449.79, 7.39, 270.37
449.95, 7.45, 270.41
450.13, 7.51, 270.46
450.34, 7.56, 270.52
450.59, 7.62, 270.59
450.84, 7.68, 270.66
451.11, 7.74, 270.74
451.25, 7.83, 270.78
451.35, 7.94, 270.81
451.45, 8.04, 270.84
451.56, 8.15, 270.87
451.66, 8.26, 270.90
451.77, 8.37, 270.94
451.89, 8.49, 270.97
452.00, 8.61, 271.01
452.12, 8.73, 271.04
452.24, 8.85, 271.08
452.36, 8.98, 271.12
452.49, 9.11, 271.16
452.62, 9.25, 271.20
452.75, 9.39, 271.24
452.89, 9.53, 271.28
453.04, 9.67, 271.33
449.35, 7.24, 270.15
449.49, 7.29, 270.19
449.65, 7.34, 270.23
449.81, 7.40, 270.27
449.97, 7.46, 270.32
450.18, 7.51, 270.37
450.41, 7.56, 270.43
450.65, 7.61, 270.49
450.91, 7.67, 270.56
451.18, 7.73, 270.63
451.27, 7.84, 270.66
451.38, 7.94, 270.69
¯451.48, 8.05, 270.72
451.58, 8.16, 270.75
451.69, 8.27, 270.78
451.80, 8.38, 270.81
451.91, 8.50, 270.85
452.03, 8.61, 270.88
452.14, 8.74, 270.92
452.26, 8.86, 270.95
452.39, 8.99, 270.99
452.51, 9.12, 271.02
452.64, 9.25, 271.06
452.79, 9.39, 271.10
452.95, 9.53, 271.15
453.11, 9.68, 271.20
449.36, 7.24, 270.06
449.51, 7.29, 270.10
449.66, 7.35, 270.14
449.82, 7.40, 270.18
450.01, 7.45, 270.22
450.23, 7.50, 270.28
450.47, 7.55, 270.34
450.71, 7.61, 270.40
450.98, 7.67, 270.46
451.20, 7.74, 270.52
451.30, 7.84, 270.55
451.40, 7.95, 270.57
451.50, 8.05, 270.60
451.61, 8.16, 270.63
451.72, 8.27, 270.66
451.83, 8.38, 270.69
451.94, 8.50, 270.72
452.05, 8.62, 270.76
452.17, 8.74, 270.79
452.29, 8.87, 270.82
452.42, 8.99, 270.86
452.55, 9.12, 270.89
452.70, 9.26, 270.93
452.85, 9.40, 270.97
453.01, 9.54, 271.02
449.38, 7.25, 269.97
449.52, 7.30, 270.01
449.67, 7.35, 270.04
449.86, 7.40, 270.09
450.07, 7.45, 270.13
450.29, 7.50, 270.19
450.53, 7.55, 270.24
450.78, 7.60, 270.30
451.04, 7.66, 270.36
451.22, 7.74, 270.40
451.32, 7.85, 270.43
451.43, 7.95, 270.46
¯451.53, 8.06, 270.48
451.63, 8.17, 270.51
451.74, 8.28, 270.54
451.85, 8.39, 270.57
451.97, 8.51, 270.60
452.08, 8.62, 270.63
452.20, 8.75, 270.66
452.32, 8.87, 270.69
452.46, 9.00, 270.73
452.61, 9.13, 270.77
452.76, 9.26, 270.81
452.92, 9.40, 270.85
453.08, 9.54, 270.89
449.39, 7.25, 269.88
449.53, 7.31, 269.92
449.71, 7.35, 269.95
449.91, 7.40, 270.00
450.12, 7.44, 270.04
450.35, 7.49, 270.09
450.59, 7.54, 270.15
450.84, 7.60, 270.20
451.11, 7.66, 270.26
451.25, 7.75, 270.29
451.35, 7.85, 270.32
451.45, 7.95, 270.34
451.55, 8.06, 270.37
451.66, 8.17, 270.39
451.77, 8.28, 270.42
451.88, 8.39, 270.45
451.99, 8.51, 270.47
452.11, 8.63, 270.50
452.24, 8.75, 270.53
452.38, 8.87, 270.57
452.52, 9.00, 270.60
452.67, 9.13, 270.64
452.83, 9.27, 270.68
452.99, 9.41, 270.72
449.40, 7.26, 269.79
449.56, 7.31, 269.83
449.75, 7.35, 269.87
449.96, 7.39, 269.91
450.18, 7.44, 269.95
450.40, 7.49, 270.00
450.65, 7.54, 270.05
450.90, 7.59, 270.10
451.17, 7.65, 270.15
451.27, 7.75, 270.18
451.37, 7.85, 270.20
451.47, 7.96, 270.22
451.58, 8.07, 270.25
451.68, 8.17, 270.27
¯451.79, 8.29, 270.30
451.90, 8.40, 270.32
452.02, 8.51, 270.35
452.16, 8.63, 270.38
452.30, 8.75, 270.41
452.44, 8.88, 270.44
452.59, 9.00, 270.48
452.74, 9.14, 270.51
452.89, 9.27, 270.55
453.05, 9.41, 270.58
449.42, 7.26, 269.71
449.60, 7.30, 269.74
449.80, 7.34, 269.78
450.01, 7.39, 269.82
450.23, 7.43, 269.86
450.46, 7.48, 269.90
450.71, 7.53, 269.95
450.97, 7.59, 270.00
451.20, 7.66, 270.04
451.30, 7.76, 270.06
451.40, 7.86, 270.08
451.50, 7.96, 270.11
451.60, 8.07, 270.13
451.71, 8.18, 270.15
451.82, 8.29, 270.18
451.95, 8.40, 270.20
452.08, 8.52, 270.23
452.22, 8.63, 270.26
452.36, 8.75, 270.29
452.50, 8.88, 270.32
452.65, 9.01, 270.35
452.80, 9.14, 270.38
452.96, 9.28, 270.42
453.12, 9.42, 270.45
449.46, 7.26, 269.62
449.65, 7.29, 269.66
449.85, 7.34, 269.69
450.06, 7.38, 269.73
450.28, 7.43, 269.77
450.52, 7.47, 269.81
450.77, 7.53, 269.85
451.03, 7.58, 269.90
451.22, 7.66, 269.93
451.32, 7.76, 269.95
451.42, 7.86, 269.97
451.52, 7.97, 269.99
451.63, 8.07, 270.01
451.75, 8.18, 270.03
451.87, 8.29, 270.06
452.00, 8.40, 270.09
452.14, 8.52, 270.11
¯452.27, 8.63, 270.14
452.42, 8.76, 270.17
452.56, 8.88, 270.19
452.71, 9.01, 270.22
452.87, 9.14, 270.25
453.03, 9.28, 270.29
454.51, 9.42, 270.54
449.50, 7.25, 269.54
449.70, 7.29, 269.57
449.90, 7.33, 269.60
450.11, 7.37, 269.64
450.34, 7.42, 269.67
450.57, 7.47, 269.71
450.83, 7.52, 269.75
451.09, 7.57, 269.79
451.24, 7.66, 269.82
451.34, 7.76, 269.83
451.44, 7.86, 269.85
451.55, 7.97, 269.87
451.67, 8.07, 269.90
451.80, 8.18, 269.92
451.93, 8.29, 269.94
452.06, 8.40, 269.97
452.19, 8.52, 269.99
452.33, 8.64, 270.02
452.48, 8.76, 270.04
452.62, 8.88, 270.07
452.77, 9.01, 270.10
452.93, 9.15, 270.12
453.09, 9.28, 270.15
454.50, 9.43, 270.37
449.52, 7.25, 269.45
449.72, 7.29, 269.48
449.94, 7.32, 269.51
450.16, 7.37, 269.54
450.39, 7.41, 269.57
450.63, 7.46, 269.61
450.88, 7.51, 269.65
451.16, 7.57, 269.69
451.26, 7.66, 269.70
451.36, 7.76, 269.72
451.48, 7.86, 269.74
451.60, 7.97, 269.76
451.73, 8.07, 269.78
451.85, 8.18, 269.80
451.98, 8.29, 269.82
452.11, 8.40, 269.85
452.25, 8.52, 269.87
452.39, 8.64, 269.89
452.54, 8.76, 269.92
452.69, 8.89, 269.94
¯452.84, 9.02, 269.97
453.00, 9.15, 269.99
453.92, 9.28, 270.12
454.49, 9.43, 270.21
449.52, 7.26, 269.36
449.73, 7.29, 269.39
449.95, 7.33, 269.41
450.17, 7.37, 269.44
450.42, 7.41, 269.47
450.67, 7.46, 269.51
450.94, 7.51, 269.54
451.19, 7.57, 269.57
451.30, 7.66, 269.59
451.41, 7.76, 269.61
451.53, 7.86, 269.63
451.65, 7.97, 269.65
451.78, 8.07, 269.66
451.91, 8.18, 269.68
452.04, 8.29, 269.70
452.17, 8.40, 269.72
452.31, 8.52, 269.74
452.45, 8.64, 269.77
452.60, 8.76, 269.79
452.75, 8.89, 269.81
452.90, 9.02, 269.83
453.06, 9.15, 269.86
453.92, 9.29, 269.97
454.48, 9.44, 270.04
449.53, 7.26, 269.27
449.74, 7.30, 269.29
449.95, 7.33, 269.32
450.18, 7.37, 269.34
450.43, 7.42, 269.37
450.68, 7.46, 269.40
450.96, 7.51, 269.43
451.21, 7.57, 269.46
451.33, 7.66, 269.48
451.45, 7.76, 269.50
451.57, 7.86, 269.51
451.70, 7.96, 269.53
451.83, 8.07, 269.55
451.96, 8.18, 269.56
452.09, 8.29, 269.58
452.23, 8.40, 269.60
452.37, 8.52, 269.62
452.51, 8.64, 269.64
452.66, 8.76, 269.66
452.81, 8.89, 269.68
452.97, 9.02, 269.70
453.40, 9.15, 269.75
453.91, 9.29, 269.81
¯454.47, 9.45, 269.88
449.54, 7.26, 269.18
449.74, 7.30, 269.20
449.96, 7.34, 269.22
450.19, 7.38, 269.25
450.43, 7.42, 269.27
450.69, 7.47, 269.30
450.97, 7.51, 269.32
451.22, 7.57, 269.35
451.34, 7.67, 269.36
451.46, 7.77, 269.38
451.59, 7.87, 269.39
451.71, 7.97, 269.41
451.85, 8.07, 269.43
451.98, 8.18, 269.44
452.12, 8.29, 269.46
452.26, 8.40, 269.48
452.41, 8.52, 269.49
452.56, 8.64, 269.51
452.72, 8.76, 269.53
452.87, 8.89, 269.55
453.03, 9.02, 269.57
453.40, 9.16, 269.61
453.90, 9.30, 269.66
454.46, 9.45, 269.72
449.54, 7.27, 269.09
449.75, 7.30, 269.11
449.97, 7.34, 269.13
450.20, 7.38, 269.15
450.44, 7.42, 269.17
450.70, 7.47, 269.19
450.99, 7.51, 269.22
451.23, 7.58, 269.24
451.35, 7.67, 269.25
451.47, 7.77, 269.26
451.60, 7.87, 269.28
451.73, 7.97, 269.29
451.86, 8.08, 269.30
451.99, 8.18, 269.32
452.13, 8.29, 269.33
452.28, 8.41, 269.35
452.42, 8.52, 269.36
452.58, 8.64, 269.38
452.73, 8.77, 269.40
452.89, 8.90, 269.41
453.06, 9.03, 269.43
453.42, 9.16, 269.46
453.91, 9.30, 269.51
454.45, 9.46, 269.56
455.07, 9.63, 269.61
449.55, 7.27, 269.00
¯449.76, 7.31, 269.02
449.97, 7.34, 269.03
450.20, 7.39, 269.05
450.44, 7.43, 269.06
450.70, 7.47, 269.08
451.02, 7.51, 269.11
451.24, 7.58, 269.12
451.36, 7.68, 269.13
451.48, 7.77, 269.14
451.61, 7.87, 269.16
451.74, 7.97, 269.17
451.87, 8.08, 269.18
452.00, 8.19, 269.19
452.14, 8.30, 269.21
452.29, 8.41, 269.22
452.43, 8.53, 269.23
452.59, 8.65, 269.25
452.74, 8.77, 269.26
452.91, 8.90, 269.28
453.09, 9.03, 269.29
453.48, 9.16, 269.32
453.97, 9.30, 269.36
454.51, 9.46, 269.40
449.55, 7.27, 268.91
449.76, 7.31, 268.92
449.98, 7.35, 268.93
450.21, 7.39, 268.95
450.45, 7.43, 268.96
450.72, 7.47, 268.98
451.05, 7.51, 269.00
451.25, 7.58, 269.01
451.37, 7.68, 269.02
451.49, 7.78, 269.03
451.62, 7.88, 269.04
451.75, 7.98, 269.05
451.88, 8.08, 269.06
452.01, 8.19, 269.07
452.15, 8.30, 269.08
452.30, 8.41, 269.09
452.45, 8.53, 269.10
452.60, 8.65, 269.11
452.76, 8.78, 269.13
452.93, 8.90, 269.14
453.11, 9.04, 269.15
453.54, 9.17, 269.18
454.04, 9.31, 269.21
454.58, 9.47, 269.24
449.56, 7.28, 268.82
449.76, 7.31, 268.83
449.98, 7.35, 268.84
450.21, 7.39, 268.85
¯450.45, 7.44, 268.86
450.75, 7.47, 268.87
451.07, 7.51, 268.89
451.26, 7.59, 268.90
451.38, 7.68, 268.90
451.50, 7.78, 268.91
451.63, 7.88, 268.92
451.75, 7.98, 268.93
451.89, 8.09, 268.94
452.02, 8.19, 268.94
452.16, 8.30, 268.95
452.31, 8.42, 268.96
452.46, 8.54, 268.97
452.61, 8.66, 268.98
452.78, 8.78, 268.99
452.95, 8.91, 269.00
453.14, 9.04, 269.01
453.60, 9.17, 269.04
454.10, 9.31, 269.06
454.65, 9.47, 269.09
449.56, 7.28, 268.73
449.76, 7.32, 268.74
449.98, 7.35, 268.74
450.21, 7.40, 268.75
450.46, 7.44, 268.76
450.77, 7.47, 268.77
451.10, 7.51, 268.78
451.26, 7.59, 268.78
451.38, 7.68, 268.79
451.51, 7.78, 268.79
451.63, 7.88, 268.80
451.76, 7.98, 268.81
451.90, 8.09, 268.81
452.03, 8.20, 268.82
452.17, 8.31, 268.83
452.32, 8.42, 268.83
452.47, 8.54, 268.84
452.63, 8.66, 268.85
452.80, 8.78, 268.86
452.97, 8.91, 268.86
453.20, 9.04, 268.87
453.66, 9.17, 268.89
454.17, 9.32, 268.91
454.72, 9.48, 268.92
449.56, 7.28, 268.64
449.77, 7.32, 268.64
449.98, 7.36, 268.65
450.21, 7.40, 268.65
450.48, 7.43, 268.65
450.79, 7.47, 268.66
451.12, 7.51, 268.66
¯451.27, 7.59, 268.67
451.39, 7.69, 268.67
451.52, 7.78, 268.68
451.64, 7.88, 268.68
451.77, 7.99, 268.69
451.91, 8.09, 268.69
452.04, 8.20, 268.69
452.18, 8.31, 268.70
452.33, 8.42, 268.70
452.49, 8.54, 268.71
452.65, 8.66, 268.71
452.82, 8.79, 268.72
453.00, 8.91, 268.73
453.25, 9.04, 268.73
453.72, 9.18, 268.74
454.24, 9.32, 268.75
454.78, 9.48, 268.76
449.56, 7.29, 268.55
449.77, 7.32, 268.55
449.98, 7.36, 268.55
450.22, 7.40, 268.55
450.50, 7.43, 268.55
450.81, 7.47, 268.55
451.14, 7.50, 268.55
451.28, 7.59, 268.55
451.40, 7.69, 268.56
451.52, 7.79, 268.56
451.65, 7.89, 268.56
451.78, 7.99, 268.56
451.92, 8.09, 268.57
452.05, 8.20, 268.57
452.20, 8.31, 268.57
452.35, 8.43, 268.57
452.51, 8.54, 268.58
452.67, 8.66, 268.58
452.84, 8.79, 268.58
453.02, 8.92, 268.59
453.31, 9.05, 268.59
453.78, 9.18, 268.59
454.30, 9.33, 268.60
454.85, 9.49, 268.60
449.56, 7.29, 268.46
449.77, 7.32, 268.46
449.98, 7.36, 268.46
450.23, 7.40, 268.45
450.52, 7.43, 268.45
450.83, 7.47, 268.44
451.16, 7.50, 268.44
451.29, 7.59, 268.44
451.41, 7.69, 268.44
451.53, 7.79, 268.44
¯451.66, 7.89, 268.44
451.79, 7.99, 268.44
451.92, 8.10, 268.44
452.06, 8.20, 268.44
452.21, 8.31, 268.44
452.37, 8.43, 268.45
452.53, 8.54, 268.45
452.69, 8.67, 268.45
452.86, 8.79, 268.45
453.04, 8.92, 268.45
453.36, 9.05, 268.45
453.84, 9.18, 268.44
454.36, 9.33, 268.44
454.92, 9.49, 268.43
437.42, 7.08, 271.11
437.18, 7.08, 271.20
436.90, 7.07, 271.30
436.61, 7.06, 271.41
436.29, 7.06, 271.52
435.94, 7.05, 271.65
435.56, 7.04, 271.78
435.16, 7.04, 271.93
434.73, 7.04, 272.08
434.26, 7.04, 272.25
433.81, 7.07, 272.41
433.28, 7.08, 272.60
432.62, 7.09, 272.84
431.79, 7.08, 273.14
430.87, 7.07, 273.47
429.08, 6.94, 274.11
427.51, 6.90, 274.67
427.51, 7.13, 274.68
427.51, 7.36, 274.68
427.51, 7.59, 274.69
427.51, 7.83, 274.69
427.51, 8.06, 274.70
427.51, 8.29, 274.70
427.51, 8.52, 274.71
427.51, 8.75, 274.71
427.51, 8.98, 274.71
427.51, 9.20, 274.72
427.51, 9.43, 274.72
437.45, 7.08, 271.19
437.20, 7.07, 271.29
436.93, 7.07, 271.39
436.64, 7.06, 271.50
436.32, 7.05, 271.62
435.97, 7.05, 271.74
435.59, 7.04, 271.89
435.20, 7.04, 272.04
434.76, 7.04, 272.20
¯434.31, 7.04, 272.37
433.86, 7.07, 272.54
433.34, 7.08, 272.73
432.68, 7.09, 272.98
431.85, 7.07, 273.29
430.99, 7.08, 273.61
429.08, 6.92, 274.33
427.51, 6.88, 274.92
427.51, 7.11, 274.92
427.51, 7.35, 274.93
427.51, 7.58, 274.93
427.51, 7.81, 274.94
427.51, 8.04, 274.94
427.51, 8.28, 274.95
427.51, 8.51, 274.95
427.51, 8.74, 274.96
427.51, 8.97, 274.96
427.51, 9.20, 274.96
427.51, 9.43, 274.97
437.47, 7.08, 271.27
437.23, 7.07, 271.37
436.96, 7.06, 271.47
436.67, 7.06, 271.59
436.35, 7.05, 271.71
436.01, 7.04, 271.84
435.63, 7.04, 271.99
435.24, 7.03, 272.15
434.80, 7.03, 272.32
434.36, 7.04, 272.49
433.91, 7.06, 272.67
433.40, 7.08, 272.86
432.74, 7.08, 273.12
431.91, 7.07, 273.45
431.12, 7.09, 273.76
429.10, 6.91, 274.55
427.51, 6.86, 275.17
427.51, 7.10, 275.17
427.51, 7.33, 275.18
427.51, 7.57, 275.18
427.51, 7.80, 275.18
427.51, 8.03, 275.19
427.51, 8.27, 275.19
427.51, 8.50, 275.20
427.51, 8.73, 275.20
427.51, 8.96, 275.21
427.51, 9.19, 275.21
427.51, 9.43, 275.22
437.50, 7.07, 271.35
437.25, 7.07, 271.45
436.99, 7.06, 271.56
436.70, 7.06, 271.68
¯436.39, 7.05, 271.80
436.05, 7.04, 271.94
435.67, 7.03, 272.09
435.27, 7.03, 272.26
434.84, 7.03, 272.43
434.41, 7.04, 272.61
433.97, 7.06, 272.79
433.47, 7.08, 272.99
432.80, 7.08, 273.27
431.92, 7.06, 273.62
431.24, 7.09, 273.90
429.14, 6.90, 274.75
427.76, 6.88, 275.32
427.51, 7.08, 275.42
427.51, 7.32, 275.43
427.51, 7.55, 275.43
427.51, 7.79, 275.44
427.51, 8.02, 275.44
427.51, 8.26, 275.44
427.51, 8.49, 275.45
427.51, 8.72, 275.45
427.51, 8.96, 275.46
427.51, 9.19, 275.46
427.51, 9.42, 275.47
437.53, 7.07, 271.43
437.29, 7.06, 271.53
437.02, 7.06, 271.64
436.74, 7.05, 271.76
436.43, 7.05, 271.89
436.09, 7.04, 272.04
435.71, 7.03, 272.20
435.31, 7.03, 272.37
434.88, 7.03, 272.55
434.46, 7.04, 272.73
434.02, 7.06, 272.91
433.53, 7.08, 273.12
432.86, 7.08, 273.41
431.96, 7.05, 273.79
431.36, 7.10, 274.04
429.23, 6.90, 274.94
427.99, 6.90, 275.47
427.51, 7.06, 275.68
427.51, 7.30, 275.68
427.51, 7.54, 275.68
427.51, 7.77, 275.69
427.51, 8.01, 275.69
427.51, 8.24, 275.70
427.51, 8.48, 275.70
427.51, 8.71, 275.71
427.51, 8.95, 275.71
427.51, 9.18, 275.71
¯427.51, 9.42, 275.72
437.56, 7.07, 271.51
437.32, 7.06, 271.61
437.06, 7.06, 271.73
436.77, 7.05, 271.85
436.46, 7.04, 271.99
436.13, 7.04, 272.14
435.75, 7.03, 272.30
435.36, 7.02, 272.48
434.93, 7.02, 272.66
434.51, 7.04, 272.85
434.08, 7.06, 273.04
433.60, 7.08, 273.25
432.89, 7.07, 273.56
432.03, 7.05, 273.94
431.49, 7.11, 274.18
429.38, 6.91, 275.10
428.27, 6.93, 275.59
427.51, 7.04, 275.93
427.51, 7.28, 275.94
427.51, 7.52, 275.94
427.51, 7.76, 275.94
427.51, 8.00, 275.95
427.51, 8.23, 275.95
427.51, 8.47, 275.96
427.51, 8.71, 275.96
427.51, 8.94, 275.97
427.51, 9.18, 275.97
427.51, 9.41, 275.98
437.59, 7.07, 271.58
437.35, 7.06, 271.69
437.09, 7.06, 271.81
436.81, 7.05, 271.94
436.50, 7.04, 272.08
436.17, 7.03, 272.23
435.80, 7.03, 272.40
435.40, 7.02, 272.58
434.97, 7.02, 272.78
434.57, 7.04, 272.96
434.14, 7.06, 273.16
433.66, 7.08, 273.38
432.90, 7.06, 273.73
432.10, 7.04, 274.09
431.61, 7.12, 274.32
429.54, 6.91, 275.26
428.55, 6.96, 275.72
427.51, 7.02, 276.19
427.51, 7.27, 276.20
427.51, 7.51, 276.20
427.51, 7.75, 276.20
427.51, 7.98, 276.21
¯427.51, 8.22, 276.21
427.51, 8.46, 276.22
427.51, 8.70, 276.22
427.51, 8.94, 276.23
427.51, 9.17, 276.23
427.51, 9.41, 276.23
437.63, 7.06, 271.66
437.39, 7.06, 271.77
437.13, 7.05, 271.89
436.85, 7.05, 272.03
436.54, 7.04, 272.17
436.21, 7.03, 272.33
435.84, 7.02, 272.50
435.44, 7.02, 272.69
435.02, 7.02, 272.89
434.63, 7.03, 273.08
434.20, 7.06, 273.28
433.71, 7.08, 273.51
432.92, 7.04, 273.89
432.18, 7.04, 274.24
431.70, 7.12, 274.47
429.70, 6.92, 275.41
428.81, 6.98, 275.83
427.51, 7.01, 276.45
427.51, 7.25, 276.46
427.51, 7.49, 276.46
427.51, 7.73, 276.47
427.51, 7.97, 276.47
427.51, 8.21, 276.48
427.51, 8.45, 276.48
427.51, 8.69, 276.48
427.51, 8.93, 276.49
427.51, 9.17, 276.49
427.51, 9.41, 276.50
437.66, 7.06, 271.73
437.42, 7.06, 271.85
437.17, 7.05, 271.97
436.89, 7.04, 272.11
436.59, 7.04, 272.26
436.25, 7.03, 272.42
435.89, 7.02, 272.60
435.49, 7.01, 272.80
435.07, 7.01, 273.00
434.68, 7.03, 273.20
434.26, 7.06, 273.41
433.75, 7.07, 273.65
432.94, 7.03, 274.05
432.26, 7.04, 274.39
431.78, 7.12, 274.62
429.85, 6.93, 275.57
429.94, 7.16, 275.53
¯429.95, 7.37, 275.53
429.96, 7.57, 275.53
427.51, 7.47, 276.73
427.51, 7.72, 276.73
427.51, 7.96, 276.74
427.51, 8.20, 276.74
427.51, 8.44, 276.75
427.51, 8.68, 276.75
427.51, 8.92, 276.75
427.51, 9.16, 276.76
427.51, 9.40, 276.76
437.70, 7.06, 271.81
437.46, 7.06, 271.93
437.21, 7.05, 272.06
436.93, 7.04, 272.20
436.63, 7.04, 272.35
436.30, 7.03, 272.52
435.94, 7.02, 272.70
435.54, 7.01, 272.91
435.13, 7.01, 273.11
434.74, 7.03, 273.31
434.31, 7.05, 273.53
433.77, 7.06, 273.80
432.96, 7.02, 274.22
432.34, 7.04, 274.54
431.86, 7.11, 274.78
430.38, 7.01, 275.53
430.39, 7.22, 275.53
430.40, 7.42, 275.53
430.07, 7.57, 275.70
427.51, 7.46, 277.00
427.51, 7.70, 277.00
427.51, 7.94, 277.01
427.51, 8.19, 277.01
427.51, 8.43, 277.02
427.51, 8.67, 277.02
427.51, 8.92, 277.02
427.51, 9.16, 277.03
427.51, 9.40, 277.03
437.73, 7.06, 271.88
437.50, 7.05, 272.01
437.25, 7.05, 272.14
436.97, 7.04, 272.28
436.67, 7.03, 272.44
436.35, 7.03, 272.61
435.99, 7.02, 272.80
435.59, 7.01, 273.01
435.19, 7.01, 273.22
434.80, 7.03, 273.42
434.36, 7.04, 273.66
433.80, 7.05, 273.95
¯432.99, 7.00, 274.38
432.41, 7.04, 274.68
431.95, 7.11, 274.93
430.81, 7.07, 275.53
430.82, 7.27, 275.53
430.82, 7.47, 275.53
430.19, 7.57, 275.86
427.51, 7.44, 277.27
427.51, 7.68, 277.28
427.51, 7.93, 277.28
427.51, 8.17, 277.29
427.51, 8.42, 277.29
427.51, 8.66, 277.29
427.51, 8.91, 277.30
427.51, 9.15, 277.30
427.51, 9.40, 277.31
437.77, 7.06, 271.96
437.54, 7.05, 272.08
437.29, 7.05, 272.22
437.02, 7.04, 272.37
436.72, 7.03, 272.53
436.39, 7.02, 272.71
436.04, 7.01, 272.90
435.64, 7.00, 273.12
435.25, 7.01, 273.33
434.85, 7.02, 273.55
434.41, 7.04, 273.79
433.83, 7.03, 274.10
433.02, 6.99, 274.54
432.49, 7.03, 274.83
432.03, 7.11, 275.08
431.21, 7.13, 275.53
431.22, 7.32, 275.53
431.23, 7.52, 275.53
430.30, 7.57, 276.03
427.51, 7.42, 277.55
427.51, 7.67, 277.56
427.51, 7.92, 277.56
427.51, 8.16, 277.56
427.51, 8.41, 277.57
427.51, 8.65, 277.57
427.51, 8.90, 277.58
427.51, 9.15, 277.58
427.51, 9.39, 277.58
437.81, 7.06, 272.03
437.58, 7.05, 272.16
437.33, 7.04, 272.30
437.06, 7.04, 272.45
436.77, 7.03, 272.62
436.44, 7.02, 272.80
436.09, 7.01, 273.00
¯435.69, 7.00, 273.22
435.30, 7.01, 273.44
434.90, 7.02, 273.67
434.46, 7.03, 273.92
433.86, 7.02, 274.25
433.05, 6.97, 274.71
432.57, 7.03, 274.98
432.11, 7.11, 275.24
431.60, 7.19, 275.53
431.60, 7.37, 275.53
431.61, 7.56, 275.53
430.42, 7.57, 276.20
427.51, 7.40, 277.83
427.51, 7.65, 277.84
427.51, 7.90, 277.84
427.51, 8.15, 277.85
427.51, 8.40, 277.85
427.51, 8.65, 277.85
427.51, 8.89, 277.86
427.51, 9.14, 277.86
427.51, 9.39, 277.87
437.85, 7.05, 272.10
437.62, 7.05, 272.23
437.38, 7.04, 272.38
437.11, 7.04, 272.53
436.81, 7.03, 272.71
436.49, 7.02, 272.89
436.14, 7.01, 273.10
435.75, 7.00, 273.32
435.35, 7.00, 273.55
434.95, 7.01, 273.79
434.51, 7.03, 274.04
433.90, 7.01, 274.40
433.08, 6.96, 274.87
432.66, 7.03, 275.12
432.20, 7.10, 275.39
431.91, 7.23, 275.56
431.91, 7.41, 275.56
431.79, 7.57, 275.63
430.54, 7.57, 276.36
427.51, 7.38, 278.12
427.51, 7.63, 278.12
427.51, 7.88, 278.13
427.51, 8.14, 278.13
427.51, 8.39, 278.14
427.51, 8.64, 278.14
427.51, 8.89, 278.14
427.51, 9.14, 278.15
427.51, 9.39, 278.15
437.89, 7.05, 272.17
437.67, 7.05, 272.31
¯437.42, 7.04, 272.46
437.15, 7.03, 272.62
436.86, 7.03, 272.79
436.55, 7.02, 272.98
436.19, 7.01, 273.19
435.81, 7.00, 273.43
435.40, 7.00, 273.67
435.01, 7.01, 273.91
434.57, 7.02, 274.17
433.93, 7.00, 274.55
433.16, 6.96, 275.01
432.74, 7.03, 275.27
432.26, 7.10, 275.56
432.01, 7.23, 275.71
432.01, 7.41, 275.71
431.90, 7.57, 275.78
430.66, 7.57, 276.52
427.51, 7.36, 278.41
427.51, 7.62, 278.42
427.51, 7.87, 278.42
427.51, 8.12, 278.42
427.51, 8.37, 278.43
427.51, 8.63, 278.43
427.51, 8.88, 278.44
427.51, 9.13, 278.44
427.51, 9.38, 278.44
437.94, 7.05, 272.25
437.71, 7.04, 272.39
437.47, 7.04, 272.54
437.20, 7.03, 272.70
436.91, 7.02, 272.88
436.60, 7.02, 273.07
436.25, 7.01, 273.29
435.87, 7.00, 273.53
435.46, 6.99, 273.78
435.06, 7.00, 274.03
434.62, 7.01, 274.30
433.97, 6.98, 274.70
433.24, 6.95, 275.15
432.82, 7.02, 275.41
432.32, 7.09, 275.73
432.12, 7.23, 275.85
432.12, 7.41, 275.85
432.01, 7.57, 275.92
430.78, 7.57, 276.68
427.51, 7.34, 278.71
427.51, 7.60, 278.71
427.51, 7.85, 278.72
427.51, 8.11, 278.72
427.51, 8.36, 278.72
427.51, 8.62, 278.73
¯427.51, 8.87, 278.73
427.51, 9.12, 278.74
427.51, 9.38, 278.74
437.98, 7.05, 272.32
437.76, 7.04, 272.46
437.51, 7.04, 272.61
437.25, 7.03, 272.78
436.97, 7.02, 272.96
436.65, 7.01, 273.16
436.31, 7.00, 273.38
435.93, 6.99, 273.63
435.51, 6.98, 273.89
435.12, 7.00, 274.15
434.68, 7.01, 274.42
434.01, 6.97, 274.85
433.32, 6.95, 275.29
432.88, 7.01, 275.57
432.38, 7.08, 275.90
432.22, 7.23, 275.99
432.23, 7.41, 276.00
432.12, 7.57, 276.07
430.91, 7.57, 276.84
427.51, 7.32, 279.01
427.51, 7.58, 279.01
427.51, 7.84, 279.02
427.51, 8.09, 279.02
427.51, 8.35, 279.02
427.51, 8.61, 279.03
427.51, 8.86, 279.03
427.51, 9.12, 279.04
427.51, 9.37, 279.04
438.02, 7.05, 272.39
437.80, 7.04, 272.53
437.56, 7.03, 272.69
437.30, 7.03, 272.86
437.02, 7.02, 273.05
436.71, 7.01, 273.25
436.37, 7.00, 273.48
435.99, 6.99, 273.73
435.57, 6.98, 274.00
435.17, 6.99, 274.26
434.74, 7.00, 274.55
434.05, 6.96, 275.00
433.40, 6.95, 275.43
432.94, 7.00, 275.73
432.44, 7.07, 276.07
432.33, 7.23, 276.14
432.33, 7.41, 276.14
432.23, 7.57, 276.21
431.03, 7.57, 277.00
429.54, 7.57, 277.98
¯427.51, 7.56, 279.32
427.51, 7.82, 279.32
427.51, 8.08, 279.33
427.51, 8.34, 279.33
427.51, 8.60, 279.34
427.51, 8.85, 279.34
427.51, 9.11, 279.34
427.51, 9.37, 279.35
438.07, 7.05, 272.46
437.85, 7.04, 272.61
437.61, 7.03, 272.77
437.35, 7.03, 272.94
437.07, 7.02, 273.13
436.76, 7.01, 273.34
436.43, 7.00, 273.57
436.05, 6.99, 273.83
435.63, 6.98, 274.11
435.23, 6.98, 274.38
434.79, 6.99, 274.68
434.10, 6.95, 275.15
433.46, 6.94, 275.59
433.00, 6.99, 275.90
432.50, 7.06, 276.24
432.44, 7.23, 276.28
432.44, 7.41, 276.28
432.34, 7.57, 276.35
431.16, 7.57, 277.15
429.68, 7.57, 278.15
427.51, 7.54, 279.63
427.51, 7.80, 279.64
427.51, 8.06, 279.64
427.51, 8.32, 279.64
427.51, 8.59, 279.65
427.51, 8.85, 279.65
427.51, 9.11, 279.65
427.51, 9.37, 279.66
438.11, 7.04, 272.53
437.90, 7.04, 272.68
437.66, 7.03, 272.84
437.41, 7.02, 273.02
437.13, 7.02, 273.22
436.82, 7.01, 273.43
436.49, 7.00, 273.66
436.12, 6.99, 273.92
435.70, 6.97, 274.21
435.29, 6.98, 274.50
434.84, 6.98, 274.82
434.15, 6.93, 275.30
433.52, 6.93, 275.74
433.06, 6.99, 276.06
432.54, 7.04, 276.43
¯432.54, 7.22, 276.43
432.54, 7.41, 276.43
432.46, 7.57, 276.49
431.29, 7.57, 277.31
429.83, 7.57, 278.33
427.51, 7.52, 279.95
427.51, 7.78, 279.95
427.51, 8.05, 279.96
427.51, 8.31, 279.96
427.51, 8.57, 279.97
427.51, 8.84, 279.97
427.51, 9.10, 279.97
427.51, 9.36, 279.98
438.16, 7.04, 272.60
437.95, 7.04, 272.75
437.71, 7.03, 272.92
437.46, 7.02, 273.10
437.18, 7.01, 273.30
436.88, 7.01, 273.52
436.55, 7.00, 273.76
436.18, 6.98, 274.02
435.77, 6.97, 274.32
435.35, 6.97, 274.62
434.89, 6.97, 274.95
434.21, 6.93, 275.44
433.58, 6.92, 275.89
433.13, 6.98, 276.22
432.64, 7.04, 276.57
432.65, 7.22, 276.57
432.65, 7.40, 276.57
432.57, 7.57, 276.63
431.42, 7.57, 277.46
429.98, 7.57, 278.50
427.51, 7.50, 280.28
427.51, 7.76, 280.28
427.51, 8.03, 280.28
427.51, 8.30, 280.29
427.51, 8.56, 280.29
427.51, 8.83, 280.29
427.51, 9.10, 280.30
427.51, 9.36, 280.30
438.21, 7.04, 272.66
438.00, 7.04, 272.82
437.77, 7.03, 272.99
437.51, 7.02, 273.18
437.24, 7.01, 273.38
436.94, 7.00, 273.60
436.61, 6.99, 273.85
436.25, 6.98, 274.12
435.84, 6.97, 274.42
435.41, 6.96, 274.74
¯434.94, 6.96, 275.09
434.30, 6.93, 275.56
433.67, 6.92, 276.03
433.20, 6.96, 276.38
432.75, 7.04, 276.71
432.75, 7.22, 276.71
432.75, 7.40, 276.72
432.69, 7.57, 276.77
431.55, 7.57, 277.61
430.13, 7.57, 278.66
427.51, 7.47, 280.61
427.51, 7.74, 280.61
427.51, 8.01, 280.61
427.51, 8.28, 280.62
427.51, 8.55, 280.62
427.51, 8.82, 280.63
427.51, 9.09, 280.63
427.51, 9.36, 280.63
438.26, 7.04, 272.73
438.05, 7.03, 272.89
437.82, 7.03, 273.07
437.57, 7.02, 273.26
