ŸVERSION 0.7
FIELDS x y z
SIZE 8 8 8
TYPE F F F
COUNT 1 1 1
WIDTH 2271
HEIGHT 1
VIEWPOINT 377.48, 16.06, 285.11 1 380.64, 9.57, 304.42
POINTS 2271
DATA ascii
388.30, 7.32, 302.07
388.75, 7.33, 302.15
389.22, 7.34, 302.25
389.74, 7.35, 302.35
390.32, 7.37, 302.46
390.97, 7.38, 302.59
391.72, 7.40, 302.73
392.56, 7.42, 302.90
393.49, 7.44, 303.08
394.56, 7.47, 303.29
395.81, 7.50, 303.53
397.31, 7.54, 303.83
398.69, 7.63, 304.10
401.31, 7.63, 304.61
403.91, 7.71, 305.12
386.26, 7.31, 301.57
386.55, 7.31, 301.63
386.86, 7.31, 301.68
387.19, 7.31, 301.74
387.54, 7.31, 301.80
387.93, 7.32, 301.87
388.35, 7.32, 301.95
388.80, 7.33, 302.03
389.28, 7.34, 302.12
389.80, 7.36, 302.21
390.39, 7.37, 302.32
391.06, 7.38, 302.44
391.81, 7.40, 302.57
392.65, 7.42, 302.73
393.59, 7.44, 302.90
394.68, 7.47, 303.10
395.91, 7.51, 303.32
397.39, 7.55, 303.59
398.60, 7.67, 303.81
400.87, 7.70, 304.22
403.90, 7.74, 304.77
386.29, 7.31, 301.48
386.59, 7.31, 301.53
386.90, 7.31, 301.58
387.23, 7.31, 301.64
387.59, 7.31, 301.70
387.98, 7.32, 301.76
388.40, 7.32, 301.83
¯388.85, 7.33, 301.91
389.33, 7.34, 301.99
389.86, 7.36, 302.08
390.46, 7.37, 302.17
391.14, 7.39, 302.29
391.90, 7.40, 302.41
392.74, 7.42, 302.55
393.69, 7.45, 302.71
394.79, 7.48, 302.90
396.01, 7.52, 303.10
397.35, 7.58, 303.33
398.52, 7.70, 303.53
400.45, 7.77, 303.85
403.17, 7.83, 304.31
386.33, 7.31, 301.39
386.63, 7.31, 301.44
386.94, 7.31, 301.48
387.27, 7.31, 301.53
387.63, 7.31, 301.59
388.02, 7.32, 301.65
388.45, 7.32, 301.71
388.90, 7.33, 301.78
389.39, 7.34, 301.86
389.92, 7.36, 301.94
390.54, 7.37, 302.03
391.22, 7.39, 302.13
391.99, 7.40, 302.25
392.82, 7.43, 302.38
393.78, 7.45, 302.53
394.88, 7.48, 302.69
396.11, 7.53, 302.88
397.31, 7.61, 303.07
398.44, 7.73, 303.25
400.24, 7.82, 303.53
402.32, 7.94, 303.85
404.11, 8.13, 304.13
386.36, 7.31, 301.30
386.66, 7.31, 301.34
386.97, 7.31, 301.38
387.31, 7.31, 301.43
387.67, 7.32, 301.48
388.06, 7.32, 301.53
388.50, 7.32, 301.59
388.95, 7.33, 301.66
389.44, 7.35, 301.72
389.99, 7.36, 301.80
390.61, 7.37, 301.88
391.30, 7.39, 301.98
392.06, 7.40, 302.08
392.90, 7.43, 302.20
393.87, 7.46, 302.34
¯394.97, 7.49, 302.49
396.21, 7.53, 302.66
397.27, 7.64, 302.81
398.39, 7.76, 302.97
400.06, 7.86, 303.21
401.90, 8.00, 303.47
403.57, 8.20, 303.71
386.39, 7.31, 301.21
386.70, 7.31, 301.24
387.01, 7.31, 301.28
387.34, 7.31, 301.32
387.71, 7.32, 301.37
388.11, 7.32, 301.42
388.54, 7.32, 301.47
389.00, 7.33, 301.53
389.49, 7.35, 301.59
390.05, 7.36, 301.66
390.68, 7.37, 301.74
391.37, 7.39, 301.82
392.13, 7.41, 301.92
392.97, 7.43, 302.02
393.96, 7.46, 302.14
395.07, 7.50, 302.28
396.28, 7.55, 302.43
397.25, 7.66, 302.56
398.34, 7.79, 302.70
399.89, 7.91, 302.90
401.50, 8.06, 303.11
403.05, 8.26, 303.31
403.83, 8.55, 303.43
386.42, 7.31, 301.11
386.73, 7.31, 301.15
387.04, 7.31, 301.18
387.38, 7.31, 301.22
387.75, 7.32, 301.26
388.15, 7.32, 301.30
388.59, 7.32, 301.35
389.05, 7.34, 301.40
389.55, 7.35, 301.46
390.12, 7.36, 301.52
390.75, 7.37, 301.59
391.45, 7.39, 301.66
392.20, 7.41, 301.75
393.05, 7.44, 301.84
394.05, 7.46, 301.95
395.16, 7.50, 302.07
396.27, 7.57, 302.20
397.25, 7.68, 302.31
398.28, 7.82, 302.43
399.73, 7.94, 302.60
401.11, 8.12, 302.76
¯402.56, 8.32, 302.93
403.30, 8.60, 303.03
404.09, 8.90, 303.14
386.45, 7.31, 301.02
386.76, 7.31, 301.05
387.07, 7.31, 301.08
387.41, 7.31, 301.11
387.79, 7.32, 301.15
388.19, 7.32, 301.19
388.63, 7.32, 301.23
389.09, 7.34, 301.27
389.60, 7.35, 301.32
390.18, 7.36, 301.37
390.81, 7.37, 301.44
391.51, 7.39, 301.50
392.26, 7.42, 301.57
393.12, 7.44, 301.66
394.13, 7.47, 301.75
395.25, 7.51, 301.86
396.27, 7.59, 301.96
397.24, 7.71, 302.06
398.21, 7.85, 302.16
399.59, 7.98, 302.30
400.81, 8.16, 302.43
402.11, 8.37, 302.57
402.85, 8.65, 302.66
403.56, 8.95, 302.75
404.45, 9.26, 302.86
386.48, 7.31, 300.93
386.79, 7.31, 300.95
387.10, 7.31, 300.98
387.45, 7.31, 301.00
387.82, 7.32, 301.03
388.23, 7.32, 301.07
388.67, 7.32, 301.10
389.14, 7.34, 301.14
389.66, 7.35, 301.18
390.24, 7.36, 301.23
390.88, 7.37, 301.28
391.57, 7.39, 301.34
392.32, 7.42, 301.40
393.20, 7.45, 301.47
394.21, 7.47, 301.56
395.34, 7.51, 301.65
396.26, 7.61, 301.73
397.23, 7.73, 301.82
398.14, 7.88, 301.90
399.45, 8.02, 302.01
400.53, 8.21, 302.11
401.79, 8.42, 302.23
402.59, 8.69, 302.31
¯403.27, 8.99, 302.39
403.99, 9.30, 302.47
386.51, 7.31, 300.83
386.81, 7.31, 300.85
387.13, 7.31, 300.87
387.48, 7.31, 300.90
387.86, 7.32, 300.92
388.27, 7.32, 300.95
388.71, 7.33, 300.98
389.19, 7.34, 301.01
389.71, 7.35, 301.05
390.29, 7.36, 301.08
390.94, 7.37, 301.13
391.62, 7.40, 301.17
392.38, 7.42, 301.23
393.27, 7.45, 301.29
394.29, 7.48, 301.36
395.35, 7.53, 301.43
396.25, 7.63, 301.50
397.22, 7.75, 301.57
398.06, 7.91, 301.64
399.31, 8.05, 301.73
400.28, 8.25, 301.81
401.48, 8.46, 301.90
402.34, 8.73, 301.98
403.00, 9.02, 302.04
403.75, 9.33, 302.11
386.49, 7.32, 300.74
386.84, 7.31, 300.75
387.16, 7.31, 300.77
387.51, 7.31, 300.79
387.89, 7.32, 300.81
388.30, 7.32, 300.83
388.75, 7.33, 300.85
389.23, 7.34, 300.88
389.76, 7.35, 300.91
390.35, 7.36, 300.94
390.99, 7.37, 300.97
391.68, 7.40, 301.01
392.44, 7.43, 301.05
393.34, 7.45, 301.10
394.37, 7.48, 301.15
395.34, 7.55, 301.21
396.24, 7.65, 301.26
397.16, 7.78, 301.32
397.99, 7.94, 301.37
399.14, 8.09, 301.45
400.06, 8.29, 301.51
401.18, 8.51, 301.58
402.00, 8.77, 301.64
402.74, 9.06, 301.70
¯403.56, 9.36, 301.77
386.43, 7.35, 300.64
386.86, 7.31, 300.65
387.18, 7.31, 300.66
387.53, 7.32, 300.68
387.92, 7.32, 300.69
388.33, 7.32, 300.71
388.79, 7.33, 300.73
389.27, 7.34, 300.74
389.81, 7.35, 300.77
390.41, 7.36, 300.79
391.04, 7.38, 300.81
391.73, 7.40, 300.84
392.50, 7.43, 300.87
393.41, 7.46, 300.91
394.45, 7.49, 300.95
395.33, 7.57, 300.99
396.22, 7.67, 301.03
397.10, 7.80, 301.07
397.91, 7.97, 301.12
398.94, 8.13, 301.17
399.83, 8.33, 301.22
400.89, 8.55, 301.27
401.68, 8.81, 301.32
402.48, 9.09, 301.37
403.38, 9.39, 301.43
386.37, 7.39, 300.54
386.88, 7.31, 300.55
387.20, 7.32, 300.56
387.55, 7.32, 300.57
387.94, 7.32, 300.58
388.36, 7.33, 300.59
388.82, 7.33, 300.60
389.31, 7.34, 300.61
389.85, 7.35, 300.62
390.45, 7.36, 300.64
391.02, 7.39, 300.65
391.72, 7.42, 300.67
392.52, 7.44, 300.69
393.46, 7.46, 300.72
394.51, 7.49, 300.74
395.32, 7.59, 300.77
396.21, 7.69, 300.80
397.03, 7.83, 300.83
397.84, 7.99, 300.86
398.74, 8.17, 300.89
399.62, 8.37, 300.93
400.60, 8.59, 300.97
401.37, 8.85, 301.01
402.19, 9.12, 301.05
403.20, 9.42, 301.09
°373.62, 7.57, 302.16
373.36, 7.56, 302.25
373.07, 7.56, 302.34
373.12, 7.69, 302.33
373.14, 7.79, 302.34
373.15, 7.90, 302.34
373.16, 8.01, 302.34
373.17, 8.11, 302.35
373.40, 8.27, 302.28
373.41, 8.37, 302.29
373.42, 8.46, 302.29
373.42, 8.56, 302.30
373.43, 8.66, 302.30
373.44, 8.75, 302.31
373.19, 8.80, 302.39
372.28, 8.75, 302.70
372.66, 8.91, 302.58
372.77, 9.03, 302.55
372.88, 9.15, 302.52
372.98, 9.26, 302.50
373.07, 9.36, 302.47
373.14, 9.46, 302.46
373.20, 9.56, 302.45
373.31, 9.66, 302.41
373.35, 9.75, 302.41
373.39, 9.84, 302.40
373.44, 9.94, 302.39
373.49, 10.03, 302.38
373.66, 7.56, 302.24
373.39, 7.56, 302.33
373.21, 7.60, 302.40
373.23, 7.71, 302.40
373.25, 7.81, 302.40
373.26, 7.92, 302.40
373.27, 8.02, 302.41
373.27, 8.12, 302.41
373.49, 8.28, 302.35
373.50, 8.38, 302.35
373.51, 8.47, 302.36
373.51, 8.57, 302.36
373.52, 8.66, 302.37
373.53, 8.75, 302.37
373.23, 8.79, 302.48
372.72, 8.81, 302.66
372.81, 8.92, 302.64
372.92, 9.04, 302.61
373.02, 9.15, 302.58
373.09, 9.26, 302.56
373.15, 9.36, 302.55
373.22, 9.46, 302.53
373.28, 9.56, 302.52
±373.34, 9.65, 302.50
373.39, 9.75, 302.49
373.45, 9.84, 302.48
373.51, 9.93, 302.46
373.56, 10.02, 302.45
373.69, 7.56, 302.32
373.43, 7.56, 302.41
373.31, 7.61, 302.46
373.33, 7.72, 302.46
373.35, 7.83, 302.46
373.36, 7.93, 302.47
373.37, 8.04, 302.47
373.37, 8.14, 302.48
373.58, 8.29, 302.41
373.59, 8.39, 302.42
373.59, 8.48, 302.42
373.60, 8.57, 302.43
373.61, 8.67, 302.43
373.61, 8.76, 302.43
373.28, 8.79, 302.56
372.85, 8.82, 302.72
372.96, 8.93, 302.69
373.04, 9.04, 302.67
373.10, 9.15, 302.65
373.17, 9.25, 302.64
373.23, 9.36, 302.62
373.29, 9.45, 302.61
373.35, 9.55, 302.59
373.41, 9.65, 302.58
373.47, 9.74, 302.56
373.52, 9.83, 302.55
373.58, 9.92, 302.53
373.63, 10.01, 302.52
373.73, 7.55, 302.40
373.47, 7.55, 302.50
373.41, 7.63, 302.53
373.43, 7.74, 302.53
373.44, 7.85, 302.53
373.46, 7.95, 302.53
373.47, 8.05, 302.53
373.66, 8.20, 302.47
373.67, 8.30, 302.47
373.67, 8.39, 302.48
373.68, 8.49, 302.48
373.69, 8.58, 302.49
373.69, 8.67, 302.49
373.70, 8.76, 302.50
373.33, 8.79, 302.64
372.99, 8.83, 302.78
373.05, 8.94, 302.76
373.12, 9.04, 302.74
±373.18, 9.15, 302.73
373.25, 9.25, 302.71
373.31, 9.35, 302.69
373.37, 9.45, 302.68
373.43, 9.55, 302.66
373.48, 9.64, 302.65
373.54, 9.74, 302.63
373.59, 9.83, 302.62
373.65, 9.92, 302.60
373.70, 10.00, 302.59
373.76, 7.55, 302.48
373.50, 7.55, 302.58
373.50, 7.65, 302.59
373.52, 7.75, 302.59
373.53, 7.86, 302.59
373.54, 7.96, 302.60
373.55, 8.06, 302.60
373.75, 8.21, 302.53
373.75, 8.31, 302.54
373.76, 8.40, 302.54
373.77, 8.49, 302.55
373.77, 8.59, 302.55
373.78, 8.68, 302.55
373.78, 8.77, 302.56
373.39, 8.78, 302.72
373.07, 8.83, 302.85
373.13, 8.94, 302.83
373.20, 9.04, 302.82
373.26, 9.15, 302.80
373.32, 9.25, 302.78
373.38, 9.35, 302.76
373.44, 9.45, 302.75
373.50, 9.54, 302.73
373.55, 9.64, 302.72
373.61, 9.73, 302.70
373.66, 9.82, 302.68
373.72, 9.91, 302.67
373.77, 10.00, 302.66
373.80, 7.55, 302.56
373.57, 7.55, 302.65
373.59, 7.66, 302.65
373.60, 7.77, 302.65
373.62, 7.87, 302.66
373.62, 7.97, 302.66
373.63, 8.07, 302.67
373.83, 8.22, 302.59
373.84, 8.32, 302.60
373.84, 8.41, 302.60
373.85, 8.50, 302.61
373.85, 8.59, 302.61
373.86, 8.68, 302.62
¯373.87, 8.77, 302.62
373.44, 8.78, 302.80
373.15, 8.83, 302.92
373.21, 8.94, 302.91
373.27, 9.04, 302.89
373.34, 9.15, 302.87
373.40, 9.25, 302.85
373.46, 9.35, 302.83
373.51, 9.44, 302.82
373.57, 9.54, 302.80
373.63, 9.63, 302.78
373.68, 9.73, 302.77
373.73, 9.82, 302.75
373.79, 9.90, 302.74
373.84, 9.99, 302.72
373.84, 7.54, 302.63
373.65, 7.57, 302.72
373.67, 7.67, 302.72
373.68, 7.77, 302.72
373.69, 7.88, 302.72
373.70, 7.98, 302.73
373.71, 8.07, 302.73
373.91, 8.23, 302.65
373.92, 8.32, 302.66
373.92, 8.41, 302.66
373.93, 8.51, 302.67
373.94, 8.60, 302.67
373.94, 8.69, 302.68
373.91, 8.77, 302.69
373.49, 8.78, 302.88
373.23, 8.83, 303.00
373.29, 8.94, 302.98
373.35, 9.04, 302.96
373.41, 9.14, 302.94
373.47, 9.25, 302.92
373.53, 9.34, 302.90
373.59, 9.44, 302.89
373.64, 9.54, 302.87
373.70, 9.63, 302.85
373.75, 9.72, 302.84
373.80, 9.81, 302.82
373.85, 9.90, 302.80
373.90, 9.99, 302.79
373.88, 7.54, 302.71
373.73, 7.58, 302.78
373.74, 7.68, 302.78
373.76, 7.78, 302.79
373.77, 7.88, 302.79
373.77, 7.98, 302.79
373.78, 8.08, 302.80
373.99, 8.24, 302.71
¯374.00, 8.33, 302.72
374.00, 8.42, 302.72
374.01, 8.51, 302.73
374.02, 8.60, 302.73
374.02, 8.69, 302.73
373.96, 8.77, 302.77
373.54, 8.77, 302.96
373.30, 8.83, 303.07
373.37, 8.93, 303.05
373.43, 9.04, 303.03
373.49, 9.14, 303.01
373.54, 9.24, 302.99
373.60, 9.34, 302.97
373.66, 9.44, 302.95
373.71, 9.53, 302.94
373.77, 9.62, 302.92
373.82, 9.72, 302.90
373.87, 9.81, 302.89
373.92, 9.89, 302.87
373.97, 9.98, 302.85
373.92, 7.53, 302.79
373.67, 7.53, 302.90
373.80, 7.68, 302.86
373.83, 7.79, 302.85
373.84, 7.89, 302.85
373.85, 7.99, 302.86
373.85, 8.08, 302.86
374.07, 8.24, 302.77
374.08, 8.34, 302.78
374.08, 8.43, 302.78
374.09, 8.52, 302.78
374.09, 8.61, 302.79
374.10, 8.69, 302.79
374.01, 8.76, 302.84
373.60, 8.77, 303.03
373.12, 8.78, 303.26
373.44, 8.93, 303.12
373.50, 9.04, 303.10
373.56, 9.14, 303.08
373.62, 9.24, 303.06
373.67, 9.34, 303.04
373.73, 9.43, 303.02
373.78, 9.53, 303.00
373.83, 9.62, 302.99
373.89, 9.71, 302.97
373.94, 9.80, 302.95
373.98, 9.89, 302.94
374.01, 9.97, 302.93
373.97, 7.53, 302.86
373.72, 7.53, 302.98
373.46, 7.53, 303.11
¯373.79, 7.76, 302.96
373.87, 7.88, 302.94
373.87, 7.98, 302.95
373.87, 8.07, 302.95
374.15, 8.25, 302.83
374.16, 8.34, 302.83
374.16, 8.43, 302.84
374.17, 8.52, 302.84
374.17, 8.61, 302.84
374.18, 8.70, 302.85
374.06, 8.76, 302.91
373.65, 8.77, 303.11
373.18, 8.78, 303.34
373.52, 8.93, 303.19
373.57, 9.04, 303.17
373.63, 9.14, 303.15
373.69, 9.24, 303.13
373.74, 9.34, 303.11
373.80, 9.43, 303.09
373.85, 9.52, 303.07
373.90, 9.62, 303.05
373.94, 9.71, 303.04
373.98, 9.79, 303.03
374.01, 9.88, 303.02
374.05, 9.97, 303.01
374.01, 7.53, 302.94
373.77, 7.53, 303.06
373.51, 7.52, 303.19
373.88, 7.77, 303.02
373.88, 7.87, 303.03
373.89, 7.96, 303.03
373.89, 8.06, 303.04
374.23, 8.26, 302.88
374.23, 8.35, 302.89
374.24, 8.44, 302.89
374.24, 8.53, 302.90
374.25, 8.61, 302.90
374.25, 8.70, 302.90
374.18, 8.77, 302.95
374.18, 8.86, 302.95
374.18, 8.94, 302.96
374.19, 9.03, 302.96
374.19, 9.12, 302.97
374.19, 9.20, 302.97
374.20, 9.29, 302.98
374.20, 9.37, 302.98
374.20, 9.46, 302.99
374.21, 9.54, 302.99
374.21, 9.62, 303.00
374.21, 9.71, 303.00
374.21, 9.79, 303.01
¯374.22, 9.88, 303.01
374.22, 9.96, 303.02
374.06, 7.52, 303.01
373.82, 7.52, 303.14
373.56, 7.52, 303.27
373.96, 7.78, 303.08
373.96, 7.87, 303.09
373.97, 7.97, 303.09
374.30, 8.17, 302.94
374.30, 8.26, 302.94
374.31, 8.35, 302.94
374.31, 8.44, 302.95
374.32, 8.53, 302.95
374.32, 8.62, 302.96
374.33, 8.70, 302.96
374.16, 8.75, 303.05
373.76, 8.76, 303.26
373.35, 8.78, 303.48
373.66, 8.93, 303.32
373.72, 9.03, 303.30
373.77, 9.13, 303.28
373.83, 9.23, 303.26
373.87, 9.33, 303.24
373.91, 9.42, 303.23
373.95, 9.51, 303.22
373.99, 9.60, 303.21
374.02, 9.69, 303.19
374.06, 9.78, 303.18
374.23, 9.87, 303.10
374.24, 9.96, 303.10
374.10, 7.52, 303.09
373.86, 7.52, 303.21
373.61, 7.52, 303.35
374.04, 7.78, 303.14
374.04, 7.88, 303.15
374.05, 7.98, 303.15
374.37, 8.18, 302.99
374.38, 8.27, 302.99
374.38, 8.36, 303.00
374.39, 8.45, 303.00
374.39, 8.53, 303.01
374.40, 8.62, 303.01
374.40, 8.71, 303.01
374.21, 8.75, 303.12
373.82, 8.76, 303.33
373.43, 8.78, 303.54
373.73, 8.93, 303.39
373.79, 9.03, 303.37
373.84, 9.13, 303.35
373.88, 9.23, 303.34
373.91, 9.32, 303.32
¯373.95, 9.42, 303.31
373.99, 9.51, 303.30
374.02, 9.60, 303.29
374.06, 9.69, 303.27
374.10, 9.78, 303.26
374.13, 9.86, 303.25
374.17, 9.95, 303.24
374.15, 7.52, 303.16
373.91, 7.52, 303.29
374.22, 7.74, 303.14
374.23, 7.84, 303.14
374.23, 7.93, 303.14
374.24, 8.03, 303.15
374.45, 8.19, 303.05
374.45, 8.28, 303.05
374.46, 8.36, 303.05
374.46, 8.45, 303.06
374.47, 8.54, 303.06
374.47, 8.62, 303.06
374.48, 8.71, 303.07
374.27, 8.75, 303.19
373.87, 8.75, 303.41
373.52, 8.78, 303.61
373.03, 8.79, 303.88
373.84, 9.03, 303.45
373.88, 9.12, 303.43
373.92, 9.22, 303.42
373.95, 9.32, 303.40
373.99, 9.41, 303.39
374.03, 9.50, 303.38
374.06, 9.59, 303.36
374.10, 9.68, 303.35
374.13, 9.77, 303.34
374.17, 9.86, 303.33
374.20, 9.94, 303.31
374.20, 7.51, 303.23
374.29, 7.65, 303.19
374.30, 7.75, 303.19
374.31, 7.85, 303.19
374.32, 7.94, 303.19
374.32, 8.04, 303.20
374.52, 8.19, 303.10
374.52, 8.28, 303.10
374.53, 8.37, 303.11
374.53, 8.46, 303.11
374.54, 8.54, 303.11
374.54, 8.63, 303.12
374.55, 8.71, 303.12
374.32, 8.74, 303.26
373.93, 8.75, 303.48
373.61, 8.78, 303.67
¯373.10, 8.79, 303.96
373.88, 9.02, 303.53
373.92, 9.12, 303.51
373.96, 9.21, 303.50
373.99, 9.31, 303.49
374.03, 9.40, 303.47
374.07, 9.50, 303.46
374.10, 9.59, 303.44
374.14, 9.68, 303.43
374.17, 9.76, 303.42
374.21, 9.85, 303.40
374.24, 9.94, 303.39
374.36, 7.56, 303.24
374.37, 7.66, 303.24
374.39, 7.76, 303.24
374.40, 7.86, 303.24
374.40, 7.95, 303.24
374.41, 8.05, 303.25
374.59, 8.20, 303.15
374.60, 8.29, 303.15
374.60, 8.37, 303.16
374.61, 8.46, 303.16
374.61, 8.54, 303.17
374.62, 8.63, 303.17
374.62, 8.71, 303.17
374.37, 8.74, 303.32
373.99, 8.75, 303.55
373.67, 8.78, 303.74
373.17, 8.79, 304.04
373.54, 8.95, 303.84
373.96, 9.11, 303.60
374.00, 9.21, 303.58
374.03, 9.30, 303.57
374.07, 9.40, 303.55
374.11, 9.49, 303.54
374.14, 9.58, 303.52
374.18, 9.67, 303.51
374.21, 9.76, 303.49
374.25, 9.85, 303.48
374.28, 9.93, 303.47
374.44, 7.57, 303.29
374.46, 7.67, 303.29
374.47, 7.77, 303.29
374.48, 7.87, 303.29
374.48, 7.96, 303.29
374.49, 8.05, 303.30
374.66, 8.20, 303.20
374.67, 8.29, 303.21
374.67, 8.38, 303.21
374.68, 8.46, 303.21
374.68, 8.55, 303.22
¯374.69, 8.63, 303.22
374.69, 8.72, 303.22
374.43, 8.74, 303.39
374.26, 8.79, 303.49
374.26, 8.88, 303.50
374.27, 8.97, 303.50
374.27, 9.06, 303.51
374.28, 9.14, 303.51
374.28, 9.23, 303.51
374.29, 9.32, 303.52
374.29, 9.41, 303.52
374.30, 9.49, 303.52
374.30, 9.58, 303.53
374.22, 9.66, 303.59
374.25, 9.75, 303.57
374.29, 9.84, 303.56
374.32, 9.93, 303.55
374.52, 7.58, 303.34
374.53, 7.68, 303.34
374.55, 7.78, 303.34
374.56, 7.88, 303.34
374.56, 7.97, 303.34
374.57, 8.06, 303.35
374.73, 8.21, 303.25
374.74, 8.29, 303.26
374.74, 8.38, 303.26
374.75, 8.47, 303.27
374.75, 8.55, 303.27
374.76, 8.63, 303.27
374.76, 8.72, 303.28
374.48, 8.73, 303.45
374.34, 8.79, 303.55
374.34, 8.88, 303.55
374.35, 8.97, 303.56
374.35, 9.06, 303.56
374.36, 9.14, 303.57
374.36, 9.23, 303.57
374.36, 9.32, 303.57
374.37, 9.40, 303.58
374.37, 9.49, 303.58
374.38, 9.58, 303.58
374.38, 9.66, 303.59
374.39, 9.75, 303.59
374.33, 9.84, 303.64
374.36, 9.92, 303.62
374.59, 7.59, 303.39
374.61, 7.69, 303.39
374.62, 7.79, 303.39
374.63, 7.88, 303.39
374.64, 7.98, 303.39
374.64, 8.07, 303.40
¯374.80, 8.21, 303.31
374.81, 8.30, 303.31
374.81, 8.38, 303.31
374.81, 8.47, 303.32
374.82, 8.55, 303.32
374.82, 8.64, 303.32
374.83, 8.72, 303.33
374.54, 8.73, 303.52
374.41, 8.79, 303.61
374.41, 8.88, 303.61
374.42, 8.97, 303.61
374.76, 9.11, 303.40
374.43, 9.14, 303.62
374.43, 9.23, 303.62
374.44, 9.32, 303.63
374.44, 9.40, 303.63
374.45, 9.49, 303.63
374.45, 9.57, 303.64
374.46, 9.66, 303.64
374.46, 9.75, 303.64
374.47, 9.83, 303.65
374.47, 9.92, 303.65
374.67, 7.60, 303.44
374.68, 7.70, 303.44
374.69, 7.79, 303.44
374.70, 7.89, 303.44
374.71, 7.98, 303.45
374.71, 8.07, 303.45
374.87, 8.21, 303.36
374.87, 8.30, 303.36
374.88, 8.39, 303.36
374.88, 8.47, 303.37
374.89, 8.55, 303.37
374.89, 8.64, 303.37
374.90, 8.72, 303.38
374.59, 8.73, 303.58
374.48, 8.79, 303.66
374.49, 8.88, 303.66
374.49, 8.97, 303.67
374.83, 9.11, 303.45
374.68, 9.17, 303.56
374.51, 9.23, 303.68
374.51, 9.31, 303.68
374.52, 9.40, 303.68
374.52, 9.49, 303.69
374.53, 9.57, 303.69
374.53, 9.66, 303.69
374.54, 9.74, 303.70
374.54, 9.83, 303.70
374.55, 9.91, 303.70
374.74, 7.61, 303.50
¯374.75, 7.70, 303.50
374.76, 7.80, 303.50
374.77, 7.89, 303.50
374.77, 7.98, 303.50
374.78, 8.07, 303.51
374.94, 8.22, 303.41
374.94, 8.30, 303.41
374.95, 8.39, 303.41
374.95, 8.47, 303.42
374.96, 8.56, 303.42
374.96, 8.64, 303.42
374.96, 8.72, 303.43
374.65, 8.73, 303.64
374.56, 8.79, 303.71
374.56, 8.88, 303.72
374.57, 8.97, 303.72
374.90, 9.11, 303.50
374.74, 9.16, 303.62
374.58, 9.23, 303.73
374.59, 9.31, 303.73
374.59, 9.40, 303.74
374.60, 9.48, 303.74
374.60, 9.57, 303.74
374.60, 9.65, 303.75
374.61, 9.74, 303.75
374.61, 9.82, 303.75
374.62, 9.91, 303.76
374.81, 7.61, 303.55
374.82, 7.71, 303.55
374.83, 7.80, 303.55
374.83, 7.89, 303.55
374.84, 7.99, 303.56
374.84, 8.07, 303.56
375.00, 8.22, 303.46
375.01, 8.31, 303.46
375.01, 8.39, 303.46
375.02, 8.47, 303.47
375.02, 8.56, 303.47
375.03, 8.64, 303.47
375.02, 8.72, 303.49
374.71, 8.72, 303.71
374.63, 8.79, 303.77
374.63, 8.88, 303.77
374.64, 8.96, 303.77
374.97, 9.11, 303.55
374.80, 9.16, 303.68
374.65, 9.22, 303.78
374.66, 9.31, 303.79
374.66, 9.39, 303.79
374.67, 9.48, 303.79
374.67, 9.56, 303.80
¯374.68, 9.65, 303.80
374.68, 9.73, 303.80
374.69, 9.82, 303.81
374.69, 9.90, 303.81
374.87, 7.61, 303.60
374.88, 7.71, 303.60
374.89, 7.80, 303.61
374.90, 7.90, 303.61
374.90, 7.99, 303.61
375.07, 8.14, 303.50
375.07, 8.22, 303.50
375.08, 8.31, 303.51
375.08, 8.39, 303.51
375.08, 8.48, 303.51
375.09, 8.56, 303.52
375.09, 8.64, 303.52
375.07, 8.71, 303.54
374.76, 8.72, 303.77
374.70, 8.79, 303.82
374.71, 8.88, 303.82
374.71, 8.96, 303.83
375.00, 9.10, 303.63
374.86, 9.16, 303.73
374.73, 9.22, 303.84
374.73, 9.31, 303.84
374.73, 9.39, 303.84
374.74, 9.48, 303.85
375.08, 9.58, 303.60
375.09, 9.66, 303.60
374.75, 9.73, 303.86
374.76, 9.81, 303.86
374.76, 9.90, 303.86
374.93, 7.62, 303.66
374.94, 7.71, 303.66
374.95, 7.81, 303.66
374.96, 7.90, 303.66
374.96, 7.99, 303.67
375.13, 8.14, 303.55
375.14, 8.23, 303.55
375.14, 8.31, 303.56
375.15, 8.39, 303.56
375.15, 8.48, 303.56
375.15, 8.56, 303.57
375.16, 8.64, 303.57
375.12, 8.71, 303.60
374.82, 8.72, 303.83
374.77, 8.79, 303.87
374.78, 8.88, 303.88
374.78, 8.96, 303.88
374.83, 9.06, 303.85
374.83, 9.14, 303.86
¯374.80, 9.22, 303.89
374.80, 9.30, 303.89
374.80, 9.39, 303.90
374.81, 9.47, 303.90
375.15, 9.58, 303.65
375.15, 9.66, 303.65
374.82, 9.72, 303.91
374.83, 9.81, 303.91
374.83, 9.89, 303.91
374.73, 7.48, 303.91
375.01, 7.71, 303.71
375.01, 7.81, 303.71
375.02, 7.90, 303.72
375.02, 7.99, 303.72
375.20, 8.14, 303.60
375.20, 8.23, 303.60
375.21, 8.31, 303.60
375.21, 8.40, 303.61
375.22, 8.48, 303.61
375.22, 8.56, 303.61
375.22, 8.64, 303.62
375.18, 8.71, 303.66
374.88, 8.71, 303.89
374.84, 8.79, 303.92
374.85, 8.88, 303.93
374.85, 8.96, 303.93
374.86, 9.05, 303.93
374.86, 9.13, 303.94
374.87, 9.22, 303.94
374.87, 9.30, 303.94
374.88, 9.38, 303.95
374.88, 9.47, 303.95
375.21, 9.58, 303.70
375.22, 9.66, 303.70
374.89, 9.72, 303.96
374.90, 9.80, 303.96
374.90, 9.89, 303.97
374.79, 7.48, 303.97
374.58, 7.48, 304.14
375.02, 7.78, 303.81
375.02, 7.87, 303.82
375.02, 7.96, 303.83
375.26, 8.15, 303.64
375.27, 8.23, 303.65
375.27, 8.31, 303.65
375.28, 8.40, 303.65
375.27, 8.48, 303.67
375.24, 8.55, 303.70
375.21, 8.62, 303.73
375.18, 8.69, 303.76
374.94, 8.71, 303.95
¯374.91, 8.79, 303.98
374.92, 8.87, 303.98
374.92, 8.96, 303.98
374.93, 9.04, 303.98
374.93, 9.13, 303.99
374.94, 9.21, 303.99
374.94, 9.30, 303.99
374.94, 9.38, 304.00
374.95, 9.47, 304.00
375.28, 9.57, 303.74
375.28, 9.65, 303.75
374.96, 9.71, 304.01
374.97, 9.80, 304.01
374.97, 9.88, 304.02
374.85, 7.48, 304.04
374.64, 7.47, 304.20
374.43, 7.47, 304.38
374.20, 7.47, 304.57
373.96, 7.47, 304.77
373.69, 7.47, 304.99
375.21, 8.18, 303.79
375.18, 8.26, 303.82
375.15, 8.33, 303.86
375.11, 8.40, 303.89
375.08, 8.48, 303.92
375.05, 8.55, 303.95
375.01, 8.63, 303.99
374.98, 8.70, 304.02
374.98, 8.79, 304.03
374.99, 8.87, 304.03
374.99, 8.96, 304.03
375.00, 9.04, 304.04
375.00, 9.13, 304.04
375.01, 9.21, 304.04
375.01, 9.30, 304.05
375.01, 9.38, 304.05
375.02, 9.46, 304.05
375.33, 9.57, 303.80
375.33, 9.65, 303.81
375.03, 9.71, 304.06
375.03, 9.79, 304.06
375.04, 9.88, 304.07
374.91, 7.48, 304.10
374.71, 7.47, 304.27
374.50, 7.47, 304.45
375.14, 7.87, 303.93
375.14, 7.96, 303.93
375.15, 8.05, 303.94
375.15, 8.14, 303.94
375.16, 8.22, 303.94
375.16, 8.31, 303.95
¯375.06, 8.36, 304.03
374.91, 8.40, 304.17
374.87, 8.48, 304.21
374.84, 8.55, 304.24
374.80, 8.63, 304.28
375.05, 8.79, 304.08
375.06, 8.87, 304.08
375.06, 8.96, 304.08
375.07, 9.04, 304.09
375.07, 9.12, 304.09
375.07, 9.21, 304.09
375.08, 9.29, 304.10
375.08, 9.38, 304.10
375.09, 9.46, 304.10
375.09, 9.54, 304.10
375.13, 9.63, 304.08
375.10, 9.71, 304.11
375.10, 9.79, 304.11
375.30, 9.87, 303.96
374.97, 7.47, 304.16
374.77, 7.47, 304.33
374.56, 7.47, 304.51
375.21, 7.87, 303.98
375.21, 7.96, 303.98
375.22, 8.05, 303.99
375.22, 8.14, 303.99
375.23, 8.22, 303.99
375.23, 8.31, 304.00
375.12, 8.36, 304.09
374.87, 8.36, 304.31
374.70, 8.40, 304.47
374.70, 8.49, 304.47
375.12, 8.70, 304.12
375.12, 8.78, 304.13
375.13, 8.87, 304.13
375.13, 8.95, 304.13
375.13, 9.04, 304.14
375.14, 9.12, 304.14
375.14, 9.21, 304.14
375.15, 9.29, 304.15
375.15, 9.37, 304.15
375.15, 9.45, 304.15
375.16, 9.54, 304.15
375.16, 9.62, 304.16
375.17, 9.70, 304.16
375.17, 9.78, 304.16
375.35, 9.87, 304.02
375.03, 7.47, 304.22
374.83, 7.47, 304.39
374.63, 7.46, 304.58
375.27, 7.87, 304.03
¯375.28, 7.96, 304.03
375.28, 8.05, 304.04
375.29, 8.14, 304.04
375.29, 8.23, 304.04
375.30, 8.31, 304.04
375.18, 8.36, 304.15
374.93, 8.36, 304.37
374.77, 8.40, 304.52
374.78, 8.49, 304.53
374.78, 8.59, 304.53
375.19, 8.78, 304.18
375.19, 8.87, 304.18
375.20, 8.95, 304.18
375.20, 9.04, 304.19
375.21, 9.12, 304.19
375.21, 9.20, 304.19
375.21, 9.29, 304.20
375.22, 9.37, 304.20
375.22, 9.45, 304.20
375.23, 9.53, 304.20
375.23, 9.62, 304.21
375.23, 9.70, 304.21
375.24, 9.78, 304.21
375.40, 9.86, 304.08
375.09, 7.47, 304.28
374.90, 7.46, 304.46
374.69, 7.46, 304.64
375.34, 7.87, 304.08
375.35, 7.96, 304.08
375.35, 8.05, 304.08
375.35, 8.14, 304.09
375.36, 8.23, 304.09
375.36, 8.31, 304.09
375.24, 8.35, 304.21
375.00, 8.36, 304.43
374.85, 8.40, 304.58
374.85, 8.49, 304.58
374.86, 8.58, 304.58
374.86, 8.68, 304.59
375.19, 8.85, 304.29
375.27, 8.95, 304.23
375.27, 9.03, 304.24
375.27, 9.12, 304.24
375.28, 9.20, 304.24
375.28, 9.28, 304.24
375.29, 9.37, 304.25
375.29, 9.45, 304.25
375.29, 9.53, 304.25
375.30, 9.61, 304.26
375.30, 9.69, 304.26
375.31, 9.77, 304.26
¯375.45, 9.86, 304.14
375.15, 7.46, 304.34
374.96, 7.46, 304.52
374.76, 7.46, 304.71
374.55, 7.46, 304.91
375.37, 7.94, 304.17
375.36, 8.03, 304.18
375.36, 8.11, 304.19
375.43, 8.23, 304.13
375.43, 8.31, 304.14
375.31, 8.35, 304.26
375.06, 8.35, 304.49
374.92, 8.40, 304.63
374.92, 8.49, 304.63
374.93, 8.58, 304.64
374.93, 8.68, 304.64
374.75, 8.72, 304.82
374.93, 8.86, 304.66
375.34, 9.03, 304.29
375.34, 9.11, 304.29
375.35, 9.20, 304.29
375.35, 9.28, 304.29
375.35, 9.36, 304.30
375.36, 9.44, 304.30
375.36, 9.53, 304.30
375.36, 9.61, 304.31
375.37, 9.69, 304.31
375.37, 9.77, 304.31
375.50, 9.85, 304.20
375.21, 7.46, 304.40
375.03, 7.46, 304.58
374.83, 7.45, 304.77
374.62, 7.45, 304.97
374.40, 7.45, 305.19
374.15, 7.45, 305.43
373.89, 7.45, 305.69
375.49, 8.23, 304.18
375.50, 8.31, 304.18
375.34, 8.34, 304.34
375.06, 8.32, 304.62
374.99, 8.39, 304.69
375.00, 8.49, 304.69
375.00, 8.58, 304.69
375.01, 8.67, 304.69
374.82, 8.72, 304.88
374.43, 8.72, 305.26
374.62, 8.86, 305.09
375.15, 9.06, 304.59
375.41, 9.19, 304.34
375.42, 9.28, 304.34
375.42, 9.36, 304.35
¯375.42, 9.44, 304.35
375.43, 9.52, 304.35
375.43, 9.60, 304.35
375.44, 9.68, 304.36
375.44, 9.77, 304.36
375.55, 9.85, 304.26
375.27, 7.46, 304.46
375.09, 7.45, 304.64
375.66, 7.85, 304.10
374.70, 7.45, 305.03
374.47, 7.45, 305.26
374.23, 7.44, 305.50
373.97, 7.44, 305.76
375.05, 8.01, 304.72
375.23, 8.18, 304.56
375.22, 8.27, 304.57
375.16, 8.33, 304.64
375.07, 8.39, 304.74
375.07, 8.49, 304.74
375.07, 8.58, 304.75
375.08, 8.67, 304.75
374.89, 8.71, 304.94
374.51, 8.72, 305.33
374.25, 8.87, 305.60
374.86, 9.08, 305.00
375.35, 9.25, 304.52
375.49, 9.36, 304.39
375.49, 9.44, 304.40
375.49, 9.52, 304.40
375.50, 9.60, 304.40
375.50, 9.68, 304.41
375.50, 9.76, 304.41
375.60, 9.84, 304.32
375.34, 7.45, 304.51
375.16, 7.45, 304.70
375.72, 7.85, 304.14
375.73, 7.94, 304.15
375.63, 7.97, 304.25
375.33, 7.92, 304.56
375.12, 7.91, 304.77
375.12, 8.01, 304.78
375.13, 8.11, 304.78
375.13, 8.20, 304.78
374.97, 8.24, 304.96
374.98, 8.33, 304.96
374.98, 8.43, 304.96
374.99, 8.53, 304.96
375.00, 8.62, 304.96
374.97, 8.71, 305.00
374.59, 8.71, 305.39
374.53, 9.11, 305.48
¯375.14, 9.29, 304.86
375.53, 9.43, 304.47
375.56, 9.51, 304.45
375.56, 9.60, 304.45
375.57, 9.68, 304.45
375.57, 9.76, 304.46
375.66, 9.84, 304.37
375.40, 7.45, 304.57
375.23, 7.45, 304.75
375.04, 7.45, 304.95
374.84, 7.44, 305.16
375.43, 7.84, 304.57
375.43, 7.93, 304.58
375.32, 7.97, 304.69
375.22, 8.02, 304.80
374.61, 7.86, 305.44
374.61, 7.97, 305.45
374.62, 8.08, 305.45
374.62, 8.18, 305.45
374.39, 8.21, 305.71
374.38, 8.32, 305.72
371.28, 7.54, 308.95
370.99, 7.63, 309.27
370.62, 7.71, 309.68
375.21, 9.20, 304.91
375.21, 9.29, 304.92
375.22, 9.38, 304.92
375.29, 9.48, 304.85
375.63, 9.59, 304.50
375.63, 9.67, 304.50
375.64, 9.75, 304.50
375.71, 9.84, 304.43
375.46, 7.45, 304.62
375.30, 7.45, 304.81
375.12, 7.44, 305.01
374.92, 7.44, 305.22
374.71, 7.44, 305.45
374.48, 7.43, 305.70
374.23, 7.43, 305.97
374.96, 7.87, 305.20
374.96, 7.97, 305.22
374.70, 7.97, 305.51
372.97, 7.42, 307.35
372.57, 7.42, 307.78
372.19, 7.44, 308.20
371.81, 7.48, 308.63
371.41, 7.53, 309.07
371.14, 7.62, 309.37
370.79, 7.71, 309.76
375.28, 9.20, 304.97
375.29, 9.29, 304.97
¯375.29, 9.38, 304.97
375.29, 9.47, 304.98
375.30, 9.55, 304.98
375.48, 9.65, 304.78
375.70, 9.75, 304.55
375.76, 9.83, 304.49
375.53, 7.44, 304.68
375.37, 7.44, 304.86
375.19, 7.44, 305.06
374.99, 7.44, 305.28
374.79, 7.43, 305.51
374.56, 7.43, 305.77
374.32, 7.43, 306.04
374.05, 7.42, 306.34
373.75, 7.42, 306.67
373.45, 7.42, 307.02
374.36, 7.91, 306.03
374.22, 7.97, 306.19
372.31, 7.44, 308.30
371.93, 7.47, 308.73
371.53, 7.52, 309.18
371.27, 7.61, 309.49
370.96, 7.71, 309.84
375.35, 9.10, 305.02
375.35, 9.19, 305.02
375.36, 9.28, 305.02
375.36, 9.37, 305.03
375.37, 9.46, 305.03
375.37, 9.55, 305.03
375.37, 9.64, 305.03
375.23, 9.72, 305.21
375.82, 9.83, 304.55
375.60, 7.44, 304.73
375.44, 7.44, 304.92
375.26, 7.44, 305.12
375.07, 7.43, 305.34
374.87, 7.43, 305.57
374.64, 7.43, 305.83
374.40, 7.42, 306.11
374.14, 7.42, 306.41
373.86, 7.42, 306.74
373.55, 7.42, 307.09
373.20, 7.42, 307.50
372.81, 7.41, 307.95
372.44, 7.43, 308.39
372.05, 7.46, 308.84
371.65, 7.51, 309.30
371.39, 7.60, 309.61
371.12, 7.71, 309.93
375.42, 9.01, 305.07
375.42, 9.10, 305.07
¯375.43, 9.19, 305.07
375.43, 9.28, 305.08
375.43, 9.37, 305.08
375.44, 9.46, 305.08
375.44, 9.55, 305.08
375.45, 9.63, 305.09
374.92, 9.80, 305.70
375.66, 7.44, 304.78
375.51, 7.44, 304.97
375.34, 7.44, 305.17
375.15, 7.43, 305.39
374.95, 7.43, 305.64
374.73, 7.42, 305.89
374.49, 7.42, 306.17
374.23, 7.42, 306.48
373.96, 7.42, 306.81
373.66, 7.42, 307.17
373.32, 7.41, 307.57
372.93, 7.41, 308.03
372.56, 7.43, 308.48
372.17, 7.45, 308.95
371.78, 7.49, 309.42
371.52, 7.59, 309.73
371.25, 7.70, 310.06
375.49, 9.01, 305.12
375.49, 9.10, 305.12
375.50, 9.19, 305.12
375.50, 9.27, 305.13
375.51, 9.36, 305.13
375.51, 9.45, 305.13
375.51, 9.54, 305.14
375.52, 9.63, 305.14
375.73, 7.44, 304.83
375.58, 7.44, 305.02
375.41, 7.43, 305.22
375.23, 7.43, 305.45
375.03, 7.42, 305.69
374.81, 7.42, 305.96
374.58, 7.42, 306.24
374.33, 7.41, 306.55
374.06, 7.41, 306.88
373.77, 7.42, 307.24
373.43, 7.41, 307.65
373.05, 7.41, 308.11
372.68, 7.42, 308.57
372.29, 7.44, 309.05
371.90, 7.48, 309.53
371.65, 7.58, 309.84
371.38, 7.69, 310.18
375.56, 8.91, 305.17
375.56, 9.00, 305.17
¯375.57, 9.09, 305.17
375.57, 9.18, 305.18
375.57, 9.27, 305.18
375.58, 9.36, 305.18
375.58, 9.45, 305.19
375.58, 9.54, 305.19
375.39, 9.61, 305.43
375.80, 7.43, 304.88
375.65, 7.43, 305.07
375.49, 7.43, 305.28
375.31, 7.43, 305.50
375.11, 7.42, 305.75
374.90, 7.42, 306.02
374.67, 7.41, 306.30
374.42, 7.41, 306.62
374.16, 7.41, 306.95
373.88, 7.41, 307.31
373.55, 7.41, 307.72
373.18, 7.40, 308.18
372.80, 7.41, 308.66
372.41, 7.43, 309.15
372.03, 7.47, 309.64
371.78, 7.57, 309.96
371.52, 7.68, 310.30
375.63, 8.91, 305.22
375.63, 9.00, 305.22
375.64, 9.09, 305.23
375.64, 9.18, 305.23
375.64, 9.27, 305.23
375.65, 9.35, 305.24
375.65, 9.44, 305.24
375.66, 9.53, 305.24
375.87, 7.43, 304.93
375.72, 7.43, 305.12
375.56, 7.43, 305.33
375.39, 7.42, 305.56
375.19, 7.42, 305.81
374.99, 7.41, 306.08
374.76, 7.41, 306.36
374.52, 7.41, 306.68
374.27, 7.41, 307.01
373.99, 7.41, 307.37
373.67, 7.41, 307.79
373.30, 7.40, 308.26
372.92, 7.40, 308.76
372.54, 7.43, 309.25
372.15, 7.46, 309.76
371.91, 7.56, 310.08
375.70, 8.81, 305.27
375.70, 8.90, 305.27
375.70, 8.99, 305.28
¯375.71, 9.08, 305.28
375.71, 9.17, 305.28
375.72, 9.26, 305.28
375.72, 9.35, 305.29
375.72, 9.44, 305.29
375.73, 9.53, 305.29
375.94, 7.43, 304.98
375.80, 7.43, 305.17
375.64, 7.43, 305.38
375.47, 7.42, 305.61
375.28, 7.42, 305.86
375.07, 7.41, 306.13
374.85, 7.41, 306.43
374.62, 7.40, 306.74
374.37, 7.41, 307.07
374.10, 7.41, 307.44
373.78, 7.40, 307.86
373.43, 7.40, 308.33
373.04, 7.40, 308.85
372.66, 7.42, 309.35
372.28, 7.45, 309.87
375.77, 8.72, 305.32
375.77, 8.81, 305.32
375.77, 8.90, 305.33
375.78, 8.99, 305.33
375.78, 9.08, 305.33
375.78, 9.17, 305.33
375.79, 9.26, 305.34
375.79, 9.35, 305.34
375.79, 9.43, 305.34
375.61, 9.50, 305.59
376.01, 7.43, 305.02
375.87, 7.43, 305.22
375.72, 7.43, 305.43
375.55, 7.42, 305.66
375.36, 7.41, 305.91
375.16, 7.41, 306.19
374.95, 7.40, 306.49
374.72, 7.40, 306.80
374.47, 7.40, 307.14
374.21, 7.40, 307.50
373.90, 7.40, 307.92
373.55, 7.40, 308.40
373.17, 7.39, 308.92
372.79, 7.41, 309.45
372.41, 7.44, 309.98
375.84, 8.71, 305.37
375.84, 8.80, 305.38
375.84, 8.89, 305.38
375.85, 8.98, 305.38
375.85, 9.07, 305.38
¯375.85, 9.16, 305.39
375.86, 9.25, 305.39
375.86, 9.34, 305.39
375.87, 9.43, 305.39
376.28, 7.56, 304.80
375.95, 7.42, 305.26
375.80, 7.42, 305.47
375.63, 7.42, 305.71
375.45, 7.41, 305.96
375.25, 7.41, 306.24
375.04, 7.40, 306.54
374.82, 7.40, 306.86
374.58, 7.40, 307.20
374.32, 7.40, 307.57
374.02, 7.40, 307.99
373.68, 7.39, 308.47
373.31, 7.39, 308.99
372.92, 7.40, 309.55
372.53, 7.43, 310.10
372.30, 7.52, 310.43
375.91, 8.80, 305.43
375.92, 8.89, 305.43
375.92, 8.98, 305.43
375.92, 9.07, 305.44
375.93, 9.16, 305.44
375.93, 9.25, 305.44
375.93, 9.34, 305.44
375.94, 9.43, 305.45
376.35, 7.56, 304.84
376.02, 7.42, 305.31
375.87, 7.42, 305.52
375.71, 7.42, 305.76
375.54, 7.41, 306.02
375.34, 7.40, 306.29
375.13, 7.40, 306.60
374.92, 7.40, 306.92
374.68, 7.40, 307.26
374.43, 7.40, 307.63
374.14, 7.40, 308.05
373.81, 7.39, 308.53
373.45, 7.39, 309.06
373.04, 7.39, 309.65
372.66, 7.41, 310.21
372.44, 7.51, 310.55
372.13, 7.59, 311.00
375.99, 8.88, 305.48
375.99, 8.98, 305.49
375.99, 9.07, 305.49
376.00, 9.15, 305.49
376.00, 9.24, 305.49
376.00, 9.33, 305.50
¯375.83, 9.40, 305.75
376.42, 7.56, 304.88
376.10, 7.42, 305.35
375.95, 7.42, 305.57
375.79, 7.41, 305.81
375.62, 7.41, 306.07
375.43, 7.40, 306.35
375.23, 7.40, 306.65
375.02, 7.39, 306.97
374.79, 7.40, 307.31
374.54, 7.40, 307.69
374.26, 7.40, 308.11
373.94, 7.39, 308.60
373.59, 7.39, 309.12
373.19, 7.39, 309.72
372.79, 7.40, 310.32
372.55, 7.49, 310.69
372.25, 7.57, 311.15
376.07, 9.06, 305.54
376.07, 9.15, 305.54
376.07, 9.24, 305.55
376.08, 9.33, 305.55
376.49, 7.56, 304.92
376.17, 7.42, 305.40
376.03, 7.42, 305.61
375.88, 7.41, 305.85
375.71, 7.41, 306.11
375.53, 7.40, 306.40
375.33, 7.39, 306.70
375.12, 7.39, 307.03
374.90, 7.39, 307.37
374.65, 7.39, 307.75
374.38, 7.39, 308.17
374.07, 7.39, 308.66
373.72, 7.39, 309.19
373.34, 7.38, 309.78
372.92, 7.39, 310.43
372.67, 7.47, 310.84
372.37, 7.55, 311.31
376.14, 9.23, 305.60
376.15, 9.32, 305.60
376.56, 7.56, 304.96
376.25, 7.42, 305.44
376.11, 7.41, 305.66
375.96, 7.41, 305.90
375.80, 7.40, 306.16
375.62, 7.40, 306.45
375.42, 7.39, 306.75
375.22, 7.39, 307.08
375.00, 7.39, 307.43
374.77, 7.39, 307.81
¯374.50, 7.39, 308.23
374.20, 7.39, 308.72
373.86, 7.38, 309.25
373.49, 7.38, 309.85
373.06, 7.38, 310.53
372.78, 7.45, 310.98
372.49, 7.53, 311.46
376.63, 7.56, 305.00
376.32, 7.41, 305.48
376.19, 7.41, 305.70
376.04, 7.41, 305.94
375.88, 7.40, 306.21
375.71, 7.40, 306.49
375.52, 7.39, 306.80
375.32, 7.39, 307.13
375.11, 7.39, 307.48
374.88, 7.39, 307.86
374.62, 7.39, 308.29
374.33, 7.38, 308.78
374.00, 7.38, 309.31
373.64, 7.38, 309.91
373.22, 7.38, 310.60
372.90, 7.43, 311.13
372.61, 7.51, 311.61
376.70, 7.55, 305.04
376.40, 7.41, 305.52
376.27, 7.41, 305.75
376.13, 7.41, 305.99
375.97, 7.40, 306.25
375.80, 7.39, 306.54
375.62, 7.39, 306.85
375.43, 7.38, 307.18
375.22, 7.39, 307.53
374.99, 7.39, 307.92
374.74, 7.39, 308.35
374.46, 7.38, 308.83
374.14, 7.38, 309.37
373.79, 7.38, 309.98
373.38, 7.37, 310.67
373.02, 7.41, 311.27
372.74, 7.49, 311.77
376.77, 7.55, 305.07
376.48, 7.41, 305.56
376.35, 7.41, 305.79
376.21, 7.40, 306.03
376.06, 7.40, 306.30
375.90, 7.39, 306.59
375.72, 7.39, 306.90
375.53, 7.38, 307.23
375.33, 7.38, 307.59
375.11, 7.38, 307.97
¯374.86, 7.38, 308.40
374.59, 7.38, 308.89
374.28, 7.38, 309.43
373.93, 7.38, 310.03
373.54, 7.37, 310.73
373.18, 7.40, 311.37
372.86, 7.47, 311.93
376.84, 7.55, 305.11
376.56, 7.41, 305.60
376.43, 7.40, 305.83
376.30, 7.40, 306.07
376.15, 7.40, 306.34
375.99, 7.39, 306.63
375.82, 7.38, 306.94
375.63, 7.38, 307.28
375.44, 7.38, 307.64
375.22, 7.38, 308.03
374.99, 7.38, 308.46
374.72, 7.38, 308.94
374.42, 7.38, 309.48
374.08, 7.37, 310.09
373.70, 7.37, 310.79
373.33, 7.39, 311.46
372.99, 7.45, 312.08
376.91, 7.55, 305.14
376.80, 7.54, 305.34
376.52, 7.40, 305.87
376.39, 7.40, 306.11
376.24, 7.39, 306.38
376.08, 7.39, 306.67
375.92, 7.38, 306.99
375.74, 7.38, 307.33
375.55, 7.38, 307.69
375.34, 7.38, 308.08
375.11, 7.38, 308.51
374.85, 7.38, 308.99
374.56, 7.37, 309.54
374.23, 7.37, 310.15
373.86, 7.37, 310.86
373.49, 7.39, 311.54
373.14, 7.44, 312.20
376.98, 7.55, 305.17
376.88, 7.54, 305.38
376.60, 7.40, 305.91
376.47, 7.40, 306.15
376.33, 7.39, 306.42
376.18, 7.39, 306.72
376.02, 7.38, 307.03
375.84, 7.38, 307.37
375.66, 7.38, 307.73
375.45, 7.38, 308.13
¯375.23, 7.38, 308.56
374.98, 7.38, 309.04
374.70, 7.37, 309.59
374.38, 7.37, 310.20
374.02, 7.36, 310.91
373.65, 7.38, 311.62
373.31, 7.43, 312.29
377.05, 7.55, 305.21
376.95, 7.54, 305.41
376.68, 7.40, 305.94
376.56, 7.40, 306.19
376.42, 7.39, 306.46
376.28, 7.38, 306.75
376.12, 7.38, 307.07
375.95, 7.37, 307.41
375.77, 7.37, 307.78
375.57, 7.37, 308.18
375.35, 7.37, 308.61
375.11, 7.37, 309.10
374.84, 7.37, 309.64
374.53, 7.37, 310.26
374.18, 7.36, 310.97
373.81, 7.37, 311.70
373.48, 7.42, 312.37
377.13, 7.54, 305.24
377.03, 7.54, 305.45
376.76, 7.40, 305.98
376.64, 7.39, 306.23
376.51, 7.39, 306.50
376.37, 7.38, 306.79
376.22, 7.38, 307.11
376.05, 7.37, 307.46
375.88, 7.37, 307.83
375.68, 7.37, 308.22
375.47, 7.37, 308.66
375.24, 7.37, 309.15
374.98, 7.37, 309.69
374.68, 7.37, 310.31
374.34, 7.36, 311.03
373.98, 7.36, 311.78
373.65, 7.41, 312.46
377.20, 7.54, 305.27
377.10, 7.54, 305.48
376.85, 7.39, 306.02
376.73, 7.39, 306.26
376.60, 7.39, 306.54
376.47, 7.38, 306.83
376.32, 7.38, 307.15
376.16, 7.37, 307.50
375.99, 7.37, 307.87
375.80, 7.37, 308.27
¯375.60, 7.37, 308.71
375.37, 7.37, 309.20
375.12, 7.37, 309.74
374.83, 7.36, 310.36
374.50, 7.36, 311.08
374.14, 7.36, 311.86
377.27, 7.54, 305.30
377.18, 7.54, 305.51
376.93, 7.39, 306.05
376.82, 7.39, 306.30
376.70, 7.38, 306.57
376.56, 7.38, 306.87
376.42, 7.37, 307.19
376.27, 7.37, 307.54
376.10, 7.37, 307.91
375.92, 7.37, 308.31
375.72, 7.36, 308.76
375.50, 7.36, 309.25
375.26, 7.36, 309.79
374.99, 7.36, 310.41
374.66, 7.35, 311.14
374.30, 7.35, 311.94
377.34, 7.54, 305.33
377.25, 7.53, 305.54
377.01, 7.39, 306.08
376.91, 7.39, 306.33
376.79, 7.38, 306.61
376.66, 7.38, 306.90
376.52, 7.37, 307.22
376.37, 7.37, 307.57
376.21, 7.36, 307.95
376.04, 7.36, 308.36
375.84, 7.36, 308.80
375.63, 7.36, 309.29
375.40, 7.36, 309.84
375.13, 7.36, 310.46
374.82, 7.35, 311.19
374.46, 7.34, 312.02
377.42, 7.54, 305.36
377.33, 7.53, 305.57
377.10, 7.39, 306.12
376.99, 7.38, 306.37
376.88, 7.38, 306.64
376.76, 7.38, 306.94
376.63, 7.37, 307.26
376.48, 7.37, 307.61
376.32, 7.36, 307.99
376.15, 7.36, 308.40
375.97, 7.36, 308.85
375.76, 7.36, 309.34
375.54, 7.36, 309.89
¯375.28, 7.36, 310.51
374.98, 7.35, 311.23
374.63, 7.34, 312.08
377.49, 7.53, 305.38
377.41, 7.53, 305.59
377.32, 7.53, 305.82
377.08, 7.38, 306.40
376.97, 7.38, 306.67
376.86, 7.37, 306.97
376.73, 7.37, 307.29
376.59, 7.36, 307.64
376.43, 7.36, 308.03
376.27, 7.36, 308.44
376.09, 7.36, 308.89
375.90, 7.36, 309.38
375.68, 7.35, 309.94
375.43, 7.35, 310.56
375.15, 7.35, 311.27
374.81, 7.33, 312.13
377.57, 7.53, 305.41
377.48, 7.53, 305.62
377.40, 7.52, 305.85
377.17, 7.38, 306.43
377.07, 7.38, 306.70
376.95, 7.37, 307.00
376.83, 7.37, 307.32
376.70, 7.36, 307.68
376.55, 7.36, 308.07
376.39, 7.35, 308.48
376.22, 7.35, 308.93
376.03, 7.35, 309.43
375.82, 7.35, 309.98
375.58, 7.35, 310.60
375.31, 7.35, 311.31
374.98, 7.33, 312.18
377.64, 7.53, 305.43
377.56, 7.53, 305.65
377.48, 7.52, 305.88
377.26, 7.38, 306.46
377.16, 7.37, 306.73
377.05, 7.37, 307.03
376.93, 7.37, 307.36
376.80, 7.36, 307.71
376.66, 7.35, 308.10
376.51, 7.35, 308.52
376.34, 7.35, 308.97
376.16, 7.35, 309.47
375.96, 7.35, 310.03
375.73, 7.35, 310.65
375.48, 7.35, 311.35
375.16, 7.33, 312.22
¯377.72, 7.53, 305.46
377.64, 7.53, 305.67
377.56, 7.52, 305.90
377.35, 7.37, 306.49
377.25, 7.37, 306.76
377.15, 7.37, 307.06
377.04, 7.36, 307.39
376.91, 7.36, 307.74
376.78, 7.35, 308.13
376.63, 7.35, 308.55
376.47, 7.35, 309.01
376.29, 7.35, 309.51
376.10, 7.35, 310.07
375.88, 7.34, 310.69
375.64, 7.35, 311.38
375.34, 7.33, 312.25
377.79, 7.53, 305.48
377.72, 7.52, 305.70
377.64, 7.52, 305.93
377.44, 7.37, 306.52
377.35, 7.37, 306.79
377.25, 7.37, 307.09
377.14, 7.36, 307.42
377.02, 7.36, 307.77
376.89, 7.35, 308.16
376.75, 7.35, 308.59
376.60, 7.35, 309.04
376.43, 7.34, 309.55
376.24, 7.34, 310.11
376.03, 7.34, 310.73
375.80, 7.34, 311.42
375.51, 7.33, 312.28
377.86, 7.53, 305.51
377.80, 7.52, 305.72
377.72, 7.52, 305.95
377.53, 7.37, 306.55
377.44, 7.37, 306.82
377.35, 7.37, 307.11
377.24, 7.36, 307.44
377.13, 7.36, 307.80
377.00, 7.35, 308.19
376.87, 7.34, 308.62
376.72, 7.34, 309.08
376.56, 7.34, 309.58
376.38, 7.34, 310.15
376.18, 7.34, 310.77
375.97, 7.34, 311.45
375.69, 7.33, 312.32
377.94, 7.52, 305.53
377.87, 7.52, 305.74
377.80, 7.52, 305.97
¯377.62, 7.37, 306.57
377.54, 7.37, 306.85
377.45, 7.37, 307.14
377.35, 7.36, 307.47
377.24, 7.35, 307.83
377.12, 7.35, 308.22
376.99, 7.34, 308.65
376.85, 7.34, 309.11
376.69, 7.34, 309.62
376.52, 7.34, 310.18
376.34, 7.34, 310.81
376.13, 7.34, 311.49
375.87, 7.33, 312.35
375.65, 7.36, 313.08
378.02, 7.52, 305.55
377.95, 7.52, 305.76
377.89, 7.51, 306.00
377.82, 7.51, 306.24
377.63, 7.36, 306.87
377.55, 7.36, 307.17
377.45, 7.36, 307.49
377.35, 7.35, 307.85
377.23, 7.35, 308.25
377.11, 7.34, 308.68
376.98, 7.34, 309.14
376.83, 7.34, 309.65
376.67, 7.33, 310.22
376.49, 7.33, 310.84
376.29, 7.34, 311.53
376.05, 7.33, 312.37
375.84, 7.36, 313.10
378.09, 7.52, 305.57
378.03, 7.52, 305.78
377.97, 7.51, 306.02
377.90, 7.51, 306.26
377.73, 7.36, 306.89
377.64, 7.36, 307.19
377.56, 7.36, 307.52
377.46, 7.35, 307.88
377.35, 7.35, 308.28
377.23, 7.34, 308.70
377.11, 7.34, 309.17
376.96, 7.33, 309.69
376.81, 7.33, 310.25
376.64, 7.33, 310.88
376.45, 7.33, 311.57
376.22, 7.33, 312.40
376.03, 7.37, 313.12
378.17, 7.52, 305.59
378.11, 7.51, 305.80
378.05, 7.51, 306.04
¯377.99, 7.51, 306.29
377.82, 7.36, 306.92
377.74, 7.36, 307.21
377.66, 7.36, 307.54
377.57, 7.35, 307.90
377.46, 7.34, 308.30
377.35, 7.34, 308.73
377.23, 7.34, 309.19
377.10, 7.33, 309.71
376.95, 7.33, 310.29
376.79, 7.33, 310.91
376.61, 7.33, 311.60
376.40, 7.33, 312.42
376.22, 7.37, 313.14
378.24, 7.52, 305.60
378.19, 7.51, 305.82
378.13, 7.51, 306.05
378.07, 7.50, 306.30
377.92, 7.36, 306.94
377.84, 7.36, 307.24
377.76, 7.35, 307.56
377.68, 7.35, 307.93
377.58, 7.34, 308.32
377.48, 7.34, 308.75
377.36, 7.34, 309.21
377.24, 7.33, 309.73
377.10, 7.33, 310.31
376.94, 7.32, 310.94
376.77, 7.33, 311.63
376.58, 7.33, 312.44
376.41, 7.37, 313.15
378.32, 7.52, 305.62
378.27, 7.51, 305.84
378.22, 7.51, 306.07
378.16, 7.50, 306.32
378.01, 7.36, 306.96
377.94, 7.36, 307.26
377.87, 7.35, 307.58
377.79, 7.35, 307.95
377.69, 7.34, 308.34
377.60, 7.34, 308.77
377.49, 7.34, 309.23
377.37, 7.33, 309.75
377.24, 7.33, 310.33
377.10, 7.32, 310.97
376.94, 7.32, 311.67
376.75, 7.33, 312.46
376.60, 7.37, 313.16
378.40, 7.51, 305.64
378.35, 7.51, 305.85
378.30, 7.51, 306.09
¯378.25, 7.50, 306.34
378.11, 7.35, 306.98
378.04, 7.35, 307.28
377.97, 7.35, 307.60
377.90, 7.35, 307.97
377.81, 7.34, 308.36
377.72, 7.34, 308.79
377.62, 7.34, 309.24
377.51, 7.33, 309.76
377.39, 7.33, 310.34
377.25, 7.32, 310.99
377.10, 7.32, 311.69
376.93, 7.33, 312.48
376.78, 7.37, 313.17
376.62, 7.42, 313.94
378.47, 7.51, 305.65
378.43, 7.51, 305.87
378.38, 7.50, 306.10
378.33, 7.50, 306.36
378.28, 7.49, 306.63
378.14, 7.35, 307.30
378.08, 7.35, 307.62
378.01, 7.34, 307.98
377.93, 7.34, 308.38
377.84, 7.33, 308.81
377.75, 7.34, 309.26
377.65, 7.33, 309.78
377.53, 7.33, 310.36
377.40, 7.32, 311.01
377.26, 7.32, 311.71
377.11, 7.32, 312.50
376.97, 7.37, 313.19
376.82, 7.42, 313.95
378.55, 7.51, 305.66
378.51, 7.51, 305.88
378.47, 7.50, 306.12
378.42, 7.50, 306.37
378.37, 7.49, 306.64
378.24, 7.35, 307.32
378.18, 7.35, 307.64
378.12, 7.34, 308.00
378.04, 7.34, 308.40
377.96, 7.33, 308.83
377.88, 7.33, 309.28
377.79, 7.33, 309.79
377.68, 7.33, 310.37
377.56, 7.32, 311.03
377.43, 7.32, 311.73
377.28, 7.32, 312.52
377.15, 7.36, 313.24
377.02, 7.42, 313.97
¯378.63, 7.51, 305.68
378.59, 7.51, 305.90
378.55, 7.50, 306.13
378.51, 7.50, 306.39
378.46, 7.49, 306.66
378.34, 7.35, 307.33
378.29, 7.35, 307.66
378.23, 7.34, 308.02
378.16, 7.33, 308.42
378.09, 7.33, 308.84
378.01, 7.33, 309.30
377.92, 7.33, 309.81
377.82, 7.33, 310.39
377.71, 7.32, 311.04
377.59, 7.32, 311.75
377.46, 7.32, 312.54
377.33, 7.35, 313.30
377.21, 7.41, 314.03
378.71, 7.51, 305.69
378.67, 7.50, 305.91
378.64, 7.50, 306.14
378.60, 7.50, 306.40
378.55, 7.49, 306.67
378.44, 7.35, 307.35
378.39, 7.34, 307.68
378.34, 7.34, 308.03
378.28, 7.33, 308.43
378.21, 7.33, 308.86
378.14, 7.33, 309.31
378.06, 7.33, 309.82
377.97, 7.33, 310.40
377.87, 7.32, 311.05
377.75, 7.32, 311.77
377.63, 7.32, 312.56
377.51, 7.34, 313.35
377.40, 7.40, 314.09
378.78, 7.51, 305.70
378.75, 7.50, 305.92
378.72, 7.50, 306.16
378.68, 7.49, 306.41
378.64, 7.49, 306.69
378.55, 7.34, 307.36
378.50, 7.34, 307.69
378.45, 7.34, 308.05
378.39, 7.33, 308.45
378.33, 7.33, 308.87
378.27, 7.33, 309.32
378.20, 7.33, 309.83
378.11, 7.33, 310.41
378.02, 7.32, 311.06
377.92, 7.32, 311.78
¯377.81, 7.32, 312.57
377.69, 7.34, 313.40
377.59, 7.39, 314.14
378.86, 7.51, 305.71
378.83, 7.50, 305.93
378.80, 7.50, 306.17
378.77, 7.49, 306.42
378.74, 7.49, 306.70
378.70, 7.48, 306.99
378.60, 7.34, 307.71
378.56, 7.34, 308.06
378.51, 7.33, 308.46
378.45, 7.33, 308.88
378.40, 7.33, 309.34
378.33, 7.33, 309.84
378.26, 7.33, 310.42
378.18, 7.32, 311.07
378.08, 7.31, 311.80
377.98, 7.32, 312.59
377.87, 7.33, 313.45
377.78, 7.38, 314.19
378.94, 7.51, 305.72
378.91, 7.50, 305.94
378.89, 7.50, 306.18
378.86, 7.49, 306.44
378.83, 7.48, 306.71
378.79, 7.48, 307.00
378.71, 7.34, 307.72
378.67, 7.33, 308.08
378.62, 7.33, 308.47
378.58, 7.33, 308.89
378.52, 7.33, 309.35
378.47, 7.33, 309.85
378.40, 7.33, 310.42
378.33, 7.32, 311.07
378.25, 7.31, 311.81
378.16, 7.31, 312.60
378.06, 7.32, 313.47
377.97, 7.37, 314.25
379.02, 7.50, 305.73
379.00, 7.50, 305.95
378.97, 7.49, 306.19
378.95, 7.49, 306.45
378.92, 7.48, 306.72
378.89, 7.48, 307.01
378.82, 7.33, 307.73
378.78, 7.33, 308.09
378.74, 7.33, 308.48
378.70, 7.33, 308.90
378.65, 7.33, 309.36
378.60, 7.33, 309.86
¯378.55, 7.33, 310.43
378.48, 7.32, 311.08
378.41, 7.31, 311.81
378.33, 7.31, 312.61
378.25, 7.32, 313.48
378.16, 7.36, 314.30
379.10, 7.50, 305.73
379.08, 7.50, 305.96
379.06, 7.49, 306.20
379.03, 7.49, 306.45
379.01, 7.48, 306.72
378.99, 7.48, 307.01
378.92, 7.33, 307.74
378.89, 7.33, 308.10
378.86, 7.33, 308.49
378.82, 7.33, 308.91
378.78, 7.33, 309.37
378.74, 7.33, 309.87
378.69, 7.33, 310.43
378.64, 7.32, 311.08
378.57, 7.31, 311.81
378.51, 7.31, 312.62
378.43, 7.32, 313.49
378.36, 7.35, 314.35
379.17, 7.50, 305.74
379.16, 7.49, 305.97
379.14, 7.49, 306.21
379.12, 7.48, 306.46
379.10, 7.48, 306.73
379.08, 7.48, 307.02
379.03, 7.33, 307.75
379.00, 7.33, 308.10
378.97, 7.32, 308.50
378.94, 7.32, 308.92
378.91, 7.32, 309.37
378.88, 7.32, 309.88
378.84, 7.33, 310.43
378.79, 7.32, 311.08
378.74, 7.31, 311.81
378.68, 7.31, 312.63
378.62, 7.32, 313.49
378.55, 7.34, 314.40
379.25, 7.50, 305.75
379.24, 7.49, 305.98
379.22, 7.49, 306.21
379.21, 7.48, 306.46
379.19, 7.48, 306.73
379.18, 7.48, 307.02
379.16, 7.47, 307.34
379.11, 7.33, 308.11
379.09, 7.32, 308.50
¯379.07, 7.32, 308.92
379.04, 7.32, 309.38
379.01, 7.32, 309.88
378.98, 7.32, 310.44
378.94, 7.32, 311.08
378.90, 7.31, 311.81
378.85, 7.31, 312.63
378.81, 7.32, 313.50
378.75, 7.33, 314.45
379.33, 7.49, 305.76
379.32, 7.49, 305.98
379.31, 7.49, 306.22
379.30, 7.48, 306.47
379.29, 7.48, 306.74
379.27, 7.48, 307.03
379.26, 7.47, 307.34
379.23, 7.33, 308.11
379.21, 7.32, 308.51
379.19, 7.32, 308.92
379.17, 7.32, 309.38
379.15, 7.32, 309.89
379.12, 7.32, 310.44
379.10, 7.32, 311.08
379.07, 7.31, 311.81
379.03, 7.31, 312.64
378.99, 7.31, 313.50
379.41, 7.49, 305.77
379.40, 7.49, 305.99
379.39, 7.48, 306.22
379.39, 7.48, 306.47
379.38, 7.48, 306.74
379.37, 7.47, 307.03
379.36, 7.47, 307.35
379.34, 7.33, 308.12
379.33, 7.32, 308.51
