ŸVERSION 0.7
FIELDS x y z
SIZE 8 8 8
TYPE F F F
COUNT 1 1 1
WIDTH 2271
HEIGHT 1
VIEWPOINT 424.54, 14.38, 322.80 1 438.61, 9.36, 308.60
POINTS 2271
DATA ascii
437.36, 7.09, 301.17
437.43, 7.08, 300.59
437.52, 7.06, 299.95
437.62, 7.05, 299.22
437.73, 7.03, 298.38
437.86, 7.01, 297.40
438.02, 6.99, 296.24
438.20, 6.97, 294.86
438.41, 6.95, 293.30
438.66, 6.95, 291.47
438.95, 6.95, 289.24
439.32, 6.96, 286.46
436.84, 7.18, 304.40
¯436.87, 7.17, 304.16
436.91, 7.17, 303.89
436.94, 7.16, 303.61
436.98, 7.15, 303.29
437.02, 7.14, 302.95
437.06, 7.13, 302.58
437.11, 7.12, 302.16
437.17, 7.10, 301.70
437.23, 7.09, 301.18
437.30, 7.08, 300.60
437.38, 7.06, 299.96
437.47, 7.05, 299.24
437.57, 7.03, 298.40
437.68, 7.01, 297.43
437.82, 6.99, 296.28
437.98, 6.97, 294.91
438.17, 6.95, 293.35
438.39, 6.95, 291.54
438.65, 6.95, 289.33
438.98, 6.95, 286.57
436.77, 7.18, 304.40
436.79, 7.17, 304.16
436.82, 7.17, 303.90
436.85, 7.16, 303.61
436.88, 7.15, 303.30
436.92, 7.14, 302.96
436.96, 7.13, 302.58
437.00, 7.12, 302.17
437.05, 7.10, 301.71
437.11, 7.09, 301.19
437.17, 7.08, 300.62
437.24, 7.06, 299.98
437.31, 7.05, 299.26
437.40, 7.03, 298.42
437.50, 7.02, 297.46
437.62, 6.99, 296.32
437.77, 6.97, 294.96
437.93, 6.95, 293.41
438.12, 6.95, 291.61
438.35, 6.95, 289.42
438.63, 6.95, 286.69
436.69, 7.18, 304.40
436.71, 7.17, 304.16
436.74, 7.17, 303.90
436.76, 7.16, 303.61
436.79, 7.15, 303.30
436.82, 7.14, 302.96
436.86, 7.13, 302.59
436.89, 7.12, 302.18
436.94, 7.11, 301.72
436.98, 7.09, 301.21
¯437.04, 7.08, 300.63
437.09, 7.06, 300.00
437.16, 7.05, 299.28
437.24, 7.03, 298.45
437.32, 7.02, 297.49
437.43, 6.99, 296.36
437.55, 6.97, 295.01
437.69, 6.95, 293.47
437.85, 6.95, 291.68
438.05, 6.95, 289.52
438.30, 6.95, 286.80
436.61, 7.18, 304.41
436.63, 7.17, 304.17
436.65, 7.17, 303.90
436.67, 7.16, 303.62
436.70, 7.15, 303.31
436.72, 7.14, 302.97
436.75, 7.13, 302.60
436.78, 7.12, 302.19
436.82, 7.11, 301.73
436.86, 7.09, 301.22
436.90, 7.08, 300.65
436.95, 7.06, 300.02
437.01, 7.05, 299.30
437.07, 7.03, 298.48
437.15, 7.02, 297.53
437.23, 7.00, 296.40
437.34, 6.97, 295.06
437.46, 6.95, 293.53
437.59, 6.95, 291.76
437.76, 6.95, 289.61
437.96, 6.95, 286.92
436.53, 7.18, 304.41
436.55, 7.17, 304.17
436.57, 7.17, 303.91
436.58, 7.16, 303.63
436.60, 7.15, 303.32
436.63, 7.14, 302.98
436.65, 7.13, 302.61
436.68, 7.12, 302.20
436.70, 7.11, 301.75
436.74, 7.09, 301.24
436.77, 7.08, 300.67
436.81, 7.06, 300.04
436.86, 7.05, 299.33
436.91, 7.04, 298.51
436.97, 7.02, 297.56
437.04, 7.00, 296.45
437.13, 6.97, 295.12
437.22, 6.96, 293.60
437.33, 6.95, 291.83
¯437.47, 6.95, 289.71
437.63, 6.95, 287.05
436.46, 7.18, 304.42
436.47, 7.17, 304.18
436.48, 7.17, 303.92
436.50, 7.16, 303.63
436.51, 7.15, 303.33
436.53, 7.14, 302.99
436.55, 7.13, 302.62
436.57, 7.12, 302.22
436.59, 7.11, 301.76
436.61, 7.09, 301.26
436.64, 7.08, 300.69
436.67, 7.06, 300.06
436.71, 7.05, 299.35
436.75, 7.04, 298.54
436.80, 7.02, 297.60
436.85, 7.00, 296.49
436.92, 6.97, 295.17
436.99, 6.96, 293.66
437.08, 6.95, 291.91
437.18, 6.95, 289.81
437.31, 6.95, 287.18
436.38, 7.18, 304.42
436.39, 7.17, 304.18
436.40, 7.17, 303.92
436.41, 7.16, 303.64
436.42, 7.15, 303.34
436.43, 7.14, 303.00
436.44, 7.13, 302.64
436.46, 7.12, 302.23
436.48, 7.11, 301.78
436.49, 7.09, 301.28
436.51, 7.08, 300.71
436.54, 7.06, 300.08
436.56, 7.05, 299.38
436.59, 7.04, 298.58
436.62, 7.02, 297.64
436.66, 7.00, 296.54
436.71, 6.97, 295.23
436.76, 6.96, 293.73
436.82, 6.95, 291.99
436.89, 6.95, 289.91
436.98, 6.95, 287.31
436.30, 7.18, 304.43
436.31, 7.17, 304.19
436.31, 7.17, 303.93
436.32, 7.16, 303.65
436.33, 7.15, 303.35
436.33, 7.14, 303.01
436.34, 7.13, 302.65
¯436.35, 7.12, 302.25
436.36, 7.11, 301.80
436.37, 7.09, 301.30
436.38, 7.08, 300.74
436.40, 7.07, 300.11
436.41, 7.05, 299.41
436.43, 7.04, 298.61
436.45, 7.02, 297.68
436.47, 7.00, 296.59
436.50, 6.97, 295.30
436.53, 6.96, 293.80
436.57, 6.95, 292.07
436.61, 6.95, 290.02
436.66, 6.95, 287.44
436.23, 7.18, 304.44
436.23, 7.17, 304.20
436.23, 7.17, 303.94
436.23, 7.16, 303.66
436.24, 7.15, 303.36
436.24, 7.14, 303.03
436.24, 7.13, 302.67
436.24, 7.12, 302.26
436.25, 7.11, 301.82
436.25, 7.09, 301.32
436.26, 7.08, 300.76
436.26, 7.07, 300.14
436.27, 7.05, 299.45
436.27, 7.04, 298.65
436.28, 7.02, 297.73
436.29, 7.00, 296.65
436.30, 6.98, 295.36
436.31, 6.96, 293.88
436.32, 6.95, 292.16
436.33, 6.95, 290.12
436.35, 6.95, 287.57
436.15, 7.18, 304.45
436.15, 7.17, 304.21
436.15, 7.17, 303.96
436.15, 7.16, 303.68
436.15, 7.15, 303.37
436.14, 7.14, 303.04
436.14, 7.13, 302.68
436.14, 7.12, 302.28
436.14, 7.11, 301.84
436.13, 7.10, 301.34
436.13, 7.08, 300.79
436.13, 7.07, 300.17
436.12, 7.05, 299.48
436.12, 7.04, 298.69
436.11, 7.02, 297.77
436.10, 7.00, 296.70
¯436.09, 6.98, 295.42
436.08, 6.96, 293.95
436.07, 6.95, 292.25
436.06, 6.95, 290.23
436.04, 6.95, 287.70
436.08, 7.18, 304.46
436.07, 7.17, 304.22
436.07, 7.17, 303.97
436.06, 7.16, 303.69
436.05, 7.15, 303.39
436.05, 7.14, 303.06
436.04, 7.13, 302.70
436.03, 7.12, 302.30
436.02, 7.11, 301.86
436.01, 7.10, 301.37
436.00, 7.08, 300.82
435.99, 7.07, 300.20
435.98, 7.05, 299.51
435.96, 7.04, 298.73
435.94, 7.02, 297.82
435.92, 7.00, 296.76
435.89, 6.98, 295.49
435.86, 6.96, 294.03
435.83, 6.95, 292.33
435.79, 6.95, 290.34
435.73, 6.95, 287.84
436.00, 7.18, 304.47
435.99, 7.17, 304.24
435.98, 7.17, 303.98
435.97, 7.16, 303.71
435.96, 7.15, 303.40
435.95, 7.14, 303.08
435.94, 7.13, 302.72
435.93, 7.12, 302.32
435.91, 7.11, 301.88
435.90, 7.10, 301.40
435.88, 7.08, 300.85
435.86, 7.07, 300.23
435.83, 7.05, 299.55
435.81, 7.04, 298.77
435.77, 7.02, 297.87
435.74, 7.00, 296.81
435.69, 6.98, 295.56
435.64, 6.96, 294.10
435.59, 6.95, 292.42
435.52, 6.95, 290.44
435.43, 6.95, 287.97
435.32, 6.97, 284.98
435.93, 7.18, 304.48
435.91, 7.18, 304.25
435.90, 7.17, 304.00
¯435.89, 7.16, 303.72
435.87, 7.15, 303.42
435.86, 7.14, 303.10
435.84, 7.13, 302.74
435.82, 7.12, 302.35
435.80, 7.11, 301.91
435.78, 7.10, 301.42
435.75, 7.08, 300.88
435.72, 7.07, 300.27
435.69, 7.06, 299.59
435.65, 7.04, 298.82
435.61, 7.02, 297.92
435.56, 7.00, 296.87
435.50, 6.98, 295.63
435.43, 6.96, 294.18
435.35, 6.95, 292.51
435.25, 6.95, 290.55
435.13, 6.95, 288.11
435.85, 7.18, 304.50
435.84, 7.18, 304.26
435.82, 7.17, 304.01
435.80, 7.16, 303.74
435.78, 7.15, 303.44
435.76, 7.14, 303.11
435.74, 7.13, 302.76
435.72, 7.12, 302.37
435.69, 7.11, 301.94
435.66, 7.10, 301.45
435.63, 7.08, 300.91
435.59, 7.07, 300.30
435.55, 7.06, 299.63
435.50, 7.04, 298.86
435.44, 7.02, 297.97
435.38, 7.01, 296.94
435.30, 6.98, 295.70
435.21, 6.96, 294.27
435.11, 6.95, 292.61
434.99, 6.95, 290.67
434.83, 6.95, 288.25
435.78, 7.18, 304.51
435.76, 7.18, 304.28
435.74, 7.17, 304.03
435.72, 7.16, 303.76
435.70, 7.15, 303.46
435.67, 7.14, 303.14
435.64, 7.13, 302.78
435.61, 7.13, 302.40
435.58, 7.11, 301.96
435.55, 7.10, 301.48
435.50, 7.09, 300.95
435.46, 7.07, 300.34
¯435.41, 7.06, 299.67
435.35, 7.04, 298.91
435.28, 7.03, 298.03
435.20, 7.01, 297.00
435.11, 6.98, 295.78
435.00, 6.96, 294.35
434.87, 6.95, 292.70
434.72, 6.95, 290.78
434.54, 6.95, 288.39
435.70, 7.18, 304.53
435.68, 7.18, 304.30
435.66, 7.17, 304.05
435.63, 7.16, 303.77
435.61, 7.15, 303.48
435.58, 7.14, 303.16
435.55, 7.14, 302.81
435.51, 7.13, 302.42
435.47, 7.11, 301.99
435.43, 7.10, 301.52
435.38, 7.09, 300.98
435.33, 7.07, 300.38
435.27, 7.06, 299.71
435.20, 7.04, 298.96
435.12, 7.03, 298.08
435.03, 7.01, 297.06
434.92, 6.99, 295.85
434.79, 6.96, 294.43
434.64, 6.95, 292.80
434.47, 6.95, 290.89
434.15, 6.81, 287.32
435.63, 7.18, 304.54
435.60, 7.18, 304.31
435.58, 7.17, 304.06
435.55, 7.16, 303.79
435.52, 7.15, 303.50
435.49, 7.15, 303.18
435.45, 7.14, 302.83
435.41, 7.13, 302.45
435.36, 7.11, 302.02
435.32, 7.10, 301.55
435.26, 7.09, 301.02
435.20, 7.07, 300.42
435.13, 7.06, 299.76
435.05, 7.04, 299.01
434.96, 7.03, 298.14
434.85, 7.01, 297.13
434.73, 6.99, 295.93
434.58, 6.96, 294.52
434.41, 6.95, 292.89
434.21, 6.95, 291.01
433.84, 6.81, 287.47
¯435.55, 7.18, 304.56
435.53, 7.18, 304.33
435.50, 7.17, 304.08
435.47, 7.16, 303.82
435.43, 7.15, 303.52
435.39, 7.15, 303.21
435.35, 7.14, 302.86
435.31, 7.13, 302.48
435.26, 7.12, 302.06
435.20, 7.10, 301.58
435.14, 7.09, 301.06
435.07, 7.07, 300.46
434.99, 7.06, 299.80
434.90, 7.05, 299.06
434.80, 7.03, 298.20
434.68, 7.01, 297.20
434.54, 6.99, 296.01
434.37, 6.97, 294.61
434.18, 6.95, 292.99
433.84, 6.81, 290.07
433.54, 6.81, 287.63
435.48, 7.18, 304.58
435.45, 7.18, 304.35
435.42, 7.17, 304.10
435.38, 7.16, 303.84
435.34, 7.16, 303.55
435.30, 7.15, 303.23
435.26, 7.14, 302.89
435.21, 7.13, 302.51
435.15, 7.12, 302.09
435.09, 7.10, 301.62
435.02, 7.09, 301.10
434.94, 7.07, 300.51
434.85, 7.06, 299.85
434.76, 7.05, 299.11
434.64, 7.03, 298.26
434.51, 7.01, 297.27
434.35, 6.99, 296.09
434.17, 6.97, 294.71
433.95, 6.95, 293.09
433.57, 6.81, 290.19
433.25, 6.81, 287.78
435.41, 7.18, 304.60
435.38, 7.18, 304.37
435.34, 7.17, 304.13
435.30, 7.16, 303.86
435.26, 7.16, 303.57
435.21, 7.15, 303.26
435.16, 7.14, 302.92
435.11, 7.13, 302.54
435.04, 7.12, 302.12
¯434.98, 7.11, 301.66
434.90, 7.09, 301.14
434.81, 7.08, 300.55
434.72, 7.06, 299.90
434.61, 7.05, 299.17
434.49, 7.03, 298.32
434.34, 7.01, 297.34
434.17, 6.99, 296.17
433.97, 6.97, 294.80
433.59, 6.81, 292.24
433.31, 6.81, 290.32
432.96, 6.81, 287.93
435.34, 7.19, 304.62
435.30, 7.18, 304.39
435.26, 7.17, 304.15
435.22, 7.16, 303.89
435.17, 7.16, 303.60
435.12, 7.15, 303.29
435.07, 7.14, 302.95
435.01, 7.13, 302.57
434.94, 7.12, 302.16
434.87, 7.11, 301.70
434.78, 7.09, 301.18
434.69, 7.08, 300.60
434.58, 7.06, 299.95
434.47, 7.05, 299.22
434.33, 7.03, 298.39
434.17, 7.01, 297.41
433.99, 6.99, 296.26
433.77, 6.97, 294.90
433.36, 6.81, 292.35
433.05, 6.81, 290.45
432.67, 6.81, 288.09
432.21, 6.83, 285.26
435.26, 7.19, 304.64
435.22, 7.18, 304.42
435.18, 7.17, 304.17
435.14, 7.17, 303.91
435.09, 7.16, 303.63
435.03, 7.15, 303.32
434.97, 7.14, 302.98
434.91, 7.13, 302.61
434.84, 7.12, 302.20
434.75, 7.11, 301.74
434.66, 7.09, 301.23
434.56, 7.08, 300.65
434.45, 7.06, 300.00
434.32, 7.05, 299.28
434.18, 7.03, 298.45
434.01, 7.02, 297.48
433.81, 6.99, 296.34
¯433.41, 6.82, 294.07
433.13, 6.81, 292.46
432.79, 6.81, 290.58
432.38, 6.81, 288.25
431.88, 6.83, 285.44
435.19, 7.19, 304.66
435.15, 7.18, 304.44
435.10, 7.17, 304.20
435.05, 7.17, 303.94
435.00, 7.16, 303.65
434.94, 7.15, 303.35
434.88, 7.14, 303.01
434.81, 7.13, 302.64
434.73, 7.12, 302.23
434.64, 7.11, 301.78
434.55, 7.09, 301.27
434.44, 7.08, 300.70
434.32, 7.06, 300.06
434.18, 7.05, 299.34
434.02, 7.04, 298.52
433.84, 7.02, 297.56
433.63, 7.00, 296.43
433.20, 6.82, 294.17
432.90, 6.81, 292.57
432.54, 6.81, 290.71
432.10, 6.81, 288.40
431.57, 6.83, 285.63
435.12, 7.19, 304.68
435.08, 7.18, 304.46
435.03, 7.17, 304.22
434.97, 7.17, 303.96
434.92, 7.16, 303.68
434.85, 7.15, 303.38
434.79, 7.14, 303.04
434.71, 7.13, 302.68
434.63, 7.12, 302.27
434.54, 7.11, 301.82
434.43, 7.10, 301.32
434.32, 7.08, 300.75
434.19, 7.06, 300.11
434.04, 7.05, 299.40
433.87, 7.04, 298.59
433.68, 7.02, 297.64
433.28, 6.84, 295.66
432.99, 6.82, 294.27
432.67, 6.81, 292.68
432.29, 6.81, 290.84
431.82, 6.81, 288.56
431.26, 6.83, 285.85
435.05, 7.19, 304.71
435.00, 7.18, 304.49
¯434.95, 7.18, 304.25
434.89, 7.17, 303.99
434.83, 7.16, 303.71
434.77, 7.15, 303.41
434.69, 7.14, 303.08
434.61, 7.13, 302.71
434.53, 7.12, 302.31
434.43, 7.11, 301.87
434.32, 7.10, 301.37
434.19, 7.08, 300.80
434.06, 7.07, 300.17
433.90, 7.05, 299.46
433.72, 7.04, 298.65
433.52, 7.02, 297.71
433.09, 6.85, 295.75
432.79, 6.83, 294.38
432.85, 7.10, 294.68
432.85, 7.32, 294.72
432.84, 7.54, 294.73
432.83, 7.76, 294.74
432.83, 7.98, 294.75
432.82, 8.19, 294.76
432.81, 8.41, 294.77
432.81, 8.63, 294.77
432.77, 8.84, 294.67
434.98, 7.19, 304.73
434.93, 7.18, 304.51
434.87, 7.18, 304.28
434.81, 7.17, 304.02
434.75, 7.16, 303.74
434.68, 7.15, 303.44
434.60, 7.14, 303.11
434.52, 7.13, 302.75
434.42, 7.12, 302.36
434.32, 7.11, 301.91
434.20, 7.10, 301.41
434.07, 7.08, 300.86
433.93, 7.07, 300.22
433.76, 7.05, 299.53
433.57, 7.04, 298.73
433.18, 6.87, 297.02
432.91, 6.85, 295.85
432.59, 6.83, 294.48
432.66, 7.11, 294.85
432.66, 7.33, 294.88
432.65, 7.54, 294.88
432.64, 7.76, 294.88
432.64, 7.98, 294.88
432.63, 8.19, 294.89
432.62, 8.41, 294.89
432.61, 8.62, 294.89
¯432.59, 8.83, 294.81
434.91, 7.19, 304.76
434.86, 7.18, 304.54
434.80, 7.18, 304.31
434.74, 7.17, 304.05
434.67, 7.16, 303.78
434.59, 7.15, 303.48
434.51, 7.14, 303.15
434.42, 7.14, 302.79
434.32, 7.13, 302.40
434.21, 7.11, 301.96
434.09, 7.10, 301.47
433.95, 7.09, 300.91
433.80, 7.07, 300.28
433.63, 7.06, 299.59
433.43, 7.04, 298.80
433.01, 6.87, 297.10
432.72, 6.85, 295.95
432.39, 6.83, 294.59
432.45, 7.09, 294.88
432.44, 7.32, 294.90
432.44, 7.53, 294.90
432.43, 7.75, 294.90
432.42, 7.97, 294.90
432.41, 8.18, 294.89
432.40, 8.40, 294.89
432.39, 8.61, 294.89
432.36, 8.82, 294.79
434.84, 7.19, 304.78
434.78, 7.18, 304.57
434.72, 7.18, 304.33
434.66, 7.17, 304.08
434.58, 7.16, 303.81
434.51, 7.15, 303.51
434.42, 7.15, 303.19
434.33, 7.14, 302.83
434.22, 7.13, 302.44
434.11, 7.12, 302.01
433.98, 7.10, 301.52
433.84, 7.09, 300.97
433.67, 7.07, 300.35
433.49, 7.06, 299.66
433.10, 6.89, 298.16
432.84, 6.87, 297.19
432.54, 6.85, 296.05
432.19, 6.83, 294.70
431.78, 6.81, 293.15
432.18, 7.28, 294.74
432.17, 7.50, 294.72
432.15, 7.71, 294.69
432.13, 7.93, 294.66
¯434.77, 7.19, 304.81
434.71, 7.18, 304.60
434.65, 7.18, 304.36
434.58, 7.17, 304.11
434.50, 7.16, 303.84
434.42, 7.16, 303.55
434.33, 7.15, 303.22
434.23, 7.14, 302.87
434.12, 7.13, 302.49
434.00, 7.12, 302.05
433.87, 7.10, 301.57
433.72, 7.09, 301.03
433.55, 7.07, 300.41
433.35, 7.06, 299.72
432.95, 6.89, 298.24
432.68, 6.87, 297.28
432.36, 6.85, 296.15
431.99, 6.83, 294.81
431.56, 6.82, 293.28
431.21, 6.88, 292.01
431.15, 7.12, 291.86
431.10, 7.37, 291.70
430.94, 7.58, 291.15
434.70, 7.19, 304.84
434.64, 7.19, 304.63
434.57, 7.18, 304.40
434.50, 7.17, 304.15
434.42, 7.16, 303.88
434.34, 7.16, 303.59
434.24, 7.15, 303.26
434.14, 7.14, 302.92
434.03, 7.13, 302.53
433.90, 7.12, 302.10
433.76, 7.11, 301.62
433.60, 7.09, 301.09
433.42, 7.07, 300.47
433.04, 6.91, 299.14
432.79, 6.89, 298.32
432.51, 6.88, 297.37
432.19, 6.86, 296.25
431.79, 6.83, 294.92
431.35, 6.82, 293.43
431.15, 6.97, 292.75
431.13, 7.21, 292.73
431.08, 7.45, 292.58
430.18, 7.40, 289.50
434.64, 7.19, 304.87
434.57, 7.19, 304.66
434.50, 7.18, 304.43
434.42, 7.17, 304.18
434.34, 7.17, 303.91
¯434.25, 7.16, 303.62
434.15, 7.15, 303.31
434.05, 7.14, 302.96
433.93, 7.13, 302.58
433.80, 7.12, 302.15
433.65, 7.11, 301.68
433.49, 7.09, 301.15
433.30, 7.08, 300.54
432.89, 6.91, 299.22
432.64, 6.90, 298.41
432.35, 6.88, 297.46
432.01, 6.86, 296.36
431.60, 6.83, 295.04
431.15, 6.82, 293.57
431.12, 7.05, 293.51
431.08, 7.28, 293.42
431.05, 7.52, 293.33
429.82, 7.37, 289.36
434.57, 7.19, 304.90
434.50, 7.19, 304.69
434.43, 7.18, 304.46
434.35, 7.17, 304.22
434.26, 7.17, 303.95
434.17, 7.16, 303.66
434.07, 7.15, 303.35
433.95, 7.14, 303.00
433.83, 7.13, 302.63
433.70, 7.12, 302.21
433.54, 7.11, 301.74
433.37, 7.09, 301.21
432.98, 6.93, 300.00
432.76, 6.91, 299.29
432.49, 6.90, 298.49
432.19, 6.88, 297.56
431.84, 6.86, 296.46
431.42, 6.84, 295.17
431.06, 6.88, 294.08
431.03, 7.11, 294.00
430.99, 7.33, 293.92
430.96, 7.56, 293.83
434.50, 7.19, 304.93
434.43, 7.19, 304.72
434.35, 7.18, 304.49
434.27, 7.18, 304.25
434.18, 7.17, 303.99
434.09, 7.16, 303.70
433.98, 7.15, 303.39
433.86, 7.14, 303.05
433.74, 7.13, 302.68
433.59, 7.12, 302.26
433.44, 7.11, 301.79
¯433.26, 7.10, 301.27
432.85, 6.93, 300.07
432.62, 6.91, 299.37
432.35, 6.90, 298.57
432.03, 6.88, 297.65
431.66, 6.86, 296.57
431.23, 6.84, 295.31
431.04, 6.97, 294.76
430.89, 7.14, 294.33
430.89, 7.37, 294.33
430.87, 7.60, 294.31
434.43, 7.20, 304.96
434.36, 7.19, 304.75
434.28, 7.18, 304.53
434.20, 7.18, 304.29
434.10, 7.17, 304.03
434.00, 7.16, 303.74
433.89, 7.15, 303.43
433.77, 7.14, 303.10
433.64, 7.13, 302.72
433.49, 7.12, 302.31
433.33, 7.11, 301.85
432.95, 6.95, 300.77
432.73, 6.93, 300.15
432.48, 6.92, 299.45
432.20, 6.90, 298.66
431.88, 6.88, 297.75
431.50, 6.86, 296.68
431.05, 6.85, 295.44
430.92, 7.00, 295.07
430.89, 7.22, 295.01
430.86, 7.43, 294.95
430.83, 7.65, 294.90
434.37, 7.20, 304.99
434.29, 7.19, 304.79
434.21, 7.18, 304.56
434.12, 7.18, 304.33
434.03, 7.17, 304.07
433.92, 7.16, 303.79
433.81, 7.15, 303.48
433.68, 7.14, 303.14
433.55, 7.14, 302.78
433.40, 7.13, 302.37
433.23, 7.11, 301.91
432.83, 6.95, 300.84
432.60, 6.93, 300.23
432.34, 6.92, 299.53
432.05, 6.90, 298.75
431.72, 6.89, 297.84
431.33, 6.87, 296.79
430.88, 6.85, 295.58
¯430.79, 7.03, 295.37
430.76, 7.24, 295.31
430.74, 7.45, 295.26
430.71, 7.67, 295.20
428.50, 7.28, 289.23
428.47, 7.58, 289.17
427.51, 7.71, 286.60
427.51, 8.06, 286.63
427.51, 8.40, 286.66
427.51, 8.75, 286.69
434.30, 7.20, 305.02
434.22, 7.19, 304.82
434.14, 7.19, 304.60
434.05, 7.18, 304.36
433.95, 7.17, 304.11
433.84, 7.16, 303.83
433.72, 7.15, 303.52
433.59, 7.15, 303.19
433.45, 7.14, 302.83
433.30, 7.13, 302.42
433.12, 7.12, 301.97
432.72, 6.95, 300.91
432.48, 6.94, 300.31
432.21, 6.92, 299.62
431.91, 6.90, 298.84
431.57, 6.89, 297.94
431.16, 6.87, 296.90
430.70, 6.85, 295.71
430.67, 7.06, 295.66
430.64, 7.27, 295.60
430.62, 7.48, 295.55
430.59, 7.69, 295.50
428.19, 7.26, 289.27
428.15, 7.57, 289.21
427.51, 7.76, 287.56
427.51, 8.09, 287.59
427.51, 8.43, 287.62
427.51, 8.76, 287.64
434.24, 7.20, 305.06
434.16, 7.19, 304.86
434.07, 7.19, 304.64
433.97, 7.18, 304.40
433.87, 7.17, 304.15
433.76, 7.16, 303.87
433.64, 7.16, 303.57
433.51, 7.15, 303.24
433.36, 7.14, 302.88
433.20, 7.13, 302.48
432.82, 6.97, 301.52
432.60, 6.96, 300.99
432.36, 6.94, 300.39
¯432.08, 6.92, 299.71
431.77, 6.91, 298.93
431.41, 6.89, 298.04
431.00, 6.87, 297.01
430.52, 6.86, 295.84
430.46, 7.05, 295.70
430.45, 7.26, 295.70
430.44, 7.48, 295.70
430.44, 7.69, 295.69
427.87, 7.25, 289.31
427.84, 7.55, 289.25
427.51, 7.80, 288.45
427.51, 8.13, 288.48
427.51, 8.45, 288.51
427.51, 8.77, 288.53
434.17, 7.20, 305.09
434.09, 7.19, 304.89
434.00, 7.19, 304.68
433.90, 7.18, 304.44
433.80, 7.17, 304.19
433.68, 7.17, 303.92
433.56, 7.16, 303.62
433.42, 7.15, 303.29
433.27, 7.14, 302.93
433.10, 7.13, 302.54
432.71, 6.97, 301.59
432.49, 6.96, 301.07
432.24, 6.94, 300.47
431.96, 6.93, 299.80
431.63, 6.91, 299.03
431.26, 6.89, 298.14
430.83, 6.87, 297.12
430.35, 6.86, 295.96
429.77, 6.84, 294.59
429.25, 6.90, 293.37
428.19, 6.81, 290.85
427.51, 6.90, 289.22
428.80, 7.54, 292.35
429.24, 7.90, 293.41
429.38, 8.18, 293.76
429.32, 8.42, 293.63
429.21, 8.65, 293.40
427.51, 8.78, 289.36
434.11, 7.20, 305.13
434.02, 7.19, 304.93
433.93, 7.19, 304.71
433.83, 7.18, 304.48
433.72, 7.17, 304.24
433.60, 7.17, 303.96
433.47, 7.16, 303.67
433.33, 7.15, 303.34
¯433.18, 7.14, 302.99
432.80, 6.98, 302.12
432.60, 6.97, 301.66
432.38, 6.96, 301.14
432.12, 6.95, 300.56
431.83, 6.93, 299.89
431.50, 6.91, 299.12
431.11, 6.89, 298.25
430.67, 6.87, 297.24
430.17, 6.86, 296.09
429.61, 6.86, 294.80
429.11, 6.92, 293.66
429.07, 7.16, 293.59
429.15, 7.43, 293.80
429.18, 7.69, 293.89
429.18, 7.93, 293.90
429.15, 8.17, 293.85
429.10, 8.41, 293.74
429.00, 8.64, 293.53
427.51, 8.79, 290.13
434.05, 7.20, 305.16
433.96, 7.20, 304.97
433.86, 7.19, 304.75
433.76, 7.18, 304.53
433.65, 7.18, 304.28
433.53, 7.17, 304.01
433.39, 7.16, 303.72
433.25, 7.15, 303.40
433.09, 7.14, 303.04
432.70, 6.98, 302.18
432.50, 6.98, 301.73
432.27, 6.97, 301.22
432.00, 6.95, 300.65
431.71, 6.94, 299.99
431.36, 6.91, 299.22
430.96, 6.89, 298.35
430.51, 6.88, 297.35
429.99, 6.86, 296.21
429.48, 6.88, 295.08
428.97, 6.94, 293.96
428.80, 7.14, 293.60
428.91, 7.42, 293.86
428.95, 7.68, 293.95
428.95, 7.92, 293.98
428.93, 8.16, 293.95
428.88, 8.40, 293.85
428.78, 8.64, 293.66
427.33, 8.79, 290.46
433.98, 7.20, 305.20
433.89, 7.20, 305.00
433.79, 7.19, 304.79
¯433.69, 7.18, 304.57
433.57, 7.18, 304.32
433.45, 7.17, 304.06
433.31, 7.16, 303.77
433.16, 7.15, 303.45
432.79, 6.99, 302.65
432.60, 6.99, 302.25
432.39, 6.98, 301.80
432.16, 6.97, 301.30
431.89, 6.95, 300.73
431.58, 6.94, 300.08
431.23, 6.92, 299.32
430.82, 6.90, 298.46
430.35, 6.88, 297.47
429.82, 6.86, 296.33
429.35, 6.91, 295.34
429.72, 7.26, 296.14
429.81, 7.50, 296.35
429.78, 7.70, 296.31
428.71, 7.67, 294.02
428.72, 7.92, 294.06
428.70, 8.16, 294.04
428.66, 8.40, 293.96
428.57, 8.63, 293.79
428.38, 8.87, 293.39
433.92, 7.20, 305.24
433.83, 7.20, 305.04
433.73, 7.19, 304.84
433.62, 7.19, 304.61
433.50, 7.18, 304.37
433.37, 7.17, 304.11
433.23, 7.16, 303.82
433.08, 7.15, 303.50
432.69, 6.99, 302.71
432.50, 6.99, 302.31
432.29, 6.98, 301.87
432.05, 6.97, 301.38
431.77, 6.96, 300.82
431.46, 6.94, 300.17
431.09, 6.92, 299.42
430.67, 6.90, 298.56
430.20, 6.88, 297.59
429.66, 6.87, 296.48
429.67, 7.08, 296.51
429.64, 7.29, 296.47
429.62, 7.49, 296.43
429.59, 7.70, 296.40
428.47, 7.66, 294.09
428.49, 7.91, 294.14
428.48, 8.15, 294.13
428.44, 8.39, 294.07
¯428.36, 8.63, 293.92
428.19, 8.86, 293.58
433.86, 7.20, 305.27
433.76, 7.20, 305.08
433.66, 7.19, 304.88
433.55, 7.19, 304.66
433.43, 7.18, 304.42
433.30, 7.17, 304.16
433.15, 7.16, 303.87
432.79, 7.01, 303.14
432.60, 7.00, 302.77
432.40, 6.99, 302.38
432.18, 6.98, 301.94
431.94, 6.97, 301.45
431.66, 6.96, 300.91
431.34, 6.94, 300.26
430.96, 6.92, 299.52
430.53, 6.90, 298.67
430.05, 6.88, 297.71
429.54, 6.89, 296.71
429.48, 7.08, 296.59
429.45, 7.28, 296.55
429.43, 7.49, 296.52
429.40, 7.69, 296.48
428.23, 7.65, 294.16
428.26, 7.90, 294.22
428.25, 8.14, 294.23
428.21, 8.38, 294.17
428.14, 8.62, 294.03
428.00, 8.86, 293.76
433.80, 7.21, 305.31
433.70, 7.20, 305.12
433.59, 7.19, 304.92
433.48, 7.19, 304.70
433.36, 7.18, 304.46
433.22, 7.17, 304.21
433.07, 7.17, 303.92
432.70, 7.01, 303.20
432.51, 7.00, 302.84
432.30, 6.99, 302.44
432.08, 6.98, 302.01
431.83, 6.97, 301.53
431.54, 6.96, 300.99
431.22, 6.95, 300.36
430.83, 6.93, 299.63
430.39, 6.90, 298.78
429.89, 6.88, 297.83
429.43, 6.91, 296.95
429.29, 7.07, 296.67
429.26, 7.27, 296.64
429.24, 7.48, 296.60
¯429.21, 7.68, 296.56
427.99, 7.64, 294.23
428.02, 7.89, 294.31
428.02, 8.14, 294.31
427.99, 8.38, 294.26
427.92, 8.62, 294.14
427.79, 8.86, 293.92
433.74, 7.21, 305.35
433.64, 7.20, 305.17
433.53, 7.20, 304.96
433.41, 7.19, 304.75
433.28, 7.18, 304.51
433.15, 7.18, 304.26
432.79, 7.02, 303.58
432.61, 7.01, 303.26
432.42, 7.00, 302.90
432.21, 6.99, 302.51
431.98, 6.98, 302.08
431.72, 6.97, 301.61
431.43, 6.96, 301.07
431.10, 6.95, 300.45
430.70, 6.93, 299.73
430.25, 6.91, 298.89
429.74, 6.89, 297.95
429.33, 6.93, 297.19
429.09, 7.06, 296.76
429.07, 7.27, 296.72
429.04, 7.47, 296.69
429.02, 7.68, 296.65
428.98, 7.88, 296.59
427.79, 7.88, 294.38
427.79, 8.13, 294.40
427.76, 8.37, 294.36
427.70, 8.61, 294.25
427.58, 8.85, 294.05
433.68, 7.21, 305.39
433.58, 7.20, 305.21
433.46, 7.20, 305.01
433.34, 7.19, 304.79
433.21, 7.18, 304.56
433.07, 7.18, 304.31
432.71, 7.02, 303.64
432.53, 7.01, 303.32
432.33, 7.00, 302.97
432.11, 6.99, 302.58
431.88, 6.98, 302.16
431.61, 6.98, 301.69
431.32, 6.97, 301.16
430.98, 6.95, 300.55
430.58, 6.93, 299.83
430.12, 6.91, 299.01
¯429.62, 6.90, 298.13
429.23, 6.95, 297.42
428.90, 7.05, 296.84
428.88, 7.26, 296.81
428.85, 7.47, 296.77
428.83, 7.67, 296.73
427.49, 7.61, 294.34
427.54, 7.87, 294.45
427.55, 8.12, 294.48
427.53, 8.36, 294.45
427.48, 8.60, 294.36
427.37, 8.84, 294.18
433.62, 7.21, 305.43
433.51, 7.20, 305.25
433.40, 7.20, 305.05
433.28, 7.19, 304.84
433.15, 7.19, 304.61
432.79, 7.03, 303.99
432.62, 7.02, 303.70
432.44, 7.01, 303.38
432.24, 7.00, 303.03
432.02, 6.99, 302.65
431.78, 6.99, 302.23
431.51, 6.98, 301.76
431.21, 6.97, 301.24
430.86, 6.95, 300.64
430.45, 6.93, 299.94
429.98, 6.91, 299.12
429.53, 6.92, 298.33
429.13, 6.98, 297.65
428.68, 7.04, 296.87
428.17, 7.11, 296.00
427.49, 7.16, 294.81
427.04, 7.30, 294.05
427.24, 7.60, 294.40
427.30, 7.86, 294.52
427.32, 8.11, 294.56
427.30, 8.35, 294.55
427.26, 8.60, 294.47
427.16, 8.84, 294.31
433.56, 7.21, 305.48
433.45, 7.20, 305.29
433.34, 7.20, 305.10
433.21, 7.19, 304.89
433.08, 7.19, 304.66
432.72, 7.03, 304.05
432.54, 7.02, 303.76
432.36, 7.02, 303.45
432.15, 7.01, 303.10
431.92, 6.99, 302.72
431.68, 6.99, 302.31
¯431.40, 6.98, 301.85
431.09, 6.97, 301.33
430.75, 6.96, 300.74
430.33, 6.94, 300.05
429.85, 6.92, 299.24
429.43, 6.94, 298.54
429.03, 7.00, 297.87
428.58, 7.06, 297.12
428.08, 7.13, 296.27
427.32, 7.16, 295.00
425.90, 7.09, 292.62
426.98, 7.58, 294.45
427.06, 7.85, 294.59
427.08, 8.10, 294.65
427.07, 8.35, 294.64
427.03, 8.59, 294.58
424.57, 8.70, 290.46
433.50, 7.21, 305.52
433.39, 7.21, 305.34
433.27, 7.20, 305.15
433.15, 7.19, 304.94
433.01, 7.19, 304.71
432.64, 7.03, 304.11
432.47, 7.03, 303.82
432.27, 7.02, 303.51
432.06, 7.01, 303.17
431.83, 7.00, 302.79
431.58, 6.99, 302.38
431.30, 6.98, 301.93
430.99, 6.97, 301.42
430.63, 6.96, 300.84
430.21, 6.94, 300.15
429.72, 6.92, 299.36
429.26, 6.93, 298.61
428.93, 7.01, 298.08
428.49, 7.08, 297.36
427.98, 7.15, 296.54
427.15, 7.16, 295.18
425.76, 7.11, 292.93
424.58, 7.16, 291.02
424.23, 7.41, 290.46
424.23, 7.73, 290.46
424.22, 8.05, 290.46
424.21, 8.37, 290.46
424.20, 8.68, 290.46
433.45, 7.21, 305.56
433.33, 7.21, 305.38
433.21, 7.20, 305.19
433.08, 7.20, 304.99
432.73, 7.04, 304.42
432.57, 7.04, 304.17
¯432.39, 7.03, 303.89
432.19, 7.02, 303.58
431.98, 7.01, 303.24
431.74, 7.00, 302.87
431.48, 6.99, 302.46
431.20, 6.98, 302.01
430.88, 6.97, 301.50
430.52, 6.96, 300.93
430.09, 6.94, 300.26
429.58, 6.92, 299.47
429.07, 6.92, 298.66
428.74, 7.00, 298.13
428.37, 7.09, 297.56
427.89, 7.17, 296.80
426.97, 7.17, 295.36
425.71, 7.14, 293.36
424.52, 7.19, 291.49
423.86, 7.39, 290.46
423.85, 7.71, 290.46
423.84, 8.03, 290.46
423.84, 8.35, 290.46
423.83, 8.67, 290.46
433.39, 7.21, 305.61
433.27, 7.21, 305.43
433.15, 7.20, 305.24
433.02, 7.20, 305.04
432.66, 7.04, 304.48
432.49, 7.04, 304.23
432.31, 7.03, 303.95
432.11, 7.02, 303.64
431.89, 7.01, 303.31
431.65, 7.00, 302.94
431.39, 6.99, 302.54
431.10, 6.98, 302.09
430.77, 6.97, 301.59
430.40, 6.96, 301.03
429.97, 6.95, 300.37
429.45, 6.92, 299.57
428.88, 6.90, 298.71
428.54, 6.99, 298.19
428.16, 7.08, 297.61
427.91, 7.22, 297.23
427.88, 7.43, 297.19
427.85, 7.63, 297.16
427.82, 7.84, 297.12
423.48, 7.37, 290.46
423.47, 7.69, 290.46
423.46, 8.01, 290.46
423.45, 8.34, 290.46
423.45, 8.66, 290.46
433.33, 7.22, 305.65
¯433.22, 7.21, 305.48
433.09, 7.20, 305.29
432.74, 7.05, 304.77
432.59, 7.05, 304.54
432.42, 7.04, 304.29
432.23, 7.03, 304.01
432.03, 7.02, 303.71
431.81, 7.01, 303.38
431.56, 7.00, 303.02
431.30, 7.00, 302.62
431.00, 6.99, 302.18
430.66, 6.98, 301.69
430.29, 6.96, 301.13
429.85, 6.95, 300.48
429.31, 6.92, 299.67
428.69, 6.89, 298.76
428.34, 6.97, 298.24
427.95, 7.06, 297.67
427.71, 7.21, 297.31
427.68, 7.42, 297.27
427.65, 7.62, 297.23
427.62, 7.83, 297.20
423.09, 7.34, 290.46
423.08, 7.67, 290.46
423.07, 7.99, 290.46
423.07, 8.32, 290.46
423.06, 8.65, 290.46
433.28, 7.22, 305.70
433.16, 7.21, 305.52
433.03, 7.21, 305.34
432.68, 7.05, 304.83
432.52, 7.05, 304.60
432.35, 7.04, 304.35
432.16, 7.03, 304.08
431.95, 7.02, 303.78
431.73, 7.02, 303.45
431.48, 7.01, 303.10
431.21, 7.00, 302.71
430.90, 6.99, 302.27
430.56, 6.98, 301.78
430.18, 6.97, 301.23
429.74, 6.95, 300.60
429.17, 6.92, 299.78
428.50, 6.87, 298.81
428.14, 6.96, 298.29
427.74, 7.05, 297.72
427.50, 7.20, 297.38
427.47, 7.40, 297.35
427.44, 7.61, 297.31
427.41, 7.82, 297.27
423.88, 7.50, 292.18
¯422.68, 7.65, 290.46
422.68, 7.98, 290.46
422.67, 8.31, 290.46
422.66, 8.63, 290.46
433.22, 7.22, 305.74
433.10, 7.21, 305.57
432.97, 7.21, 305.39
432.61, 7.06, 304.88
432.45, 7.05, 304.66
432.27, 7.04, 304.41
432.08, 7.03, 304.14
431.87, 7.03, 303.85
431.64, 7.02, 303.53
431.39, 7.01, 303.18
431.12, 7.00, 302.79
430.81, 6.99, 302.36
430.46, 6.98, 301.88
430.07, 6.97, 301.33
429.62, 6.95, 300.70
429.04, 6.91, 299.89
428.34, 6.87, 298.92
427.94, 6.94, 298.35
427.49, 7.02, 297.73
427.30, 7.18, 297.46
427.27, 7.39, 297.42
427.24, 7.60, 297.39
427.21, 7.81, 297.35
424.21, 7.58, 293.17
422.27, 7.62, 290.46
422.27, 7.96, 290.46
422.26, 8.29, 290.46
422.25, 8.62, 290.46
433.17, 7.22, 305.79
433.05, 7.21, 305.62
432.70, 7.06, 305.14
432.55, 7.06, 304.94
432.38, 7.05, 304.71
432.20, 7.04, 304.47
432.01, 7.04, 304.21
431.80, 7.03, 303.92
431.56, 7.02, 303.60
431.31, 7.01, 303.26
431.03, 7.00, 302.88
430.72, 7.00, 302.46
430.37, 6.99, 301.98
429.97, 6.97, 301.44
429.56, 6.98, 300.88
428.90, 6.91, 299.99
428.20, 6.87, 299.04
427.73, 6.92, 298.40
427.24, 7.00, 297.74
¯427.09, 7.17, 297.54
427.06, 7.38, 297.50
427.03, 7.59, 297.47
427.00, 7.81, 297.43
424.18, 7.60, 293.60
422.84, 7.72, 291.79
421.86, 7.94, 290.46
421.85, 8.27, 290.46
421.84, 8.61, 290.46
433.12, 7.22, 305.84
432.99, 7.22, 305.67
432.64, 7.06, 305.20
432.48, 7.06, 305.00
432.32, 7.05, 304.77
432.13, 7.05, 304.54
431.94, 7.04, 304.27
431.72, 7.03, 303.99
431.49, 7.02, 303.68
431.23, 7.02, 303.34
430.94, 7.01, 302.97
430.63, 7.00, 302.55
430.27, 6.99, 302.08
429.87, 6.98, 301.55
429.48, 6.99, 301.03
428.92, 6.96, 300.30
428.06, 6.87, 299.16
427.50, 6.90, 298.42
426.99, 6.97, 297.75
426.42, 7.05, 297.00
425.66, 7.11, 296.01
425.24, 7.28, 295.46
424.78, 7.46, 294.86
424.14, 7.63, 294.01
423.64, 7.85, 293.36
421.43, 7.92, 290.46
421.43, 8.26, 290.46
421.42, 8.60, 290.46
433.07, 7.22, 305.88
432.72, 7.07, 305.44
432.58, 7.07, 305.25
432.42, 7.06, 305.05
432.25, 7.05, 304.84
432.06, 7.05, 304.60
431.86, 7.04, 304.34
431.64, 7.03, 304.06
431.41, 7.03, 303.76
431.15, 7.02, 303.43
430.86, 7.01, 303.06
430.54, 7.00, 302.64
430.18, 6.99, 302.18
429.77, 6.98, 301.66
¯429.40, 7.00, 301.18
428.94, 7.01, 300.60
428.10, 6.92, 299.53
427.32, 6.89, 298.52
426.73, 6.94, 297.76
426.14, 7.02, 297.01
425.55, 7.13, 296.26
425.13, 7.29, 295.73
424.68, 7.47, 295.16
424.10, 7.65, 294.42
423.63, 7.87, 293.82
423.29, 8.12, 293.38
421.00, 8.24, 290.46
420.99, 8.58, 290.46
433.01, 7.22, 305.93
432.66, 7.07, 305.50
432.52, 7.07, 305.31
432.36, 7.06, 305.11
432.18, 7.06, 304.90
432.00, 7.05, 304.66
431.79, 7.04, 304.41
431.57, 7.04, 304.14
431.33, 7.03, 303.84
431.07, 7.02, 303.51
430.78, 7.01, 303.14
430.45, 7.01, 302.74
430.08, 7.00, 302.28
429.68, 6.99, 301.78
429.32, 7.02, 301.33
428.93, 7.05, 300.84
428.15, 6.98, 299.87
427.26, 6.92, 298.77
426.63, 6.96, 297.99
425.91, 7.01, 297.09
425.44, 7.14, 296.51
425.02, 7.31, 295.99
424.57, 7.48, 295.44
424.07, 7.67, 294.81
423.62, 7.89, 294.26
423.28, 8.14, 293.84
422.93, 8.40, 293.41
420.55, 8.57, 290.46
432.96, 7.23, 305.98
432.61, 7.07, 305.55
432.46, 7.07, 305.37
432.29, 7.06, 305.17
432.12, 7.06, 304.96
431.93, 7.05, 304.73
431.72, 7.04, 304.48
431.50, 7.04, 304.21
431.26, 7.03, 303.92
¯430.99, 7.03, 303.59
430.69, 7.02, 303.23
430.36, 7.01, 302.84
429.99, 7.00, 302.39
429.60, 7.00, 301.91
429.24, 7.03, 301.48
428.85, 7.06, 301.00
428.19, 7.03, 300.21
427.29, 6.96, 299.12
426.58, 6.98, 298.26
425.86, 7.04, 297.39
425.36, 7.16, 296.79
424.94, 7.32, 296.28
424.48, 7.50, 295.73
423.98, 7.69, 295.13
423.61, 7.91, 294.68
423.27, 8.15, 294.28
422.93, 8.41, 293.87
422.56, 8.68, 293.43
432.69, 7.08, 305.77
432.55, 7.08, 305.60
432.40, 7.07, 305.43
432.23, 7.07, 305.23
432.06, 7.06, 305.02
431.86, 7.05, 304.80
431.65, 7.05, 304.55
431.43, 7.04, 304.29
431.18, 7.03, 304.00
430.91, 7.03, 303.68
430.61, 7.02, 303.32
430.28, 7.01, 302.93
429.90, 7.00, 302.49
429.53, 7.01, 302.05
429.17, 7.04, 301.63
428.77, 7.07, 301.16
429.03, 7.31, 301.47
427.35, 7.02, 299.49
426.53, 7.01, 298.52
425.82, 7.06, 297.69
425.32, 7.19, 297.11
424.86, 7.34, 296.57
424.41, 7.51, 296.04
423.91, 7.70, 295.46
423.58, 7.93, 295.08
423.27, 8.17, 294.71
422.92, 8.42, 294.31
422.56, 8.69, 293.89
432.64, 7.08, 305.83
432.50, 7.08, 305.66
432.34, 7.07, 305.48
432.17, 7.07, 305.29
¯431.99, 7.06, 305.09
431.80, 7.06, 304.86
431.59, 7.05, 304.62
431.36, 7.04, 304.36
431.11, 7.04, 304.08
430.84, 7.03, 303.76
430.53, 7.02, 303.42
430.19, 7.02, 303.03
429.81, 7.01, 302.60
429.46, 7.02, 302.19
429.10, 7.05, 301.78
428.70, 7.08, 301.32
428.98, 7.33, 301.65
428.81, 7.44, 301.46
426.48, 7.03, 298.79
425.78, 7.09, 297.98
425.30, 7.22, 297.44
424.79, 7.36, 296.86
424.33, 7.53, 296.34
423.84, 7.72, 295.78
423.55, 7.94, 295.45
428.73, 8.69, 301.38
428.65, 8.84, 301.29
422.56, 8.70, 294.33
432.59, 7.09, 305.88
432.44, 7.08, 305.72
432.29, 7.08, 305.55
432.12, 7.07, 305.36
431.93, 7.06, 305.15
431.74, 7.06, 304.93
431.52, 7.05, 304.69
431.29, 7.05, 304.44
431.04, 7.04, 304.16
430.76, 7.03, 303.85
430.45, 7.03, 303.51
430.11, 7.02, 303.13
429.73, 7.01, 302.70
429.39, 7.04, 302.33
429.03, 7.06, 301.92
428.63, 7.10, 301.48
428.93, 7.35, 301.82
428.77, 7.46, 301.64
426.54, 7.08, 299.16
425.75, 7.12, 298.29
425.28, 7.24, 297.77
424.77, 7.38, 297.20
424.27, 7.55, 296.64
423.80, 7.73, 296.12
428.53, 8.52, 301.39
428.65, 8.69, 301.53
428.62, 8.84, 301.49
¯422.56, 8.70, 294.76
432.54, 7.09, 305.94
432.39, 7.08, 305.78
432.23, 7.08, 305.61
432.06, 7.07, 305.42
431.88, 7.07, 305.22
431.68, 7.06, 305.01
431.46, 7.05, 304.77
431.22, 7.05, 304.52
430.97, 7.04, 304.24
430.69, 7.04, 303.94
430.37, 7.03, 303.60
430.03, 7.02, 303.23
429.65, 7.02, 302.81
429.31, 7.04, 302.45
428.95, 7.07, 302.06
428.55, 7.11, 301.63
428.88, 7.36, 301.99
428.72, 7.47, 301.81
428.54, 7.59, 301.63
425.73, 7.14, 298.58
425.27, 7.27, 298.08
424.76, 7.41, 297.54
424.21, 7.56, 296.94
428.51, 8.37, 301.60
423.48, 7.98, 296.16
428.68, 8.70, 301.79
422.87, 8.45, 295.51
422.55, 8.71, 295.16
432.49, 7.09, 306.00
432.34, 7.09, 305.84
432.18, 7.08, 305.67
432.01, 7.08, 305.49
431.82, 7.07, 305.29
431.62, 7.06, 305.08
431.40, 7.06, 304.85
431.16, 7.05, 304.59
430.90, 7.05, 304.32
430.61, 7.04, 304.02
430.30, 7.03, 303.69
429.95, 7.03, 303.32
429.58, 7.03, 302.94
429.23, 7.05, 302.57
428.86, 7.08, 302.19
428.46, 7.11, 301.76
428.74, 7.35, 302.06
428.57, 7.46, 301.88
426.57, 7.15, 299.77
425.66, 7.16, 298.82
425.21, 7.29, 298.35
424.72, 7.43, 297.84
¯424.19, 7.58, 297.28
423.73, 7.77, 296.79
428.49, 8.54, 301.80
428.66, 8.71, 301.99
428.55, 8.85, 301.87
422.53, 8.72, 295.54
432.44, 7.09, 306.05
432.29, 7.09, 305.90
432.13, 7.08, 305.73
431.95, 7.08, 305.55
431.76, 7.07, 305.36
431.56, 7.07, 305.15
431.33, 7.06, 304.92
431.09, 7.05, 304.67
430.83, 7.05, 304.41
430.54, 7.04, 304.11
430.22, 7.04, 303.79
429.87, 7.03, 303.42
429.51, 7.04, 303.06
429.15, 7.05, 302.69
428.78, 7.09, 302.31
428.37, 7.12, 301.89
428.55, 7.33, 302.08
428.37, 7.44, 301.89
426.41, 7.15, 299.89
425.57, 7.17, 299.04
425.07, 7.29, 298.52
424.57, 7.43, 298.02
424.03, 7.59, 297.47
423.65, 7.78, 297.08
428.46, 8.55, 302.00
428.46, 8.70, 302.00
428.46, 8.85, 302.00
422.45, 8.72, 295.86
442.31, 7.23, 312.15
442.63, 7.23, 312.29
442.98, 7.23, 312.44
443.36, 7.24, 312.61
443.72, 7.26, 312.77
444.12, 7.28, 312.94
444.56, 7.30, 313.14
445.05, 7.33, 313.35
445.51, 7.38, 313.55
445.93, 7.44, 313.73
446.38, 7.52, 313.93
446.87, 7.60, 314.14
456.82, 6.31, 318.51
442.35, 7.22, 312.07
442.67, 7.23, 312.20
443.02, 7.23, 312.35
443.40, 7.24, 312.51
¯443.77, 7.25, 312.66
444.17, 7.28, 312.83
444.62, 7.30, 313.02
445.11, 7.33, 313.23
445.55, 7.38, 313.41
445.97, 7.45, 313.59
446.42, 7.52, 313.78
446.98, 7.59, 314.01
456.87, 6.32, 318.19
442.39, 7.22, 311.98
442.71, 7.23, 312.11
443.06, 7.23, 312.25
443.44, 7.23, 312.41
443.82, 7.25, 312.56
444.22, 7.27, 312.72
444.67, 7.30, 312.90
445.16, 7.32, 313.10
445.59, 7.38, 313.28
446.01, 7.45, 313.44
446.48, 7.52, 313.63
447.13, 7.58, 313.90
456.77, 6.35, 317.81
442.42, 7.22, 311.89
442.75, 7.22, 312.02
443.10, 7.23, 312.16
443.48, 7.23, 312.30
443.86, 7.25, 312.45
444.27, 7.27, 312.61
444.72, 7.29, 312.78
445.22, 7.32, 312.98
445.63, 7.38, 313.14
446.05, 7.45, 313.30
446.62, 7.50, 313.52
455.02, 6.32, 316.80
456.67, 6.38, 317.44
442.46, 7.22, 311.80
442.78, 7.22, 311.93
443.14, 7.22, 312.06
443.51, 7.23, 312.20
443.90, 7.25, 312.34
444.31, 7.27, 312.50
444.77, 7.29, 312.66
445.27, 7.32, 312.85
445.67, 7.38, 313.00
446.15, 7.44, 313.18
446.76, 7.49, 313.40
454.95, 6.35, 316.47
456.56, 6.40, 317.07
442.49, 7.22, 311.72
442.82, 7.22, 311.83
443.18, 7.22, 311.96
¯443.55, 7.23, 312.09
443.93, 7.25, 312.23
444.35, 7.27, 312.38
444.81, 7.29, 312.54
445.32, 7.32, 312.72
445.72, 7.38, 312.87
446.28, 7.42, 313.06
446.90, 7.47, 313.28
454.76, 6.39, 316.11
456.45, 6.43, 316.71
458.77, 6.44, 317.54
442.52, 7.22, 311.63
442.85, 7.22, 311.74
443.21, 7.22, 311.86
443.58, 7.23, 311.99
443.96, 7.25, 312.12
444.39, 7.27, 312.26
444.86, 7.29, 312.42
445.35, 7.32, 312.59
445.84, 7.36, 312.76
446.41, 7.40, 312.95
447.04, 7.45, 313.16
454.66, 6.41, 315.78
456.35, 6.45, 316.36
458.21, 6.52, 316.99
442.55, 7.22, 311.54
442.88, 7.22, 311.65
443.25, 7.22, 311.76
443.61, 7.23, 311.88
444.00, 7.25, 312.01
444.42, 7.27, 312.15
444.89, 7.29, 312.30
445.42, 7.31, 312.47
445.96, 7.34, 312.64
446.53, 7.39, 312.83
447.18, 7.43, 313.04
454.57, 6.44, 315.47
456.30, 6.47, 316.03
457.68, 6.59, 316.48
442.58, 7.21, 311.45
442.91, 7.22, 311.55
443.28, 7.22, 311.66
443.64, 7.23, 311.78
444.03, 7.25, 311.90
444.45, 7.27, 312.03
444.92, 7.29, 312.17
445.46, 7.30, 312.34
446.07, 7.33, 312.53
446.66, 7.37, 312.71
448.09, 7.28, 313.16
454.48, 6.46, 315.15
¯456.25, 6.48, 315.70
457.69, 6.60, 316.15
458.84, 6.79, 316.50
442.61, 7.21, 311.36
442.94, 7.21, 311.46
443.31, 7.22, 311.56
443.67, 7.23, 311.67
444.06, 7.25, 311.78
444.48, 7.26, 311.91
444.96, 7.28, 312.05
445.51, 7.30, 312.21
446.13, 7.32, 312.39
446.79, 7.35, 312.59
448.07, 7.29, 312.97
454.38, 6.48, 314.84
456.43, 6.46, 315.45
457.79, 6.59, 315.85
458.87, 6.79, 316.16
442.64, 7.21, 311.27
442.97, 7.21, 311.36
443.34, 7.21, 311.46
443.69, 7.23, 311.56
444.08, 7.24, 311.67
444.51, 7.26, 311.79
445.00, 7.28, 311.93
445.54, 7.30, 312.08
446.18, 7.32, 312.26
446.89, 7.33, 312.46
448.04, 7.30, 312.78
454.27, 6.50, 314.54
456.71, 6.43, 315.22
457.88, 6.59, 315.55
442.66, 7.21, 311.18
442.99, 7.21, 311.26
443.36, 7.21, 311.36
443.72, 7.23, 311.46
444.11, 7.24, 311.56
444.54, 7.26, 311.67
445.03, 7.28, 311.80
445.58, 7.30, 311.95
446.22, 7.31, 312.12
446.93, 7.33, 312.31
448.00, 7.31, 312.59
454.22, 6.52, 314.25
456.98, 6.40, 314.99
458.06, 6.57, 315.27
442.68, 7.21, 311.08
443.02, 7.21, 311.17
443.38, 7.21, 311.26
443.74, 7.23, 311.35
444.14, 7.24, 311.45
¯444.57, 7.26, 311.56
445.06, 7.28, 311.68
445.62, 7.29, 311.82
446.25, 7.31, 311.97
446.95, 7.33, 312.15
447.91, 7.33, 312.39
454.19, 6.53, 313.98
457.10, 6.38, 314.71
458.39, 6.53, 315.03
442.70, 7.20, 310.99
443.04, 7.21, 311.07
443.41, 7.21, 311.16
443.76, 7.22, 311.24
444.16, 7.24, 311.33
444.60, 7.26, 311.44
445.09, 7.27, 311.55
445.65, 7.29, 311.68
446.29, 7.31, 311.83
446.91, 7.34, 311.98
447.75, 7.36, 312.18
454.16, 6.54, 313.70
457.27, 6.36, 314.44
458.74, 6.49, 314.78
442.72, 7.20, 310.90
443.06, 7.20, 310.97
443.43, 7.21, 311.05
443.79, 7.22, 311.13
444.18, 7.24, 311.22
444.63, 7.25, 311.32
445.12, 7.27, 311.43
445.68, 7.29, 311.55
446.32, 7.30, 311.69
446.86, 7.36, 311.81
447.60, 7.39, 311.97
454.21, 6.53, 313.45
457.31, 6.36, 314.14
459.13, 6.44, 314.54
460.10, 6.67, 314.75
442.74, 7.20, 310.81
443.08, 7.20, 310.88
443.44, 7.21, 310.95
443.80, 7.22, 311.02
444.21, 7.24, 311.11
444.65, 7.25, 311.20
445.15, 7.27, 311.30
445.71, 7.28, 311.42
446.34, 7.30, 311.54
446.81, 7.37, 311.64
447.44, 7.42, 311.77
454.51, 6.49, 313.25
457.34, 6.36, 313.83
¯459.07, 6.45, 314.19
459.82, 6.70, 314.34
442.76, 7.20, 310.71
443.10, 7.20, 310.78
443.46, 7.21, 310.85
443.82, 7.22, 310.92
444.23, 7.23, 310.99
444.68, 7.25, 311.08
445.17, 7.27, 311.17
445.74, 7.28, 311.28
446.29, 7.31, 311.39
446.76, 7.38, 311.48
447.29, 7.45, 311.58
454.80, 6.44, 313.04
457.36, 6.36, 313.53
459.10, 6.45, 313.86
459.84, 6.70, 314.00
442.78, 7.20, 310.62
443.12, 7.20, 310.68
443.48, 7.20, 310.74
443.84, 7.22, 310.81
444.25, 7.23, 310.88
444.70, 7.25, 310.96
445.19, 7.26, 311.05
445.76, 7.28, 311.15
446.25, 7.32, 311.23
446.71, 7.39, 311.31
447.22, 7.46, 311.40
455.08, 6.40, 312.82
457.38, 6.36, 313.23
459.12, 6.44, 313.53
459.86, 6.69, 313.66
442.79, 7.20, 310.53
443.13, 7.20, 310.58
443.49, 7.20, 310.64
443.86, 7.21, 310.70
444.27, 7.23, 310.77
444.72, 7.24, 310.84
445.22, 7.26, 310.92
445.78, 7.27, 311.01
446.21, 7.33, 311.08
446.66, 7.40, 311.15
447.16, 7.47, 311.23
455.17, 6.39, 312.56
457.39, 6.35, 312.93
459.13, 6.44, 313.21
459.87, 6.69, 313.32
460.57, 6.96, 313.43
442.81, 7.19, 310.43
443.15, 7.19, 310.48
443.51, 7.20, 310.54
¯443.88, 7.21, 310.59
444.29, 7.23, 310.65
444.74, 7.24, 310.72
445.23, 7.26, 310.79
445.74, 7.28, 310.87
446.16, 7.34, 310.93
446.61, 7.41, 310.99
447.11, 7.48, 311.07
454.48, 6.50, 312.19
457.43, 6.35, 312.63
459.15, 6.44, 312.88
459.84, 6.69, 312.98
460.54, 6.96, 313.07
442.82, 7.19, 310.34
443.16, 7.19, 310.39
443.52, 7.20, 310.43
443.89, 7.21, 310.48
444.30, 7.22, 310.54
444.75, 7.24, 310.60
445.25, 7.25, 310.67
445.70, 7.29, 310.73
446.12, 7.35, 310.78
446.56, 7.42, 310.84
447.05, 7.49, 310.90
453.11, 6.71, 311.73
457.39, 6.35, 312.32
459.15, 6.44, 312.55
459.81, 6.69, 312.63
460.50, 6.96, 312.72
442.83, 7.19, 310.25
443.17, 7.19, 310.29
443.53, 7.20, 310.33
443.91, 7.21, 310.38
444.32, 7.22, 310.42
444.77, 7.23, 310.48
445.27, 7.25, 310.54
445.66, 7.30, 310.58
446.07, 7.36, 310.63
446.51, 7.43, 310.68
446.99, 7.50, 310.74
452.90, 6.74, 311.47
457.28, 6.36, 312.00
459.13, 6.43, 312.22
459.78, 6.69, 312.30
460.47, 6.96, 312.37
442.84, 7.19, 310.15
443.19, 7.19, 310.19
443.54, 7.19, 310.23
443.92, 7.20, 310.27
444.33, 7.22, 310.31
444.78, 7.23, 310.36
¯445.29, 7.24, 310.41
445.66, 7.30, 310.45
446.05, 7.37, 310.49
446.47, 7.43, 310.53
446.93, 7.51, 310.58
452.68, 6.77, 311.21
457.17, 6.38, 311.69
459.11, 6.43, 311.90
459.76, 6.69, 311.96
460.45, 6.96, 312.02
442.85, 7.18, 310.06
443.20, 7.18, 310.09
443.55, 7.19, 310.12
443.93, 7.20, 310.16
444.34, 7.21, 310.20
444.79, 7.23, 310.24
445.31, 7.24, 310.28
445.67, 7.30, 310.32
446.06, 7.36, 310.35
446.48, 7.43, 310.39
446.94, 7.50, 310.43
452.47, 6.80, 310.95
457.06, 6.39, 311.39
459.09, 6.43, 311.57
459.74, 6.69, 311.62
460.37, 6.96, 311.67
442.86, 7.18, 309.97
443.20, 7.18, 309.99
443.56, 7.19, 310.02
443.94, 7.20, 310.05
444.35, 7.21, 310.08
444.80, 7.22, 310.12
445.32, 7.24, 310.16
445.69, 7.29, 310.18
446.08, 7.36, 310.21
446.50, 7.43, 310.24
446.95, 7.50, 310.28
452.26, 6.83, 310.71
456.77, 6.43, 311.07
459.07, 6.43, 311.25
459.71, 6.68, 311.29
460.28, 6.96, 311.33
442.87, 7.18, 309.87
443.21, 7.18, 309.89
443.57, 7.18, 309.92
443.94, 7.20, 309.94
444.36, 7.21, 309.97
444.81, 7.22, 309.99
445.34, 7.23, 310.03
445.70, 7.29, 310.05
446.09, 7.35, 310.07
¯446.51, 7.42, 310.10
446.97, 7.49, 310.12
452.09, 6.85, 310.47
456.42, 6.47, 310.76
459.04, 6.43, 310.92
459.64, 6.68, 310.95
460.19, 6.96, 310.98
460.78, 7.26, 311.01
442.87, 7.17, 309.78
443.22, 7.18, 309.79
443.57, 7.18, 309.81
443.95, 7.19, 309.83
444.36, 7.21, 309.85
444.83, 7.22, 309.87
445.35, 7.23, 309.90
445.71, 7.29, 309.92
446.10, 7.35, 309.93
446.52, 7.42, 309.95
447.00, 7.49, 309.97
452.00, 6.86, 310.24
456.12, 6.51, 310.46
459.02, 6.42, 310.60
459.55, 6.69, 310.62
460.11, 6.96, 310.64
460.68, 7.25, 310.66
442.88, 7.17, 309.68
443.22, 7.17, 309.70
443.58, 7.18, 309.71
443.95, 7.19, 309.72
444.36, 7.20, 309.74
444.84, 7.21, 309.75
445.36, 7.22, 309.77
445.72, 7.28, 309.78
446.11, 7.34, 309.79
446.53, 7.41, 309.81
447.02, 7.48, 309.82
451.90, 6.87, 310.01
455.91, 6.53, 310.17
459.07, 6.41, 310.29
459.59, 6.67, 310.30
460.14, 6.95, 310.31
460.71, 7.24, 310.32
442.88, 7.17, 309.59
443.22, 7.17, 309.60
443.58, 7.18, 309.60
443.95, 7.19, 309.61
444.37, 7.20, 309.62
444.85, 7.20, 309.63
445.36, 7.22, 309.64
445.73, 7.28, 309.65
446.12, 7.34, 309.65
¯446.55, 7.40, 309.66
447.04, 7.47, 309.67
451.80, 6.88, 309.79
455.70, 6.55, 309.89
459.14, 6.39, 309.97
459.67, 6.66, 309.97
460.22, 6.94, 309.97
460.84, 7.22, 309.98
442.88, 7.17, 309.49
443.22, 7.17, 309.50
443.58, 7.17, 309.50
443.96, 7.18, 309.50
444.37, 7.19, 309.51
444.86, 7.20, 309.51
445.37, 7.21, 309.51
445.74, 7.27, 309.51
446.13, 7.33, 309.51
446.57, 7.40, 309.52
447.05, 7.47, 309.52
451.69, 6.89, 309.57
455.48, 6.58, 309.61
459.21, 6.37, 309.65
459.74, 6.64, 309.64
460.33, 6.92, 309.64
442.88, 7.16, 309.40
443.22, 7.16, 309.40
443.58, 7.17, 309.40
443.95, 7.18, 309.39
444.38, 7.19, 309.39
444.87, 7.19, 309.39
445.38, 7.21, 309.38
445.74, 7.26, 309.38
446.14, 7.33, 309.38
446.58, 7.39, 309.37
447.07, 7.46, 309.37
449.11, 7.30, 309.36
455.25, 6.60, 309.34
459.28, 6.35, 309.33
459.83, 6.62, 309.31
460.45, 6.89, 309.30
442.88, 7.16, 309.31
443.22, 7.16, 309.30
443.58, 7.17, 309.29
443.95, 7.18, 309.28
444.39, 7.18, 309.27
444.88, 7.19, 309.26
445.38, 7.20, 309.25
445.75, 7.26, 309.25
446.15, 7.32, 309.24
446.60, 7.38, 309.22
447.09, 7.45, 309.21
¯448.97, 7.31, 309.18
454.11, 6.76, 309.09
459.35, 6.33, 309.00
459.95, 6.59, 308.98
460.58, 6.87, 308.96
442.87, 7.16, 309.21
443.22, 7.16, 309.20
443.57, 7.16, 309.19
443.95, 7.17, 309.17
444.39, 7.18, 309.16
444.88, 7.18, 309.14
445.38, 7.20, 309.12
445.75, 7.25, 309.11
446.16, 7.31, 309.09
446.61, 7.37, 309.08
447.10, 7.44, 309.06
448.82, 7.33, 309.00
453.09, 6.89, 308.87
459.46, 6.31, 308.67
460.07, 6.57, 308.65
460.71, 6.84, 308.61
442.87, 7.16, 309.12
443.21, 7.16, 309.10
443.57, 7.16, 309.08
443.95, 7.17, 309.06
444.39, 7.17, 309.04
444.88, 7.18, 309.02
445.38, 7.19, 309.00
445.75, 7.25, 308.98
446.17, 7.30, 308.95
446.62, 7.37, 308.93
447.11, 7.43, 308.90
448.68, 7.34, 308.83
452.95, 6.90, 308.64
459.58, 6.28, 308.34
460.20, 6.54, 308.31
460.82, 6.82, 308.27
442.86, 7.15, 309.02
443.20, 7.15, 309.00
443.56, 7.16, 308.98
443.95, 7.16, 308.96
444.39, 7.17, 308.93
444.88, 7.17, 308.90
445.38, 7.18, 308.87
445.76, 7.24, 308.84
446.18, 7.30, 308.81
446.63, 7.36, 308.78
447.13, 7.43, 308.75
448.53, 7.36, 308.66
452.86, 6.91, 308.41
459.71, 6.25, 308.01
¯460.33, 6.51, 307.96
442.85, 7.15, 308.93
443.19, 7.15, 308.90
443.55, 7.15, 308.88
443.95, 7.16, 308.85
444.39, 7.16, 308.81
444.88, 7.16, 308.77
445.38, 7.18, 308.74
445.77, 7.23, 308.70
446.19, 7.29, 308.67
446.64, 7.35, 308.63
447.14, 7.42, 308.59
448.63, 7.34, 308.48
452.81, 6.91, 308.18
459.83, 6.22, 307.67
460.40, 6.49, 307.62
442.84, 7.15, 308.84
443.18, 7.15, 308.80
443.54, 7.15, 308.77
443.94, 7.15, 308.74
444.38, 7.16, 308.70
444.88, 7.16, 308.65
445.38, 7.17, 308.61
445.77, 7.22, 308.57
446.19, 7.28, 308.53
446.64, 7.34, 308.49
447.15, 7.41, 308.44
448.92, 7.28, 308.28
452.79, 6.90, 307.95
459.92, 6.19, 307.33
460.48, 6.47, 307.27
442.83, 7.15, 308.74
443.17, 7.14, 308.71
443.54, 7.15, 308.67
443.94, 7.15, 308.63
444.38, 7.15, 308.58
444.87, 7.15, 308.53
445.38, 7.16, 308.48
445.76, 7.22, 308.43
446.18, 7.27, 308.39
446.63, 7.34, 308.34
447.33, 7.37, 308.27
448.97, 7.26, 308.10
452.76, 6.89, 307.72
459.99, 6.17, 306.99
460.55, 6.44, 306.92
442.82, 7.14, 308.65
443.16, 7.14, 308.61
443.53, 7.14, 308.56
443.92, 7.14, 308.52
444.36, 7.15, 308.47
¯444.85, 7.15, 308.41
445.37, 7.16, 308.35
445.76, 7.21, 308.30
446.17, 7.27, 308.25
446.62, 7.33, 308.19
447.56, 7.32, 308.08
449.02, 7.25, 307.91
452.72, 6.88, 307.49
460.06, 6.14, 306.64
460.57, 6.42, 306.57
442.80, 7.14, 308.56
443.14, 7.14, 308.51
443.51, 7.14, 308.46
443.91, 7.14, 308.41
444.35, 7.14, 308.35
444.83, 7.15, 308.29
445.36, 7.15, 308.22
445.75, 7.20, 308.16
446.16, 7.26, 308.11
446.61, 7.32, 308.04
447.79, 7.27, 307.89
449.06, 7.23, 307.72
452.67, 6.88, 307.26
459.91, 6.14, 306.32
460.42, 6.42, 306.25
442.79, 7.14, 308.46
443.13, 7.14, 308.41
443.50, 7.14, 308.36
443.89, 7.14, 308.30
444.33, 7.14, 308.24
444.81, 7.14, 308.17
445.35, 7.15, 308.09
445.73, 7.20, 308.03
446.15, 7.25, 307.96
446.64, 7.31, 307.89
448.03, 7.21, 307.69
449.11, 7.21, 307.53
452.62, 6.87, 307.03
459.76, 6.15, 306.01
442.77, 7.14, 308.37
443.11, 7.13, 308.32
443.48, 7.13, 308.26
443.87, 7.14, 308.19
444.31, 7.14, 308.12
444.79, 7.14, 308.05
445.34, 7.14, 307.96
445.72, 7.19, 307.89
446.14, 7.25, 307.82
446.78, 7.27, 307.72
448.20, 7.17, 307.49
448.19, 7.35, 307.49
¯448.15, 7.53, 307.49
448.11, 7.71, 307.49
448.07, 7.89, 307.49
448.04, 8.07, 307.49
448.06, 8.24, 307.48
448.08, 8.41, 307.47
442.75, 7.13, 308.28
443.09, 7.13, 308.22
443.46, 7.13, 308.15
443.85, 7.13, 308.09
444.28, 7.13, 308.01
444.77, 7.13, 307.92
445.32, 7.13, 307.83
445.71, 7.18, 307.76
