žVERSION 0.7
FIELDS x y z
SIZE 8 8 8
TYPE F F F
COUNT 1 1 1
WIDTH 2271
HEIGHT 1
VIEWPOINT 340.01, 7.11, 310.91 1 359.02, 4.90, 318.57
POINTS 2271
DATA ascii
369.36, 5.57, 311.57
369.40, 5.78, 311.53
369.44, 5.99, 311.48
363.38, 2.30, 314.63
363.64, 2.34, 314.50
363.90, 2.39, 314.37
364.17, 2.44, 314.23
364.46, 2.49, 314.08
364.82, 2.54, 313.91
365.44, 2.54, 313.61
366.12, 2.55, 313.28
366.78, 2.59, 312.96
367.56, 2.62, 312.58
367.92, 2.74, 312.39
368.24, 2.88, 312.22
368.57, 3.03, 312.04
368.68, 3.20, 311.97
368.72, 3.39, 311.93
368.76, 3.58, 311.88
368.80, 3.77, 311.84
368.85, 3.96, 311.79
368.89, 4.15, 311.75
368.93, 4.35, 311.70
368.98, 4.54, 311.66
369.02, 4.74, 311.61
369.07, 4.94, 311.56
369.11, 5.14, 311.52
369.16, 5.34, 311.47
369.20, 5.54, 311.43
369.24, 5.75, 311.38
¯369.28, 5.96, 311.33
363.32, 2.29, 314.54
363.57, 2.33, 314.41
363.82, 2.38, 314.28
364.09, 2.43, 314.14
364.38, 2.48, 313.99
364.73, 2.53, 313.81
365.35, 2.53, 313.50
366.02, 2.54, 313.16
366.67, 2.58, 312.83
367.36, 2.62, 312.49
367.65, 2.75, 312.33
367.95, 2.89, 312.16
368.27, 3.03, 311.98
368.51, 3.19, 311.84
368.55, 3.38, 311.80
368.59, 3.56, 311.75
368.63, 3.75, 311.71
368.67, 3.94, 311.66
368.72, 4.13, 311.62
368.76, 4.32, 311.57
368.80, 4.52, 311.53
368.85, 4.71, 311.48
368.89, 4.91, 311.43
368.93, 5.11, 311.39
368.98, 5.31, 311.34
369.02, 5.51, 311.29
369.07, 5.72, 311.24
369.11, 5.93, 311.19
363.25, 2.29, 314.46
363.49, 2.33, 314.33
363.74, 2.38, 314.19
364.01, 2.42, 314.05
364.29, 2.48, 313.89
364.65, 2.52, 313.71
365.26, 2.52, 313.39
365.92, 2.53, 313.05
366.56, 2.57, 312.71
367.14, 2.63, 312.41
367.38, 2.76, 312.27
367.67, 2.90, 312.10
367.97, 3.04, 311.93
368.29, 3.18, 311.74
368.38, 3.36, 311.67
368.42, 3.55, 311.63
368.46, 3.74, 311.58
368.50, 3.92, 311.54
368.54, 4.11, 311.49
368.59, 4.30, 311.44
368.63, 4.50, 311.40
368.67, 4.69, 311.35
¯368.71, 4.88, 311.30
368.75, 5.08, 311.26
368.80, 5.28, 311.21
368.84, 5.48, 311.16
368.88, 5.69, 311.11
368.93, 5.89, 311.06
363.18, 2.28, 314.38
363.42, 2.32, 314.24
363.67, 2.37, 314.11
363.93, 2.42, 313.96
364.21, 2.47, 313.80
364.56, 2.52, 313.61
365.17, 2.51, 313.29
365.82, 2.52, 312.94
366.45, 2.55, 312.60
367.02, 2.62, 312.29
367.15, 2.77, 312.19
367.40, 2.90, 312.05
367.69, 3.04, 311.87
368.00, 3.19, 311.69
368.22, 3.35, 311.55
368.26, 3.53, 311.50
368.30, 3.72, 311.46
368.34, 3.91, 311.41
368.38, 4.09, 311.37
368.42, 4.28, 311.32
368.46, 4.47, 311.27
368.50, 4.67, 311.22
368.54, 4.86, 311.18
368.58, 5.06, 311.13
368.62, 5.25, 311.08
368.66, 5.45, 311.03
368.71, 5.65, 310.98
368.75, 5.86, 310.93
363.11, 2.28, 314.30
363.34, 2.32, 314.16
363.59, 2.36, 314.02
363.85, 2.41, 313.87
364.12, 2.46, 313.71
364.47, 2.51, 313.51
365.07, 2.51, 313.18
365.71, 2.51, 312.83
366.33, 2.54, 312.48
366.89, 2.61, 312.16
367.02, 2.75, 312.07
367.16, 2.91, 311.98
367.41, 3.05, 311.82
367.71, 3.19, 311.64
368.02, 3.34, 311.45
368.09, 3.52, 311.38
368.13, 3.70, 311.33
¯368.17, 3.89, 311.29
368.21, 4.07, 311.24
368.25, 4.26, 311.19
368.29, 4.45, 311.15
368.33, 4.64, 311.10
368.37, 4.83, 311.05
368.41, 5.03, 311.00
368.45, 5.23, 310.95
368.49, 5.42, 310.91
368.53, 5.62, 310.86
368.57, 5.83, 310.81
363.04, 2.27, 314.22
363.27, 2.31, 314.08
363.51, 2.36, 313.94
363.76, 2.41, 313.78
364.04, 2.46, 313.62
364.38, 2.50, 313.42
364.97, 2.50, 313.08
365.61, 2.50, 312.72
366.20, 2.54, 312.37
366.76, 2.60, 312.05
366.90, 2.74, 311.95
367.03, 2.89, 311.86
367.17, 3.05, 311.76
367.43, 3.19, 311.59
367.72, 3.34, 311.40
367.93, 3.50, 311.26
367.97, 3.68, 311.21
368.00, 3.87, 311.17
368.04, 4.05, 311.12
368.08, 4.24, 311.07
368.12, 4.43, 311.02
368.16, 4.62, 310.98
368.20, 4.81, 310.93
368.23, 5.00, 310.88
368.27, 5.20, 310.83
368.31, 5.39, 310.78
368.35, 5.59, 310.73
368.40, 5.79, 310.68
362.96, 2.27, 314.14
363.19, 2.31, 314.00
363.43, 2.35, 313.85
363.68, 2.40, 313.70
363.95, 2.45, 313.53
364.29, 2.49, 313.33
364.87, 2.49, 312.99
365.50, 2.49, 312.61
366.07, 2.53, 312.27
366.64, 2.58, 311.93
366.77, 2.73, 311.83
366.90, 2.88, 311.74
¯367.03, 3.03, 311.63
367.17, 3.19, 311.53
367.44, 3.34, 311.35
367.74, 3.49, 311.16
367.81, 3.67, 311.09
367.84, 3.85, 311.05
367.88, 4.03, 311.00
367.92, 4.22, 310.95
367.95, 4.41, 310.90
367.99, 4.60, 310.85
368.03, 4.79, 310.81
368.07, 4.98, 310.76
368.10, 5.17, 310.71
368.14, 5.37, 310.66
368.18, 5.56, 310.61
368.22, 5.76, 310.56
362.89, 2.26, 314.06
363.11, 2.30, 313.92
363.35, 2.34, 313.77
363.60, 2.39, 313.61
363.86, 2.44, 313.44
364.20, 2.48, 313.24
364.76, 2.48, 312.89
365.39, 2.48, 312.51
365.94, 2.52, 312.17
366.52, 2.57, 311.81
366.64, 2.72, 311.72
366.77, 2.87, 311.62
366.90, 3.02, 311.51
367.04, 3.17, 311.41
367.18, 3.33, 311.30
367.45, 3.48, 311.12
367.65, 3.65, 310.97
367.68, 3.83, 310.93
367.72, 4.01, 310.88
367.75, 4.20, 310.83
367.79, 4.38, 310.78
367.83, 4.57, 310.73
367.86, 4.76, 310.69
367.90, 4.95, 310.64
367.94, 5.14, 310.59
367.98, 5.34, 310.54
368.02, 5.54, 310.48
368.07, 5.73, 310.42
362.82, 2.25, 313.98
363.04, 2.29, 313.84
363.27, 2.34, 313.69
363.51, 2.38, 313.53
363.77, 2.43, 313.36
364.10, 2.48, 313.15
364.66, 2.47, 312.80
¯365.27, 2.48, 312.41
365.81, 2.51, 312.07
366.39, 2.56, 311.70
366.52, 2.70, 311.60
366.64, 2.85, 311.50
366.77, 3.00, 311.40
366.90, 3.16, 311.29
367.04, 3.32, 311.18
367.18, 3.48, 311.07
367.46, 3.63, 310.87
367.52, 3.81, 310.81
367.56, 4.00, 310.76
367.59, 4.18, 310.71
367.63, 4.36, 310.66
367.66, 4.55, 310.62
367.70, 4.74, 310.57
367.74, 4.93, 310.51
367.78, 5.12, 310.46
367.83, 5.31, 310.40
367.88, 5.51, 310.34
367.92, 5.71, 310.29
362.74, 2.25, 313.91
362.96, 2.29, 313.76
363.19, 2.33, 313.61
363.43, 2.38, 313.45
363.69, 2.43, 313.27
364.01, 2.47, 313.06
364.56, 2.46, 312.70
365.17, 2.46, 312.31
365.67, 2.51, 311.97
366.26, 2.55, 311.59
366.39, 2.69, 311.48
366.51, 2.84, 311.38
366.64, 2.99, 311.28
366.77, 3.14, 311.17
366.91, 3.30, 311.06
367.04, 3.46, 310.95
367.18, 3.63, 310.84
367.37, 3.79, 310.69
367.40, 3.98, 310.64
367.43, 4.16, 310.60
367.47, 4.34, 310.55
367.51, 4.53, 310.49
367.55, 4.71, 310.44
367.60, 4.90, 310.38
367.64, 5.09, 310.33
367.69, 5.29, 310.27
367.73, 5.48, 310.21
367.78, 5.68, 310.15
362.67, 2.24, 313.84
362.88, 2.28, 313.69
¯363.11, 2.32, 313.53
363.35, 2.37, 313.36
363.60, 2.42, 313.19
363.91, 2.46, 312.97
364.45, 2.46, 312.61
365.08, 2.45, 312.19
365.54, 2.50, 311.88
366.12, 2.54, 311.49
366.27, 2.68, 311.37
366.39, 2.82, 311.27
366.51, 2.97, 311.16
366.64, 3.13, 311.05
366.77, 3.28, 310.94
366.91, 3.44, 310.83
367.04, 3.61, 310.71
367.18, 3.78, 310.59
367.25, 3.96, 310.53
367.29, 4.14, 310.47
367.33, 4.32, 310.42
367.37, 4.50, 310.36
367.41, 4.69, 310.31
367.46, 4.88, 310.25
367.50, 5.07, 310.19
367.54, 5.26, 310.14
367.59, 5.45, 310.08
367.63, 5.65, 310.02
362.59, 2.24, 313.76
362.80, 2.28, 313.61
363.02, 2.32, 313.45
363.26, 2.36, 313.28
363.51, 2.41, 313.11
363.81, 2.45, 312.89
364.34, 2.45, 312.53
364.99, 2.43, 312.08
365.41, 2.49, 311.79
365.97, 2.53, 311.39
366.14, 2.66, 311.26
366.26, 2.81, 311.15
366.38, 2.96, 311.05
366.51, 3.11, 310.94
366.64, 3.27, 310.83
366.77, 3.43, 310.71
366.90, 3.59, 310.59
367.04, 3.76, 310.48
367.11, 3.94, 310.40
367.15, 4.12, 310.35
367.19, 4.30, 310.29
367.23, 4.48, 310.23
367.27, 4.67, 310.18
367.32, 4.85, 310.12
367.36, 5.04, 310.06
¯367.40, 5.23, 310.00
367.44, 5.43, 309.95
367.49, 5.62, 309.89
362.51, 2.23, 313.69
362.72, 2.27, 313.54
362.94, 2.31, 313.38
363.17, 2.36, 313.21
363.42, 2.40, 313.02
363.71, 2.45, 312.81
364.26, 2.43, 312.42
364.89, 2.42, 311.98
365.27, 2.48, 311.70
365.83, 2.52, 311.30
366.02, 2.65, 311.15
366.13, 2.79, 311.04
366.26, 2.94, 310.93
366.38, 3.09, 310.82
366.51, 3.25, 310.71
366.63, 3.41, 310.59
366.76, 3.57, 310.48
366.88, 3.74, 310.37
366.97, 3.91, 310.28
367.01, 4.09, 310.22
367.05, 4.27, 310.17
367.09, 4.46, 310.11
367.13, 4.64, 310.05
367.18, 4.83, 309.99
367.22, 5.02, 309.93
367.26, 5.21, 309.87
367.30, 5.40, 309.81
367.35, 5.60, 309.75
362.43, 2.23, 313.62
362.64, 2.26, 313.47
362.85, 2.30, 313.30
363.08, 2.35, 313.13
363.33, 2.40, 312.94
363.61, 2.44, 312.73
364.18, 2.42, 312.32
364.80, 2.40, 311.87
365.16, 2.47, 311.59
365.68, 2.51, 311.21
365.89, 2.63, 311.03
366.01, 2.78, 310.93
366.13, 2.93, 310.82
366.25, 3.08, 310.71
366.37, 3.23, 310.59
366.49, 3.39, 310.48
366.61, 3.55, 310.37
366.73, 3.72, 310.26
366.83, 3.89, 310.16
366.87, 4.07, 310.10
¯366.91, 4.25, 310.04
366.95, 4.43, 309.98
366.99, 4.62, 309.93
367.03, 4.80, 309.87
367.07, 4.99, 309.81
367.12, 5.18, 309.75
367.16, 5.37, 309.69
367.20, 5.57, 309.62
362.35, 2.22, 313.56
362.56, 2.26, 313.40
362.77, 2.30, 313.23
363.00, 2.34, 313.05
363.24, 2.39, 312.87
363.51, 2.43, 312.65
364.10, 2.40, 312.22
364.70, 2.39, 311.76
365.06, 2.45, 311.48
365.54, 2.50, 311.12
365.77, 2.62, 310.92
365.88, 2.76, 310.82
366.00, 2.91, 310.71
366.12, 3.06, 310.59
366.23, 3.21, 310.48
366.35, 3.37, 310.37
366.46, 3.54, 310.26
366.58, 3.70, 310.15
366.69, 3.87, 310.04
366.73, 4.05, 309.98
366.77, 4.23, 309.92
366.81, 4.41, 309.86
366.85, 4.60, 309.80
366.89, 4.78, 309.74
366.93, 4.97, 309.68
366.97, 5.16, 309.62
367.01, 5.35, 309.56
367.06, 5.54, 309.50
362.27, 2.21, 313.49
362.48, 2.25, 313.33
362.69, 2.29, 313.16
362.91, 2.33, 312.98
363.14, 2.38, 312.79
363.41, 2.43, 312.58
364.02, 2.39, 312.11
364.61, 2.37, 311.66
364.96, 2.44, 311.37
365.39, 2.50, 311.03
365.65, 2.60, 310.82
365.76, 2.75, 310.71
365.87, 2.89, 310.59
365.98, 3.04, 310.48
366.09, 3.20, 310.38
¯366.20, 3.36, 310.27
366.31, 3.52, 310.15
366.43, 3.68, 310.04
366.55, 3.85, 309.92
366.59, 4.03, 309.86
366.63, 4.21, 309.80
366.67, 4.39, 309.74
366.71, 4.57, 309.68
366.75, 4.76, 309.62
366.79, 4.94, 309.56
366.83, 5.13, 309.50
366.87, 5.32, 309.44
366.91, 5.52, 309.37
362.19, 2.21, 313.42
362.40, 2.24, 313.26
362.60, 2.28, 313.09
362.82, 2.33, 312.91
363.05, 2.37, 312.71
363.30, 2.42, 312.50
363.93, 2.37, 312.01
364.51, 2.36, 311.55
364.86, 2.42, 311.26
365.24, 2.49, 310.95
365.53, 2.59, 310.71
365.64, 2.73, 310.60
365.74, 2.88, 310.49
365.84, 3.03, 310.38
365.95, 3.18, 310.27
366.06, 3.34, 310.16
366.17, 3.50, 310.05
366.28, 3.66, 309.93
366.40, 3.83, 309.81
366.45, 4.01, 309.74
366.49, 4.19, 309.68
366.53, 4.37, 309.62
366.57, 4.55, 309.56
366.60, 4.73, 309.50
366.64, 4.92, 309.44
366.68, 5.11, 309.37
366.72, 5.30, 309.31
366.76, 5.49, 309.25
362.11, 2.20, 313.36
362.31, 2.24, 313.19
362.52, 2.28, 313.02
362.73, 2.32, 312.83
362.96, 2.36, 312.64
363.21, 2.41, 312.43
363.84, 2.36, 311.91
364.41, 2.34, 311.45
364.76, 2.40, 311.16
365.13, 2.47, 310.84
¯365.40, 2.57, 310.60
365.51, 2.71, 310.49
365.60, 2.86, 310.39
365.71, 3.01, 310.28
365.81, 3.16, 310.17
365.91, 3.32, 310.06
366.02, 3.48, 309.94
366.13, 3.64, 309.82
366.24, 3.81, 309.70
366.31, 3.99, 309.62
366.35, 4.16, 309.56
366.39, 4.34, 309.50
366.43, 4.52, 309.44
366.46, 4.71, 309.38
366.50, 4.89, 309.31
366.54, 5.08, 309.25
366.58, 5.27, 309.19
366.62, 5.46, 309.12
362.03, 2.20, 313.30
362.23, 2.23, 313.12
362.43, 2.27, 312.95
362.64, 2.31, 312.76
362.86, 2.35, 312.57
363.11, 2.40, 312.35
363.75, 2.34, 311.82
364.31, 2.33, 311.35
364.65, 2.39, 311.05
365.02, 2.45, 310.73
365.28, 2.56, 310.50
365.37, 2.70, 310.39
365.47, 2.85, 310.29
365.57, 3.00, 310.18
365.67, 3.15, 310.07
365.77, 3.30, 309.95
365.88, 3.46, 309.84
365.99, 3.63, 309.72
366.10, 3.79, 309.60
366.18, 3.96, 309.50
366.21, 4.14, 309.44
366.25, 4.32, 309.38
366.29, 4.50, 309.32
366.32, 4.68, 309.26
366.36, 4.87, 309.19
366.40, 5.06, 309.13
366.44, 5.24, 309.07
366.48, 5.44, 309.00
361.94, 2.19, 313.24
362.15, 2.22, 313.06
362.34, 2.26, 312.88
362.55, 2.30, 312.69
362.77, 2.35, 312.49
¯363.01, 2.39, 312.28
363.66, 2.33, 311.72
364.21, 2.31, 311.25
364.55, 2.37, 310.95
364.91, 2.44, 310.62
365.15, 2.54, 310.39
365.24, 2.69, 310.29
365.33, 2.83, 310.19
365.43, 2.98, 310.08
365.53, 3.13, 309.97
365.63, 3.29, 309.85
365.73, 3.44, 309.73
365.84, 3.61, 309.62
365.95, 3.77, 309.49
366.04, 3.94, 309.38
366.08, 4.12, 309.32
366.11, 4.30, 309.26
366.15, 4.48, 309.20
366.18, 4.66, 309.13
366.22, 4.84, 309.07
366.26, 5.03, 309.01
366.30, 5.22, 308.94
366.33, 5.41, 308.88
361.86, 2.19, 313.18
362.07, 2.21, 312.99
362.26, 2.25, 312.81
362.46, 2.29, 312.63
362.68, 2.34, 312.42
362.92, 2.38, 312.20
363.57, 2.31, 311.63
364.11, 2.30, 311.15
364.44, 2.35, 310.84
364.79, 2.42, 310.52
365.03, 2.52, 310.29
365.11, 2.67, 310.19
365.20, 2.81, 310.09
365.29, 2.96, 309.98
365.39, 3.11, 309.87
365.49, 3.27, 309.75
365.59, 3.43, 309.63
365.69, 3.59, 309.51
365.80, 3.75, 309.39
365.91, 3.92, 309.26
365.94, 4.10, 309.20
365.98, 4.27, 309.14
366.01, 4.45, 309.08
366.05, 4.64, 309.02
366.08, 4.82, 308.95
366.12, 5.01, 308.89
366.15, 5.19, 308.82
366.19, 5.38, 308.76
¯361.78, 2.18, 313.12
361.98, 2.21, 312.93
362.17, 2.24, 312.75
362.37, 2.29, 312.56
362.59, 2.33, 312.35
362.82, 2.37, 312.13
363.47, 2.30, 311.54
364.01, 2.28, 311.05
364.34, 2.34, 310.74
364.65, 2.41, 310.44
364.91, 2.51, 310.19
364.99, 2.65, 310.09
365.08, 2.80, 309.98
365.16, 2.94, 309.88
365.25, 3.10, 309.77
365.35, 3.25, 309.65
365.45, 3.41, 309.53
365.55, 3.57, 309.41
365.65, 3.73, 309.29
365.76, 3.90, 309.16
365.80, 4.07, 309.08
365.84, 4.25, 309.02
365.87, 4.43, 308.96
365.91, 4.61, 308.90
365.94, 4.80, 308.83
365.98, 4.98, 308.77
366.01, 5.17, 308.70
366.05, 5.36, 308.63
361.69, 2.18, 313.06
361.90, 2.20, 312.86
362.08, 2.24, 312.68
362.28, 2.28, 312.49
362.49, 2.32, 312.28
362.73, 2.36, 312.05
363.37, 2.28, 311.46
363.91, 2.26, 310.96
364.23, 2.32, 310.64
364.52, 2.40, 310.36
364.78, 2.49, 310.09
364.87, 2.63, 309.98
364.95, 2.78, 309.88
365.04, 2.93, 309.77
365.12, 3.08, 309.66
365.21, 3.23, 309.55
365.31, 3.39, 309.43
365.41, 3.55, 309.31
365.51, 3.71, 309.18
365.61, 3.88, 309.05
365.67, 4.05, 308.97
365.70, 4.23, 308.90
365.74, 4.41, 308.84
¯365.77, 4.59, 308.78
365.80, 4.77, 308.71
365.84, 4.96, 308.65
365.87, 5.14, 308.58
365.91, 5.33, 308.51
361.61, 2.17, 313.01
361.81, 2.19, 312.80
361.99, 2.23, 312.62
362.19, 2.27, 312.42
362.40, 2.31, 312.21
362.63, 2.35, 311.98
363.27, 2.27, 311.37
363.80, 2.25, 310.86
364.12, 2.30, 310.54
364.38, 2.39, 310.28
364.65, 2.48, 309.99
364.74, 2.61, 309.88
364.82, 2.76, 309.77
364.91, 2.91, 309.66
364.99, 3.06, 309.55
365.08, 3.21, 309.44
365.17, 3.37, 309.33
365.26, 3.53, 309.21
365.36, 3.69, 309.08
365.46, 3.86, 308.95
365.53, 4.03, 308.85
365.57, 4.21, 308.79
365.60, 4.38, 308.72
365.63, 4.56, 308.66
365.66, 4.75, 308.59
365.70, 4.93, 308.52
365.74, 5.12, 308.45
365.78, 5.31, 308.38
361.52, 2.17, 312.96
361.73, 2.18, 312.74
361.91, 2.22, 312.56
362.10, 2.26, 312.36
362.31, 2.30, 312.14
362.53, 2.34, 311.91
363.13, 2.27, 311.33
363.70, 2.23, 310.77
363.99, 2.29, 310.47
364.24, 2.37, 310.20
364.51, 2.46, 309.91
364.62, 2.60, 309.78
364.70, 2.74, 309.67
364.78, 2.89, 309.56
364.87, 3.04, 309.45
364.95, 3.19, 309.33
365.04, 3.35, 309.22
365.13, 3.51, 309.10
¯365.22, 3.67, 308.98
365.32, 3.83, 308.85
365.40, 4.01, 308.73
365.43, 4.18, 308.67
365.46, 4.36, 308.60
365.50, 4.54, 308.54
365.53, 4.72, 308.47
365.57, 4.91, 308.40
365.60, 5.09, 308.33
365.64, 5.28, 308.26
361.43, 2.16, 312.90
361.64, 2.17, 312.68
361.82, 2.21, 312.50
362.01, 2.25, 312.29
362.21, 2.29, 312.08
362.43, 2.33, 311.84
362.98, 2.27, 311.29
363.59, 2.21, 310.67
363.85, 2.28, 310.39
364.10, 2.36, 310.12
364.36, 2.45, 309.84
364.50, 2.58, 309.68
364.57, 2.72, 309.57
364.66, 2.87, 309.46
364.74, 3.02, 309.34
364.82, 3.17, 309.23
364.91, 3.33, 309.11
364.99, 3.48, 308.99
365.08, 3.65, 308.87
365.17, 3.81, 308.74
365.26, 3.98, 308.62
365.30, 4.16, 308.55
365.33, 4.34, 308.48
365.36, 4.52, 308.41
365.40, 4.70, 308.34
365.43, 4.88, 308.27
365.47, 5.07, 308.20
365.50, 5.26, 308.13
361.35, 2.16, 312.85
361.56, 2.17, 312.62
361.73, 2.20, 312.44
361.92, 2.24, 312.23
362.12, 2.28, 312.01
362.33, 2.32, 311.78
362.84, 2.27, 311.25
363.49, 2.20, 310.58
363.72, 2.27, 310.32
363.96, 2.35, 310.05
364.22, 2.44, 309.76
364.37, 2.56, 309.57
364.45, 2.70, 309.46
¯364.53, 2.85, 309.35
364.61, 3.00, 309.24
364.69, 3.15, 309.12
364.77, 3.30, 309.00
364.86, 3.46, 308.88
364.95, 3.62, 308.76
365.04, 3.79, 308.63
365.11, 3.96, 308.52
365.16, 4.14, 308.44
365.19, 4.31, 308.37
365.23, 4.49, 308.29
365.27, 4.67, 308.22
365.30, 4.86, 308.15
365.33, 5.04, 308.08
365.37, 5.23, 308.00
361.26, 2.15, 312.80
361.47, 2.16, 312.57
361.64, 2.19, 312.37
361.83, 2.23, 312.17
362.02, 2.27, 311.95
362.23, 2.31, 311.71
362.69, 2.27, 311.22
363.37, 2.18, 310.50
363.59, 2.26, 310.25
363.83, 2.34, 309.97
364.08, 2.42, 309.68
364.25, 2.54, 309.47
364.33, 2.68, 309.36
364.40, 2.83, 309.25
364.48, 2.98, 309.13
364.56, 3.13, 309.02
364.64, 3.28, 308.90
364.73, 3.44, 308.78
364.81, 3.60, 308.65
364.89, 3.77, 308.54
364.95, 3.94, 308.43
365.01, 4.11, 308.34
365.05, 4.29, 308.26
365.08, 4.47, 308.19
365.12, 4.65, 308.11
365.16, 4.83, 308.03
365.19, 5.02, 307.96
365.23, 5.21, 307.88
361.18, 2.14, 312.75
361.39, 2.15, 312.51
361.56, 2.18, 312.32
361.74, 2.22, 312.11
361.93, 2.26, 311.88
362.14, 2.30, 311.64
362.54, 2.27, 311.19
363.25, 2.17, 310.42
¯363.46, 2.25, 310.17
363.69, 2.33, 309.90
363.93, 2.41, 309.61
364.13, 2.52, 309.37
364.20, 2.66, 309.26
364.28, 2.81, 309.15
364.35, 2.96, 309.03
364.43, 3.11, 308.91
364.51, 3.26, 308.79
364.59, 3.42, 308.67
364.67, 3.58, 308.55
364.73, 3.75, 308.45
364.80, 3.92, 308.34
364.86, 4.09, 308.24
364.90, 4.27, 308.16
364.93, 4.44, 308.08
364.97, 4.63, 308.01
365.01, 4.81, 307.93
365.04, 4.99, 307.85
365.08, 5.18, 307.77
361.10, 2.13, 312.69
361.30, 2.14, 312.45
361.47, 2.17, 312.26
361.65, 2.21, 312.05
361.83, 2.25, 311.82
362.04, 2.29, 311.58
362.40, 2.28, 311.17
363.15, 2.15, 310.33
363.33, 2.23, 310.11
363.55, 2.31, 309.83
363.79, 2.40, 309.54
364.00, 2.50, 309.27
364.08, 2.64, 309.16
364.15, 2.79, 309.04
364.23, 2.93, 308.93
364.30, 3.09, 308.81
364.38, 3.24, 308.69
364.46, 3.40, 308.57
364.52, 3.56, 308.46
364.58, 3.73, 308.36
364.64, 3.90, 308.25
364.70, 4.07, 308.15
364.75, 4.24, 308.05
364.79, 4.42, 307.98
364.82, 4.60, 307.90
364.86, 4.78, 307.82
364.89, 4.97, 307.74
364.93, 5.16, 307.66
361.01, 2.13, 312.64
361.22, 2.13, 312.40
361.38, 2.16, 312.20
¯361.55, 2.20, 311.99
361.74, 2.23, 311.76
361.94, 2.27, 311.52
362.25, 2.28, 311.14
363.04, 2.13, 310.24
363.21, 2.22, 310.02
363.42, 2.30, 309.76
363.65, 2.38, 309.47
363.88, 2.48, 309.17
363.95, 2.62, 309.06
364.02, 2.77, 308.94
364.10, 2.91, 308.82
364.17, 3.06, 308.70
364.25, 3.22, 308.58
364.31, 3.38, 308.48
364.36, 3.54, 308.38
364.42, 3.71, 308.27
364.48, 3.87, 308.17
364.55, 4.04, 308.06
364.60, 4.22, 307.95
364.64, 4.40, 307.88
364.67, 4.58, 307.80
364.71, 4.76, 307.72
364.74, 4.94, 307.64
364.78, 5.13, 307.56
360.93, 2.12, 312.59
361.13, 2.12, 312.35
361.29, 2.15, 312.14
361.46, 2.19, 311.93
361.64, 2.22, 311.70
361.84, 2.26, 311.46
362.11, 2.28, 311.12
362.94, 2.11, 310.15
363.10, 2.20, 309.92
363.28, 2.29, 309.69
363.51, 2.37, 309.40
363.75, 2.46, 309.08
363.83, 2.60, 308.96
363.90, 2.74, 308.84
363.97, 2.89, 308.72
364.04, 3.04, 308.60
364.10, 3.20, 308.50
364.16, 3.36, 308.40
364.21, 3.52, 308.29
364.27, 3.68, 308.19
364.33, 3.85, 308.08
364.39, 4.02, 307.97
364.45, 4.20, 307.86
364.49, 4.37, 307.77
364.52, 4.55, 307.69
364.56, 4.73, 307.62
¯364.59, 4.92, 307.53
364.62, 5.11, 307.45
360.84, 2.11, 312.55
361.04, 2.12, 312.30
361.20, 2.14, 312.09
361.37, 2.18, 311.87
361.55, 2.21, 311.64
361.74, 2.25, 311.40
361.96, 2.28, 311.11
362.83, 2.09, 310.06
363.00, 2.18, 309.83
363.17, 2.27, 309.59
363.37, 2.36, 309.33
363.60, 2.45, 309.01
363.70, 2.58, 308.86
363.77, 2.72, 308.74
363.84, 2.87, 308.62
363.90, 3.02, 308.52
363.95, 3.18, 308.41
364.01, 3.34, 308.31
364.06, 3.50, 308.21
364.12, 3.66, 308.10
364.17, 3.83, 307.99
364.23, 4.00, 307.88
364.29, 4.17, 307.77
364.34, 4.35, 307.67
364.38, 4.53, 307.59
364.41, 4.71, 307.51
364.44, 4.89, 307.43
364.47, 5.08, 307.35
360.76, 2.10, 312.50
360.95, 2.11, 312.25
361.12, 2.13, 312.03
361.28, 2.17, 311.81
361.45, 2.20, 311.58
361.63, 2.24, 311.34
361.83, 2.28, 311.07
362.73, 2.07, 309.97
362.89, 2.16, 309.74
363.06, 2.25, 309.50
363.23, 2.34, 309.25
363.46, 2.43, 308.94
363.58, 2.56, 308.76
363.64, 2.70, 308.64
363.70, 2.85, 308.53
363.75, 3.00, 308.43
363.80, 3.16, 308.33
363.86, 3.32, 308.23
363.91, 3.48, 308.12
363.97, 3.64, 308.02
364.02, 3.81, 307.91
¯364.08, 3.98, 307.80
364.14, 4.15, 307.69
364.19, 4.32, 307.57
364.23, 4.50, 307.49
364.26, 4.69, 307.41
364.29, 4.87, 307.33
364.32, 5.06, 307.24
360.67, 2.10, 312.45
360.86, 2.10, 312.20
361.03, 2.12, 311.97
361.18, 2.16, 311.76
361.35, 2.19, 311.53
361.53, 2.23, 311.28
361.73, 2.27, 311.01
362.62, 2.05, 309.88
362.78, 2.14, 309.65
362.94, 2.22, 309.40
363.12, 2.32, 309.15
363.31, 2.42, 308.88
363.45, 2.53, 308.66
363.51, 2.68, 308.55
363.56, 2.83, 308.45
363.61, 2.98, 308.35
363.66, 3.14, 308.25
363.71, 3.30, 308.14
363.76, 3.46, 308.04
363.81, 3.62, 307.93
363.87, 3.79, 307.82
363.92, 3.95, 307.71
363.98, 4.13, 307.60
364.04, 4.30, 307.48
364.08, 4.48, 307.38
364.11, 4.66, 307.30
364.14, 4.84, 307.22
364.17, 5.03, 307.14
360.58, 2.09, 312.41
360.77, 2.09, 312.16
360.94, 2.11, 311.92
361.09, 2.14, 311.70
361.26, 2.18, 311.47
361.43, 2.22, 311.22
361.62, 2.26, 310.95
362.48, 2.04, 309.83
362.67, 2.11, 309.55
362.83, 2.20, 309.31
363.00, 2.30, 309.05
363.18, 2.39, 308.78
363.32, 2.51, 308.57
363.37, 2.66, 308.47
363.41, 2.81, 308.37
363.46, 2.96, 308.27
¯363.51, 3.12, 308.17
363.56, 3.28, 308.06
363.61, 3.44, 307.95
363.66, 3.60, 307.85
363.72, 3.76, 307.74
363.77, 3.93, 307.63
363.82, 4.10, 307.51
363.88, 4.28, 307.40
363.93, 4.46, 307.28
363.96, 4.64, 307.20
363.99, 4.82, 307.12
364.02, 5.00, 307.03
360.50, 2.08, 312.37
360.68, 2.09, 312.11
360.85, 2.10, 311.87
361.00, 2.13, 311.65
361.16, 2.17, 311.41
361.33, 2.21, 311.17
361.51, 2.24, 310.89
362.29, 2.05, 309.84
362.56, 2.09, 309.46
362.72, 2.18, 309.21
362.89, 2.27, 308.95
363.06, 2.37, 308.68
363.19, 2.49, 308.47
363.23, 2.64, 308.38
363.27, 2.79, 308.29
363.32, 2.94, 308.19
363.37, 3.10, 308.08
363.41, 3.26, 307.98
363.46, 3.41, 307.87
363.51, 3.58, 307.76
363.56, 3.74, 307.65
363.62, 3.91, 307.54
363.67, 4.08, 307.43
363.72, 4.25, 307.31
363.78, 4.43, 307.19
363.81, 4.61, 307.10
363.84, 4.79, 307.01
363.87, 4.98, 306.93
360.41, 2.08, 312.33
360.59, 2.08, 312.07
360.76, 2.09, 311.82
360.91, 2.12, 311.60
361.06, 2.16, 311.36
361.23, 2.19, 311.11
361.41, 2.23, 310.84
362.11, 2.06, 309.85
362.44, 2.07, 309.37
362.60, 2.16, 309.12
362.77, 2.25, 308.86
¯362.94, 2.35, 308.58
363.06, 2.47, 308.38
363.10, 2.62, 308.28
363.14, 2.77, 308.19
363.18, 2.92, 308.09
363.23, 3.08, 307.99
363.27, 3.23, 307.89
363.31, 3.39, 307.79
363.36, 3.55, 307.68
363.41, 3.72, 307.57
363.46, 3.89, 307.46
363.51, 4.06, 307.34
363.57, 4.23, 307.22
363.62, 4.41, 307.10
363.66, 4.59, 306.99
363.69, 4.77, 306.91
363.72, 4.95, 306.82
360.32, 2.07, 312.29
360.49, 2.07, 312.03
360.67, 2.08, 311.77
360.81, 2.11, 311.54
360.96, 2.14, 311.31
361.13, 2.18, 311.05
361.30, 2.22, 310.78
361.93, 2.07, 309.88
362.33, 2.05, 309.28
362.49, 2.14, 309.03
362.65, 2.23, 308.76
362.80, 2.33, 308.51
362.92, 2.45, 308.31
362.97, 2.59, 308.18
363.01, 2.75, 308.09
363.05, 2.90, 307.99
363.09, 3.05, 307.89
363.14, 3.21, 307.79
363.18, 3.37, 307.69
363.22, 3.53, 307.59
363.26, 3.70, 307.48
363.31, 3.86, 307.37
363.36, 4.03, 307.26
363.41, 4.21, 307.14
363.46, 4.38, 307.02
363.51, 4.56, 306.89
363.54, 4.74, 306.80
363.57, 4.93, 306.72
360.24, 2.06, 312.25
360.40, 2.06, 311.99
360.58, 2.07, 311.72
360.72, 2.10, 311.49
360.87, 2.13, 311.25
361.03, 2.17, 311.00
¯361.20, 2.21, 310.73
361.75, 2.09, 309.90
362.22, 2.03, 309.19
362.37, 2.11, 308.94
362.53, 2.20, 308.67
362.66, 2.31, 308.44
362.77, 2.43, 308.23
362.85, 2.57, 308.08
362.88, 2.72, 307.99
362.92, 2.87, 307.89
362.96, 3.03, 307.79
363.00, 3.19, 307.69
363.04, 3.35, 307.59
363.08, 3.51, 307.48
363.13, 3.67, 307.38
363.17, 3.84, 307.27
363.21, 4.01, 307.16
363.26, 4.18, 307.05
363.30, 4.36, 306.93
363.35, 4.54, 306.81
363.39, 4.72, 306.70
363.42, 4.91, 306.61
360.15, 2.05, 312.21
360.31, 2.06, 311.95
360.49, 2.06, 311.67
360.62, 2.09, 311.44
360.77, 2.12, 311.20
360.92, 2.15, 310.95
361.09, 2.19, 310.67
361.56, 2.10, 309.94
362.11, 2.00, 309.10
362.25, 2.09, 308.84
362.41, 2.18, 308.58
362.51, 2.30, 308.37
362.63, 2.41, 308.16
362.72, 2.55, 307.99
362.75, 2.70, 307.89
362.79, 2.85, 307.79
362.83, 3.00, 307.69
362.87, 3.16, 307.59
362.91, 3.32, 307.48
362.95, 3.48, 307.38
362.99, 3.65, 307.27
363.03, 3.81, 307.16
363.07, 3.98, 307.05
363.12, 4.16, 306.94
363.16, 4.33, 306.82
363.20, 4.51, 306.71
363.25, 4.70, 306.59
363.28, 4.88, 306.49
360.06, 2.05, 312.17
¯360.22, 2.05, 311.91
360.39, 2.05, 311.63
360.53, 2.07, 311.39
360.67, 2.11, 311.15
360.82, 2.14, 310.89
360.98, 2.18, 310.62
361.38, 2.11, 309.98
361.99, 1.98, 309.01
362.14, 2.06, 308.75
362.27, 2.16, 308.51
362.37, 2.28, 308.31
362.48, 2.40, 308.09
362.59, 2.52, 307.89
362.62, 2.67, 307.79
362.66, 2.82, 307.69
362.70, 2.98, 307.59
362.74, 3.14, 307.48
362.77, 3.30, 307.38
362.81, 3.46, 307.27
362.85, 3.62, 307.16
362.89, 3.79, 307.05
362.93, 3.96, 306.94
362.98, 4.13, 306.83
363.02, 4.31, 306.71
363.06, 4.49, 306.60
363.10, 4.67, 306.49
363.13, 4.86, 306.38
355.41, 2.39, 324.55
355.34, 2.39, 324.87
355.27, 2.40, 325.22
355.20, 2.41, 325.60
355.11, 2.42, 326.01
355.02, 2.43, 326.49
354.91, 2.43, 327.05
354.79, 2.43, 327.66
354.65, 2.45, 328.33
354.49, 2.44, 329.19
354.27, 2.42, 330.30
353.66, 2.10, 333.59
355.49, 2.39, 324.59
355.43, 2.40, 324.91
355.37, 2.41, 325.26
355.30, 2.41, 325.65
355.22, 2.42, 326.07
355.13, 2.43, 326.56
355.03, 2.43, 327.12
354.91, 2.44, 327.75
354.78, 2.45, 328.45
354.62, 2.45, 329.32
354.41, 2.42, 330.49
354.05, 2.29, 332.56
¯355.58, 2.39, 324.63
355.53, 2.40, 324.95
355.47, 2.41, 325.30
355.40, 2.42, 325.70
355.33, 2.43, 326.12
355.24, 2.43, 326.63
355.15, 2.44, 327.20
355.04, 2.44, 327.84
354.91, 2.45, 328.56
354.77, 2.45, 329.45
354.56, 2.41, 330.69
354.25, 2.31, 332.63
355.67, 2.40, 324.68
355.62, 2.40, 325.00
355.56, 2.41, 325.36
355.50, 2.42, 325.75
355.44, 2.43, 326.18
355.36, 2.44, 326.69
355.27, 2.44, 327.28
355.17, 2.45, 327.93
355.05, 2.45, 328.68
354.91, 2.45, 329.58
354.72, 2.41, 330.88
354.45, 2.33, 332.70
355.76, 2.40, 324.72
355.71, 2.41, 325.05
355.66, 2.42, 325.41
355.61, 2.43, 325.80
355.54, 2.44, 326.24
355.47, 2.44, 326.76
355.39, 2.44, 327.35
355.30, 2.45, 328.01
355.19, 2.45, 328.79
355.06, 2.45, 329.72
354.87, 2.41, 331.07
354.65, 2.35, 332.76
355.85, 2.40, 324.77
355.81, 2.41, 325.10
355.76, 2.42, 325.46
355.71, 2.43, 325.86
355.65, 2.44, 326.31
355.59, 2.44, 326.84
355.51, 2.45, 327.43
355.43, 2.45, 328.10
355.33, 2.45, 328.90
355.21, 2.45, 329.85
355.04, 2.40, 331.27
354.85, 2.37, 332.82
355.94, 2.40, 324.81
355.90, 2.41, 325.15
355.86, 2.42, 325.51
¯355.82, 2.43, 325.92
355.76, 2.44, 326.38
355.70, 2.44, 326.92
355.64, 2.45, 327.52
355.56, 2.45, 328.20
355.47, 2.45, 329.02
355.36, 2.45, 329.97
355.21, 2.40, 331.47
355.05, 2.39, 332.88
356.03, 2.40, 324.85
356.00, 2.41, 325.19
355.96, 2.42, 325.56
355.92, 2.43, 325.97
355.88, 2.44, 326.45
355.82, 2.44, 326.99
355.76, 2.45, 327.60
355.69, 2.45, 328.31
355.61, 2.45, 329.14
355.52, 2.45, 330.11
355.38, 2.39, 331.66
355.25, 2.41, 332.94
356.13, 2.41, 324.89
356.10, 2.41, 325.23
356.07, 2.43, 325.61
356.03, 2.44, 326.02
355.99, 2.44, 326.51
355.94, 2.44, 327.07
355.89, 2.45, 327.69
355.83, 2.45, 328.42
355.76, 2.45, 329.27
355.68, 2.45, 330.28
355.56, 2.39, 331.87
355.46, 2.43, 332.99
356.22, 2.41, 324.93
356.20, 2.42, 325.28
356.17, 2.43, 325.66
356.14, 2.44, 326.07
356.11, 2.44, 326.58
356.07, 2.44, 327.14
356.02, 2.45, 327.77
355.97, 2.45, 328.52
355.91, 2.45, 329.39
355.84, 2.44, 330.45
355.74, 2.38, 332.06
355.66, 2.44, 333.14
356.32, 2.41, 324.96
356.30, 2.42, 325.32
356.27, 2.43, 325.70
356.25, 2.44, 326.12
356.22, 2.44, 326.64
356.19, 2.45, 327.22
¯356.16, 2.45, 327.85
356.11, 2.45, 328.63
356.07, 2.45, 329.52
356.01, 2.44, 330.61
355.93, 2.39, 332.18
355.86, 2.45, 333.29
356.41, 2.41, 325.00
356.40, 2.42, 325.36
356.38, 2.43, 325.75
356.36, 2.44, 326.17
356.34, 2.44, 326.70
356.32, 2.45, 327.29
356.29, 2.45, 327.94
356.26, 2.45, 328.73
356.22, 2.45, 329.64
356.18, 2.43, 330.78
356.12, 2.40, 332.31
356.07, 2.45, 333.44
356.51, 2.42, 325.03
356.50, 2.42, 325.40
356.49, 2.43, 325.79
356.48, 2.44, 326.23
356.46, 2.44, 326.76
356.45, 2.45, 327.36
356.43, 2.45, 328.02
356.41, 2.45, 328.84
356.38, 2.45, 329.77
356.36, 2.43, 330.95
356.32, 2.40, 332.43
356.28, 2.46, 333.59
356.61, 2.42, 325.06
356.60, 2.43, 325.44
356.60, 2.44, 325.83
356.59, 2.45, 326.28
356.58, 2.45, 326.82
356.58, 2.45, 327.43
356.57, 2.45, 328.10
356.56, 2.45, 328.94
356.55, 2.44, 329.89
356.54, 2.42, 331.12
356.52, 2.41, 332.55
356.50, 2.47, 333.74
356.71, 2.42, 325.09
356.71, 2.43, 325.47
356.71, 2.44, 325.87
356.71, 2.45, 326.33
356.71, 2.45, 326.88
356.71, 2.45, 327.50
356.71, 2.45, 328.18
356.71, 2.45, 329.04
356.72, 2.44, 330.01
¯356.72, 2.42, 331.29
356.72, 2.42, 332.67
356.72, 2.47, 333.89
356.81, 2.43, 325.11
356.81, 2.43, 325.51
356.82, 2.44, 325.91
356.82, 2.45, 326.38
356.83, 2.45, 326.94
356.84, 2.45, 327.57
356.85, 2.45, 328.27
356.87, 2.44, 329.14
356.89, 2.44, 330.14
356.91, 2.41, 331.45
356.93, 2.42, 332.79
356.94, 2.48, 334.05
356.91, 2.43, 325.14
356.92, 2.43, 325.53
356.93, 2.44, 325.95
356.94, 2.45, 326.43
356.96, 2.45, 326.99
356.98, 2.45, 327.63
357.00, 2.45, 328.35
357.03, 2.44, 329.24
357.06, 2.44, 330.28
357.10, 2.41, 331.62
357.14, 2.43, 332.91
357.18, 2.48, 334.24
357.01, 2.43, 325.17
357.03, 2.44, 325.56
357.04, 2.45, 325.99
357.06, 2.45, 326.47
357.09, 2.45, 327.04
357.12, 2.45, 327.69
357.15, 2.45, 328.43
357.19, 2.44, 329.34
357.24, 2.43, 330.41
357.30, 2.40, 331.79
357.35, 2.44, 333.02
357.41, 2.48, 334.43
357.11, 2.44, 325.19
357.13, 2.44, 325.59
357.16, 2.45, 326.02
357.19, 2.45, 326.52
357.22, 2.45, 327.09
357.26, 2.45, 327.75
357.30, 2.45, 328.51
357.36, 2.44, 329.43
357.42, 2.43, 330.55
357.51, 2.40, 331.96
357.58, 2.43, 333.22
357.67, 2.46, 334.83
¯357.21, 2.44, 325.21
357.24, 2.44, 325.61
357.27, 2.45, 326.06
357.31, 2.45, 326.56
357.35, 2.45, 327.14
357.40, 2.45, 327.81
357.46, 2.45, 328.59
357.52, 2.44, 329.53
357.61, 2.42, 330.69
357.72, 2.39, 332.15
357.81, 2.42, 333.47
357.94, 2.43, 335.27
357.32, 2.44, 325.23
357.35, 2.45, 325.64
357.39, 2.45, 326.08
357.43, 2.45, 326.60
357.48, 2.45, 327.20
357.54, 2.45, 327.87
357.61, 2.45, 328.68
357.70, 2.44, 329.63
357.80, 2.41, 330.84
357.94, 2.38, 332.35
358.05, 2.41, 333.71
358.23, 2.40, 335.72
357.42, 2.45, 325.25
357.46, 2.45, 325.66
357.51, 2.45, 326.12
357.56, 2.45, 326.65
357.62, 2.45, 327.25
357.69, 2.45, 327.94
357.77, 2.44, 328.76
357.87, 2.43, 329.73
358.00, 2.41, 330.98
358.16, 2.37, 332.55
358.30, 2.40, 333.96
358.63, 2.26, 337.12
357.53, 2.45, 325.28
357.57, 2.45, 325.69
357.62, 2.45, 326.15
357.69, 2.45, 326.70
357.76, 2.45, 327.31
357.84, 2.45, 328.01
357.93, 2.44, 328.84
358.05, 2.43, 329.83
358.20, 2.40, 331.13
358.39, 2.36, 332.75
358.58, 2.36, 334.38
357.63, 2.45, 325.30
357.69, 2.45, 325.72
357.75, 2.45, 326.19
357.82, 2.45, 326.75
¯357.90, 2.45, 327.36
357.99, 2.45, 328.07
358.10, 2.44, 328.92
358.23, 2.43, 329.93
358.41, 2.39, 331.27
358.63, 2.35, 332.95
358.87, 2.33, 334.84
357.74, 2.45, 325.33
357.80, 2.45, 325.75
357.87, 2.45, 326.22
357.95, 2.45, 326.79
358.04, 2.45, 327.42
358.14, 2.45, 328.13
358.27, 2.44, 329.00
358.41, 2.43, 330.02
358.62, 2.39, 331.41
358.87, 2.34, 333.14
359.19, 2.29, 335.32
357.85, 2.45, 325.35
357.91, 2.45, 325.78
357.99, 2.45, 326.26
358.08, 2.45, 326.83
358.18, 2.45, 327.47
358.30, 2.44, 328.19
358.44, 2.44, 329.08
358.60, 2.42, 330.12
358.83, 2.38, 331.55
359.12, 2.33, 333.34
359.51, 2.25, 335.76
360.57, 1.79, 342.21
357.96, 2.45, 325.37
358.03, 2.45, 325.80
358.11, 2.45, 326.29
358.21, 2.45, 326.87
358.33, 2.45, 327.52
358.45, 2.44, 328.25
358.61, 2.43, 329.15
358.79, 2.42, 330.23
359.05, 2.37, 331.69
359.37, 2.32, 333.54
359.84, 2.22, 336.18
360.87, 1.85, 341.96
358.07, 2.45, 325.39
358.15, 2.45, 325.82
358.24, 2.45, 326.32
358.35, 2.45, 326.91
358.47, 2.44, 327.56
358.61, 2.44, 328.31
358.78, 2.43, 329.22
358.99, 2.41, 330.33
359.27, 2.37, 331.82
¯359.64, 2.31, 333.76
360.19, 2.18, 336.67
361.09, 1.94, 341.36
358.18, 2.45, 325.41
358.27, 2.45, 325.84
358.37, 2.45, 326.34
358.49, 2.45, 326.94
358.62, 2.44, 327.61
358.77, 2.44, 328.37
358.96, 2.43, 329.29
359.19, 2.41, 330.43
359.50, 2.36, 331.96
359.91, 2.29, 333.98
360.57, 2.14, 337.19
361.41, 1.97, 341.31
358.19, 2.56, 325.00
358.38, 2.45, 325.86
358.49, 2.45, 326.37
358.62, 2.45, 326.97
358.77, 2.44, 327.65
358.94, 2.44, 328.42
359.14, 2.43, 329.36
359.39, 2.40, 330.52
359.74, 2.35, 332.11
360.21, 2.27, 334.25
360.99, 2.08, 337.80
361.79, 1.98, 341.49
358.29, 2.56, 325.01
358.50, 2.45, 325.88
358.62, 2.45, 326.39
358.76, 2.45, 327.00
358.92, 2.44, 327.69
359.10, 2.43, 328.48
359.32, 2.42, 329.42
359.60, 2.40, 330.63
359.98, 2.34, 332.27
360.51, 2.25, 334.53
361.39, 2.05, 338.26
362.18, 1.98, 341.68
358.40, 2.56, 325.01
358.62, 2.45, 325.90
358.75, 2.45, 326.41
358.90, 2.45, 327.02
359.07, 2.44, 327.72
359.27, 2.43, 328.53
359.51, 2.42, 329.49
359.81, 2.39, 330.74
360.23, 2.33, 332.42
360.82, 2.23, 334.81
361.79, 2.02, 338.69
362.57, 1.99, 341.84
¯358.50, 2.56, 325.02
358.61, 2.57, 325.44
358.88, 2.45, 326.43
359.04, 2.45, 327.05
359.22, 2.44, 327.75
359.44, 2.43, 328.58
359.70, 2.42, 329.56
360.03, 2.38, 330.84
360.49, 2.32, 332.57
361.15, 2.21, 335.09
362.22, 1.98, 339.13
358.61, 2.56, 325.03
358.72, 2.57, 325.45
359.01, 2.45, 326.45
359.18, 2.45, 327.07
359.38, 2.44, 327.78
359.61, 2.43, 328.63
359.89, 2.41, 329.63
360.25, 2.38, 330.94
360.75, 2.31, 332.72
361.49, 2.18, 335.41
362.66, 1.95, 339.58
358.72, 2.56, 325.04
358.84, 2.57, 325.46
358.97, 2.58, 325.93
359.32, 2.45, 327.09
359.53, 2.44, 327.81
359.79, 2.42, 328.68
360.08, 2.41, 329.70
360.47, 2.37, 331.04
361.01, 2.30, 332.87
361.87, 2.14, 335.78
363.08, 1.93, 339.91
358.83, 2.56, 325.04
358.96, 2.57, 325.47
359.10, 2.58, 325.94
359.47, 2.44, 327.11
359.69, 2.44, 327.84
359.96, 2.42, 328.73
360.28, 2.40, 329.76
360.70, 2.36, 331.14
361.28, 2.29, 333.01
362.27, 2.10, 336.20
363.72, 1.83, 340.90
358.94, 2.56, 325.05
359.07, 2.57, 325.47
359.22, 2.58, 325.95
359.61, 2.44, 327.13
359.85, 2.43, 327.87
360.14, 2.42, 328.77
360.48, 2.40, 329.82
¯360.93, 2.36, 331.23
361.57, 2.27, 333.20
362.70, 2.06, 336.65
359.05, 2.56, 325.05
359.19, 2.57, 325.48
359.35, 2.58, 325.95
359.53, 2.58, 326.49
360.01, 2.43, 327.90
360.32, 2.41, 328.81
360.68, 2.39, 329.88
361.17, 2.35, 331.32
361.87, 2.25, 333.39
363.14, 2.01, 337.12
359.16, 2.56, 325.05
359.31, 2.57, 325.48
359.47, 2.58, 325.96
359.67, 2.58, 326.52
360.18, 2.43, 327.92
360.50, 2.41, 328.84
360.89, 2.39, 329.93
361.41, 2.34, 331.41
362.18, 2.24, 333.59
363.61, 1.96, 337.59
359.27, 2.56, 325.05
359.42, 2.57, 325.48
359.60, 2.58, 325.96
359.81, 2.58, 326.54
360.06, 2.58, 327.20
360.68, 2.41, 328.87
361.09, 2.39, 329.98
361.66, 2.33, 331.51
362.50, 2.22, 333.78
364.14, 1.90, 338.19
359.38, 2.56, 325.04
359.54, 2.57, 325.48
359.73, 2.57, 325.98
359.96, 2.57, 326.56
360.21, 2.57, 327.23
360.86, 2.41, 328.89
361.30, 2.38, 330.03
361.91, 2.32, 331.61
362.82, 2.20, 333.97
364.77, 1.81, 338.97
359.49, 2.56, 325.04
359.66, 2.57, 325.47
359.87, 2.57, 325.99
360.10, 2.57, 326.58
360.37, 2.57, 327.26
361.05, 2.40, 328.91
361.52, 2.37, 330.09
362.17, 2.31, 331.70
¯363.17, 2.17, 334.20
365.48, 1.71, 339.87
359.60, 2.56, 325.03
359.79, 2.57, 325.48
360.00, 2.57, 326.00
360.25, 2.57, 326.59
360.53, 2.57, 327.28
360.87, 2.56, 328.10
361.74, 2.37, 330.15
362.43, 2.30, 331.79
363.55, 2.14, 334.47
359.71, 2.56, 325.02
359.91, 2.56, 325.48
360.14, 2.56, 326.01
360.40, 2.56, 326.61
360.70, 2.56, 327.31
361.07, 2.55, 328.17
361.97, 2.36, 330.21
362.69, 2.29, 331.87
363.95, 2.10, 334.75
359.83, 2.56, 325.02
360.04, 2.56, 325.48
360.27, 2.56, 326.01
360.55, 2.56, 326.62
360.88, 2.55, 327.36
361.27, 2.53, 328.23
361.74, 2.52, 329.28
362.96, 2.28, 331.95
364.36, 2.07, 335.04
359.94, 2.56, 325.01
360.16, 2.56, 325.48
360.41, 2.56, 326.02
360.71, 2.55, 326.65
361.06, 2.54, 327.41
361.47, 2.52, 328.30
361.97, 2.51, 329.36
363.23, 2.27, 332.03
364.77, 2.04, 335.30
360.06, 2.55, 325.01
360.29, 2.55, 325.48
360.55, 2.55, 326.03
360.87, 2.54, 326.69
361.24, 2.52, 327.45
361.68, 2.51, 328.36
362.17, 2.50, 329.38
363.52, 2.26, 332.14
365.19, 2.00, 335.56
360.18, 2.55, 325.00
360.42, 2.55, 325.48
360.71, 2.54, 326.05
361.04, 2.53, 326.72
¯361.43, 2.51, 327.50
361.86, 2.51, 328.36
362.36, 2.50, 329.37
363.16, 2.44, 330.95
365.66, 1.96, 335.89
360.30, 2.55, 324.99
360.56, 2.54, 325.49
360.86, 2.53, 326.08
361.21, 2.52, 326.75
361.59, 2.51, 327.49
362.03, 2.51, 328.34
362.56, 2.50, 329.36
363.41, 2.43, 331.00
366.15, 1.92, 336.22
360.42, 2.54, 324.99
360.70, 2.53, 325.51
361.01, 2.52, 326.10
361.35, 2.52, 326.73
361.75, 2.51, 327.47
362.21, 2.51, 328.33
362.75, 2.50, 329.35
363.67, 2.43, 331.05
366.65, 1.87, 336.55
360.55, 2.53, 325.00
360.84, 2.52, 325.52
361.15, 2.52, 326.07
361.50, 2.52, 326.71
361.90, 2.51, 327.44
362.38, 2.51, 328.30
362.96, 2.50, 329.36
363.92, 2.42, 331.08
365.59, 2.22, 334.08
360.68, 2.52, 325.00
360.96, 2.52, 325.49
361.28, 2.52, 326.04
361.64, 2.52, 326.68
362.06, 2.51, 327.41
362.55, 2.51, 328.28
363.17, 2.50, 329.36
364.18, 2.41, 331.11
366.02, 2.18, 334.32
360.80, 2.52, 324.97
361.08, 2.52, 325.46
361.41, 2.52, 326.01
361.78, 2.52, 326.64
362.22, 2.51, 327.38
362.73, 2.51, 328.24
363.39, 2.49, 329.36
364.46, 2.40, 331.18
366.48, 2.14, 334.58
360.91, 2.52, 324.94
¯361.20, 2.52, 325.42
361.54, 2.52, 325.98
361.92, 2.52, 326.61
362.37, 2.51, 327.35
362.90, 2.51, 328.21
363.60, 2.49, 329.36
364.75, 2.39, 331.24
366.97, 2.10, 334.85
361.02, 2.52, 324.90
361.32, 2.52, 325.39
361.67, 2.52, 325.94
362.06, 2.52, 326.57
362.53, 2.52, 327.31
363.07, 2.51, 328.17
363.81, 2.48, 329.35
365.03, 2.37, 331.29
367.43, 2.07, 335.08
361.13, 2.53, 324.86
361.44, 2.52, 325.35
361.80, 2.52, 325.90
362.21, 2.52, 326.53
362.68, 2.52, 327.26
363.24, 2.51, 328.13
364.02, 2.48, 329.33
365.32, 2.36, 331.33
367.93, 2.03, 335.33
361.24, 2.53, 324.82
361.56, 2.52, 325.30
361.92, 2.52, 325.85
362.35, 2.52, 326.48
362.84, 2.52, 327.22
363.41, 2.51, 328.08
364.23, 2.48, 329.31
365.61, 2.35, 331.36
368.45, 1.98, 335.59
361.35, 2.53, 324.78
361.68, 2.52, 325.26
362.05, 2.52, 325.81
362.48, 2.52, 326.44
362.99, 2.52, 327.17
363.58, 2.51, 328.03
364.45, 2.47, 329.29
365.89, 2.34, 331.38
369.02, 1.93, 335.90
361.45, 2.53, 324.73
361.79, 2.53, 325.21
362.18, 2.52, 325.76
362.62, 2.52, 326.39
363.14, 2.52, 327.12
363.75, 2.51, 327.98
364.66, 2.47, 329.27
¯366.18, 2.33, 331.40
369.61, 1.88, 336.21
361.56, 2.53, 324.69
361.91, 2.53, 325.16
362.30, 2.52, 325.71
362.76, 2.52, 326.33
363.29, 2.52, 327.06
363.92, 2.52, 327.92
364.88, 2.46, 329.24
366.47, 2.32, 331.41
370.26, 1.82, 336.57
361.67, 2.53, 324.64
362.02, 2.53, 325.11
362.43, 2.52, 325.65
362.90, 2.52, 326.27
363.44, 2.52, 327.00
364.09, 2.52, 327.86
365.09, 2.46, 329.20
366.77, 2.30, 331.42
371.00, 1.75, 337.02
361.77, 2.53, 324.58
362.14, 2.53, 325.05
362.55, 2.52, 325.59
363.03, 2.52, 326.21
363.59, 2.52, 326.94
364.25, 2.52, 327.80
365.30, 2.45, 329.15
367.06, 2.29, 331.42
361.88, 2.53, 324.53
362.25, 2.53, 325.00
362.67, 2.53, 325.53
363.17, 2.52, 326.15
363.74, 2.52, 326.87
364.42, 2.52, 327.73
365.51, 2.45, 329.10
367.35, 2.28, 331.40
361.98, 2.53, 324.47
362.36, 2.53, 324.94
362.80, 2.53, 325.47
363.30, 2.52, 326.09
363.88, 2.52, 326.80
364.58, 2.52, 327.65
365.71, 2.45, 329.04
367.63, 2.27, 331.37
362.08, 2.53, 324.41
362.47, 2.53, 324.88
362.92, 2.53, 325.40
363.43, 2.52, 326.02
364.03, 2.52, 326.73
364.74, 2.52, 327.58
365.92, 2.45, 328.97
¯367.91, 2.27, 331.34
362.18, 2.53, 324.35
362.58, 2.53, 324.81
363.03, 2.53, 325.34
363.56, 2.53, 325.94
364.17, 2.52, 326.65
364.90, 2.52, 327.49
366.13, 2.44, 328.92
368.19, 2.26, 331.29
362.28, 2.53, 324.29
362.69, 2.53, 324.74
363.15, 2.53, 325.27
363.69, 2.53, 325.87
364.31, 2.52, 326.57
365.06, 2.52, 327.41
366.35, 2.43, 328.86
368.49, 2.24, 331.26
362.37, 2.53, 324.21
362.79, 2.53, 324.67
363.27, 2.53, 325.19
363.81, 2.53, 325.79
364.45, 2.52, 326.49
365.21, 2.52, 327.32
366.57, 2.43, 328.80
368.78, 2.23, 331.21
362.47, 2.53, 324.15
362.90, 2.53, 324.60
363.38, 2.53, 325.12
363.94, 2.53, 325.71
364.59, 2.53, 326.40
365.36, 2.52, 327.23
366.78, 2.42, 328.72
369.06, 2.23, 331.14
362.57, 2.54, 324.08
362.99, 2.53, 324.52
363.49, 2.53, 325.04
364.06, 2.53, 325.62
364.73, 2.53, 326.31
365.52, 2.52, 327.13
366.98, 2.42, 328.64
369.32, 2.22, 331.06
362.66, 2.54, 324.01
363.09, 2.54, 324.44
363.60, 2.53, 324.95
364.18, 2.53, 325.54
364.86, 2.53, 326.22
365.67, 2.52, 327.04
367.18, 2.42, 328.55
369.58, 2.22, 330.96
362.75, 2.54, 323.93
363.19, 2.54, 324.37
¯363.70, 2.54, 324.86
364.30, 2.53, 325.45
364.99, 2.53, 326.12
365.82, 2.52, 326.93
367.38, 2.41, 328.46
369.83, 2.21, 330.85
362.85, 2.54, 323.86
363.29, 2.54, 324.28
363.81, 2.54, 324.77
364.41, 2.53, 325.35
365.12, 2.53, 326.02
365.96, 2.52, 326.83
367.57, 2.41, 328.35
372.21, 1.85, 332.75
362.93, 2.54, 323.78
363.39, 2.54, 324.20
363.91, 2.54, 324.68
364.51, 2.54, 325.24
365.24, 2.53, 325.92
366.10, 2.53, 326.71
367.75, 2.41, 328.24
372.52, 1.84, 332.63
363.02, 2.54, 323.70
363.49, 2.54, 324.12
364.01, 2.54, 324.59
364.63, 2.54, 325.15
365.35, 2.53, 325.80
366.24, 2.53, 326.60
369.17, 2.18, 329.23
372.81, 1.83, 332.50
363.11, 2.54, 323.62
363.58, 2.54, 324.03
364.12, 2.54, 324.50
364.74, 2.54, 325.05
365.47, 2.54, 325.68
366.37, 2.53, 326.48
369.36, 2.18, 329.08
373.08, 1.83, 332.34
363.19, 2.54, 323.54
363.67, 2.54, 323.94
364.21, 2.54, 324.41
364.85, 2.54, 324.94
365.58, 2.54, 325.57
367.44, 2.35, 327.15
369.53, 2.18, 328.93
372.74, 1.92, 331.66
363.28, 2.54, 323.45
363.76, 2.54, 323.85
364.31, 2.54, 324.31
364.95, 2.54, 324.84
365.70, 2.54, 325.46
¯366.59, 2.54, 326.20
369.70, 2.18, 328.77
371.58, 2.13, 330.32
363.36, 2.54, 323.36
363.85, 2.54, 323.76
364.41, 2.54, 324.21
365.05, 2.54, 324.73
365.81, 2.54, 325.34
366.72, 2.54, 326.07
369.46, 2.25, 328.27
371.21, 2.22, 329.68
372.76, 2.28, 330.93
363.44, 2.54, 323.27
363.93, 2.54, 323.66
364.50, 2.54, 324.11
365.15, 2.54, 324.62
365.92, 2.54, 325.22
366.84, 2.54, 325.94
369.35, 2.30, 327.90
370.91, 2.30, 329.12
371.90, 2.42, 329.90
363.51, 2.54, 323.18
364.01, 2.54, 323.57
364.59, 2.54, 324.00
365.25, 2.54, 324.51
366.03, 2.54, 325.10
366.96, 2.54, 325.81
369.32, 2.33, 327.60
370.46, 2.39, 328.47
371.69, 2.48, 329.40
372.73, 2.62, 330.20
363.59, 2.54, 323.09
364.10, 2.54, 323.47
364.68, 2.54, 323.90
365.35, 2.54, 324.39
366.14, 2.54, 324.97
367.08, 2.54, 325.67
369.28, 2.36, 327.30
370.20, 2.45, 327.98
371.47, 2.53, 328.92
372.39, 2.69, 329.60
363.66, 2.54, 323.00
364.17, 2.54, 323.37
364.76, 2.54, 323.79
365.44, 2.54, 324.28
366.24, 2.54, 324.85
367.19, 2.54, 325.53
368.29, 2.55, 326.32
370.15, 2.48, 327.66
371.27, 2.58, 328.46
372.27, 2.72, 329.18
¯375.79, 2.66, 331.70
363.73, 2.54, 322.90
364.25, 2.54, 323.26
364.84, 2.54, 323.68
365.53, 2.54, 324.16
366.34, 2.54, 324.72
367.30, 2.54, 325.39
368.40, 2.55, 326.15
370.10, 2.51, 327.34
371.18, 2.61, 328.09
372.40, 2.73, 328.94
373.67, 2.88, 329.84
375.97, 3.00, 331.44
376.69, 3.29, 331.94
363.80, 2.54, 322.80
364.32, 2.54, 323.16
364.92, 2.54, 323.56
365.62, 2.54, 324.03
366.43, 2.54, 324.58
367.41, 2.54, 325.25
368.50, 2.55, 325.98
370.08, 2.53, 327.05
371.28, 2.61, 327.87
372.51, 2.73, 328.70
373.77, 2.89, 329.56
375.47, 3.05, 330.71
376.31, 3.32, 331.27
363.87, 2.54, 322.71
364.39, 2.54, 323.05
365.00, 2.54, 323.45
365.70, 2.54, 323.91
366.52, 2.54, 324.45
367.51, 2.54, 325.10
368.59, 2.56, 325.81
369.67, 2.61, 326.52
371.38, 2.62, 327.64
372.63, 2.74, 328.46
373.87, 2.89, 329.28
375.17, 3.09, 330.13
376.40, 3.33, 330.94
363.93, 2.54, 322.61
364.46, 2.54, 322.95
365.07, 2.54, 323.33
365.78, 2.54, 323.78
366.61, 2.54, 324.31
367.60, 2.54, 324.94
368.69, 2.56, 325.64
369.74, 2.62, 326.31
371.47, 2.63, 327.41
372.73, 2.74, 328.22
373.96, 2.90, 329.00
¯375.25, 3.10, 329.82
376.49, 3.34, 330.61
363.99, 2.54, 322.50
364.53, 2.54, 322.84
365.15, 2.54, 323.22
365.86, 2.54, 323.66
366.69, 2.54, 324.17
367.68, 2.54, 324.79
368.78, 2.56, 325.46
369.81, 2.62, 326.10
371.56, 2.63, 327.18
372.83, 2.75, 327.96
374.04, 2.91, 328.71
375.32, 3.10, 329.50
376.57, 3.34, 330.28
364.05, 2.54, 322.40
364.59, 2.54, 322.73
365.21, 2.54, 323.10
365.93, 2.54, 323.53
366.78, 2.54, 324.03
367.76, 2.55, 324.62
368.86, 2.56, 325.28
369.87, 2.63, 325.89
370.94, 2.72, 326.53
372.92, 2.75, 327.71
374.13, 2.91, 328.43
375.39, 3.11, 329.19
376.64, 3.35, 329.94
377.87, 3.63, 330.67
364.11, 2.54, 322.30
364.66, 2.54, 322.61
365.28, 2.54, 322.98
366.00, 2.54, 323.40
366.85, 2.54, 323.89
367.84, 2.55, 324.46
368.94, 2.57, 325.10
369.94, 2.64, 325.68
371.02, 2.72, 326.31
373.00, 2.75, 327.46
374.20, 2.92, 328.15
375.45, 3.12, 328.88
376.72, 3.35, 329.61
377.93, 3.63, 330.31
364.17, 2.54, 322.19
364.71, 2.54, 322.50
365.34, 2.55, 322.85
366.07, 2.55, 323.26
366.93, 2.55, 323.74
367.91, 2.55, 324.30
369.01, 2.57, 324.91
369.99, 2.64, 325.47
¯371.10, 2.73, 326.09
372.35, 2.84, 326.79
374.27, 2.92, 327.87
375.51, 3.12, 328.57
376.79, 3.36, 329.28
377.99, 3.63, 329.95
364.22, 2.55, 322.09
364.77, 2.55, 322.39
365.40, 2.55, 322.73
366.14, 2.55, 323.13
367.00, 2.55, 323.60
367.98, 2.55, 324.13
369.07, 2.57, 324.73
370.05, 2.65, 325.25
371.17, 2.73, 325.86
372.41, 2.84, 326.54
374.33, 2.93, 327.58
375.58, 3.12, 328.26
376.86, 3.36, 328.95
378.04, 3.64, 329.59
364.27, 2.55, 321.98
364.82, 2.55, 322.27
365.46, 2.55, 322.60
366.20, 2.55, 322.99
367.07, 2.55, 323.45
368.04, 2.55, 323.96
369.14, 2.58, 324.54
370.10, 2.65, 325.04
371.24, 2.73, 325.64
372.48, 2.84, 326.29
373.76, 2.99, 326.97
375.64, 3.13, 327.95
376.93, 3.36, 328.63
378.09, 3.64, 329.24
364.32, 2.55, 321.87
364.88, 2.55, 322.15
365.52, 2.55, 322.48
366.26, 2.55, 322.85
367.13, 2.55, 323.30
368.10, 2.56, 323.79
369.19, 2.58, 324.35
370.15, 2.66, 324.83
371.30, 2.74, 325.42
372.53, 2.85, 326.04
373.82, 2.99, 326.69
375.68, 3.13, 327.64
376.98, 3.36, 328.30
378.15, 3.64, 328.89
364.36, 2.55, 321.76
364.92, 2.55, 322.03
365.57, 2.55, 322.35
¯366.31, 2.55, 322.72
367.19, 2.55, 323.15
368.16, 2.56, 323.62
369.24, 2.58, 324.16
370.19, 2.66, 324.62
371.36, 2.74, 325.19
372.59, 2.85, 325.79
373.87, 2.99, 326.42
375.14, 3.18, 327.04
377.03, 3.36, 327.97
378.21, 3.64, 328.55
364.41, 2.55, 321.65
364.97, 2.55, 321.92
365.61, 2.55, 322.22
366.36, 2.55, 322.58
367.24, 2.55, 322.99
368.21, 2.56, 323.45
369.29, 2.59, 323.96
370.23, 2.66, 324.41
371.41, 2.74, 324.97
372.64, 2.85, 325.55
373.91, 2.99, 326.15
375.18, 3.18, 326.75
377.06, 3.37, 327.64
378.27, 3.64, 328.20
364.45, 2.55, 321.54
365.01, 2.55, 321.80
365.66, 2.55, 322.09
366.41, 2.55, 322.43
367.29, 2.55, 322.83
368.25, 2.56, 323.28
369.34, 2.59, 323.77
370.28, 2.67, 324.20
371.46, 2.74, 324.74
372.68, 2.85, 325.30
373.96, 3.00, 325.88
375.22, 3.18, 326.45
376.52, 3.40, 327.04
378.30, 3.64, 327.85
364.48, 2.55, 321.42
365.05, 2.55, 321.67
365.70, 2.55, 321.96
366.45, 2.55, 322.29
367.33, 2.55, 322.68
368.30, 2.56, 323.10
369.37, 2.59, 323.58
370.33, 2.67, 324.00
371.51, 2.74, 324.52
372.72, 2.85, 325.05
373.99, 3.00, 325.61
375.26, 3.18, 326.16
¯376.55, 3.40, 326.73
377.81, 3.66, 327.27
364.52, 2.55, 321.31
365.09, 2.55, 321.55
365.74, 2.55, 321.83
366.50, 2.55, 322.15
367.37, 2.55, 322.52
368.33, 2.57, 322.93
369.41, 2.59, 323.38
370.37, 2.67, 323.79
371.55, 2.75, 324.29
372.76, 2.86, 324.80
374.03, 3.00, 325.34
375.30, 3.18, 325.87
376.59, 3.40, 326.41
377.84, 3.65, 326.94
379.10, 3.95, 327.46
364.55, 2.55, 321.20
365.12, 2.55, 321.43
365.78, 2.55, 321.70
366.53, 2.55, 322.01
367.40, 2.55, 322.36
368.37, 2.57, 322.75
369.44, 2.60, 323.19
370.42, 2.67, 323.59
371.59, 2.75, 324.06
372.80, 2.86, 324.55
374.06, 3.00, 325.07
375.33, 3.18, 325.58
376.61, 3.39, 326.10
377.86, 3.65, 326.60
379.13, 3.94, 327.11
364.58, 2.55, 321.08
365.16, 2.55, 321.31
365.81, 2.55, 321.56
366.57, 2.55, 321.86
367.43, 2.56, 322.20
368.40, 2.57, 322.58
369.47, 2.60, 323.00
370.45, 2.67, 323.38
371.62, 2.75, 323.84
372.83, 2.86, 324.31
374.09, 3.00, 324.80
375.35, 3.18, 325.29
376.64, 3.39, 325.79
377.89, 3.65, 326.27
379.16, 3.94, 326.76
364.61, 2.55, 320.97
