ŸVERSION 0.7
FIELDS x y z
SIZE 8 8 8
TYPE F F F
COUNT 1 1 1
WIDTH 2271
HEIGHT 1
VIEWPOINT 435.31, 10.41, 361.96 1 416.55, 3.37, 366.85
POINTS 2271
DATA ascii
417.86, 1.13, 370.94
417.80, 1.12, 371.21
417.74, 1.11, 371.49
417.67, 1.10, 371.80
417.60, 1.09, 372.13
417.52, 1.08, 372.49
417.43, 1.07, 372.89
417.36, 1.11, 373.17
417.31, 1.18, 373.37
417.26, 1.25, 373.58
417.21, 1.32, 373.80
417.15, 1.40, 374.03
417.10, 1.49, 374.20
417.07, 1.61, 374.32
417.04, 1.72, 374.43
417.00, 1.84, 374.55
416.97, 1.96, 374.66
416.93, 2.09, 374.78
416.90, 2.21, 374.91
416.86, 2.34, 375.04
416.81, 2.47, 375.20
416.77, 2.60, 375.37
416.72, 2.73, 375.54
418.18, 1.18, 369.86
418.14, 1.17, 370.05
418.09, 1.16, 370.25
418.05, 1.15, 370.47
418.00, 1.15, 370.71
417.95, 1.14, 370.96
417.89, 1.13, 371.22
417.83, 1.12, 371.51
417.77, 1.11, 371.81
417.70, 1.10, 372.15
417.63, 1.09, 372.51
417.54, 1.08, 372.91
417.48, 1.12, 373.18
417.44, 1.19, 373.38
417.39, 1.26, 373.59
417.34, 1.34, 373.81
417.28, 1.41, 374.04
417.23, 1.49, 374.27
417.20, 1.61, 374.38
417.17, 1.73, 374.50
417.13, 1.84, 374.61
417.10, 1.97, 374.73
417.07, 2.09, 374.85
417.03, 2.22, 374.98
416.99, 2.34, 375.13
416.95, 2.47, 375.30
¯416.90, 2.60, 375.46
416.86, 2.74, 375.64
418.25, 1.18, 369.87
418.21, 1.18, 370.06
418.17, 1.17, 370.27
418.13, 1.16, 370.48
418.09, 1.15, 370.72
418.04, 1.14, 370.97
417.99, 1.14, 371.24
417.93, 1.13, 371.52
417.87, 1.12, 371.83
417.81, 1.11, 372.16
417.74, 1.10, 372.53
417.66, 1.09, 372.93
417.61, 1.14, 373.19
417.56, 1.20, 373.39
417.52, 1.27, 373.60
417.47, 1.35, 373.82
417.42, 1.43, 374.04
417.37, 1.51, 374.28
417.33, 1.61, 374.45
417.30, 1.73, 374.56
417.26, 1.85, 374.68
417.23, 1.97, 374.80
417.20, 2.09, 374.93
417.16, 2.22, 375.06
417.12, 2.34, 375.22
417.08, 2.47, 375.39
417.04, 2.61, 375.56
416.99, 2.74, 375.74
418.32, 1.19, 369.88
418.29, 1.18, 370.07
418.25, 1.18, 370.28
418.21, 1.17, 370.50
418.17, 1.16, 370.73
418.13, 1.15, 370.98
418.08, 1.14, 371.25
418.03, 1.14, 371.54
417.97, 1.13, 371.85
417.91, 1.12, 372.18
417.85, 1.11, 372.54
417.78, 1.10, 372.94
417.73, 1.15, 373.19
417.69, 1.22, 373.39
417.64, 1.29, 373.60
417.60, 1.36, 373.82
417.55, 1.44, 374.05
417.50, 1.52, 374.29
417.45, 1.61, 374.51
417.43, 1.73, 374.63
417.39, 1.85, 374.75
¯417.36, 1.97, 374.87
417.33, 2.10, 375.00
417.30, 2.22, 375.15
417.26, 2.35, 375.32
417.22, 2.48, 375.49
417.18, 2.61, 375.66
417.13, 2.75, 375.84
418.40, 1.20, 369.89
418.36, 1.19, 370.08
418.33, 1.18, 370.29
418.29, 1.18, 370.51
418.26, 1.17, 370.74
418.21, 1.16, 370.99
418.17, 1.15, 371.27
418.12, 1.14, 371.55
418.07, 1.14, 371.86
418.02, 1.13, 372.20
417.96, 1.12, 372.56
417.89, 1.11, 372.96
417.85, 1.16, 373.20
417.81, 1.23, 373.40
417.77, 1.30, 373.61
417.73, 1.38, 373.83
417.68, 1.45, 374.06
417.64, 1.53, 374.30
417.59, 1.62, 374.55
417.56, 1.73, 374.70
417.53, 1.85, 374.82
417.50, 1.97, 374.94
417.47, 2.10, 375.09
417.43, 2.22, 375.25
417.39, 2.35, 375.41
417.35, 2.48, 375.58
417.31, 2.61, 375.76
417.27, 2.75, 375.94
418.47, 1.20, 369.90
418.44, 1.20, 370.09
418.41, 1.19, 370.30
418.38, 1.18, 370.52
418.34, 1.18, 370.75
418.30, 1.17, 371.00
418.26, 1.16, 371.28
418.22, 1.15, 371.57
418.17, 1.15, 371.87
418.12, 1.14, 372.21
418.07, 1.13, 372.57
418.01, 1.12, 372.97
417.97, 1.17, 373.21
417.93, 1.24, 373.41
417.90, 1.31, 373.62
417.86, 1.39, 373.84
¯417.82, 1.47, 374.06
417.77, 1.55, 374.30
417.73, 1.63, 374.55
417.69, 1.73, 374.77
417.66, 1.85, 374.89
417.63, 1.98, 375.02
417.60, 2.10, 375.18
417.57, 2.22, 375.34
417.53, 2.35, 375.51
417.49, 2.48, 375.68
417.46, 2.62, 375.86
417.42, 2.76, 376.04
418.54, 1.21, 369.91
418.52, 1.21, 370.10
418.49, 1.20, 370.31
418.46, 1.19, 370.53
418.43, 1.18, 370.76
418.39, 1.18, 371.01
418.36, 1.17, 371.29
418.32, 1.16, 371.58
418.27, 1.15, 371.89
418.23, 1.15, 372.22
418.18, 1.14, 372.59
418.12, 1.13, 372.99
418.09, 1.18, 373.24
418.05, 1.25, 373.43
418.02, 1.32, 373.63
417.98, 1.40, 373.85
417.95, 1.48, 374.07
417.91, 1.56, 374.31
417.87, 1.65, 374.56
417.83, 1.74, 374.82
417.80, 1.85, 374.96
417.77, 1.97, 375.11
417.74, 2.10, 375.27
417.70, 2.22, 375.43
417.67, 2.35, 375.61
417.63, 2.48, 375.78
417.60, 2.62, 375.96
417.56, 2.76, 376.15
418.62, 1.22, 369.91
418.59, 1.21, 370.11
418.57, 1.21, 370.31
418.54, 1.20, 370.53
418.51, 1.19, 370.77
418.48, 1.18, 371.02
418.45, 1.18, 371.30
418.41, 1.17, 371.59
418.37, 1.16, 371.90
418.33, 1.16, 372.23
418.29, 1.15, 372.60
¯418.24, 1.14, 373.00
418.20, 1.19, 373.26
418.17, 1.26, 373.46
418.14, 1.33, 373.66
418.11, 1.41, 373.88
418.08, 1.49, 374.10
418.04, 1.57, 374.33
418.01, 1.66, 374.57
417.97, 1.75, 374.82
417.93, 1.85, 375.04
417.90, 1.97, 375.20
417.87, 2.10, 375.36
417.84, 2.22, 375.53
417.81, 2.35, 375.70
417.78, 2.49, 375.88
417.74, 2.62, 376.07
417.71, 2.77, 376.26
418.69, 1.22, 369.92
418.67, 1.22, 370.11
418.65, 1.21, 370.32
418.62, 1.21, 370.54
418.60, 1.20, 370.78
418.57, 1.19, 371.03
418.54, 1.19, 371.30
418.51, 1.18, 371.60
418.48, 1.17, 371.91
418.44, 1.16, 372.25
418.40, 1.16, 372.61
418.36, 1.15, 373.01
418.32, 1.20, 373.27
418.30, 1.26, 373.49
418.27, 1.34, 373.69
418.24, 1.41, 373.91
418.21, 1.49, 374.13
418.17, 1.58, 374.36
418.14, 1.66, 374.60
418.11, 1.76, 374.86
418.07, 1.85, 375.13
418.04, 1.97, 375.29
418.01, 2.10, 375.46
417.98, 2.22, 375.63
417.95, 2.35, 375.80
417.92, 2.49, 375.99
417.89, 2.63, 376.17
417.86, 2.77, 376.37
418.76, 1.23, 369.93
418.74, 1.23, 370.12
418.73, 1.22, 370.33
418.70, 1.21, 370.55
418.68, 1.21, 370.78
418.66, 1.20, 371.04
¯418.63, 1.19, 371.31
418.61, 1.19, 371.60
418.58, 1.18, 371.92
418.54, 1.17, 372.26
418.51, 1.17, 372.62
418.47, 1.16, 373.02
418.44, 1.21, 373.27
418.42, 1.27, 373.52
418.39, 1.34, 373.72
418.36, 1.42, 373.94
418.34, 1.50, 374.16
418.31, 1.58, 374.39
418.28, 1.67, 374.64
418.25, 1.76, 374.89
418.21, 1.85, 375.22
418.18, 1.97, 375.39
418.15, 2.09, 375.56
418.13, 2.22, 375.73
418.10, 2.36, 375.91
418.07, 2.49, 376.09
418.04, 2.63, 376.28
418.01, 2.78, 376.48
418.84, 1.24, 369.93
418.82, 1.23, 370.12
418.80, 1.23, 370.33
418.79, 1.22, 370.55
418.77, 1.22, 370.79
418.75, 1.21, 371.04
418.73, 1.20, 371.31
418.70, 1.19, 371.61
418.68, 1.19, 371.93
418.65, 1.18, 372.26
418.62, 1.18, 372.63
418.59, 1.17, 373.03
418.56, 1.22, 373.28
418.54, 1.28, 373.53
418.52, 1.35, 373.75
418.49, 1.43, 373.97
418.47, 1.51, 374.19
418.44, 1.59, 374.43
418.41, 1.68, 374.67
418.39, 1.77, 374.93
418.35, 1.86, 375.26
418.32, 1.97, 375.49
418.30, 2.09, 375.66
418.27, 2.22, 375.84
418.25, 2.36, 376.02
418.22, 2.49, 376.21
418.19, 2.64, 376.40
418.17, 2.78, 376.60
418.91, 1.25, 369.94
¯418.90, 1.24, 370.13
418.88, 1.24, 370.34
418.87, 1.23, 370.56
418.85, 1.22, 370.79
418.84, 1.22, 371.05
418.82, 1.21, 371.32
418.80, 1.20, 371.61
418.78, 1.20, 371.93
418.76, 1.19, 372.27
418.73, 1.19, 372.64
418.71, 1.18, 373.04
418.68, 1.23, 373.28
418.66, 1.29, 373.53
418.64, 1.35, 373.78
418.62, 1.43, 374.00
418.60, 1.51, 374.22
418.57, 1.60, 374.46
418.55, 1.69, 374.70
418.53, 1.78, 374.96
418.49, 1.86, 375.31
418.47, 1.96, 375.59
418.44, 2.09, 375.77
418.42, 2.22, 375.95
418.40, 2.36, 376.13
418.37, 2.50, 376.32
418.35, 2.64, 376.52
418.32, 2.79, 376.72
418.98, 1.25, 369.94
418.97, 1.25, 370.13
418.96, 1.24, 370.34
418.95, 1.24, 370.56
418.94, 1.23, 370.80
418.93, 1.23, 371.05
418.91, 1.22, 371.32
418.90, 1.21, 371.62
418.88, 1.20, 371.94
418.86, 1.20, 372.28
418.84, 1.19, 372.65
418.82, 1.19, 373.05
418.80, 1.24, 373.29
418.79, 1.30, 373.54
418.77, 1.36, 373.80
418.75, 1.44, 374.03
418.73, 1.52, 374.25
418.71, 1.60, 374.49
418.69, 1.69, 374.74
418.67, 1.79, 375.00
418.64, 1.87, 375.36
418.61, 1.96, 375.70
418.59, 2.09, 375.88
418.57, 2.22, 376.06
¯418.55, 2.36, 376.25
418.53, 2.50, 376.44
418.51, 2.64, 376.64
418.48, 2.79, 376.85
419.06, 1.26, 369.94
419.05, 1.25, 370.13
419.04, 1.25, 370.34
419.03, 1.25, 370.56
419.02, 1.24, 370.80
419.01, 1.23, 371.05
419.00, 1.23, 371.33
418.99, 1.22, 371.62
418.98, 1.21, 371.94
418.97, 1.21, 372.28
418.95, 1.20, 372.65
418.94, 1.20, 373.05
418.92, 1.25, 373.29
418.91, 1.31, 373.54
418.89, 1.37, 373.80
418.88, 1.44, 374.05
418.86, 1.52, 374.28
418.85, 1.61, 374.52
418.83, 1.70, 374.77
418.81, 1.79, 375.04
418.79, 1.87, 375.41
418.76, 1.96, 375.80
418.75, 2.09, 375.98
418.73, 2.22, 376.17
418.71, 2.36, 376.36
418.69, 2.50, 376.56
418.67, 2.65, 376.76
419.13, 1.27, 369.94
419.13, 1.26, 370.14
419.12, 1.26, 370.34
419.12, 1.25, 370.56
419.11, 1.25, 370.80
419.10, 1.24, 371.05
419.10, 1.24, 371.33
419.09, 1.23, 371.62
419.08, 1.22, 371.94
419.07, 1.22, 372.29
419.07, 1.21, 372.66
419.06, 1.21, 373.05
419.04, 1.27, 373.29
419.03, 1.32, 373.54
419.02, 1.38, 373.81
419.01, 1.45, 374.08
419.00, 1.53, 374.31
418.98, 1.62, 374.55
418.97, 1.71, 374.80
418.95, 1.80, 375.09
¯418.94, 1.88, 375.46
418.92, 1.96, 375.87
418.90, 2.09, 376.09
418.88, 2.22, 376.28
418.87, 2.36, 376.48
418.85, 2.50, 376.68
418.83, 2.65, 376.89
419.20, 1.27, 369.94
419.20, 1.27, 370.14
419.20, 1.26, 370.34
419.20, 1.26, 370.56
419.20, 1.26, 370.80
419.19, 1.25, 371.05
419.19, 1.25, 371.33
419.19, 1.24, 371.62
419.18, 1.23, 371.94
419.18, 1.23, 372.29
419.18, 1.22, 372.66
419.17, 1.22, 373.06
419.16, 1.28, 373.29
419.16, 1.33, 373.54
419.15, 1.39, 373.81
419.14, 1.46, 374.08
419.13, 1.54, 374.34
419.12, 1.62, 374.58
419.11, 1.71, 374.84
419.10, 1.80, 375.13
419.08, 1.88, 375.51
419.07, 1.97, 375.92
419.06, 2.09, 376.21
419.04, 2.22, 376.40
419.03, 2.36, 376.60
419.01, 2.50, 376.80
419.28, 1.28, 369.94
419.28, 1.28, 370.14
419.28, 1.27, 370.34
419.28, 1.27, 370.56
419.28, 1.26, 370.80
419.28, 1.26, 371.05
419.28, 1.25, 371.33
419.28, 1.25, 371.62
419.29, 1.24, 371.94
419.29, 1.24, 372.29
419.29, 1.23, 372.66
419.29, 1.23, 373.06
419.28, 1.29, 373.30
419.28, 1.34, 373.55
419.27, 1.41, 373.81
419.27, 1.47, 374.09
419.26, 1.54, 374.37
419.26, 1.63, 374.61
¯419.25, 1.72, 374.87
419.24, 1.80, 375.18
419.24, 1.89, 375.56
419.23, 1.98, 375.97
419.22, 2.08, 376.32
419.21, 2.22, 376.52
419.19, 2.36, 376.72
419.18, 2.51, 376.93
416.71, 1.55, 357.95
416.62, 1.58, 357.69
416.52, 1.61, 357.42
416.20, 1.45, 356.41
415.82, 1.28, 355.22
415.40, 1.10, 353.89
415.07, 1.05, 352.92
414.76, 1.03, 351.99
414.40, 1.01, 350.92
414.00, 1.01, 349.73
413.62, 1.04, 348.61
413.23, 1.11, 347.48
412.96, 1.27, 346.73
412.67, 1.43, 345.92
412.50, 1.67, 345.51
412.38, 1.92, 345.24
412.25, 2.19, 344.97
412.12, 2.46, 344.69
412.00, 2.74, 344.44
411.88, 3.03, 344.18
411.75, 3.32, 343.91
411.62, 3.62, 343.64
411.49, 3.94, 343.35
411.35, 4.26, 343.05
411.21, 4.59, 342.77
411.08, 4.92, 342.50
410.94, 5.27, 342.22
410.80, 5.63, 341.93
416.61, 1.54, 357.96
416.52, 1.57, 357.71
416.42, 1.60, 357.44
416.09, 1.44, 356.46
415.68, 1.25, 355.24
415.28, 1.11, 354.04
414.92, 1.03, 353.00
414.61, 1.02, 352.12
414.24, 1.00, 351.05
413.84, 1.00, 349.93
413.45, 1.04, 348.83
413.01, 1.09, 347.61
412.73, 1.24, 346.86
412.43, 1.41, 346.06
412.22, 1.63, 345.55
¯412.09, 1.89, 345.29
411.98, 2.15, 345.05
411.86, 2.43, 344.81
411.73, 2.71, 344.56
411.61, 2.99, 344.30
411.48, 3.29, 344.04
411.34, 3.59, 343.77
411.20, 3.90, 343.48
411.06, 4.22, 343.19
410.91, 4.55, 342.89
410.76, 4.89, 342.58
410.60, 5.24, 342.25
410.45, 5.60, 341.96
416.51, 1.52, 357.97
416.42, 1.55, 357.72
416.31, 1.58, 357.45
415.98, 1.43, 356.49
415.54, 1.22, 355.22
415.17, 1.12, 354.20
414.77, 1.02, 353.08
414.45, 1.01, 352.21
414.08, 0.99, 351.18
413.69, 1.00, 350.13
413.28, 1.03, 349.03
412.82, 1.08, 347.81
412.51, 1.22, 347.01
412.19, 1.38, 346.21
411.95, 1.59, 345.62
411.84, 1.85, 345.41
411.72, 2.12, 345.17
411.59, 2.39, 344.93
411.46, 2.67, 344.68
411.33, 2.96, 344.43
411.20, 3.25, 344.16
411.06, 3.55, 343.90
410.92, 3.86, 343.62
410.77, 4.18, 343.33
410.62, 4.51, 343.03
410.46, 4.85, 342.72
410.30, 5.20, 342.40
410.13, 5.56, 342.06
416.41, 1.50, 357.98
416.32, 1.53, 357.74
416.21, 1.56, 357.47
415.85, 1.40, 356.48
415.39, 1.19, 355.21
415.07, 1.12, 354.35
414.63, 1.01, 353.17
414.29, 0.99, 352.30
413.93, 0.99, 351.36
413.53, 1.00, 350.33
¯413.10, 1.03, 349.22
412.65, 1.08, 348.06
412.28, 1.20, 347.15
411.96, 1.36, 346.36
411.66, 1.55, 345.66
411.55, 1.81, 345.45
411.43, 2.08, 345.24
411.32, 2.36, 345.02
411.19, 2.64, 344.80
411.06, 2.92, 344.55
410.92, 3.22, 344.29
410.78, 3.52, 344.02
410.64, 3.82, 343.75
410.49, 4.14, 343.46
410.33, 4.47, 343.16
410.17, 4.81, 342.86
409.98, 5.16, 342.48
409.78, 5.52, 342.09
416.31, 1.48, 357.99
416.21, 1.51, 357.75
416.11, 1.54, 357.49
415.72, 1.37, 356.47
415.24, 1.16, 355.21
414.94, 1.12, 354.45
414.48, 0.99, 353.25
414.14, 0.98, 352.40
413.79, 0.99, 351.52
413.38, 1.00, 350.53
412.93, 1.02, 349.40
412.48, 1.07, 348.29
412.06, 1.17, 347.29
411.73, 1.33, 346.51
411.38, 1.51, 345.69
411.26, 1.77, 345.48
411.14, 2.04, 345.27
411.02, 2.32, 345.06
410.89, 2.60, 344.83
410.76, 2.88, 344.61
410.63, 3.18, 344.38
410.50, 3.48, 344.14
410.36, 3.79, 343.88
410.20, 4.10, 343.60
410.02, 4.43, 343.26
409.83, 4.77, 342.90
409.64, 5.12, 342.52
409.43, 5.49, 342.12
416.21, 1.46, 358.00
416.11, 1.49, 357.75
415.99, 1.52, 357.49
415.59, 1.34, 356.47
415.09, 1.13, 355.20
¯414.78, 1.08, 354.44
414.34, 0.98, 353.34
413.99, 0.97, 352.52
413.64, 0.98, 351.69
413.24, 1.00, 350.73
412.76, 1.01, 349.59
412.30, 1.06, 348.50
411.84, 1.15, 347.43
411.50, 1.31, 346.66
411.13, 1.48, 345.82
410.97, 1.73, 345.52
410.85, 2.00, 345.31
410.72, 2.28, 345.09
410.59, 2.56, 344.87
410.46, 2.85, 344.64
410.32, 3.14, 344.41
410.18, 3.44, 344.17
410.05, 3.75, 343.94
409.90, 4.07, 343.69
409.69, 4.40, 343.30
409.49, 4.74, 342.93
409.29, 5.09, 342.55
409.08, 5.46, 342.16
416.11, 1.44, 358.01
416.00, 1.46, 357.76
415.87, 1.48, 357.45
415.46, 1.31, 356.47
414.94, 1.09, 355.20
414.61, 1.05, 354.43
414.19, 0.96, 353.44
413.86, 0.97, 352.67
413.50, 0.98, 351.85
413.09, 0.99, 350.91
412.62, 1.01, 349.82
412.13, 1.05, 348.71
411.62, 1.12, 347.57
411.28, 1.28, 346.81
410.89, 1.45, 345.98
410.68, 1.69, 345.56
410.55, 1.96, 345.35
410.42, 2.24, 345.13
410.28, 2.52, 344.91
410.15, 2.81, 344.68
410.01, 3.10, 344.46
409.88, 3.40, 344.24
409.74, 3.71, 344.01
409.59, 4.03, 343.78
409.39, 4.36, 343.42
409.17, 4.70, 343.01
408.94, 5.05, 342.60
408.72, 5.42, 342.19
¯416.01, 1.41, 358.02
415.88, 1.43, 357.73
415.73, 1.44, 357.41
415.34, 1.29, 356.48
414.79, 1.06, 355.20
414.45, 1.01, 354.43
414.05, 0.95, 353.53
413.73, 0.96, 352.82
413.37, 0.97, 352.02
412.95, 0.99, 351.10
412.47, 1.00, 350.04
411.96, 1.04, 348.93
411.42, 1.10, 347.74
411.05, 1.25, 346.96
410.66, 1.42, 346.15
410.38, 1.65, 345.60
410.25, 1.92, 345.39
410.12, 2.19, 345.17
409.98, 2.48, 344.96
409.85, 2.77, 344.75
409.71, 3.06, 344.54
409.57, 3.36, 344.31
409.43, 3.67, 344.09
409.28, 3.99, 343.85
409.09, 4.32, 343.53
408.87, 4.66, 343.13
408.63, 5.01, 342.72
408.38, 5.39, 342.28
415.90, 1.38, 357.99
415.76, 1.39, 357.70
415.59, 1.39, 357.34
415.21, 1.26, 356.50
414.64, 1.03, 355.20
414.28, 0.97, 354.43
413.93, 0.94, 353.66
413.60, 0.96, 352.97
413.23, 0.97, 352.18
412.81, 0.98, 351.28
412.32, 1.00, 350.25
411.80, 1.03, 349.14
411.25, 1.09, 347.98
410.82, 1.22, 347.10
410.42, 1.39, 346.30
410.09, 1.60, 345.64
409.96, 1.88, 345.45
409.82, 2.15, 345.24
409.69, 2.44, 345.04
409.55, 2.73, 344.82
409.41, 3.02, 344.61
409.26, 3.33, 344.39
409.12, 3.64, 344.16
¯408.96, 3.95, 343.93
408.79, 4.28, 343.65
408.56, 4.62, 343.25
408.32, 4.97, 342.84
408.04, 5.35, 342.36
415.78, 1.34, 357.97
415.63, 1.35, 357.67
415.44, 1.34, 357.26
415.08, 1.23, 356.50
414.49, 1.00, 355.21
414.11, 0.94, 354.43
413.80, 0.94, 353.78
413.47, 0.95, 353.11
413.10, 0.97, 352.35
412.67, 0.98, 351.47
412.18, 0.99, 350.45
411.63, 1.02, 349.33
411.09, 1.08, 348.23
410.60, 1.20, 347.25
410.19, 1.36, 346.46
409.78, 1.56, 345.68
409.65, 1.83, 345.49
409.52, 2.11, 345.29
409.38, 2.40, 345.09
409.24, 2.69, 344.89
409.10, 2.98, 344.68
408.95, 3.29, 344.46
408.80, 3.60, 344.23
408.65, 3.91, 344.00
408.49, 4.24, 343.76
408.25, 4.58, 343.38
407.96, 4.94, 342.89
407.65, 5.32, 342.35
415.65, 1.31, 357.94
415.50, 1.31, 357.64
415.28, 1.29, 357.19
414.90, 1.17, 356.41
414.33, 0.96, 355.22
413.98, 0.92, 354.51
413.68, 0.93, 353.91
413.34, 0.94, 353.24
412.97, 0.96, 352.51
412.54, 0.97, 351.65
412.04, 0.99, 350.65
411.45, 1.00, 349.49
410.92, 1.07, 348.46
410.37, 1.17, 347.40
409.96, 1.33, 346.61
409.50, 1.52, 345.75
409.34, 1.79, 345.52
409.21, 2.07, 345.32
¯409.07, 2.35, 345.12
408.92, 2.64, 344.92
408.78, 2.94, 344.71
408.63, 3.25, 344.49
408.47, 3.56, 344.28
408.31, 3.88, 344.05
408.15, 4.20, 343.82
407.89, 4.54, 343.40
407.59, 4.91, 342.89
415.53, 1.27, 357.92
415.37, 1.28, 357.61
415.12, 1.23, 357.12
414.72, 1.11, 356.31
414.18, 0.93, 355.23
413.87, 0.92, 354.62
413.56, 0.92, 354.03
413.21, 0.93, 353.37
412.84, 0.95, 352.65
412.41, 0.97, 351.84
411.89, 0.98, 350.85
411.28, 0.98, 349.66
410.73, 1.05, 348.64
410.15, 1.14, 347.55
409.72, 1.30, 346.77
409.26, 1.48, 345.92
409.03, 1.74, 345.56
408.89, 2.02, 345.36
408.74, 2.31, 345.16
408.60, 2.60, 344.95
408.44, 2.90, 344.74
408.29, 3.20, 344.53
408.13, 3.52, 344.31
407.97, 3.84, 344.09
407.81, 4.16, 343.86
407.56, 4.51, 343.47
407.22, 4.87, 342.92
415.41, 1.23, 357.89
415.24, 1.24, 357.58
414.96, 1.18, 357.05
414.53, 1.05, 356.22
414.04, 0.90, 355.27
413.75, 0.91, 354.74
413.44, 0.92, 354.16
413.09, 0.93, 353.51
412.70, 0.94, 352.80
412.27, 0.96, 352.00
411.75, 0.97, 351.04
411.13, 0.97, 349.88
410.55, 1.03, 348.82
409.94, 1.11, 347.71
409.50, 1.27, 346.93
¯409.02, 1.45, 346.09
408.72, 1.69, 345.59
408.57, 1.97, 345.39
408.42, 2.26, 345.19
408.27, 2.55, 344.98
408.11, 2.85, 344.78
407.95, 3.16, 344.56
407.79, 3.48, 344.35
407.63, 3.80, 344.12
407.46, 4.13, 343.90
407.22, 4.47, 343.55
406.87, 4.83, 343.00
415.28, 1.19, 357.87
415.10, 1.19, 357.55
414.79, 1.12, 356.98
414.34, 0.98, 356.13
413.93, 0.90, 355.37
413.64, 0.90, 354.86
413.32, 0.91, 354.29
412.97, 0.92, 353.65
412.57, 0.93, 352.95
412.13, 0.95, 352.16
411.62, 0.96, 351.25
410.99, 0.97, 350.10
410.36, 1.01, 349.00
409.76, 1.09, 347.93
409.26, 1.24, 347.08
408.78, 1.42, 346.26
408.40, 1.64, 345.63
408.25, 1.93, 345.43
408.09, 2.21, 345.23
407.94, 2.51, 345.02
407.78, 2.81, 344.82
407.61, 3.12, 344.60
407.45, 3.43, 344.38
407.28, 3.76, 344.16
407.10, 4.09, 343.93
406.89, 4.43, 343.63
406.53, 4.79, 343.08
415.15, 1.15, 357.85
414.96, 1.15, 357.53
414.62, 1.06, 356.91
414.14, 0.91, 356.03
413.82, 0.89, 355.48
413.53, 0.90, 354.98
413.21, 0.90, 354.42
412.85, 0.91, 353.79
412.45, 0.92, 353.09
412.00, 0.94, 352.33
411.50, 0.96, 351.46
410.85, 0.96, 350.33
¯410.18, 0.99, 349.18
409.58, 1.08, 348.15
409.03, 1.21, 347.23
408.54, 1.38, 346.42
408.07, 1.59, 345.66
407.92, 1.88, 345.47
407.76, 2.17, 345.27
407.60, 2.46, 345.07
407.44, 2.77, 344.86
407.27, 3.08, 344.64
407.10, 3.39, 344.42
406.92, 3.72, 344.20
406.74, 4.05, 343.97
406.55, 4.39, 343.71
406.18, 4.75, 343.17
415.02, 1.11, 357.83
414.82, 1.11, 357.50
414.45, 1.01, 356.84
414.00, 0.88, 356.06
413.72, 0.88, 355.59
413.42, 0.89, 355.09
413.10, 0.90, 354.54
412.73, 0.90, 353.93
412.32, 0.91, 353.24
411.87, 0.93, 352.49
411.37, 0.95, 351.65
410.72, 0.95, 350.56
410.02, 0.97, 349.38
409.41, 1.06, 348.37
408.80, 1.18, 347.38
408.30, 1.35, 346.58
407.75, 1.54, 345.70
407.59, 1.83, 345.50
407.43, 2.12, 345.30
407.26, 2.42, 345.09
407.09, 2.72, 344.89
406.92, 3.03, 344.67
406.74, 3.35, 344.45
406.56, 3.67, 344.23
406.38, 4.01, 344.00
406.18, 4.35, 343.76
405.86, 4.71, 343.31
414.88, 1.07, 357.81
414.68, 1.06, 357.48
414.27, 0.94, 356.78
413.91, 0.88, 356.17
413.62, 0.88, 355.70
413.32, 0.88, 355.20
412.98, 0.89, 354.67
412.62, 0.90, 354.07
412.20, 0.90, 353.39
¯411.75, 0.92, 352.66
411.24, 0.94, 351.84
410.60, 0.95, 350.80
409.84, 0.95, 349.55
409.24, 1.04, 348.59
408.57, 1.14, 347.54
408.05, 1.31, 346.73
407.47, 1.50, 345.82
407.25, 1.78, 345.53
407.08, 2.07, 345.33
406.91, 2.37, 345.12
406.74, 2.67, 344.91
406.56, 2.99, 344.70
406.38, 3.31, 344.48
406.19, 3.63, 344.25
405.99, 3.97, 344.01
405.79, 4.31, 343.77
414.75, 1.02, 357.79
414.54, 1.02, 357.45
414.09, 0.88, 356.71
413.81, 0.87, 356.27
413.52, 0.87, 355.82
413.21, 0.87, 355.32
412.87, 0.88, 354.79
412.50, 0.89, 354.20
412.08, 0.90, 353.54
411.63, 0.91, 352.83
411.11, 0.93, 352.02
410.49, 0.95, 351.04
409.69, 0.94, 349.78
409.05, 1.01, 348.78
408.36, 1.11, 347.71
407.81, 1.28, 346.88
407.21, 1.46, 345.98
406.90, 1.72, 345.56
406.73, 2.02, 345.36
406.56, 2.32, 345.15
406.38, 2.62, 344.94
406.19, 2.94, 344.72
406.00, 3.26, 344.49
405.80, 3.59, 344.26
405.60, 3.93, 344.02
405.39, 4.27, 343.77
414.61, 0.98, 357.77
414.39, 0.97, 357.43
413.99, 0.87, 356.79
413.72, 0.87, 356.38
413.43, 0.86, 355.93
413.10, 0.86, 355.44
412.76, 0.87, 354.92
412.39, 0.88, 354.34
¯411.97, 0.89, 353.70
411.51, 0.91, 353.00
410.99, 0.93, 352.21
410.37, 0.94, 351.27
409.57, 0.93, 350.04
408.86, 0.99, 348.96
408.16, 1.09, 347.92
407.56, 1.24, 347.03
406.95, 1.42, 346.14
406.56, 1.67, 345.59
406.38, 1.96, 345.39
406.20, 2.27, 345.18
406.01, 2.57, 344.96
405.81, 2.89, 344.73
405.61, 3.21, 344.50
405.40, 3.55, 344.27
405.19, 3.89, 344.02
414.47, 0.93, 357.75
414.23, 0.92, 357.39
413.90, 0.86, 356.89
413.63, 0.86, 356.49
413.33, 0.86, 356.05
413.01, 0.86, 355.56
412.66, 0.86, 355.04
412.27, 0.87, 354.47
411.85, 0.88, 353.85
411.39, 0.90, 353.17
410.87, 0.92, 352.39
410.27, 0.94, 351.50
409.46, 0.93, 350.30
408.67, 0.96, 349.14
407.96, 1.06, 348.11
407.30, 1.20, 347.16
406.69, 1.38, 346.29
406.20, 1.61, 345.62
406.01, 1.91, 345.41
405.82, 2.21, 345.20
405.62, 2.52, 344.97
405.42, 2.84, 344.75
405.22, 3.17, 344.51
405.00, 3.50, 344.27
404.79, 3.84, 344.03
414.35, 0.90, 357.77
414.06, 0.86, 357.35
413.81, 0.86, 356.99
413.54, 0.86, 356.60
413.24, 0.85, 356.16
412.91, 0.85, 355.68
412.55, 0.85, 355.17
412.16, 0.86, 354.61
411.74, 0.87, 354.01
¯411.28, 0.89, 353.34
410.75, 0.91, 352.58
410.15, 0.93, 351.71
409.35, 0.92, 350.56
408.49, 0.94, 349.33
407.76, 1.03, 348.30
407.04, 1.16, 347.30
406.41, 1.34, 346.43
405.84, 1.56, 345.65
405.64, 1.85, 345.44
405.45, 2.16, 345.22
405.24, 2.47, 344.99
405.03, 2.79, 344.76
404.82, 3.12, 344.53
404.60, 3.46, 344.29
414.26, 0.89, 357.84
413.99, 0.86, 357.45
413.73, 0.85, 357.09
413.46, 0.85, 356.71
413.15, 0.85, 356.28
412.82, 0.84, 355.81
412.45, 0.84, 355.30
412.06, 0.85, 354.75
411.64, 0.86, 354.16
411.17, 0.88, 353.51
410.63, 0.90, 352.77
410.01, 0.91, 351.90
409.23, 0.91, 350.80
408.30, 0.91, 349.51
407.56, 1.00, 348.49
406.79, 1.12, 347.43
406.14, 1.29, 346.56
405.47, 1.50, 345.68
405.27, 1.80, 345.46
405.06, 2.10, 345.24
404.85, 2.42, 345.01
404.64, 2.74, 344.78
404.41, 3.07, 344.55
414.17, 0.88, 357.91
413.92, 0.86, 357.56
413.67, 0.86, 357.22
413.38, 0.85, 356.83
413.06, 0.84, 356.40
412.73, 0.84, 355.94
412.35, 0.83, 355.42
411.96, 0.84, 354.90
411.53, 0.86, 354.32
411.06, 0.87, 353.68
410.52, 0.89, 352.95
409.89, 0.90, 352.09
409.10, 0.90, 351.02
¯408.14, 0.89, 349.73
407.36, 0.97, 348.68
406.53, 1.07, 347.57
405.85, 1.25, 346.69
405.10, 1.44, 345.70
404.89, 1.74, 345.49
404.68, 2.05, 345.26
404.46, 2.36, 345.04
404.23, 2.69, 344.79
403.98, 3.02, 344.53
414.09, 0.86, 357.98
413.85, 0.86, 357.68
413.60, 0.86, 357.35
413.31, 0.85, 356.96
413.00, 0.85, 356.54
412.64, 0.84, 356.07
412.26, 0.83, 355.56
411.86, 0.84, 355.04
411.43, 0.85, 354.48
410.95, 0.86, 353.85
410.41, 0.88, 353.14
409.76, 0.89, 352.29
408.98, 0.89, 351.25
408.02, 0.88, 349.98
407.16, 0.94, 348.87
406.29, 1.04, 347.74
405.57, 1.20, 346.82
404.79, 1.39, 345.84
404.50, 1.68, 345.51
404.28, 1.99, 345.29
404.03, 2.31, 345.03
403.78, 2.63, 344.76
414.02, 0.86, 358.08
413.79, 0.86, 357.79
413.54, 0.87, 357.47
413.25, 0.86, 357.10
412.93, 0.85, 356.69
412.58, 0.84, 356.23
412.18, 0.83, 355.72
411.76, 0.82, 355.17
411.33, 0.84, 354.63
410.85, 0.85, 354.02
410.30, 0.87, 353.32
409.64, 0.88, 352.48
408.86, 0.88, 351.47
407.89, 0.87, 350.23
406.96, 0.91, 349.05
405.97, 0.98, 347.80
405.23, 1.14, 346.87
404.47, 1.34, 345.95
404.09, 1.62, 345.52
¯403.84, 1.93, 345.26
403.58, 2.25, 345.00
413.95, 0.86, 358.18
413.72, 0.86, 357.90
413.47, 0.87, 357.59
413.19, 0.86, 357.23
412.87, 0.86, 356.83
412.52, 0.85, 356.39
412.12, 0.84, 355.90
411.63, 0.80, 355.27
411.21, 0.82, 354.75
410.74, 0.84, 354.17
410.20, 0.86, 353.51
409.52, 0.86, 352.67
408.74, 0.86, 351.69
407.77, 0.85, 350.48
406.76, 0.88, 349.23
405.63, 0.92, 347.83
404.84, 1.07, 346.88
404.09, 1.27, 345.99
403.68, 1.55, 345.54
403.42, 1.86, 345.28
413.89, 0.86, 358.29
413.66, 0.86, 358.01
413.41, 0.87, 357.70
413.14, 0.87, 357.37
412.81, 0.86, 356.98
412.46, 0.85, 356.55
412.05, 0.84, 356.05
411.50, 0.78, 355.38
411.07, 0.80, 354.86
410.59, 0.82, 354.29
410.06, 0.84, 353.64
409.40, 0.85, 352.85
408.62, 0.85, 351.90
407.65, 0.84, 350.74
406.57, 0.84, 349.42
405.28, 0.85, 347.87
404.44, 1.01, 346.89
403.74, 1.21, 346.08
403.27, 1.49, 345.56
413.83, 0.86, 358.39
413.60, 0.86, 358.12
413.35, 0.87, 357.82
413.07, 0.87, 357.50
412.76, 0.86, 357.13
412.40, 0.86, 356.71
411.98, 0.83, 356.20
411.38, 0.76, 355.49
410.94, 0.78, 354.97
410.45, 0.79, 354.40
¯409.91, 0.81, 353.77
409.25, 0.82, 352.99
408.47, 0.83, 352.07
407.54, 0.83, 350.98
406.37, 0.81, 349.61
404.93, 0.79, 347.91
404.08, 0.94, 346.94
403.38, 1.15, 346.16
402.85, 1.42, 345.59
413.78, 0.86, 358.49
413.54, 0.87, 358.23
413.29, 0.87, 357.94
413.01, 0.87, 357.62
412.70, 0.87, 357.27
412.35, 0.86, 356.86
411.90, 0.83, 356.35
411.31, 0.76, 355.65
410.81, 0.75, 355.08
410.31, 0.77, 354.52
409.76, 0.79, 353.89
409.10, 0.80, 353.14
408.31, 0.80, 352.24
407.42, 0.81, 351.22
406.25, 0.80, 349.88
404.59, 0.73, 347.97
403.74, 0.88, 347.03
403.02, 1.09, 346.25
413.72, 0.86, 358.60
413.49, 0.87, 358.34
413.23, 0.87, 358.06
412.95, 0.87, 357.75
412.65, 0.87, 357.41
412.30, 0.87, 357.02
411.84, 0.83, 356.50
411.24, 0.76, 355.82
410.68, 0.73, 355.19
410.18, 0.75, 354.64
409.61, 0.76, 354.02
408.96, 0.78, 353.30
408.16, 0.78, 352.41
407.30, 0.80, 351.45
406.12, 0.78, 350.14
404.49, 0.71, 348.32
403.40, 0.82, 347.13
402.66, 1.03, 346.35
413.67, 0.86, 358.70
413.43, 0.87, 358.45
413.17, 0.87, 358.17
412.90, 0.87, 357.87
412.59, 0.87, 357.55
412.25, 0.87, 357.17
¯411.77, 0.83, 356.65
411.17, 0.76, 355.99
410.55, 0.71, 355.31
410.04, 0.72, 354.76
409.47, 0.74, 354.15
408.82, 0.75, 353.45
408.02, 0.76, 352.59
407.17, 0.78, 351.67
405.99, 0.76, 350.40
404.39, 0.70, 348.66
403.06, 0.76, 347.24
402.30, 0.97, 346.45
413.61, 0.86, 358.81
413.38, 0.87, 358.56
413.12, 0.87, 358.29
412.84, 0.87, 358.00
412.54, 0.87, 357.68
412.20, 0.88, 357.32
411.71, 0.83, 356.80
411.11, 0.76, 356.15
410.42, 0.69, 355.43
409.91, 0.70, 354.89
409.33, 0.71, 354.28
408.67, 0.73, 353.59
407.89, 0.73, 352.77
407.02, 0.75, 351.87
405.87, 0.74, 350.66
404.30, 0.69, 349.00
402.72, 0.70, 347.35
401.91, 0.90, 346.53
413.56, 0.86, 358.90
413.32, 0.86, 358.66
413.06, 0.87, 358.40
412.78, 0.87, 358.12
412.48, 0.87, 357.81
412.15, 0.88, 357.47
411.65, 0.83, 356.95
411.04, 0.76, 356.32
410.34, 0.68, 355.59
409.77, 0.67, 355.01
409.18, 0.69, 354.41
408.52, 0.70, 353.74
407.75, 0.71, 352.96
406.88, 0.73, 352.07
405.76, 0.72, 350.92
404.21, 0.68, 349.33
402.37, 0.64, 347.46
413.48, 0.85, 358.97
413.23, 0.85, 358.74
412.97, 0.85, 358.48
412.69, 0.85, 358.20
¯412.38, 0.85, 357.89
412.05, 0.86, 357.56
411.59, 0.83, 357.10
410.99, 0.76, 356.49
410.28, 0.68, 355.78
409.65, 0.65, 355.14
409.05, 0.66, 354.55
408.38, 0.67, 353.89
407.63, 0.69, 353.15
406.75, 0.71, 352.28
405.62, 0.70, 351.16
404.11, 0.66, 349.65
402.02, 0.57, 347.57
413.40, 0.83, 359.05
413.15, 0.83, 358.81
412.89, 0.83, 358.55
412.60, 0.83, 358.28
412.28, 0.83, 357.98
411.95, 0.84, 357.65
411.53, 0.83, 357.25
410.93, 0.76, 356.66
410.23, 0.68, 355.96
409.52, 0.63, 355.28
408.92, 0.64, 354.70
408.24, 0.65, 354.04
407.51, 0.67, 353.35
406.63, 0.69, 352.50
405.48, 0.68, 351.39
403.96, 0.64, 349.92
401.78, 0.53, 347.79
413.32, 0.81, 359.12
413.07, 0.81, 358.89
412.80, 0.81, 358.63
412.51, 0.81, 358.36
412.19, 0.82, 358.06
411.85, 0.82, 357.75
411.48, 0.83, 357.40
410.88, 0.76, 356.82
410.17, 0.68, 356.15
409.40, 0.61, 355.42
408.79, 0.62, 354.84
408.11, 0.63, 354.21
407.40, 0.66, 353.54
406.51, 0.67, 352.71
405.34, 0.65, 351.61
403.82, 0.61, 350.18
401.72, 0.52, 348.20
413.24, 0.80, 359.19
412.99, 0.80, 358.96
412.71, 0.80, 358.71
412.42, 0.80, 358.44
¯412.09, 0.80, 358.15
411.76, 0.80, 357.84
411.39, 0.81, 357.51
410.83, 0.76, 356.99
410.13, 0.68, 356.34
409.33, 0.60, 355.60
408.67, 0.59, 354.99
407.99, 0.61, 354.38
407.27, 0.63, 353.72
406.39, 0.65, 352.93
405.19, 0.63, 351.83
403.68, 0.58, 350.45
401.67, 0.51, 348.60
413.16, 0.78, 359.27
412.91, 0.78, 359.04
412.63, 0.78, 358.80
412.33, 0.78, 358.53
412.01, 0.78, 358.24
411.66, 0.78, 357.94
411.29, 0.79, 357.61
410.78, 0.76, 357.16
410.08, 0.68, 356.53
409.29, 0.60, 355.81
408.54, 0.57, 355.14
407.87, 0.58, 354.55
407.14, 0.61, 353.91
406.28, 0.63, 353.15
405.05, 0.60, 352.05
403.55, 0.56, 350.72
401.60, 0.49, 348.98
413.09, 0.76, 359.35
412.83, 0.76, 359.12
412.55, 0.76, 358.88
412.24, 0.76, 358.62
411.92, 0.76, 358.34
411.57, 0.76, 358.04
411.19, 0.77, 357.71
410.74, 0.76, 357.32
410.04, 0.69, 356.71
409.25, 0.61, 356.02
408.42, 0.55, 355.29
407.75, 0.56, 354.72
407.02, 0.59, 354.09
406.16, 0.61, 353.35
404.89, 0.57, 352.25
403.44, 0.54, 351.00
401.50, 0.47, 349.32
413.02, 0.75, 359.44
412.75, 0.74, 359.20
412.46, 0.74, 358.96
412.15, 0.74, 358.71
¯411.83, 0.74, 358.43
411.48, 0.74, 358.14
411.09, 0.75, 357.82
410.67, 0.75, 357.47
410.00, 0.69, 356.90
409.22, 0.61, 356.23
408.30, 0.52, 355.44
407.63, 0.54, 354.89
406.85, 0.55, 354.23
405.97, 0.57, 353.50
404.66, 0.52, 352.40
403.33, 0.52, 351.28
401.39, 0.45, 349.65
412.97, 0.75, 359.53
412.67, 0.73, 359.29
412.38, 0.72, 359.05
412.07, 0.72, 358.80
411.74, 0.72, 358.53
411.39, 0.73, 358.24
411.00, 0.73, 357.93
410.57, 0.73, 357.58
409.97, 0.69, 357.08
409.19, 0.61, 356.43
408.14, 0.49, 355.56
407.42, 0.49, 354.97
406.61, 0.50, 354.31
405.73, 0.52, 353.61
404.44, 0.48, 352.55
403.23, 0.50, 351.57
401.28, 0.42, 349.97
412.92, 0.74, 359.63
412.59, 0.71, 359.37
412.30, 0.71, 359.14
411.99, 0.70, 358.89
411.66, 0.71, 358.63
411.30, 0.71, 358.34
410.91, 0.71, 358.03
410.47, 0.71, 357.69
409.88, 0.67, 357.21
408.93, 0.54, 356.44
407.94, 0.44, 355.65
407.19, 0.44, 355.06
406.36, 0.44, 354.40
405.49, 0.46, 353.71
404.24, 0.43, 352.72
403.05, 0.46, 351.79
401.17, 0.40, 350.29
412.87, 0.73, 359.73
412.54, 0.70, 359.47
412.22, 0.69, 359.22
411.91, 0.69, 358.98
¯411.58, 0.69, 358.73
411.21, 0.69, 358.45
410.81, 0.69, 358.14
410.37, 0.69, 357.80
409.63, 0.60, 357.22
408.64, 0.46, 356.44
407.75, 0.39, 355.74
406.97, 0.38, 355.14
406.13, 0.39, 354.50
405.24, 0.41, 353.82
404.08, 0.40, 352.93
402.88, 0.42, 352.01
401.08, 0.38, 350.62
412.82, 0.73, 359.82
412.49, 0.70, 359.57
412.15, 0.67, 359.31
411.83, 0.67, 359.08
411.49, 0.67, 358.83
411.12, 0.67, 358.55
410.72, 0.67, 358.25
410.27, 0.66, 357.91
409.38, 0.53, 357.23
408.34, 0.38, 356.43
407.55, 0.34, 355.84
406.74, 0.33, 355.23
405.90, 0.33, 354.61
405.00, 0.35, 353.93
403.92, 0.37, 353.13
402.70, 0.39, 352.23
401.01, 0.36, 350.96
412.77, 0.72, 359.92
412.44, 0.69, 359.68
412.08, 0.66, 359.41
411.75, 0.65, 359.17
411.41, 0.65, 358.92
411.03, 0.65, 358.65
410.62, 0.64, 358.35
410.17, 0.64, 358.03
409.12, 0.46, 357.24
408.11, 0.32, 356.48
407.36, 0.29, 355.94
406.52, 0.27, 355.33
405.67, 0.28, 354.72
404.79, 0.31, 354.08
403.76, 0.33, 353.34
402.53, 0.35, 352.46
400.94, 0.34, 351.30
412.72, 0.72, 360.02
412.39, 0.68, 359.78
412.03, 0.65, 359.52
411.67, 0.63, 359.27
¯411.32, 0.63, 359.02
410.94, 0.63, 358.76
410.53, 0.62, 358.46
409.97, 0.58, 358.07
408.86, 0.38, 357.26
407.93, 0.27, 356.58
407.16, 0.24, 356.04
406.29, 0.22, 355.42
405.53, 0.25, 354.90
404.74, 0.30, 354.35
403.62, 0.30, 353.56
402.37, 0.31, 352.68
400.85, 0.32, 351.62
412.68, 0.71, 360.12
412.35, 0.68, 359.89
411.98, 0.65, 359.64
411.59, 0.61, 359.37
411.24, 0.61, 359.12
410.86, 0.60, 358.86
410.43, 0.60, 358.57
409.76, 0.52, 358.10
408.60, 0.30, 357.27
407.75, 0.22, 356.68
406.96, 0.19, 356.14
406.22, 0.20, 355.64
405.49, 0.24, 355.15
404.70, 0.29, 354.62
403.56, 0.29, 353.84
402.20, 0.28, 352.91
400.66, 0.28, 351.86
412.64, 0.71, 360.22
412.30, 0.67, 359.99
411.94, 0.64, 359.75
411.55, 0.61, 359.48
411.16, 0.59, 359.23
410.77, 0.58, 358.97
410.34, 0.58, 358.68
409.54, 0.45, 358.13
408.32, 0.22, 357.30
407.57, 0.18, 356.79
406.92, 0.19, 356.36
406.21, 0.21, 355.89
405.44, 0.23, 355.39
404.66, 0.28, 354.88
403.49, 0.27, 354.11
402.03, 0.24, 353.13
400.47, 0.24, 352.11
398.56, 0.23, 350.84
412.60, 0.70, 360.32
412.26, 0.67, 360.10
411.90, 0.63, 359.86
¯411.50, 0.60, 359.60
411.08, 0.57, 359.33
410.69, 0.56, 359.08
410.25, 0.56, 358.80
409.32, 0.39, 358.17
408.13, 0.17, 357.38
407.55, 0.18, 357.01
406.91, 0.19, 356.60
406.20, 0.21, 356.14
405.42, 0.23, 355.65
404.62, 0.27, 355.14
403.44, 0.26, 354.38
401.86, 0.20, 353.36
400.31, 0.20, 352.37
398.70, 0.24, 351.34
412.56, 0.70, 360.42
412.22, 0.66, 360.21
411.86, 0.63, 359.98
411.46, 0.60, 359.73
411.02, 0.56, 359.45
410.60, 0.54, 359.18
410.17, 0.53, 358.91
409.10, 0.32, 358.22
408.13, 0.18, 357.59
407.53, 0.18, 357.22
406.89, 0.20, 356.83
406.19, 0.21, 356.39
405.42, 0.24, 355.92
404.58, 0.27, 355.40
403.36, 0.24, 354.64
401.72, 0.17, 353.61
400.16, 0.17, 352.64
398.68, 0.23, 351.73
412.52, 0.69, 360.52
412.18, 0.66, 360.31
411.82, 0.63, 360.09
411.42, 0.59, 359.85
410.98, 0.55, 359.58
410.52, 0.52, 359.29
409.99, 0.48, 358.97
409.02, 0.30, 358.36
408.14, 0.19, 357.81
407.52, 0.18, 357.44
406.88, 0.20, 357.06
406.18, 0.21, 356.64
405.42, 0.24, 356.18
404.58, 0.27, 355.68
403.26, 0.22, 354.88
401.62, 0.14, 353.88
400.02, 0.13, 352.92
398.62, 0.20, 352.08
¯412.48, 0.69, 360.62
412.14, 0.65, 360.42
411.78, 0.62, 360.21
411.38, 0.59, 359.97
410.94, 0.55, 359.71
410.45, 0.50, 359.41
409.81, 0.42, 359.03
409.03, 0.31, 358.56
408.15, 0.20, 358.03
407.54, 0.20, 357.67
406.87, 0.20, 357.28
406.18, 0.22, 356.88
405.43, 0.24, 356.44
404.52, 0.25, 355.92
403.16, 0.19, 355.12
401.52, 0.12, 354.15
399.92, 0.10, 353.22
398.57, 0.18, 352.44
412.45, 0.68, 360.73
412.11, 0.65, 360.53
411.75, 0.62, 360.32
411.35, 0.58, 360.09
410.91, 0.54, 359.84
410.42, 0.50, 359.55
409.81, 0.43, 359.20
409.05, 0.33, 358.75
408.17, 0.21, 358.24
407.56, 0.21, 357.90
406.88, 0.21, 357.51
406.18, 0.22, 357.12
405.40, 0.24, 356.68
404.45, 0.24, 356.15
403.06, 0.17, 355.35
401.43, 0.09, 354.42
399.89, 0.09, 353.55
398.53, 0.17, 352.80
412.42, 0.68, 360.83
412.08, 0.64, 360.64
411.71, 0.61, 360.44
411.31, 0.58, 360.21
410.87, 0.54, 359.97
410.38, 0.49, 359.69
409.82, 0.44, 359.38
409.06, 0.34, 358.95
408.18, 0.22, 358.45
407.58, 0.22, 358.12
406.91, 0.22, 357.76
406.17, 0.22, 357.36
405.34, 0.22, 356.90
404.39, 0.22, 356.38
402.97, 0.14, 355.59
¯401.42, 0.08, 354.74
399.93, 0.09, 353.93
398.50, 0.15, 353.15
412.38, 0.67, 360.93
412.05, 0.64, 360.75
411.68, 0.61, 360.55
411.28, 0.57, 360.33
410.84, 0.53, 360.10
410.35, 0.49, 359.83
409.79, 0.44, 359.53
409.08, 0.35, 359.14
408.20, 0.23, 358.66
407.60, 0.23, 358.35
406.94, 0.23, 358.00
406.13, 0.21, 357.56
405.27, 0.20, 357.11
404.32, 0.20, 356.61
402.88, 0.12, 355.84
401.45, 0.08, 355.07
399.97, 0.09, 354.29
398.46, 0.13, 353.50
412.35, 0.67, 361.03
412.02, 0.64, 360.86
411.65, 0.60, 360.67
411.25, 0.57, 360.46
410.81, 0.53, 360.23
410.32, 0.49, 359.97
409.76, 0.43, 359.67
409.10, 0.36, 359.33
408.23, 0.25, 358.87
407.63, 0.25, 358.56
406.95, 0.24, 358.22
406.10, 0.20, 357.78
405.21, 0.19, 357.32
404.25, 0.18, 356.83
402.85, 0.11, 356.11
401.49, 0.08, 355.41
400.02, 0.08, 354.66
398.47, 0.12, 353.87
412.33, 0.67, 361.13
411.99, 0.63, 360.96
411.63, 0.60, 360.78
411.23, 0.57, 360.58
410.78, 0.53, 360.36
410.29, 0.48, 360.11
409.73, 0.43, 359.82
409.08, 0.36, 359.50
408.26, 0.26, 359.08
407.66, 0.26, 358.78
406.92, 0.23, 358.41
406.08, 0.20, 357.99
¯405.17, 0.18, 357.55
404.17, 0.16, 357.05
402.87, 0.11, 356.40
401.52, 0.08, 355.73
400.06, 0.08, 355.02
398.47, 0.10, 354.23
412.30, 0.66, 361.24
411.96, 0.63, 361.07
411.60, 0.60, 360.90
411.20, 0.56, 360.70
410.76, 0.52, 360.49
410.27, 0.48, 360.25
409.70, 0.42, 359.97
409.06, 0.36, 359.66
408.30, 0.28, 359.29
407.64, 0.25, 358.97
406.89, 0.22, 358.61
406.05, 0.19, 358.20
405.15, 0.17, 357.77
404.11, 0.14, 357.28
402.90, 0.11, 356.70
401.56, 0.08, 356.06
400.08, 0.07, 355.35
398.47, 0.09, 354.59
412.28, 0.66, 361.34
411.94, 0.63, 361.18
411.57, 0.59, 361.01
411.17, 0.56, 360.82
410.73, 0.52, 360.62
410.24, 0.47, 360.39
409.68, 0.42, 360.12
409.04, 0.36, 359.82
408.31, 0.28, 359.47
407.61, 0.25, 359.15
406.86, 0.22, 358.80
406.03, 0.18, 358.42
405.13, 0.16, 358.00
404.13, 0.14, 357.54
402.93, 0.11, 356.99
401.61, 0.08, 356.38
400.12, 0.07, 355.69
398.47, 0.08, 354.94
396.45, 0.07, 354.01
412.25, 0.65, 361.44
411.92, 0.62, 361.29
411.55, 0.59, 361.13
411.15, 0.55, 360.95
410.71, 0.52, 360.75
410.22, 0.47, 360.52
409.66, 0.42, 360.27
409.02, 0.35, 359.98
¯408.31, 0.29, 359.66
407.59, 0.24, 359.33
406.84, 0.21, 359.00
406.01, 0.18, 358.63
405.12, 0.15, 358.23
404.14, 0.14, 357.79
402.97, 0.11, 357.27
401.65, 0.09, 356.69
400.18, 0.07, 356.04
398.48, 0.06, 355.29
396.54, 0.06, 354.43
412.23, 0.65, 361.55
411.90, 0.62, 361.40
411.53, 0.59, 361.24
411.13, 0.55, 361.07
410.69, 0.51, 360.87
410.20, 0.47, 360.66
409.64, 0.41, 360.42
409.00, 0.35, 360.14
408.32, 0.29, 359.84
407.59, 0.24, 359.52
406.82, 0.20, 359.19
405.99, 0.17, 358.84
405.12, 0.15, 358.46
404.15, 0.14, 358.05
402.99, 0.11, 357.55
401.69, 0.09, 357.00
400.24, 0.07, 356.38
398.53, 0.06, 355.65
396.63, 0.06, 354.84
412.22, 0.65, 361.65
411.88, 0.62, 361.51
411.51, 0.59, 361.36
411.11, 0.55, 361.19
410.67, 0.51, 361.00
410.19, 0.47, 360.80
409.62, 0.41, 360.56
409.00, 0.35, 360.30
408.33, 0.30, 360.02
407.61, 0.25, 359.72
406.80, 0.20, 359.38
405.98, 0.16, 359.04
405.13, 0.15, 358.69
404.16, 0.13, 358.30
403.02, 0.11, 357.83
401.74, 0.09, 357.30
400.31, 0.07, 356.72
398.64, 0.06, 356.03
396.72, 0.06, 355.25
412.20, 0.65, 361.76
411.87, 0.62, 361.62
¯411.50, 0.58, 361.47
411.10, 0.55, 361.31
410.66, 0.51, 361.13
410.17, 0.46, 360.94
409.61, 0.41, 360.71
409.01, 0.36, 360.47
408.34, 0.30, 360.20
407.62, 0.25, 359.91
406.83, 0.20, 359.59
405.98, 0.16, 359.26
405.14, 0.15, 358.92
404.18, 0.13, 358.55
403.04, 0.10, 358.10
401.80, 0.09, 357.61
400.37, 0.07, 357.05
398.74, 0.06, 356.41
396.83, 0.06, 355.66
412.19, 0.65, 361.86
411.85, 0.62, 361.73
411.49, 0.58, 361.59
411.08, 0.54, 361.43
410.64, 0.50, 361.26
410.16, 0.46, 361.07
409.60, 0.41, 360.86
409.01, 0.36, 360.63
408.35, 0.30, 360.38
407.64, 0.26, 360.10
406.85, 0.21, 359.80
405.99, 0.16, 359.47
405.15, 0.15, 359.15
404.20, 0.13, 358.79
403.09, 0.11, 358.38
401.86, 0.09, 357.91
400.44, 0.07, 357.37
398.84, 0.07, 356.77
396.96, 0.06, 356.06
412.18, 0.65, 361.97
411.84, 0.62, 361.84
411.48, 0.58, 361.71
411.08, 0.54, 361.56
410.63, 0.50, 361.39
410.15, 0.46, 361.21
409.61, 0.41, 361.01
409.02, 0.36, 360.80
408.36, 0.31, 360.55
407.66, 0.26, 360.29
406.88, 0.21, 360.01
406.00, 0.16, 359.68
405.16, 0.14, 359.38
404.22, 0.13, 359.04
403.14, 0.11, 358.65
¯401.93, 0.10, 358.21
400.52, 0.08, 357.70
398.95, 0.07, 357.13
397.07, 0.06, 356.46
412.17, 0.65, 362.07
411.83, 0.61, 361.95
411.47, 0.58, 361.82
411.07, 0.54, 361.68
410.63, 0.50, 361.52
410.14, 0.46, 361.35
409.62, 0.41, 361.16
409.04, 0.37, 360.96
408.38, 0.31, 360.73
407.68, 0.27, 360.48
406.89, 0.21, 360.20
406.02, 0.16, 359.89
405.18, 0.14, 359.61
404.24, 0.13, 359.28
403.19, 0.11, 358.92
402.00, 0.10, 358.50
400.61, 0.08, 358.02
399.05, 0.07, 357.49
397.19, 0.06, 356.85
412.16, 0.65, 362.17
411.82, 0.61, 362.06
411.46, 0.58, 361.94
411.06, 0.54, 361.80
410.62, 0.50, 361.65
410.14, 0.46, 361.49
409.63, 0.42, 361.32
409.05, 0.37, 361.12
408.40, 0.32, 360.90
407.71, 0.27, 360.67
406.91, 0.21, 360.40
406.04, 0.16, 360.10
405.21, 0.15, 359.83
404.28, 0.13, 359.52
403.25, 0.12, 359.18
402.06, 0.10, 358.79
400.70, 0.08, 358.34
399.16, 0.08, 357.84
397.32, 0.06, 357.23
412.15, 0.64, 362.28
411.82, 0.61, 362.17
411.45, 0.58, 362.05
411.06, 0.54, 361.92
410.62, 0.50, 361.78
410.14, 0.46, 361.63
409.64, 0.42, 361.46
409.07, 0.38, 361.28
408.42, 0.32, 361.07
¯407.73, 0.28, 360.85
406.93, 0.22, 360.59
406.06, 0.16, 360.31
405.24, 0.15, 360.05
404.31, 0.13, 359.76
403.30, 0.12, 359.44
402.13, 0.11, 359.08
400.78, 0.09, 358.65
399.26, 0.08, 358.18
397.44, 0.06, 357.60
395.31, 0.05, 356.94
412.14, 0.64, 362.38
411.81, 0.61, 362.28
411.45, 0.58, 362.17
411.05, 0.54, 362.04
410.62, 0.50, 361.91
410.15, 0.46, 361.76
409.64, 0.42, 361.61
409.08, 0.38, 361.44
408.44, 0.33, 361.24
407.75, 0.28, 361.03
406.95, 0.22, 360.78
406.08, 0.16, 360.52
405.27, 0.15, 360.27
404.35, 0.13, 360.00
403.35, 0.12, 359.70
402.21, 0.11, 359.36
400.87, 0.09, 358.96
399.36, 0.08, 358.51
397.56, 0.06, 357.97
395.46, 0.05, 357.34
412.14, 0.64, 362.48
411.81, 0.61, 362.39
411.45, 0.58, 362.28
411.05, 0.54, 362.16
410.63, 0.50, 362.04
410.16, 0.46, 361.90
409.65, 0.42, 361.76
409.09, 0.38, 361.59
408.47, 0.33, 361.41
407.76, 0.28, 361.20
406.97, 0.22, 360.97
406.10, 0.16, 360.72
405.30, 0.15, 360.49
404.39, 0.13, 360.23
403.39, 0.12, 359.95
402.27, 0.11, 359.63
400.96, 0.10, 359.26
399.46, 0.08, 358.84
397.68, 0.07, 358.33
395.61, 0.05, 357.74
¯412.13, 0.64, 362.58
411.81, 0.61, 362.49
411.45, 0.58, 362.39
411.06, 0.54, 362.28
410.63, 0.51, 362.17
410.17, 0.47, 362.04
409.67, 0.43, 361.90
409.11, 0.38, 361.75
408.49, 0.33, 361.57
407.79, 0.28, 361.38
407.00, 0.22, 361.16
406.13, 0.16, 360.92
405.33, 0.15, 360.71
404.43, 0.13, 360.47
403.44, 0.12, 360.20
402.33, 0.11, 359.90
401.04, 0.10, 359.56
399.55, 0.08, 359.16
397.80, 0.07, 358.69
395.75, 0.05, 358.14
412.13, 0.64, 362.69
411.80, 0.61, 362.60
411.45, 0.58, 362.51
411.06, 0.54, 362.41
410.64, 0.51, 362.30
410.18, 0.47, 362.17
409.68, 0.43, 362.04
409.13, 0.39, 361.90
408.51, 0.34, 361.74
407.81, 0.28, 361.56
407.02, 0.22, 361.35
406.16, 0.16, 361.12
405.36, 0.15, 360.92
404.47, 0.13, 360.70
403.49, 0.12, 360.45
402.39, 0.11, 360.17
401.12, 0.10, 359.85
399.65, 0.08, 359.47
397.92, 0.07, 359.04
395.90, 0.05, 358.52
412.13, 0.64, 362.79
411.81, 0.61, 362.71
411.45, 0.58, 362.62
411.07, 0.55, 362.53
410.65, 0.51, 362.42
410.19, 0.47, 362.31
409.69, 0.43, 362.19
409.15, 0.39, 362.05
408.53, 0.34, 361.90
407.84, 0.29, 361.73
407.06, 0.23, 361.54
¯406.19, 0.16, 361.32
405.40, 0.15, 361.13
404.51, 0.13, 360.92
403.54, 0.12, 360.69
402.45, 0.11, 360.43
401.20, 0.10, 360.13
399.75, 0.09, 359.78
398.04, 0.07, 359.38
396.04, 0.05, 358.90
412.13, 0.64, 362.89
411.81, 0.61, 362.81
411.46, 0.58, 362.73
411.08, 0.55, 362.64
410.66, 0.51, 362.55
410.20, 0.47, 362.44
409.71, 0.43, 362.33
409.17, 0.39, 362.20
408.56, 0.34, 362.06
407.88, 0.29, 361.90
407.10, 0.23, 361.72
406.22, 0.17, 361.52
405.44, 0.15, 361.34
404.56, 0.13, 361.15
403.60, 0.12, 360.93
402.52, 0.11, 360.69
401.28, 0.10, 360.41
399.85, 0.09, 360.09
398.17, 0.07, 359.72
396.19, 0.05, 359.27
412.14, 0.64, 362.99
411.81, 0.61, 362.92
411.46, 0.58, 362.85
411.09, 0.55, 362.76
410.67, 0.51, 362.67
410.22, 0.47, 362.57
409.73, 0.44, 362.47
409.19, 0.39, 362.35
408.59, 0.35, 362.22
407.91, 0.30, 362.07
407.14, 0.24, 361.91
406.27, 0.17, 361.72
405.48, 0.15, 361.55
404.61, 0.13, 361.37
403.65, 0.12, 361.17
402.58, 0.11, 360.95
401.36, 0.10, 360.69
399.94, 0.09, 360.39
398.29, 0.07, 360.05
396.35, 0.06, 359.64
394.76, 0.15, 359.32
412.14, 0.64, 363.09
¯411.82, 0.61, 363.03
411.47, 0.58, 362.96
411.10, 0.55, 362.88
410.69, 0.52, 362.80
410.24, 0.48, 362.71
409.75, 0.44, 362.61
409.21, 0.40, 362.50
408.62, 0.35, 362.38
407.94, 0.30, 362.24
407.19, 0.24, 362.09
406.32, 0.18, 361.92
405.53, 0.16, 361.76
404.67, 0.14, 361.59
403.71, 0.12, 361.41
402.65, 0.11, 361.20
401.44, 0.10, 360.96
400.04, 0.09, 360.69
398.41, 0.07, 360.37
396.51, 0.06, 360.01
395.24, 0.20, 359.77
412.14, 0.64, 363.19
411.83, 0.62, 363.13
411.48, 0.59, 363.07
411.11, 0.55, 363.00
410.70, 0.52, 362.92
410.26, 0.48, 362.84
409.77, 0.44, 362.75
409.24, 0.40, 362.65
408.65, 0.36, 362.54
407.98, 0.30, 362.41
407.23, 0.25, 362.27
406.37, 0.18, 362.11
405.58, 0.16, 361.97
404.73, 0.14, 361.81
403.78, 0.13, 361.64
402.72, 0.11, 361.45
401.52, 0.10, 361.23
400.14, 0.09, 360.98
398.53, 0.07, 360.69
396.68, 0.06, 360.36
395.43, 0.20, 360.15
412.15, 0.64, 363.29
411.84, 0.62, 363.24
411.50, 0.59, 363.18
411.13, 0.56, 363.12
410.72, 0.52, 363.04
410.28, 0.48, 362.97
409.80, 0.45, 362.88
409.27, 0.40, 362.79
408.68, 0.36, 362.69
408.02, 0.31, 362.58
¯407.28, 0.25, 362.45
406.43, 0.19, 362.30
405.63, 0.16, 362.17
404.79, 0.14, 362.03
403.85, 0.13, 361.87
402.81, 0.12, 361.70
401.62, 0.10, 361.50
400.24, 0.09, 361.27
398.66, 0.08, 361.01
396.84, 0.07, 360.71
395.61, 0.20, 360.52
412.16, 0.65, 363.39
411.85, 0.62, 363.34
411.51, 0.59, 363.29
411.14, 0.56, 363.23
410.74, 0.52, 363.17
410.30, 0.49, 363.10
409.82, 0.45, 363.02
409.30, 0.41, 362.94
408.71, 0.36, 362.85
408.06, 0.31, 362.74
407.32, 0.26, 362.63
406.49, 0.19, 362.49
405.69, 0.16, 362.37
404.85, 0.15, 362.24
403.92, 0.13, 362.10
402.89, 0.12, 361.94
401.71, 0.11, 361.77
400.36, 0.09, 361.56
398.78, 0.08, 361.32
397.53, 0.16, 361.14
395.79, 0.20, 360.89
412.17, 0.65, 363.49
411.86, 0.62, 363.45
411.52, 0.59, 363.40
411.16, 0.56, 363.35
410.76, 0.53, 363.29
410.32, 0.49, 363.22
409.85, 0.45, 363.16
409.33, 0.41, 363.08
408.75, 0.37, 363.00
408.10, 0.32, 362.90
407.37, 0.26, 362.80
406.54, 0.20, 362.68
405.74, 0.17, 362.57
404.91, 0.15, 362.45
403.99, 0.13, 362.33
402.97, 0.12, 362.19
401.81, 0.11, 362.03
400.47, 0.10, 361.84
398.92, 0.08, 361.63
¯397.99, 0.21, 361.52
395.97, 0.20, 361.24
412.18, 0.65, 363.59
411.87, 0.62, 363.55
411.54, 0.59, 363.51
411.17, 0.56, 363.46
410.78, 0.53, 363.41
410.34, 0.49, 363.35
409.87, 0.45, 363.29
409.36, 0.42, 363.22
408.79, 0.37, 363.15
408.15, 0.32, 363.07
407.42, 0.27, 362.97
406.60, 0.21, 362.87
405.80, 0.17, 362.76
404.97, 0.15, 362.66
404.06, 0.14, 362.55
403.05, 0.13, 362.43
401.91, 0.11, 362.28
400.59, 0.10, 362.12
399.06, 0.08, 361.93
398.13, 0.21, 361.83
396.15, 0.20, 361.59
412.19, 0.65, 363.69
411.88, 0.62, 363.65
411.55, 0.59, 363.61
411.19, 0.56, 363.57
410.80, 0.53, 363.53
410.37, 0.49, 363.48
409.90, 0.46, 363.42
409.39, 0.42, 363.36
408.82, 0.38, 363.30
408.19, 0.33, 363.23
407.48, 0.27, 363.14
406.67, 0.21, 363.05
405.85, 0.17, 362.96
405.04, 0.16, 362.87
404.13, 0.14, 362.77
403.14, 0.13, 362.66
402.01, 0.12, 362.54
400.71, 0.10, 362.40
399.76, 0.19, 362.30
398.28, 0.22, 362.15
396.33, 0.21, 361.94
412.20, 0.65, 363.79
411.90, 0.62, 363.75
411.57, 0.60, 363.72
411.21, 0.56, 363.68
410.82, 0.53, 363.64
410.39, 0.50, 363.60
409.93, 0.46, 363.55
¯409.42, 0.42, 363.50
408.86, 0.38, 363.45
408.23, 0.33, 363.38
407.53, 0.28, 363.31
406.73, 0.22, 363.23
405.91, 0.18, 363.15
405.10, 0.16, 363.07
404.20, 0.14, 362.99
403.22, 0.13, 362.89
402.11, 0.12, 362.79
400.83, 0.11, 362.67
400.12, 0.24, 362.61
398.44, 0.22, 362.46
396.51, 0.21, 362.27
394.19, 0.20, 362.06
412.22, 0.65, 363.88
411.91, 0.62, 363.86
411.59, 0.60, 363.83
411.23, 0.57, 363.80
410.84, 0.53, 363.76
410.42, 0.50, 363.72
409.95, 0.46, 363.68
409.45, 0.42, 363.64
408.90, 0.38, 363.59
408.28, 0.34, 363.54
407.58, 0.28, 363.48
406.79, 0.22, 363.41
405.97, 0.18, 363.34
405.17, 0.16, 363.28
404.28, 0.15, 363.20
403.31, 0.14, 363.12
402.21, 0.12, 363.04
401.50, 0.22, 362.99
400.25, 0.24, 362.89
398.60, 0.22, 362.76
396.69, 0.21, 362.61
394.40, 0.20, 362.42
412.53, 0.79, 364.01
411.93, 0.63, 363.96
411.60, 0.60, 363.93
411.25, 0.57, 363.91
410.86, 0.54, 363.88
410.44, 0.50, 363.85
409.98, 0.46, 363.81
409.49, 0.43, 363.78
408.93, 0.38, 363.74
408.32, 0.34, 363.69
407.63, 0.29, 363.64
406.85, 0.23, 363.59
406.02, 0.18, 363.53
405.23, 0.16, 363.47
¯404.35, 0.15, 363.42
403.39, 0.14, 363.35
402.70, 0.21, 363.31
401.77, 0.26, 363.26
400.38, 0.24, 363.16
398.75, 0.23, 363.06
396.86, 0.21, 362.93
394.62, 0.20, 362.78
412.62, 0.83, 364.11
412.33, 0.80, 364.09
412.02, 0.77, 364.07
411.61, 0.71, 364.05
410.89, 0.54, 363.99
410.47, 0.50, 363.97
410.01, 0.47, 363.94
409.52, 0.43, 363.91
408.97, 0.39, 363.88
408.36, 0.34, 363.85
407.68, 0.29, 363.81
406.91, 0.23, 363.76
406.07, 0.18, 363.71
405.29, 0.17, 363.67
404.42, 0.15, 363.63
403.98, 0.26, 363.61
403.06, 0.27, 363.57
401.88, 0.26, 363.50
400.51, 0.25, 363.43
398.91, 0.23, 363.35
397.04, 0.21, 363.25
