žVERSION 0.7
FIELDS x y z
SIZE 8 8 8
TYPE F F F
COUNT 1 1 1
WIDTH 2271
HEIGHT 1
VIEWPOINT 327.40, 7.23, 328.90 1 335.24, 1.92, 310.59
POINTS 2271
DATA ascii
333.97, 0.60, 305.00
333.96, 0.67, 304.57
333.94, 0.74, 304.05
333.92, 0.81, 303.48
333.90, 0.90, 302.85
333.86, 0.90, 301.08
333.80, 0.88, 298.24
333.69, 0.85, 293.92
333.64, 1.06, 292.20
333.59, 1.33, 290.85
333.54, 1.63, 289.46
334.04, 0.11, 309.40
334.03, 0.12, 309.24
334.03, 0.14, 309.07
334.02, 0.15, 308.89
334.01, 0.16, 308.69
334.00, 0.17, 308.49
333.99, 0.19, 308.28
333.98, 0.21, 308.06
333.97, 0.23, 307.82
333.96, 0.25, 307.56
333.95, 0.27, 307.28
333.94, 0.30, 306.98
333.92, 0.33, 306.65
333.91, 0.37, 306.35
333.90, 0.42, 306.04
333.88, 0.47, 305.71
333.86, 0.53, 305.36
¯333.85, 0.59, 304.97
333.82, 0.65, 304.48
333.80, 0.72, 303.95
333.77, 0.79, 303.37
333.74, 0.88, 302.72
333.69, 0.91, 301.25
333.57, 0.86, 298.16
333.41, 0.83, 293.80
333.33, 1.04, 292.03
333.26, 1.30, 290.64
333.19, 1.60, 289.19
333.98, 0.11, 309.40
333.97, 0.12, 309.24
333.96, 0.13, 309.07
333.95, 0.14, 308.89
333.94, 0.16, 308.70
333.93, 0.17, 308.50
333.91, 0.19, 308.29
333.90, 0.20, 308.06
333.89, 0.22, 307.82
333.87, 0.25, 307.56
333.86, 0.27, 307.28
333.84, 0.29, 306.98
333.82, 0.32, 306.65
333.80, 0.36, 306.33
333.78, 0.41, 306.02
333.76, 0.46, 305.69
333.74, 0.52, 305.33
333.72, 0.58, 304.94
333.69, 0.63, 304.38
333.66, 0.69, 303.85
333.62, 0.77, 303.26
333.58, 0.86, 302.63
333.52, 0.91, 301.41
333.35, 0.84, 298.09
333.12, 0.81, 293.67
333.02, 1.01, 291.86
332.93, 1.27, 290.41
333.91, 0.11, 309.40
333.90, 0.12, 309.25
333.89, 0.13, 309.08
333.88, 0.14, 308.90
333.86, 0.15, 308.70
333.85, 0.17, 308.50
333.83, 0.18, 308.29
333.82, 0.20, 308.07
333.80, 0.22, 307.83
333.78, 0.24, 307.57
333.76, 0.26, 307.29
333.74, 0.29, 306.99
333.72, 0.31, 306.66
¯333.69, 0.35, 306.31
333.67, 0.39, 306.00
333.65, 0.45, 305.67
333.62, 0.50, 305.31
333.59, 0.57, 304.92
333.55, 0.61, 304.32
333.51, 0.67, 303.75
333.46, 0.74, 303.14
333.42, 0.84, 302.54
333.35, 0.91, 301.57
333.13, 0.84, 298.22
332.83, 0.78, 293.55
332.70, 0.98, 291.69
332.58, 1.25, 290.18
333.85, 0.10, 309.41
333.83, 0.11, 309.25
333.82, 0.13, 309.08
333.81, 0.14, 308.90
333.79, 0.15, 308.71
333.77, 0.16, 308.51
333.75, 0.18, 308.30
333.74, 0.19, 308.07
333.72, 0.21, 307.83
333.69, 0.23, 307.57
333.67, 0.26, 307.29
333.64, 0.28, 306.99
333.62, 0.31, 306.66
333.59, 0.34, 306.30
333.56, 0.38, 305.98
333.53, 0.43, 305.64
333.50, 0.49, 305.28
333.46, 0.55, 304.89
333.41, 0.59, 304.26
333.36, 0.65, 303.64
333.30, 0.72, 303.02
333.25, 0.82, 302.44
333.19, 0.92, 301.73
332.95, 0.86, 298.69
332.53, 0.76, 293.42
332.38, 0.96, 291.57
332.23, 1.22, 289.95
333.78, 0.10, 309.42
333.77, 0.11, 309.26
333.75, 0.12, 309.09
333.73, 0.13, 308.91
333.72, 0.14, 308.72
333.70, 0.16, 308.52
333.68, 0.17, 308.30
333.65, 0.19, 308.08
333.63, 0.21, 307.84
333.60, 0.23, 307.58
¯333.58, 0.25, 307.30
333.55, 0.27, 307.00
333.51, 0.30, 306.67
333.48, 0.33, 306.31
333.44, 0.37, 305.96
333.41, 0.42, 305.62
333.37, 0.48, 305.25
333.33, 0.54, 304.86
333.27, 0.57, 304.20
333.20, 0.62, 303.53
333.14, 0.70, 302.90
333.08, 0.80, 302.35
333.02, 0.91, 301.80
332.75, 0.86, 298.90
332.24, 0.73, 293.37
332.05, 0.93, 291.46
331.88, 1.19, 289.78
333.72, 0.10, 309.42
333.70, 0.11, 309.26
333.68, 0.12, 309.10
333.66, 0.13, 308.92
333.64, 0.14, 308.73
333.62, 0.15, 308.52
333.60, 0.17, 308.31
333.57, 0.18, 308.08
333.54, 0.20, 307.84
333.51, 0.22, 307.59
333.48, 0.25, 307.31
333.45, 0.27, 307.00
333.41, 0.29, 306.68
333.37, 0.32, 306.32
333.33, 0.36, 305.94
333.29, 0.41, 305.60
333.25, 0.46, 305.23
333.20, 0.52, 304.83
333.12, 0.55, 304.14
333.04, 0.60, 303.43
332.97, 0.67, 302.78
332.91, 0.77, 302.25
332.84, 0.89, 301.69
332.55, 0.86, 299.00
331.96, 0.72, 293.41
331.73, 0.91, 291.46
331.53, 1.17, 289.71
333.66, 0.09, 309.43
333.64, 0.10, 309.27
333.61, 0.11, 309.10
333.59, 0.12, 308.93
333.57, 0.14, 308.73
333.54, 0.15, 308.53
333.52, 0.16, 308.32
¯333.49, 0.18, 308.09
333.46, 0.20, 307.85
333.42, 0.22, 307.59
333.39, 0.24, 307.32
333.35, 0.26, 307.01
333.31, 0.29, 306.68
333.26, 0.32, 306.33
333.21, 0.35, 305.93
333.17, 0.39, 305.58
333.12, 0.45, 305.21
333.07, 0.51, 304.80
332.98, 0.53, 304.08
332.88, 0.57, 303.31
332.80, 0.65, 302.67
332.73, 0.75, 302.15
332.65, 0.87, 301.58
332.35, 0.85, 299.11
331.69, 0.71, 293.58
331.42, 0.89, 291.47
331.18, 1.15, 289.64
333.59, 0.09, 309.44
333.57, 0.10, 309.28
333.55, 0.11, 309.11
333.52, 0.12, 308.93
333.49, 0.13, 308.74
333.47, 0.14, 308.54
333.44, 0.16, 308.33
333.40, 0.17, 308.10
333.37, 0.19, 307.86
333.33, 0.21, 307.60
333.30, 0.23, 307.32
333.25, 0.26, 307.02
333.21, 0.28, 306.69
333.16, 0.31, 306.34
333.10, 0.34, 305.94
333.05, 0.38, 305.55
332.99, 0.44, 305.18
332.93, 0.50, 304.78
332.83, 0.52, 304.02
332.72, 0.55, 303.20
332.63, 0.63, 302.58
332.55, 0.73, 302.05
332.46, 0.85, 301.47
332.17, 0.86, 299.35
331.42, 0.70, 293.75
331.10, 0.88, 291.48
330.82, 1.12, 289.56
333.53, 0.09, 309.45
333.50, 0.10, 309.29
333.48, 0.11, 309.12
333.45, 0.12, 308.94
¯333.42, 0.13, 308.75
333.39, 0.14, 308.55
333.36, 0.15, 308.34
333.32, 0.17, 308.11
333.28, 0.19, 307.87
333.24, 0.21, 307.61
333.20, 0.23, 307.33
333.16, 0.25, 307.03
333.10, 0.27, 306.70
333.05, 0.30, 306.35
332.99, 0.33, 305.95
332.92, 0.37, 305.53
332.86, 0.42, 305.16
332.80, 0.48, 304.75
332.68, 0.50, 303.96
332.55, 0.52, 303.09
332.45, 0.60, 302.49
332.36, 0.71, 301.95
332.27, 0.82, 301.35
331.99, 0.86, 299.52
331.16, 0.70, 293.92
330.78, 0.86, 291.48
330.47, 1.10, 289.49
333.46, 0.08, 309.46
333.44, 0.09, 309.30
333.41, 0.10, 309.13
333.38, 0.11, 308.95
333.35, 0.12, 308.77
333.31, 0.14, 308.56
333.28, 0.15, 308.35
333.24, 0.17, 308.13
333.20, 0.18, 307.88
333.16, 0.20, 307.62
333.11, 0.22, 307.34
333.06, 0.24, 307.04
333.00, 0.27, 306.72
332.94, 0.29, 306.36
332.88, 0.32, 305.96
332.80, 0.36, 305.53
332.73, 0.41, 305.13
332.66, 0.47, 304.72
332.53, 0.48, 303.90
332.37, 0.49, 302.97
332.27, 0.58, 302.40
332.18, 0.68, 301.84
332.07, 0.80, 301.24
331.73, 0.81, 299.16
330.88, 0.68, 294.00
330.47, 0.84, 291.53
330.12, 1.08, 289.50
333.40, 0.08, 309.47
¯333.37, 0.09, 309.31
333.34, 0.10, 309.14
333.31, 0.11, 308.97
333.27, 0.12, 308.78
333.24, 0.13, 308.58
333.20, 0.15, 308.36
333.16, 0.16, 308.14
333.11, 0.18, 307.89
333.07, 0.19, 307.63
333.01, 0.21, 307.36
332.96, 0.24, 307.05
332.90, 0.26, 306.73
332.83, 0.29, 306.37
332.76, 0.32, 305.98
332.68, 0.35, 305.54
332.60, 0.39, 305.11
332.53, 0.45, 304.70
332.37, 0.46, 303.84
332.19, 0.46, 302.85
332.09, 0.56, 302.30
331.99, 0.66, 301.75
331.87, 0.78, 301.15
331.45, 0.77, 298.80
330.60, 0.67, 294.03
330.17, 0.83, 291.65
333.34, 0.08, 309.48
333.31, 0.09, 309.32
333.27, 0.09, 309.16
333.24, 0.10, 308.98
333.20, 0.12, 308.79
333.16, 0.13, 308.59
333.12, 0.14, 308.38
333.08, 0.16, 308.15
333.03, 0.17, 307.91
332.98, 0.19, 307.65
332.92, 0.21, 307.37
332.86, 0.23, 307.07
332.80, 0.25, 306.74
332.73, 0.28, 306.38
332.65, 0.31, 305.99
332.56, 0.34, 305.56
332.47, 0.38, 305.09
332.38, 0.43, 304.66
332.22, 0.44, 303.79
332.01, 0.44, 302.75
331.91, 0.53, 302.22
331.79, 0.64, 301.67
331.67, 0.76, 301.06
331.19, 0.74, 298.59
330.32, 0.65, 294.07
329.82, 0.80, 291.52
¯333.27, 0.07, 309.49
333.24, 0.08, 309.33
333.21, 0.09, 309.17
333.17, 0.10, 308.99
333.13, 0.11, 308.80
333.09, 0.12, 308.60
333.04, 0.14, 308.39
332.99, 0.15, 308.17
332.94, 0.17, 307.92
332.89, 0.18, 307.66
332.83, 0.20, 307.38
332.76, 0.22, 307.08
332.69, 0.25, 306.75
332.62, 0.27, 306.40
332.54, 0.30, 306.00
332.44, 0.33, 305.57
332.34, 0.37, 305.09
332.24, 0.42, 304.61
332.06, 0.41, 303.73
331.85, 0.42, 302.74
331.72, 0.51, 302.15
331.60, 0.62, 301.59
331.46, 0.74, 300.97
330.93, 0.71, 298.38
330.03, 0.64, 294.07
329.45, 0.77, 291.28
333.21, 0.07, 309.50
333.17, 0.08, 309.35
333.14, 0.09, 309.18
333.10, 0.10, 309.01
333.06, 0.11, 308.82
333.01, 0.12, 308.62
332.96, 0.13, 308.41
332.91, 0.15, 308.18
332.86, 0.16, 307.94
332.80, 0.18, 307.68
332.73, 0.20, 307.40
332.67, 0.22, 307.09
332.59, 0.24, 306.77
332.51, 0.27, 306.41
332.42, 0.29, 306.02
332.32, 0.33, 305.59
332.22, 0.36, 305.11
332.09, 0.40, 304.57
331.90, 0.40, 303.72
331.68, 0.41, 302.73
331.53, 0.49, 302.08
331.40, 0.60, 301.51
331.26, 0.71, 300.88
330.65, 0.67, 298.16
329.69, 0.60, 293.83
¯329.06, 0.73, 291.04
333.15, 0.06, 309.52
333.11, 0.07, 309.36
333.07, 0.08, 309.20
333.03, 0.09, 309.02
332.98, 0.10, 308.83
332.93, 0.11, 308.63
332.88, 0.13, 308.42
332.83, 0.14, 308.20
332.77, 0.16, 307.96
332.71, 0.17, 307.70
332.64, 0.19, 307.41
332.57, 0.21, 307.11
332.49, 0.23, 306.78
332.40, 0.26, 306.43
332.31, 0.29, 306.04
332.20, 0.32, 305.60
332.09, 0.35, 305.13
331.95, 0.38, 304.55
331.75, 0.39, 303.72
331.52, 0.40, 302.73
331.34, 0.47, 302.01
331.20, 0.57, 301.43
331.04, 0.69, 300.79
330.37, 0.64, 297.94
329.34, 0.56, 293.58
328.68, 0.70, 290.84
333.08, 0.06, 309.53
333.04, 0.07, 309.37
333.00, 0.08, 309.21
332.96, 0.09, 309.03
332.91, 0.10, 308.85
332.86, 0.11, 308.65
332.81, 0.12, 308.44
332.75, 0.14, 308.21
332.69, 0.15, 307.97
332.62, 0.17, 307.71
332.55, 0.18, 307.43
332.47, 0.20, 307.13
332.39, 0.23, 306.80
332.30, 0.25, 306.44
332.20, 0.28, 306.05
332.09, 0.31, 305.62
331.96, 0.34, 305.14
331.82, 0.37, 304.57
331.60, 0.38, 303.72
331.35, 0.38, 302.73
331.16, 0.45, 301.98
330.99, 0.55, 301.35
330.79, 0.65, 300.55
330.07, 0.60, 297.70
¯328.97, 0.53, 293.32
328.29, 0.67, 290.63
333.02, 0.06, 309.54
332.98, 0.07, 309.39
332.93, 0.07, 309.23
332.89, 0.08, 309.05
332.84, 0.09, 308.86
332.78, 0.10, 308.66
332.73, 0.12, 308.45
332.67, 0.13, 308.23
332.60, 0.15, 307.99
332.53, 0.16, 307.73
332.46, 0.18, 307.45
332.37, 0.20, 307.15
332.28, 0.22, 306.82
332.19, 0.24, 306.46
332.08, 0.27, 306.07
331.97, 0.30, 305.64
331.84, 0.33, 305.16
331.68, 0.36, 304.60
331.45, 0.36, 303.72
331.18, 0.37, 302.73
330.98, 0.44, 301.98
330.78, 0.53, 301.26
330.52, 0.61, 300.29
329.78, 0.57, 297.52
328.59, 0.49, 293.05
327.81, 0.62, 290.16
332.96, 0.05, 309.56
332.91, 0.06, 309.41
332.87, 0.07, 309.24
332.82, 0.08, 309.07
332.76, 0.09, 308.88
332.71, 0.10, 308.68
332.65, 0.11, 308.47
332.58, 0.12, 308.25
332.52, 0.14, 308.01
332.44, 0.16, 307.75
332.36, 0.17, 307.47
332.28, 0.19, 307.17
332.18, 0.21, 306.84
332.08, 0.24, 306.48
331.97, 0.26, 306.09
331.85, 0.29, 305.66
331.71, 0.32, 305.18
331.55, 0.36, 304.63
331.30, 0.35, 303.72
331.01, 0.35, 302.73
330.80, 0.42, 301.98
330.57, 0.50, 301.18
330.24, 0.57, 300.02
¯329.48, 0.54, 297.32
328.21, 0.45, 292.82
332.90, 0.05, 309.58
332.85, 0.06, 309.42
332.80, 0.07, 309.26
332.75, 0.07, 309.08
332.69, 0.08, 308.90
332.63, 0.09, 308.70
332.57, 0.11, 308.49
332.50, 0.12, 308.27
332.43, 0.13, 308.03
332.35, 0.15, 307.77
332.27, 0.17, 307.49
332.18, 0.19, 307.19
332.08, 0.21, 306.86
331.97, 0.23, 306.50
331.85, 0.25, 306.11
331.73, 0.28, 305.68
331.58, 0.32, 305.20
331.42, 0.35, 304.66
331.14, 0.34, 303.72
330.84, 0.34, 302.73
330.62, 0.41, 301.97
330.36, 0.48, 301.11
329.98, 0.54, 299.85
329.17, 0.50, 297.13
327.81, 0.41, 292.53
332.84, 0.05, 309.60
332.79, 0.06, 309.44
332.73, 0.06, 309.28
332.68, 0.07, 309.10
332.62, 0.08, 308.92
332.56, 0.09, 308.72
332.49, 0.10, 308.51
332.42, 0.11, 308.29
332.35, 0.13, 308.05
332.27, 0.14, 307.79
332.18, 0.16, 307.52
332.08, 0.18, 307.21
331.98, 0.20, 306.89
331.87, 0.22, 306.53
331.74, 0.25, 306.13
331.61, 0.28, 305.70
331.45, 0.31, 305.22
331.29, 0.34, 304.69
330.99, 0.33, 303.75
330.67, 0.33, 302.73
330.43, 0.39, 301.97
330.16, 0.46, 301.11
329.75, 0.52, 299.81
328.85, 0.47, 296.92
¯327.38, 0.36, 292.20
332.78, 0.05, 309.63
332.72, 0.05, 309.47
332.67, 0.06, 309.30
332.61, 0.07, 309.12
332.55, 0.07, 308.94
332.48, 0.08, 308.74
332.41, 0.10, 308.53
332.34, 0.11, 308.31
332.26, 0.12, 308.07
332.18, 0.14, 307.82
332.09, 0.15, 307.54
331.99, 0.17, 307.24
331.88, 0.20, 306.93
331.77, 0.22, 306.58
331.63, 0.24, 306.15
331.49, 0.27, 305.72
331.33, 0.30, 305.25
331.15, 0.33, 304.71
330.85, 0.32, 303.78
330.50, 0.31, 302.73
330.25, 0.38, 301.97
329.97, 0.45, 301.12
329.52, 0.50, 299.78
328.47, 0.41, 296.55
326.94, 0.31, 291.87
332.72, 0.05, 309.65
332.66, 0.05, 309.49
332.60, 0.06, 309.32
332.54, 0.06, 309.14
332.48, 0.07, 308.96
332.41, 0.08, 308.76
332.34, 0.09, 308.55
332.26, 0.10, 308.33
332.18, 0.12, 308.09
332.09, 0.13, 307.84
332.00, 0.15, 307.57
331.90, 0.17, 307.28
331.79, 0.20, 306.97
331.67, 0.22, 306.63
331.52, 0.23, 306.19
331.36, 0.26, 305.75
331.20, 0.29, 305.27
331.01, 0.32, 304.74
330.70, 0.31, 303.82
330.33, 0.30, 302.73
330.06, 0.36, 301.97
329.77, 0.44, 301.14
329.29, 0.48, 299.75
328.06, 0.36, 296.13
326.48, 0.27, 291.53
¯332.65, 0.04, 309.67
332.60, 0.05, 309.51
332.54, 0.05, 309.35
332.47, 0.06, 309.17
332.41, 0.07, 308.98
332.33, 0.08, 308.78
332.26, 0.09, 308.57
332.18, 0.10, 308.35
332.09, 0.11, 308.12
332.00, 0.13, 307.87
331.91, 0.15, 307.60
331.80, 0.17, 307.32
331.69, 0.19, 307.01
331.57, 0.22, 306.67
331.41, 0.23, 306.24
331.24, 0.25, 305.77
331.07, 0.28, 305.29
330.88, 0.31, 304.76
330.56, 0.30, 303.86
330.15, 0.28, 302.73
329.88, 0.35, 301.99
329.58, 0.42, 301.16
329.06, 0.46, 299.71
327.66, 0.31, 295.80
326.03, 0.22, 291.25
332.59, 0.04, 309.70
332.54, 0.05, 309.54
332.47, 0.05, 309.37
332.41, 0.06, 309.20
332.34, 0.06, 309.01
332.26, 0.07, 308.80
332.18, 0.08, 308.60
332.10, 0.09, 308.38
332.01, 0.11, 308.14
331.92, 0.13, 307.90
331.82, 0.14, 307.64
331.71, 0.17, 307.36
331.60, 0.19, 307.05
331.47, 0.21, 306.71
331.31, 0.23, 306.29
331.13, 0.24, 305.81
330.94, 0.27, 305.32
330.74, 0.30, 304.79
330.41, 0.29, 303.90
330.00, 0.27, 302.80
329.70, 0.33, 302.02
329.39, 0.41, 301.18
328.84, 0.44, 299.74
327.25, 0.25, 295.47
325.62, 0.19, 291.12
332.54, 0.04, 309.72
¯332.47, 0.05, 309.56
332.41, 0.05, 309.40
332.34, 0.06, 309.22
332.27, 0.06, 309.04
332.19, 0.07, 308.83
332.10, 0.07, 308.62
332.02, 0.09, 308.40
331.93, 0.10, 308.18
331.83, 0.12, 307.94
331.73, 0.14, 307.68
331.62, 0.16, 307.40
331.50, 0.19, 307.09
331.37, 0.21, 306.76
331.21, 0.23, 306.35
331.02, 0.24, 305.87
330.81, 0.26, 305.34
330.61, 0.29, 304.81
330.27, 0.29, 303.95
329.86, 0.27, 302.90
329.52, 0.32, 302.04
329.19, 0.40, 301.20
328.63, 0.43, 299.78
326.82, 0.20, 295.12
325.20, 0.15, 290.96
332.48, 0.04, 309.74
332.41, 0.04, 309.59
332.35, 0.05, 309.43
332.27, 0.05, 309.25
332.20, 0.06, 309.06
332.12, 0.06, 308.86
332.03, 0.07, 308.65
331.94, 0.09, 308.44
331.85, 0.10, 308.21
331.75, 0.12, 307.97
331.65, 0.14, 307.72
331.53, 0.16, 307.44
331.41, 0.18, 307.13
331.27, 0.21, 306.80
331.11, 0.23, 306.40
330.91, 0.24, 305.93
330.69, 0.25, 305.39
330.47, 0.28, 304.84
330.12, 0.28, 303.99
329.72, 0.27, 303.01
329.35, 0.31, 302.09
328.99, 0.38, 301.23
328.42, 0.42, 299.82
326.39, 0.15, 294.80
332.42, 0.04, 309.77
332.35, 0.04, 309.62
332.28, 0.05, 309.45
¯332.21, 0.05, 309.28
332.13, 0.06, 309.09
332.05, 0.06, 308.90
331.96, 0.07, 308.69
331.87, 0.08, 308.48
331.77, 0.10, 308.25
331.67, 0.12, 308.01
331.56, 0.14, 307.76
331.44, 0.16, 307.48
331.31, 0.18, 307.18
331.17, 0.20, 306.85
331.01, 0.22, 306.46
330.81, 0.24, 305.99
330.58, 0.25, 305.46
330.33, 0.27, 304.87
329.99, 0.27, 304.07
329.59, 0.27, 303.11
329.19, 0.31, 302.17
328.80, 0.37, 301.25
328.21, 0.41, 299.87
326.05, 0.12, 294.75
332.36, 0.03, 309.80
332.29, 0.04, 309.64
332.22, 0.04, 309.48
332.14, 0.05, 309.31
332.06, 0.05, 309.13
331.98, 0.06, 308.93
331.89, 0.07, 308.74
331.79, 0.08, 308.52
331.69, 0.10, 308.29
331.59, 0.11, 308.05
331.47, 0.13, 307.80
331.35, 0.15, 307.52
331.22, 0.18, 307.22
331.07, 0.20, 306.89
330.91, 0.22, 306.52
330.70, 0.24, 306.05
330.47, 0.25, 305.52
330.20, 0.27, 304.92
329.87, 0.27, 304.16
329.45, 0.27, 303.22
329.03, 0.30, 302.26
328.60, 0.36, 301.29
328.00, 0.39, 299.92
325.77, 0.11, 294.83
332.30, 0.03, 309.82
332.23, 0.04, 309.67
332.16, 0.04, 309.51
332.08, 0.05, 309.34
332.00, 0.05, 309.16
331.91, 0.06, 308.98
¯331.82, 0.07, 308.78
331.72, 0.09, 308.57
331.62, 0.10, 308.34
331.50, 0.11, 308.09
331.39, 0.13, 307.84
331.26, 0.15, 307.56
331.12, 0.17, 307.27
330.98, 0.20, 306.94
330.81, 0.22, 306.58
330.60, 0.23, 306.11
330.36, 0.25, 305.59
330.08, 0.27, 305.00
329.75, 0.27, 304.26
329.32, 0.27, 303.32
328.87, 0.30, 302.34
328.43, 0.35, 301.38
327.79, 0.38, 299.99
325.48, 0.09, 294.90
332.24, 0.03, 309.85
332.17, 0.03, 309.70
332.09, 0.04, 309.54
332.01, 0.04, 309.37
331.93, 0.05, 309.20
331.85, 0.06, 309.02
331.75, 0.08, 308.82
331.65, 0.09, 308.61
331.54, 0.10, 308.39
331.43, 0.11, 308.14
331.30, 0.13, 307.88
331.17, 0.15, 307.61
331.03, 0.17, 307.31
330.88, 0.19, 306.99
330.71, 0.22, 306.64
330.49, 0.23, 306.18
330.25, 0.25, 305.66
329.96, 0.26, 305.07
329.62, 0.27, 304.34
329.19, 0.27, 303.43
328.72, 0.29, 302.43
328.26, 0.35, 301.48
327.59, 0.37, 300.05
325.34, 0.11, 295.29
332.18, 0.03, 309.88
332.11, 0.03, 309.73
332.03, 0.04, 309.57
331.95, 0.05, 309.41
331.87, 0.05, 309.24
331.78, 0.07, 309.06
331.68, 0.08, 308.87
331.58, 0.09, 308.66
331.47, 0.10, 308.44
¯331.35, 0.11, 308.20
331.22, 0.13, 307.93
331.08, 0.14, 307.65
330.94, 0.17, 307.36
330.78, 0.19, 307.04
330.61, 0.22, 306.69
330.39, 0.23, 306.24
330.14, 0.25, 305.73
329.85, 0.26, 305.14
329.50, 0.27, 304.43
329.06, 0.27, 303.54
328.56, 0.29, 302.52
328.09, 0.34, 301.57
327.39, 0.36, 300.14
325.29, 0.14, 295.85
332.13, 0.03, 309.91
332.05, 0.03, 309.76
331.97, 0.04, 309.61
331.89, 0.05, 309.45
331.81, 0.06, 309.28
331.72, 0.07, 309.11
331.62, 0.08, 308.91
331.51, 0.09, 308.71
331.40, 0.10, 308.49
331.28, 0.11, 308.25
331.15, 0.13, 307.99
331.00, 0.14, 307.71
330.85, 0.16, 307.40
330.68, 0.19, 307.09
330.51, 0.21, 306.74
330.29, 0.23, 306.31
330.03, 0.24, 305.80
329.73, 0.26, 305.21
329.37, 0.27, 304.51
328.93, 0.27, 303.64
328.40, 0.28, 302.61
327.91, 0.33, 301.64
327.21, 0.36, 300.26
324.99, 0.12, 295.87
332.07, 0.02, 309.94
331.99, 0.03, 309.80
331.92, 0.04, 309.65
331.83, 0.05, 309.49
331.75, 0.06, 309.33
331.65, 0.07, 309.15
331.55, 0.08, 308.96
331.44, 0.09, 308.76
331.33, 0.10, 308.54
331.20, 0.12, 308.30
331.07, 0.13, 308.05
330.92, 0.15, 307.77
¯330.76, 0.16, 307.47
330.59, 0.18, 307.14
330.41, 0.21, 306.79
330.18, 0.23, 306.37
329.92, 0.24, 305.86
329.61, 0.25, 305.28
329.25, 0.27, 304.60
328.80, 0.27, 303.73
328.25, 0.28, 302.70
327.73, 0.32, 301.71
327.02, 0.35, 300.37
324.59, 0.08, 295.73
332.01, 0.02, 309.97
331.94, 0.03, 309.83
331.86, 0.04, 309.69
331.77, 0.05, 309.53
331.68, 0.06, 309.37
331.59, 0.07, 309.19
331.49, 0.08, 309.01
331.38, 0.09, 308.80
331.26, 0.10, 308.59
331.13, 0.12, 308.36
330.99, 0.13, 308.10
330.84, 0.15, 307.83
330.68, 0.16, 307.53
330.50, 0.18, 307.20
330.31, 0.20, 306.84
330.08, 0.23, 306.44
329.81, 0.24, 305.93
329.49, 0.25, 305.35
329.13, 0.27, 304.69
328.66, 0.27, 303.83
328.10, 0.27, 302.80
327.55, 0.31, 301.79
326.85, 0.35, 300.49
324.21, 0.04, 295.62
331.96, 0.02, 310.01
331.88, 0.03, 309.87
331.80, 0.04, 309.73
331.72, 0.05, 309.57
331.62, 0.06, 309.41
331.53, 0.07, 309.24
331.42, 0.08, 309.05
331.31, 0.09, 308.85
331.19, 0.10, 308.64
331.06, 0.12, 308.41
330.92, 0.13, 308.16
330.76, 0.15, 307.89
330.60, 0.16, 307.59
330.42, 0.18, 307.27
330.21, 0.20, 306.91
¯329.98, 0.22, 306.50
329.70, 0.23, 306.00
329.37, 0.25, 305.42
329.00, 0.26, 304.77
328.53, 0.27, 303.93
327.96, 0.27, 302.91
327.37, 0.30, 301.86
326.67, 0.34, 300.61
324.06, 0.06, 295.96
321.95, 0.00, 292.20
331.91, 0.02, 310.04
331.83, 0.03, 309.91
331.75, 0.04, 309.77
331.66, 0.05, 309.62
331.56, 0.06, 309.46
331.46, 0.07, 309.28
331.36, 0.08, 309.10
331.24, 0.09, 308.90
331.12, 0.10, 308.69
330.99, 0.12, 308.46
330.84, 0.13, 308.22
330.69, 0.15, 307.95
330.52, 0.17, 307.66
330.33, 0.18, 307.34
330.13, 0.20, 306.99
329.88, 0.22, 306.57
329.59, 0.23, 306.07
329.26, 0.24, 305.50
328.88, 0.26, 304.85
328.40, 0.27, 304.02
327.82, 0.27, 303.02
327.20, 0.30, 301.95
326.49, 0.34, 300.74
325.54, 0.37, 299.10
325.62, 0.63, 299.26
325.62, 0.87, 299.27
325.61, 1.11, 299.28
325.61, 1.34, 299.28
331.86, 0.02, 310.08
331.77, 0.03, 309.95
331.69, 0.04, 309.81
331.60, 0.05, 309.66
331.50, 0.06, 309.50
331.40, 0.07, 309.33
331.29, 0.08, 309.15
331.18, 0.09, 308.95
331.05, 0.10, 308.74
330.91, 0.12, 308.52
330.77, 0.13, 308.28
330.61, 0.15, 308.01
330.44, 0.17, 307.72
¯330.25, 0.18, 307.41
330.03, 0.20, 307.06
329.78, 0.22, 306.64
329.48, 0.23, 306.14
329.14, 0.24, 305.57
328.76, 0.26, 304.93
328.27, 0.26, 304.12
327.68, 0.27, 303.13
327.03, 0.29, 302.05
326.30, 0.33, 300.83
325.40, 0.38, 299.33
325.45, 0.63, 299.44
325.45, 0.86, 299.44
325.44, 1.10, 299.44
325.43, 1.34, 299.45
331.80, 0.02, 310.12
331.72, 0.03, 309.99
331.63, 0.04, 309.85
331.54, 0.05, 309.70
331.45, 0.06, 309.54
331.34, 0.07, 309.38
331.23, 0.08, 309.20
331.11, 0.09, 309.00
330.98, 0.10, 308.80
330.84, 0.12, 308.58
330.69, 0.13, 308.33
330.53, 0.15, 308.07
330.36, 0.17, 307.79
330.16, 0.19, 307.48
329.94, 0.20, 307.12
329.68, 0.22, 306.71
329.38, 0.23, 306.22
329.03, 0.24, 305.65
328.63, 0.25, 305.01
328.15, 0.26, 304.22
327.54, 0.26, 303.24
326.87, 0.28, 302.16
326.10, 0.32, 300.91
323.46, 0.06, 296.64
325.20, 0.61, 299.48
325.19, 0.85, 299.48
325.18, 1.09, 299.48
325.17, 1.33, 299.48
331.75, 0.03, 310.16
331.67, 0.03, 310.03
331.58, 0.04, 309.89
331.49, 0.05, 309.74
331.39, 0.06, 309.59
331.28, 0.07, 309.42
331.17, 0.08, 309.25
331.05, 0.09, 309.06
¯330.91, 0.11, 308.85
330.77, 0.12, 308.63
330.62, 0.13, 308.39
330.46, 0.15, 308.14
330.28, 0.17, 307.85
330.08, 0.19, 307.55
329.85, 0.20, 307.18
329.59, 0.21, 306.77
329.28, 0.23, 306.29
328.92, 0.24, 305.74
328.51, 0.25, 305.09
328.02, 0.26, 304.32
327.40, 0.26, 303.35
326.70, 0.28, 302.26
325.86, 0.30, 300.95
323.20, 0.04, 296.76
321.03, 0.00, 293.36
331.70, 0.03, 310.20
331.62, 0.03, 310.07
331.53, 0.04, 309.93
331.43, 0.05, 309.79
331.33, 0.06, 309.63
331.22, 0.07, 309.47
331.10, 0.08, 309.30
330.98, 0.09, 309.11
330.85, 0.11, 308.91
330.70, 0.12, 308.69
330.55, 0.13, 308.45
330.38, 0.15, 308.20
330.20, 0.17, 307.92
329.99, 0.18, 307.61
329.75, 0.20, 307.25
329.49, 0.21, 306.84
329.18, 0.22, 306.37
328.81, 0.24, 305.82
328.40, 0.25, 305.18
327.89, 0.26, 304.42
327.26, 0.26, 303.46
326.54, 0.27, 302.37
325.63, 0.29, 300.98
322.94, 0.03, 296.88
320.81, 0.00, 293.64
331.65, 0.02, 310.23
331.56, 0.03, 310.11
331.47, 0.04, 309.98
331.37, 0.05, 309.83
331.27, 0.06, 309.68
331.16, 0.07, 309.52
331.04, 0.08, 309.35
330.92, 0.09, 309.16
330.78, 0.11, 308.96
¯330.64, 0.12, 308.75
330.48, 0.13, 308.51
330.31, 0.15, 308.26
330.12, 0.17, 307.99
329.90, 0.18, 307.67
329.66, 0.19, 307.31
329.39, 0.21, 306.91
329.08, 0.22, 306.45
328.71, 0.23, 305.91
328.28, 0.25, 305.28
327.76, 0.25, 304.50
327.13, 0.26, 303.58
326.38, 0.27, 302.47
325.39, 0.27, 301.02
322.77, 0.04, 297.14
320.59, 0.00, 293.93
331.59, 0.02, 310.27
331.51, 0.03, 310.14
331.42, 0.04, 310.01
331.32, 0.05, 309.87
331.21, 0.06, 309.73
331.10, 0.07, 309.57
330.98, 0.08, 309.40
330.85, 0.09, 309.21
330.72, 0.11, 309.02
330.57, 0.12, 308.80
330.41, 0.13, 308.57
330.23, 0.15, 308.33
330.04, 0.17, 308.05
329.82, 0.18, 307.73
329.57, 0.19, 307.38
329.29, 0.21, 306.98
328.98, 0.22, 306.53
328.60, 0.23, 305.99
328.17, 0.24, 305.37
327.62, 0.24, 304.58
326.98, 0.25, 303.68
326.22, 0.26, 302.58
325.16, 0.25, 301.06
322.58, 0.04, 297.37
320.37, 0.00, 294.21
331.54, 0.02, 310.30
331.45, 0.03, 310.18
331.36, 0.04, 310.05
331.26, 0.05, 309.91
331.15, 0.06, 309.77
331.04, 0.07, 309.61
330.92, 0.08, 309.45
330.79, 0.09, 309.27
330.65, 0.11, 309.07
330.50, 0.12, 308.86
¯330.34, 0.14, 308.64
330.16, 0.15, 308.39
329.96, 0.16, 308.11
329.73, 0.18, 307.79
329.48, 0.19, 307.44
329.20, 0.20, 307.05
328.88, 0.22, 306.61
328.50, 0.23, 306.08
328.05, 0.24, 305.46
327.48, 0.24, 304.67
326.83, 0.25, 303.76
326.03, 0.25, 302.65
324.92, 0.24, 301.10
322.36, 0.03, 297.54
320.16, 0.00, 294.48
331.49, 0.02, 310.34
331.40, 0.02, 310.22
331.30, 0.03, 310.09
331.20, 0.04, 309.95
331.09, 0.06, 309.81
330.98, 0.07, 309.65
330.86, 0.08, 309.49
330.73, 0.09, 309.31
330.59, 0.11, 309.13
330.43, 0.12, 308.92
330.27, 0.14, 308.70
330.09, 0.15, 308.45
329.88, 0.16, 308.17
329.64, 0.17, 307.86
329.39, 0.19, 307.51
329.10, 0.20, 307.12
328.78, 0.22, 306.69
328.39, 0.23, 306.17
327.92, 0.23, 305.54
327.34, 0.23, 304.75
326.68, 0.24, 303.85
325.85, 0.24, 302.73
324.67, 0.22, 301.15
322.20, 0.03, 297.80
319.95, 0.00, 294.76
331.43, 0.01, 310.37
331.34, 0.02, 310.25
331.24, 0.03, 310.13
331.14, 0.04, 309.99
331.03, 0.05, 309.85
330.92, 0.06, 309.70
330.79, 0.08, 309.53
330.66, 0.09, 309.36
330.52, 0.10, 309.17
330.36, 0.12, 308.97
330.20, 0.13, 308.76
¯330.01, 0.15, 308.51
329.80, 0.16, 308.23
329.56, 0.17, 307.92
329.30, 0.18, 307.58
329.01, 0.20, 307.20
328.68, 0.21, 306.77
328.29, 0.23, 306.26
327.80, 0.23, 305.62
327.21, 0.23, 304.84
326.52, 0.23, 303.94
325.66, 0.23, 302.81
324.45, 0.20, 301.22
322.09, 0.05, 298.12
319.74, 0.00, 295.04
331.38, 0.01, 310.41
331.29, 0.02, 310.29
331.19, 0.03, 310.17
331.08, 0.04, 310.03
330.97, 0.05, 309.89
330.85, 0.06, 309.74
330.73, 0.07, 309.58
330.59, 0.09, 309.41
330.44, 0.10, 309.22
330.29, 0.11, 309.02
330.12, 0.13, 308.81
329.94, 0.15, 308.58
329.72, 0.16, 308.30
329.48, 0.17, 307.99
329.21, 0.18, 307.65
328.91, 0.20, 307.27
328.58, 0.21, 306.84
328.18, 0.23, 306.34
327.68, 0.22, 305.70
327.07, 0.22, 304.93
326.37, 0.23, 304.04
325.47, 0.22, 302.89
324.24, 0.19, 301.31
321.98, 0.06, 298.44
319.53, 0.00, 295.31
331.33, 0.01, 310.45
331.23, 0.02, 310.33
331.13, 0.03, 310.21
331.03, 0.04, 310.07
330.91, 0.05, 309.93
330.79, 0.06, 309.78
330.66, 0.07, 309.62
330.52, 0.08, 309.45
330.37, 0.10, 309.27
330.22, 0.11, 309.07
330.04, 0.13, 308.86
329.87, 0.15, 308.64
¯329.65, 0.16, 308.37
329.40, 0.17, 308.07
329.13, 0.18, 307.72
328.82, 0.19, 307.34
328.48, 0.21, 306.92
328.08, 0.22, 306.43
327.56, 0.22, 305.78
326.94, 0.22, 305.02
326.22, 0.22, 304.13
325.28, 0.21, 302.97
324.01, 0.18, 301.39
321.78, 0.06, 298.63
319.32, 0.00, 295.58
331.28, 0.00, 310.49
331.18, 0.01, 310.37
331.08, 0.02, 310.25
330.97, 0.03, 310.11
330.85, 0.04, 309.98
330.73, 0.05, 309.83
330.60, 0.07, 309.67
330.46, 0.08, 309.50
330.30, 0.09, 309.32
330.14, 0.11, 309.12
329.97, 0.13, 308.92
329.79, 0.15, 308.70
329.58, 0.16, 308.45
329.33, 0.17, 308.14
329.05, 0.18, 307.81
328.74, 0.20, 307.43
328.39, 0.21, 307.01
327.97, 0.22, 306.51
327.43, 0.21, 305.87
326.80, 0.21, 305.11
326.06, 0.21, 304.21
325.10, 0.20, 303.05
323.78, 0.16, 301.47
321.55, 0.05, 298.78
319.12, 0.00, 295.85
331.23, 0.00, 310.53
331.13, 0.01, 310.41
331.02, 0.02, 310.29
330.91, 0.03, 310.16
330.79, 0.04, 310.02
330.67, 0.05, 309.87
330.53, 0.06, 309.72
330.39, 0.07, 309.55
330.24, 0.09, 309.37
330.07, 0.10, 309.18
329.90, 0.12, 308.98
329.72, 0.14, 308.76
329.51, 0.16, 308.52
¯329.26, 0.17, 308.22
328.97, 0.18, 307.89
328.66, 0.20, 307.52
328.30, 0.21, 307.11
327.86, 0.21, 306.59
327.31, 0.21, 305.95
326.67, 0.21, 305.20
325.89, 0.20, 304.29
324.91, 0.19, 303.14
323.55, 0.15, 301.55
321.33, 0.04, 298.94
318.91, 0.00, 296.12
331.18, 0.00, 310.57
331.07, 0.01, 310.45
330.97, 0.02, 310.33
330.85, 0.03, 310.20
330.73, 0.04, 310.06
330.61, 0.05, 309.92
330.47, 0.06, 309.76
330.32, 0.07, 309.60
330.17, 0.08, 309.42
330.00, 0.10, 309.23
329.83, 0.12, 309.04
329.64, 0.14, 308.82
329.44, 0.16, 308.60
329.18, 0.17, 308.30
328.90, 0.19, 307.98
328.58, 0.20, 307.61
328.22, 0.21, 307.21
327.75, 0.21, 306.67
327.19, 0.20, 306.04
326.54, 0.20, 305.30
325.71, 0.19, 304.36
324.72, 0.17, 303.22
323.31, 0.13, 301.63
321.11, 0.03, 299.11
318.71, 0.00, 296.39
331.13, 0.00, 310.61
331.02, 0.00, 310.49
330.91, 0.01, 310.37
330.80, 0.02, 310.24
330.68, 0.03, 310.11
330.55, 0.04, 309.96
330.41, 0.06, 309.81
330.26, 0.07, 309.65
330.10, 0.08, 309.47
329.93, 0.10, 309.29
329.76, 0.12, 309.10
329.57, 0.14, 308.89
329.36, 0.16, 308.66
329.11, 0.18, 308.38
¯328.82, 0.19, 308.06
328.50, 0.20, 307.71
328.14, 0.21, 307.30
327.64, 0.21, 306.75
327.07, 0.20, 306.13
326.41, 0.19, 305.39
325.52, 0.17, 304.41
324.50, 0.16, 303.28
323.09, 0.12, 301.72
320.89, 0.03, 299.28
318.51, 0.00, 296.66
331.09, 0.00, 310.66
330.97, 0.00, 310.53
330.86, 0.01, 310.41
330.74, 0.02, 310.29
330.62, 0.03, 310.15
330.49, 0.04, 310.01
330.34, 0.05, 309.86
330.19, 0.06, 309.70
330.03, 0.08, 309.52
329.87, 0.10, 309.35
329.69, 0.12, 309.16
329.50, 0.14, 308.95
329.29, 0.16, 308.73
329.04, 0.18, 308.46
328.75, 0.19, 308.15
328.42, 0.20, 307.80
328.04, 0.21, 307.39
327.53, 0.20, 306.84
326.95, 0.19, 306.22
326.28, 0.19, 305.49
325.33, 0.16, 304.47
324.28, 0.14, 303.34
322.88, 0.11, 301.83
320.65, 0.02, 299.43
318.32, 0.00, 296.92
331.04, 0.00, 310.70
330.92, 0.00, 310.58
330.81, 0.01, 310.46
330.69, 0.02, 310.33
330.56, 0.03, 310.20
330.43, 0.04, 310.06
330.28, 0.05, 309.91
330.13, 0.06, 309.75
329.97, 0.08, 309.58
329.80, 0.09, 309.41
329.62, 0.11, 309.22
329.42, 0.13, 309.01
329.21, 0.16, 308.79
328.97, 0.18, 308.54
328.68, 0.19, 308.23
¯328.35, 0.20, 307.89
327.94, 0.21, 307.47
327.43, 0.20, 306.93
326.83, 0.19, 306.31
326.14, 0.18, 305.58
325.14, 0.14, 304.53
324.07, 0.13, 303.41
322.66, 0.10, 301.94
320.39, 0.00, 299.57
318.12, 0.00, 297.19
331.00, 0.00, 310.75
330.88, 0.00, 310.63
330.75, 0.00, 310.50
330.63, 0.01, 310.38
330.50, 0.02, 310.25
330.37, 0.03, 310.11
330.22, 0.04, 309.96
330.06, 0.06, 309.80
329.90, 0.07, 309.64
329.73, 0.09, 309.46
329.55, 0.11, 309.28
329.35, 0.13, 309.08
329.13, 0.15, 308.86
328.90, 0.18, 308.62
328.61, 0.19, 308.32
328.27, 0.20, 307.98
327.85, 0.20, 307.55
327.32, 0.19, 307.02
326.72, 0.18, 306.40
325.98, 0.17, 305.65
324.94, 0.13, 304.60
323.86, 0.11, 303.50
322.45, 0.09, 302.05
320.19, 0.00, 299.76
317.93, 0.00, 297.45
330.95, 0.00, 310.79
330.83, 0.00, 310.67
330.70, 0.00, 310.55
330.58, 0.01, 310.42
330.45, 0.02, 310.29
330.31, 0.03, 310.16
330.16, 0.04, 310.01
330.00, 0.05, 309.86
329.84, 0.07, 309.70
329.67, 0.09, 309.52
329.48, 0.11, 309.34
329.28, 0.13, 309.14
329.06, 0.15, 308.92
328.82, 0.17, 308.69
328.54, 0.19, 308.41
328.20, 0.20, 308.07
¯327.75, 0.20, 307.63
327.22, 0.19, 307.11
326.60, 0.18, 306.49
325.82, 0.16, 305.72
324.75, 0.11, 304.66
323.66, 0.10, 303.58
322.23, 0.08, 302.17
320.02, 0.00, 299.98
317.73, 0.00, 297.72
330.91, 0.00, 310.84
330.78, 0.00, 310.72
330.65, 0.00, 310.60
330.52, 0.01, 310.47
330.39, 0.02, 310.34
330.25, 0.03, 310.21
330.10, 0.04, 310.06
329.94, 0.05, 309.91
329.78, 0.07, 309.75
329.60, 0.09, 309.58
329.41, 0.10, 309.40
329.21, 0.13, 309.21
328.98, 0.15, 308.99
328.74, 0.17, 308.76
328.47, 0.19, 308.49
328.12, 0.21, 308.17
327.66, 0.20, 307.72
327.12, 0.19, 307.20
326.48, 0.17, 306.59
325.66, 0.15, 305.80
324.56, 0.09, 304.73
323.45, 0.09, 303.67
322.02, 0.07, 302.29
319.85, 0.00, 300.21
317.54, 0.00, 297.98
330.87, 0.00, 310.89
330.74, 0.00, 310.77
330.61, 0.00, 310.65
330.47, 0.00, 310.52
330.33, 0.01, 310.39
330.19, 0.02, 310.26
330.04, 0.03, 310.11
329.88, 0.05, 309.97
329.71, 0.07, 309.81
329.53, 0.08, 309.64
329.34, 0.10, 309.47
329.13, 0.12, 309.27
328.91, 0.14, 309.06
328.66, 0.17, 308.83
328.40, 0.19, 308.58
328.04, 0.20, 308.25
327.56, 0.19, 307.80
¯327.01, 0.18, 307.29
326.37, 0.17, 306.68
325.50, 0.14, 305.87
324.37, 0.08, 304.81
323.25, 0.07, 303.76
321.81, 0.06, 302.42
319.69, 0.00, 300.43
317.35, 0.00, 298.25
330.82, 0.00, 310.94
330.70, 0.00, 310.82
330.56, 0.00, 310.70
330.42, 0.00, 310.57
330.28, 0.01, 310.44
330.13, 0.02, 310.31
329.98, 0.03, 310.17
329.82, 0.05, 310.03
329.65, 0.06, 309.87
329.47, 0.08, 309.71
329.27, 0.10, 309.53
329.06, 0.12, 309.34
328.83, 0.14, 309.13
328.59, 0.17, 308.90
328.32, 0.19, 308.66
327.95, 0.20, 308.33
327.47, 0.19, 307.89
326.91, 0.18, 307.38
326.26, 0.17, 306.79
325.34, 0.12, 305.95
324.19, 0.07, 304.90
323.05, 0.06, 303.87
321.62, 0.05, 302.57
319.52, 0.00, 300.65
317.16, 0.00, 298.51
330.78, 0.00, 310.99
330.65, 0.00, 310.87
330.52, 0.00, 310.75
330.37, 0.00, 310.62
330.22, 0.00, 310.49
330.07, 0.01, 310.36
329.92, 0.03, 310.23
329.76, 0.04, 310.08
329.59, 0.06, 309.93
329.40, 0.08, 309.77
329.21, 0.10, 309.59
328.99, 0.12, 309.40
328.76, 0.14, 309.20
328.51, 0.16, 308.98
328.24, 0.19, 308.74
327.87, 0.20, 308.41
327.39, 0.19, 307.99
326.83, 0.18, 307.49
¯326.18, 0.17, 306.92
325.18, 0.11, 306.03
324.03, 0.06, 305.01
322.86, 0.05, 303.98
321.43, 0.04, 302.71
319.35, 0.00, 300.88
316.97, 0.00, 298.77
330.74, 0.00, 311.04
330.61, 0.00, 310.92
330.47, 0.00, 310.80
330.32, 0.00, 310.68
330.17, 0.00, 310.54
330.02, 0.01, 310.41
329.87, 0.03, 310.28
329.70, 0.04, 310.14
329.53, 0.06, 309.99
329.34, 0.08, 309.83
329.15, 0.10, 309.66
328.93, 0.12, 309.48
328.70, 0.14, 309.28
328.45, 0.16, 309.07
328.18, 0.19, 308.83
327.80, 0.20, 308.51
327.32, 0.19, 308.09
326.76, 0.18, 307.61
326.06, 0.16, 307.01
325.02, 0.10, 306.11
323.87, 0.05, 305.13
322.66, 0.04, 304.09
321.21, 0.03, 302.84
319.19, 0.00, 301.10
316.79, 0.00, 299.03
330.70, 0.00, 311.08
330.57, 0.00, 310.97
330.43, 0.00, 310.86
330.28, 0.00, 310.73
330.12, 0.00, 310.60
329.97, 0.01, 310.47
329.82, 0.03, 310.34
329.65, 0.04, 310.21
329.48, 0.06, 310.06
329.29, 0.08, 309.91
329.09, 0.10, 309.74
328.88, 0.12, 309.56
328.65, 0.14, 309.37
328.40, 0.17, 309.16
328.12, 0.20, 308.93
327.74, 0.20, 308.61
327.25, 0.19, 308.20
326.68, 0.19, 307.73
325.94, 0.16, 307.11
¯324.86, 0.09, 306.20
323.71, 0.04, 305.24
322.47, 0.03, 304.20
320.98, 0.02, 302.96
319.03, 0.00, 301.32
316.60, 0.00, 299.29
330.66, 0.00, 311.13
330.53, 0.00, 311.03
330.39, 0.00, 310.91
330.23, 0.00, 310.79
330.07, 0.00, 310.66
329.92, 0.01, 310.54
329.77, 0.03, 310.41
329.61, 0.04, 310.28
329.43, 0.06, 310.14
329.25, 0.08, 309.98
329.04, 0.10, 309.82
328.83, 0.12, 309.65
328.59, 0.15, 309.46
328.34, 0.17, 309.25
328.05, 0.19, 309.01
327.66, 0.20, 308.70
327.18, 0.20, 308.31
326.61, 0.19, 307.84
325.83, 0.15, 307.21
324.69, 0.07, 306.28
323.55, 0.04, 305.36
322.27, 0.01, 304.31
320.75, 0.00, 303.08
318.87, 0.00, 301.55
317.70, 0.15, 300.60
317.70, 0.44, 300.60
317.70, 0.74, 300.61
317.70, 1.04, 300.61
330.62, 0.00, 311.18
330.49, 0.00, 311.08
330.34, 0.00, 310.97
330.19, 0.00, 310.84
330.03, 0.00, 310.72
329.88, 0.02, 310.60
329.73, 0.03, 310.48
329.56, 0.05, 310.35
329.39, 0.06, 310.21
329.20, 0.08, 310.06
328.99, 0.10, 309.90
328.78, 0.13, 309.73
328.54, 0.15, 309.54
328.29, 0.17, 309.34
327.97, 0.19, 309.10
327.58, 0.20, 308.78
327.11, 0.20, 308.41
¯326.53, 0.19, 307.96
325.71, 0.15, 307.31
324.53, 0.06, 306.37
323.39, 0.03, 305.48
322.07, 0.00, 304.43
320.58, 0.00, 303.26
318.70, 0.00, 301.77
317.69, 0.16, 300.97
317.69, 0.46, 300.98
317.69, 0.75, 300.98
317.69, 1.04, 300.98
330.58, 0.00, 311.24
330.45, 0.00, 311.13
330.30, 0.00, 311.02
330.15, 0.00, 310.90
330.00, 0.01, 310.79
329.84, 0.02, 310.67
329.68, 0.03, 310.55
329.52, 0.05, 310.42
329.34, 0.07, 310.28
329.15, 0.09, 310.14
328.95, 0.11, 309.98
328.73, 0.13, 309.81
328.49, 0.15, 309.63
328.23, 0.18, 309.43
327.90, 0.19, 309.18
327.50, 0.20, 308.87
327.04, 0.20, 308.52
326.46, 0.19, 308.07
325.59, 0.14, 307.41
324.37, 0.05, 306.46
323.24, 0.02, 305.60
321.93, 0.00, 304.59
320.44, 0.00, 303.45
318.55, 0.00, 302.00
317.69, 0.18, 301.34
317.69, 0.47, 301.34
317.69, 0.76, 301.34
317.69, 1.05, 301.34
330.54, 0.00, 311.29
330.41, 0.00, 311.18
330.26, 0.00, 311.08
330.10, 0.00, 310.96
329.96, 0.01, 310.85
329.81, 0.02, 310.74
329.64, 0.04, 310.62
329.47, 0.05, 310.49
329.30, 0.07, 310.36
329.10, 0.09, 310.21
328.90, 0.11, 310.06
328.68, 0.13, 309.89
¯328.44, 0.15, 309.72
328.18, 0.18, 309.52
327.83, 0.19, 309.27
327.43, 0.19, 308.96
326.97, 0.20, 308.62
326.39, 0.19, 308.19
325.48, 0.14, 307.51
324.20, 0.04, 306.56
323.10, 0.02, 305.74
321.80, 0.00, 304.77
320.30, 0.00, 303.65
318.39, 0.00, 302.22
317.75, 0.21, 301.75
317.75, 0.49, 301.75
317.75, 0.78, 301.75
317.75, 1.06, 301.75
330.51, 0.00, 311.34
330.37, 0.00, 311.24
330.22, 0.00, 311.13
330.06, 0.00, 311.02
329.92, 0.01, 310.91
329.77, 0.03, 310.80
329.61, 0.04, 310.69
329.43, 0.05, 310.56
329.25, 0.07, 310.43
329.06, 0.09, 310.29
328.85, 0.11, 310.14
328.63, 0.13, 309.98
328.39, 0.16, 309.80
328.13, 0.18, 309.61
327.76, 0.19, 309.35
327.35, 0.19, 309.06
326.89, 0.20, 308.72
326.32, 0.20, 308.31
325.36, 0.13, 307.61
324.09, 0.03, 306.69
322.98, 0.01, 305.89
321.68, 0.00, 304.95
320.16, 0.00, 303.85
318.23, 0.00, 302.45
317.75, 0.22, 302.10
317.75, 0.51, 302.10
317.75, 0.79, 302.10
317.75, 1.07, 302.10
330.47, 0.00, 311.39
330.33, 0.00, 311.29
330.18, 0.00, 311.19
330.03, 0.00, 311.08
329.88, 0.02, 310.98
329.73, 0.03, 310.87
329.57, 0.04, 310.76
¯329.39, 0.06, 310.63
329.21, 0.07, 310.50
329.01, 0.09, 310.37
328.80, 0.11, 310.22
328.58, 0.14, 310.06
328.34, 0.16, 309.89
328.06, 0.18, 309.70
327.69, 0.19, 309.44
327.28, 0.19, 309.15
326.81, 0.20, 308.82
326.25, 0.20, 308.43
325.25, 0.12, 307.72
323.98, 0.03, 306.83
322.85, 0.01, 306.04
321.56, 0.00, 305.12
320.02, 0.00, 304.05
318.07, 0.00, 302.67
317.75, 0.24, 302.45
317.75, 0.52, 302.45
317.75, 0.80, 302.45
317.76, 1.08, 302.45
330.43, 0.00, 311.44
330.29, 0.00, 311.35
330.14, 0.00, 311.24
329.99, 0.01, 311.14
329.85, 0.02, 311.04
329.69, 0.03, 310.94
329.53, 0.05, 310.83
329.35, 0.06, 310.71
329.17, 0.08, 310.58
328.97, 0.10, 310.44
328.76, 0.12, 310.30
328.53, 0.14, 310.15
328.29, 0.16, 309.98
328.00, 0.18, 309.78
327.62, 0.18, 309.53
327.21, 0.19, 309.24
326.73, 0.20, 308.92
326.19, 0.20, 308.54
325.12, 0.12, 307.82
323.88, 0.03, 306.97
322.73, 0.01, 306.19
321.43, 0.00, 305.30
319.89, 0.00, 304.24
317.92, 0.00, 302.90
317.75, 0.26, 302.79
317.75, 0.54, 302.79
317.75, 0.81, 302.79
317.77, 1.09, 302.80
330.40, 0.00, 311.50
330.25, 0.00, 311.40
¯330.10, 0.00, 311.30
329.96, 0.01, 311.21
329.81, 0.02, 311.11
329.66, 0.04, 311.01
329.49, 0.05, 310.90
329.32, 0.06, 310.78
329.13, 0.08, 310.65
328.93, 0.10, 310.52
328.71, 0.12, 310.38
328.49, 0.14, 310.23
328.24, 0.16, 310.07
327.93, 0.18, 309.86
327.56, 0.18, 309.61
327.13, 0.19, 309.33
326.65, 0.19, 309.02
326.11, 0.20, 308.66
324.99, 0.11, 307.92
323.78, 0.03, 307.11
322.61, 0.01, 306.34
321.31, 0.00, 305.48
319.75, 0.00, 304.44
317.76, 0.00, 303.13
317.75, 0.27, 303.12
317.75, 0.55, 303.12
317.75, 0.83, 303.12
317.75, 1.10, 303.12
330.36, 0.00, 311.55
330.22, 0.00, 311.46
330.07, 0.00, 311.36
329.93, 0.01, 311.27
329.78, 0.03, 311.18
329.62, 0.04, 311.07
329.46, 0.05, 310.97
329.28, 0.07, 310.85
329.09, 0.08, 310.73
328.88, 0.10, 310.60
328.67, 0.12, 310.46
328.44, 0.14, 310.31
328.19, 0.17, 310.15
327.87, 0.18, 309.95
327.49, 0.18, 309.70
327.06, 0.19, 309.43
326.61, 0.20, 309.14
326.05, 0.20, 308.78
324.86, 0.10, 308.02
323.68, 0.03, 307.26
322.49, 0.00, 306.49
321.19, 0.00, 305.66
319.61, 0.00, 304.64
317.75, 0.02, 303.45
317.75, 0.29, 303.44
¯317.75, 0.56, 303.44
317.75, 0.84, 303.44
317.75, 1.11, 303.44
330.33, 0.00, 311.60
330.18, 0.00, 311.51
330.04, 0.00, 311.42
329.89, 0.02, 311.33
329.75, 0.03, 311.24
329.59, 0.04, 311.14
329.42, 0.06, 311.04
329.24, 0.07, 310.93
329.05, 0.09, 310.81
328.85, 0.10, 310.68
328.63, 0.12, 310.54
328.40, 0.14, 310.40
328.15, 0.17, 310.24
327.81, 0.17, 310.03
327.42, 0.18, 309.79
327.02, 0.19, 309.54
326.59, 0.21, 309.27
326.00, 0.21, 308.91
324.74, 0.09, 308.12
323.58, 0.03, 307.40
322.37, 0.00, 306.64
321.07, 0.00, 305.84
319.48, 0.00, 304.85
317.75, 0.04, 303.77
317.75, 0.31, 303.77
317.75, 0.58, 303.77
317.75, 0.85, 303.76
317.75, 1.12, 303.76
330.29, 0.00, 311.66
330.15, 0.00, 311.57
330.00, 0.01, 311.48
329.86, 0.02, 311.40
329.71, 0.03, 311.31
329.55, 0.04, 311.21
329.39, 0.06, 311.11
329.21, 0.07, 311.00
329.01, 0.09, 310.88
328.81, 0.11, 310.76
328.59, 0.13, 310.63
328.35, 0.15, 310.48
328.09, 0.17, 310.33
327.74, 0.17, 310.12
327.38, 0.18, 309.90
327.00, 0.20, 309.67
326.57, 0.22, 309.41
325.94, 0.21, 309.03
324.61, 0.08, 308.23
323.49, 0.03, 307.55
¯322.25, 0.00, 306.80
320.95, 0.00, 306.02
319.35, 0.00, 305.05
317.75, 0.05, 304.08
317.75, 0.32, 304.08
317.75, 0.59, 304.08
317.75, 0.86, 304.08
317.75, 1.13, 304.08
339.92, 0.30, 315.13
340.17, 0.32, 315.18
340.44, 0.34, 315.23
341.14, 0.27, 315.37
341.47, 0.30, 315.44
341.83, 0.33, 315.51
342.16, 0.38, 315.57
342.52, 0.43, 315.64
342.92, 0.49, 315.72
343.37, 0.55, 315.81
343.86, 0.62, 315.90
344.36, 0.70, 316.00
344.90, 0.79, 316.10
345.51, 0.88, 316.22
346.23, 0.99, 316.36
347.03, 1.11, 316.51
347.95, 1.24, 316.69
349.00, 1.40, 316.89
349.58, 1.60, 317.00
351.23, 1.80, 317.32
353.74, 2.06, 317.81
339.92, 0.30, 315.05
340.17, 0.32, 315.09
340.43, 0.35, 315.14
340.72, 0.37, 315.19
341.47, 0.30, 315.33
341.82, 0.33, 315.40
342.16, 0.38, 315.46
342.52, 0.44, 315.52
342.91, 0.49, 315.59
343.37, 0.55, 315.67
343.86, 0.62, 315.76
344.36, 0.70, 315.85
344.90, 0.78, 315.95
345.52, 0.88, 316.06
346.25, 0.98, 316.19
347.05, 1.10, 316.33
347.99, 1.24, 316.50
348.49, 1.42, 316.58
349.62, 1.59, 316.79
351.30, 1.80, 317.09
353.82, 2.05, 317.54
339.91, 0.30, 314.97
¯340.16, 0.32, 315.01
340.42, 0.35, 315.05
340.71, 0.37, 315.10
341.46, 0.30, 315.23
341.82, 0.34, 315.29
342.15, 0.38, 315.34
342.51, 0.44, 315.40
342.91, 0.49, 315.47
343.37, 0.55, 315.54
343.86, 0.61, 315.62
344.36, 0.69, 315.70
344.90, 0.78, 315.79
345.54, 0.87, 315.90
346.26, 0.98, 316.02
347.07, 1.10, 316.15
347.77, 1.24, 316.26
348.40, 1.41, 316.36
349.67, 1.58, 316.57
351.36, 1.79, 316.85
353.90, 2.04, 317.27
339.91, 0.30, 314.88
340.15, 0.33, 314.92
340.41, 0.35, 314.96
340.70, 0.38, 315.00
341.02, 0.40, 315.05
341.81, 0.34, 315.18
342.14, 0.39, 315.23
342.50, 0.44, 315.28
342.91, 0.49, 315.34
343.37, 0.55, 315.41
343.86, 0.61, 315.49
344.35, 0.69, 315.56
344.89, 0.78, 315.64
345.55, 0.87, 315.74
346.27, 0.97, 315.85
347.08, 1.09, 315.97
347.33, 1.26, 316.00
348.45, 1.41, 316.17
349.71, 1.58, 316.36
351.41, 1.78, 316.61
353.97, 2.03, 317.00
339.90, 0.31, 314.80
340.14, 0.33, 314.83
340.40, 0.35, 314.87
340.69, 0.38, 314.91
341.00, 0.41, 314.95
341.35, 0.43, 315.00
341.79, 0.45, 315.06
342.49, 0.44, 315.16
342.91, 0.49, 315.22
343.37, 0.55, 315.28
¯343.86, 0.61, 315.35
344.35, 0.69, 315.41
344.90, 0.78, 315.49
345.56, 0.87, 315.58
346.28, 0.97, 315.67
346.53, 1.12, 315.70
347.37, 1.26, 315.82
348.51, 1.40, 315.97
349.75, 1.57, 316.14
351.46, 1.77, 316.37
354.04, 2.02, 316.73
339.89, 0.31, 314.72
340.13, 0.33, 314.75
340.39, 0.36, 314.78
340.67, 0.38, 314.82
340.99, 0.41, 314.85
341.33, 0.44, 314.90
341.67, 0.48, 314.94
342.04, 0.52, 314.98
342.90, 0.49, 315.09
343.36, 0.55, 315.15
343.85, 0.61, 315.21
344.34, 0.69, 315.27
344.91, 0.77, 315.34
345.46, 0.87, 315.40
345.73, 1.01, 315.43
346.46, 1.12, 315.52
347.41, 1.25, 315.64
348.56, 1.39, 315.78
349.79, 1.56, 315.92
351.50, 1.76, 316.13
354.10, 2.01, 316.45
339.88, 0.31, 314.64
340.12, 0.33, 314.66
340.38, 0.36, 314.69
340.66, 0.39, 314.72
340.97, 0.41, 314.76
341.31, 0.44, 314.79
341.64, 0.48, 314.83
342.01, 0.52, 314.87
342.42, 0.57, 314.91
342.86, 0.62, 314.96
343.40, 0.67, 315.02
343.97, 0.73, 315.08
344.41, 0.82, 315.13
344.98, 0.91, 315.19
345.69, 1.01, 315.26
346.46, 1.12, 315.34
347.44, 1.24, 315.45
348.61, 1.38, 315.58
349.82, 1.55, 315.71
¯351.54, 1.75, 315.89
354.16, 2.00, 316.18
339.87, 0.31, 314.56
340.11, 0.34, 314.58
340.37, 0.36, 314.60
340.64, 0.39, 314.63
340.95, 0.41, 314.66
341.29, 0.44, 314.69
341.61, 0.48, 314.72
341.98, 0.53, 314.76
342.39, 0.57, 314.79
342.83, 0.62, 314.84
343.31, 0.68, 314.88
343.82, 0.75, 314.93
344.35, 0.83, 314.98
344.96, 0.91, 315.03
345.69, 1.00, 315.10
346.46, 1.11, 315.17
347.47, 1.23, 315.27
348.66, 1.37, 315.38
349.86, 1.54, 315.49
351.57, 1.74, 315.65
354.22, 1.99, 315.90
339.86, 0.32, 314.48
340.10, 0.34, 314.50
340.35, 0.36, 314.52
340.63, 0.39, 314.54
340.93, 0.42, 314.56
341.27, 0.45, 314.59
341.58, 0.49, 314.61
341.94, 0.53, 314.64
342.36, 0.57, 314.68
342.79, 0.62, 314.71
343.28, 0.68, 314.75
343.79, 0.75, 314.79
344.33, 0.82, 314.83
344.94, 0.91, 314.88
345.64, 1.00, 314.93
346.45, 1.11, 315.00
347.49, 1.22, 315.08
348.71, 1.36, 315.18
349.89, 1.53, 315.27
351.61, 1.73, 315.41
354.27, 1.98, 315.62
339.85, 0.32, 314.40
340.08, 0.34, 314.41
340.33, 0.37, 314.43
340.61, 0.39, 314.45
340.91, 0.42, 314.47
341.24, 0.45, 314.49
341.55, 0.49, 314.51
¯341.91, 0.53, 314.53
342.33, 0.57, 314.56
342.76, 0.63, 314.59
343.25, 0.68, 314.62
343.76, 0.75, 314.65
344.29, 0.82, 314.69
344.92, 0.91, 314.73
345.60, 1.00, 314.77
346.45, 1.10, 314.83
347.51, 1.22, 314.90
348.76, 1.35, 314.98
349.93, 1.52, 315.05
351.65, 1.72, 315.17
354.32, 1.96, 315.34
339.83, 0.32, 314.32
340.07, 0.34, 314.33
340.32, 0.37, 314.34
340.59, 0.39, 314.36
340.89, 0.42, 314.37
341.22, 0.45, 314.39
341.52, 0.49, 314.40
341.87, 0.54, 314.42
342.30, 0.58, 314.44
342.72, 0.63, 314.47
343.22, 0.68, 314.49
343.72, 0.75, 314.52
344.26, 0.82, 314.54
344.89, 0.90, 314.58
345.57, 1.00, 314.61
346.45, 1.10, 314.65
347.53, 1.21, 314.71
348.81, 1.34, 314.78
349.99, 1.51, 314.84
351.69, 1.71, 314.92
354.37, 1.95, 315.06
339.82, 0.32, 314.24
340.05, 0.34, 314.25
340.30, 0.37, 314.26
340.57, 0.40, 314.27
340.87, 0.42, 314.28
341.19, 0.45, 314.29
341.48, 0.50, 314.30
341.84, 0.54, 314.31
342.27, 0.58, 314.33
342.69, 0.63, 314.34
343.19, 0.68, 314.36
343.69, 0.75, 314.38
344.23, 0.82, 314.40
344.84, 0.90, 314.42
345.54, 0.99, 314.45
346.44, 1.09, 314.48
¯347.55, 1.20, 314.52
348.85, 1.33, 314.57
350.04, 1.50, 314.62
351.73, 1.70, 314.68
354.41, 1.94, 314.78
339.81, 0.32, 314.16
340.04, 0.35, 314.16
340.28, 0.37, 314.17
340.55, 0.40, 314.18
340.85, 0.42, 314.18
341.16, 0.46, 314.19
341.45, 0.50, 314.20
341.80, 0.54, 314.20
342.23, 0.58, 314.22
342.65, 0.63, 314.22
343.15, 0.68, 314.24
343.65, 0.75, 314.25
344.20, 0.82, 314.26
344.77, 0.90, 314.27
345.51, 0.99, 314.29
346.43, 1.08, 314.31
347.56, 1.19, 314.34
348.90, 1.32, 314.37
350.10, 1.49, 314.40
351.77, 1.69, 314.44
354.46, 1.93, 314.50
339.79, 0.33, 314.08
340.02, 0.35, 314.08
340.26, 0.37, 314.08
340.53, 0.40, 314.09
340.82, 0.43, 314.09
341.13, 0.46, 314.09
341.42, 0.50, 314.10
341.76, 0.55, 314.10
342.18, 0.58, 314.10
342.61, 0.63, 314.11
343.11, 0.68, 314.11
343.61, 0.74, 314.12
344.16, 0.82, 314.12
344.71, 0.90, 314.12
345.48, 0.99, 314.13
346.42, 1.08, 314.14
347.58, 1.18, 314.15
348.94, 1.31, 314.17
350.15, 1.48, 314.18
351.80, 1.67, 314.19
354.49, 1.91, 314.22
339.77, 0.33, 314.00
340.00, 0.35, 314.00
340.24, 0.38, 314.00
340.50, 0.40, 314.00
¯340.80, 0.43, 314.00
341.10, 0.46, 314.00
341.38, 0.51, 313.99
341.72, 0.55, 313.99
342.13, 0.59, 313.99
342.57, 0.63, 313.99
343.06, 0.68, 313.99
343.57, 0.74, 313.98
344.12, 0.81, 313.98
344.67, 0.90, 313.98
345.45, 0.98, 313.97
346.41, 1.07, 313.97
347.60, 1.17, 313.97
348.98, 1.30, 313.96
350.20, 1.47, 313.95
351.82, 1.66, 313.94
356.32, 1.89, 313.93
339.75, 0.33, 313.92
339.98, 0.35, 313.92
340.22, 0.38, 313.92
340.48, 0.40, 313.91
340.77, 0.43, 313.91
341.07, 0.46, 313.90
341.34, 0.51, 313.89
341.68, 0.55, 313.89
342.09, 0.59, 313.88
342.53, 0.63, 313.87
343.01, 0.68, 313.86
343.53, 0.74, 313.85
344.09, 0.81, 313.84
344.63, 0.90, 313.83
345.42, 0.98, 313.82
346.40, 1.06, 313.80
347.62, 1.16, 313.78
349.02, 1.29, 313.75
350.25, 1.45, 313.73
351.82, 1.65, 313.70
356.36, 1.88, 313.62
339.74, 0.33, 313.85
339.96, 0.35, 313.84
340.19, 0.38, 313.83
340.46, 0.40, 313.82
340.75, 0.43, 313.81
341.04, 0.46, 313.81
341.31, 0.51, 313.80
341.64, 0.55, 313.78
342.04, 0.59, 313.77
342.49, 0.63, 313.76
342.96, 0.69, 313.74
343.49, 0.74, 313.72
344.04, 0.81, 313.71
¯344.59, 0.89, 313.69
345.38, 0.97, 313.66
346.39, 1.05, 313.63
347.63, 1.15, 313.59
349.06, 1.27, 313.54
350.30, 1.44, 313.50
351.83, 1.64, 313.45
356.39, 1.86, 313.31
339.72, 0.33, 313.77
339.94, 0.35, 313.76
340.17, 0.38, 313.75
340.43, 0.41, 313.74
340.72, 0.43, 313.72
341.01, 0.47, 313.71
341.27, 0.51, 313.70
341.60, 0.55, 313.68
341.99, 0.60, 313.66
342.45, 0.63, 313.64
342.91, 0.69, 313.62
343.45, 0.74, 313.60
343.99, 0.81, 313.57
344.55, 0.89, 313.54
345.35, 0.97, 313.51
346.37, 1.05, 313.46
347.64, 1.14, 313.40
349.09, 1.26, 313.34
350.34, 1.43, 313.28
351.83, 1.63, 313.20
356.42, 1.85, 313.00
339.70, 0.33, 313.70
339.92, 0.36, 313.68
340.15, 0.38, 313.67
340.40, 0.41, 313.65
340.69, 0.43, 313.63
340.97, 0.47, 313.62
341.23, 0.51, 313.60
341.56, 0.56, 313.58
341.93, 0.60, 313.56
342.41, 0.63, 313.53
342.85, 0.69, 313.50
343.41, 0.74, 313.47
343.94, 0.81, 313.44
344.50, 0.89, 313.40
345.31, 0.96, 313.35
346.36, 1.04, 313.29
347.65, 1.13, 313.21
349.13, 1.25, 313.13
350.39, 1.42, 313.05
351.83, 1.61, 312.96
356.45, 1.83, 312.69
