ŸVERSION 0.7
FIELDS x y z
SIZE 8 8 8
TYPE F F F
COUNT 1 1 1
WIDTH 2271
HEIGHT 1
VIEWPOINT 400.99, 12.21, 327.85 1 421.18, 9.02, 325.15
POINTS 2271
DATA ascii
424.44, 8.79, 331.69
424.60, 8.89, 332.02
423.06, 7.27, 328.59
423.09, 7.31, 328.65
423.12, 7.36, 328.72
423.16, 7.40, 328.79
423.19, 7.45, 328.86
423.22, 7.49, 328.93
423.26, 7.54, 329.01
423.29, 7.59, 329.08
423.33, 7.64, 329.16
¯423.37, 7.69, 329.24
423.41, 7.74, 329.32
423.45, 7.80, 329.41
423.49, 7.85, 329.50
423.53, 7.91, 329.59
423.57, 7.97, 329.68
423.62, 8.03, 329.78
423.67, 8.10, 329.88
423.72, 8.17, 329.98
423.77, 8.23, 330.10
423.83, 8.30, 330.23
423.94, 8.37, 330.44
424.05, 8.44, 330.67
424.18, 8.52, 330.92
424.31, 8.60, 331.18
424.46, 8.69, 331.47
424.62, 8.79, 331.79
423.12, 7.27, 328.57
423.15, 7.32, 328.63
423.18, 7.36, 328.70
423.22, 7.40, 328.77
423.25, 7.45, 328.84
423.29, 7.49, 328.91
423.32, 7.54, 328.99
423.36, 7.59, 329.06
423.40, 7.64, 329.14
423.44, 7.69, 329.22
423.48, 7.75, 329.30
423.52, 7.80, 329.39
423.56, 7.86, 329.48
423.61, 7.92, 329.57
423.65, 7.98, 329.66
423.70, 8.04, 329.76
423.75, 8.10, 329.86
423.80, 8.17, 329.96
423.85, 8.24, 330.08
423.96, 8.30, 330.29
424.08, 8.37, 330.51
424.20, 8.44, 330.74
424.33, 8.52, 331.00
424.47, 8.60, 331.27
424.63, 8.70, 331.57
424.80, 8.80, 331.90
423.18, 7.27, 328.55
423.21, 7.32, 328.62
423.25, 7.36, 328.68
423.28, 7.40, 328.75
423.32, 7.45, 328.82
423.35, 7.50, 328.89
423.39, 7.54, 328.97
423.43, 7.59, 329.04
¯423.47, 7.64, 329.12
423.51, 7.69, 329.20
423.55, 7.75, 329.28
423.59, 7.80, 329.37
423.64, 7.86, 329.46
423.68, 7.92, 329.55
423.73, 7.98, 329.64
423.78, 8.04, 329.74
423.83, 8.11, 329.84
423.89, 8.17, 329.96
423.96, 8.24, 330.09
424.10, 8.30, 330.35
424.22, 8.36, 330.57
424.35, 8.44, 330.82
424.49, 8.52, 331.08
424.64, 8.61, 331.36
424.81, 8.70, 331.68
425.00, 8.81, 332.02
423.24, 7.27, 328.53
423.27, 7.32, 328.60
423.31, 7.36, 328.66
423.34, 7.40, 328.73
423.38, 7.45, 328.80
423.42, 7.50, 328.87
423.46, 7.54, 328.95
423.49, 7.59, 329.02
423.54, 7.64, 329.10
423.58, 7.70, 329.18
423.62, 7.75, 329.26
423.66, 7.81, 329.35
423.71, 7.86, 329.44
423.76, 7.92, 329.53
423.81, 7.98, 329.62
423.86, 8.04, 329.72
423.92, 8.11, 329.84
423.99, 8.17, 329.96
424.06, 8.24, 330.10
424.21, 8.30, 330.36
424.37, 8.36, 330.64
424.51, 8.44, 330.89
424.66, 8.52, 331.16
424.82, 8.61, 331.46
425.00, 8.71, 331.79
423.30, 7.27, 328.51
423.33, 7.32, 328.58
423.37, 7.36, 328.64
423.41, 7.40, 328.71
423.44, 7.45, 328.78
423.48, 7.50, 328.85
423.52, 7.55, 328.93
423.56, 7.59, 329.00
¯423.60, 7.65, 329.08
423.65, 7.70, 329.16
423.69, 7.75, 329.24
423.74, 7.81, 329.33
423.78, 7.86, 329.41
423.83, 7.92, 329.51
423.89, 7.98, 329.61
423.96, 8.04, 329.73
424.02, 8.11, 329.84
424.09, 8.17, 329.97
424.17, 8.24, 330.11
424.32, 8.30, 330.38
424.50, 8.36, 330.68
424.67, 8.44, 330.97
424.83, 8.52, 331.25
425.01, 8.61, 331.56
425.20, 8.71, 331.90
423.36, 7.27, 328.49
423.39, 7.32, 328.56
423.43, 7.36, 328.62
423.47, 7.41, 328.69
423.51, 7.45, 328.76
423.55, 7.50, 328.83
423.59, 7.55, 328.90
423.63, 7.60, 328.98
423.67, 7.65, 329.06
423.72, 7.70, 329.14
423.76, 7.75, 329.22
423.81, 7.81, 329.31
423.87, 7.87, 329.40
423.93, 7.92, 329.51
423.99, 7.98, 329.61
424.05, 8.04, 329.73
424.12, 8.11, 329.85
424.19, 8.17, 329.97
424.27, 8.24, 330.12
424.44, 8.30, 330.39
424.62, 8.36, 330.70
424.83, 8.44, 331.03
425.01, 8.52, 331.35
425.20, 8.61, 331.67
425.41, 8.72, 332.02
423.42, 7.27, 328.47
423.45, 7.32, 328.54
423.49, 7.36, 328.60
423.53, 7.41, 328.67
423.57, 7.45, 328.74
423.61, 7.50, 328.81
423.66, 7.55, 328.88
423.70, 7.60, 328.96
423.74, 7.65, 329.04
¯423.79, 7.70, 329.12
423.84, 7.75, 329.20
423.90, 7.81, 329.30
423.96, 7.86, 329.40
424.02, 7.92, 329.51
424.08, 7.98, 329.62
424.15, 8.04, 329.73
424.22, 8.11, 329.85
424.29, 8.17, 329.97
424.39, 8.24, 330.13
424.56, 8.30, 330.41
424.75, 8.37, 330.71
424.96, 8.44, 331.06
425.20, 8.52, 331.44
425.41, 8.62, 331.78
423.48, 7.27, 328.45
423.52, 7.32, 328.51
423.55, 7.36, 328.58
423.60, 7.41, 328.65
423.64, 7.45, 328.72
423.68, 7.50, 328.79
423.72, 7.55, 328.86
423.77, 7.60, 328.94
423.81, 7.65, 329.01
423.87, 7.70, 329.10
423.92, 7.75, 329.20
423.98, 7.80, 329.30
424.05, 7.86, 329.40
424.11, 7.92, 329.50
424.18, 7.98, 329.62
424.25, 8.04, 329.73
424.32, 8.11, 329.85
424.40, 8.17, 329.98
424.50, 8.24, 330.14
424.68, 8.30, 330.42
424.88, 8.37, 330.73
425.10, 8.44, 331.08
425.35, 8.53, 331.47
425.63, 8.62, 331.90
423.54, 7.27, 328.43
423.58, 7.32, 328.49
423.62, 7.36, 328.56
423.66, 7.41, 328.63
423.70, 7.45, 328.70
423.75, 7.50, 328.77
423.79, 7.55, 328.84
423.84, 7.60, 328.92
423.89, 7.65, 329.01
423.95, 7.70, 329.10
424.01, 7.75, 329.19
424.07, 7.80, 329.29
¯424.14, 7.86, 329.40
424.21, 7.92, 329.50
424.28, 7.98, 329.62
424.35, 8.04, 329.73
424.43, 8.10, 329.85
424.51, 8.17, 329.98
424.61, 8.24, 330.15
424.80, 8.30, 330.44
425.01, 8.37, 330.75
425.25, 8.44, 331.11
425.51, 8.53, 331.50
423.60, 7.27, 328.41
423.64, 7.32, 328.47
423.68, 7.36, 328.54
423.72, 7.40, 328.60
423.77, 7.45, 328.67
423.81, 7.50, 328.74
423.86, 7.55, 328.82
423.92, 7.59, 328.91
423.98, 7.64, 329.00
424.04, 7.69, 329.09
424.10, 7.74, 329.19
424.17, 7.80, 329.29
424.23, 7.85, 329.39
424.30, 7.91, 329.50
424.38, 7.97, 329.62
424.45, 8.04, 329.73
424.53, 8.10, 329.86
424.62, 8.17, 329.98
424.73, 8.24, 330.16
424.93, 8.30, 330.45
425.15, 8.37, 330.77
425.39, 8.45, 331.13
425.67, 8.53, 331.54
423.66, 7.27, 328.38
423.70, 7.31, 328.45
423.74, 7.36, 328.51
423.79, 7.40, 328.58
423.83, 7.45, 328.65
423.89, 7.49, 328.73
423.94, 7.54, 328.82
424.00, 7.59, 328.90
424.06, 7.64, 328.99
424.13, 7.69, 329.09
424.19, 7.74, 329.19
424.26, 7.79, 329.29
424.33, 7.85, 329.39
424.40, 7.91, 329.50
424.48, 7.97, 329.61
424.56, 8.04, 329.73
424.64, 8.10, 329.86
¯424.73, 8.17, 329.99
424.85, 8.24, 330.17
425.06, 8.30, 330.46
425.29, 8.37, 330.79
425.55, 8.45, 331.16
423.72, 7.27, 328.36
423.76, 7.31, 328.42
423.81, 7.36, 328.49
423.86, 7.40, 328.56
423.91, 7.44, 328.64
423.97, 7.49, 328.72
424.03, 7.53, 328.81
424.09, 7.58, 328.90
424.15, 7.63, 328.99
424.21, 7.68, 329.08
424.28, 7.74, 329.18
424.35, 7.79, 329.28
424.43, 7.85, 329.39
424.50, 7.91, 329.50
424.58, 7.97, 329.61
424.66, 8.03, 329.73
424.75, 8.10, 329.86
424.84, 8.17, 329.99
424.97, 8.24, 330.18
425.19, 8.30, 330.48
425.43, 8.37, 330.81
425.70, 8.45, 331.18
423.78, 7.27, 328.34
423.83, 7.31, 328.40
423.88, 7.35, 328.48
423.93, 7.39, 328.55
423.99, 7.44, 328.63
424.05, 7.48, 328.72
424.11, 7.53, 328.80
424.17, 7.58, 328.89
424.24, 7.63, 328.98
424.31, 7.68, 329.08
424.38, 7.73, 329.18
424.45, 7.79, 329.28
424.52, 7.84, 329.39
424.60, 7.90, 329.50
424.69, 7.97, 329.61
424.77, 8.03, 329.73
424.86, 8.10, 329.86
424.96, 8.17, 329.99
425.10, 8.24, 330.19
425.33, 8.31, 330.49
425.58, 8.38, 330.83
423.85, 7.27, 328.32
423.90, 7.31, 328.39
423.95, 7.35, 328.47
¯424.01, 7.39, 328.54
424.07, 7.43, 328.62
424.13, 7.48, 328.71
424.19, 7.52, 328.79
424.26, 7.57, 328.88
424.33, 7.62, 328.97
424.40, 7.67, 329.07
424.47, 7.73, 329.17
424.55, 7.78, 329.27
424.63, 7.84, 329.38
424.71, 7.90, 329.49
424.79, 7.96, 329.61
424.88, 8.03, 329.73
424.98, 8.10, 329.86
425.08, 8.17, 330.00
425.23, 8.24, 330.20
425.47, 8.31, 330.51
425.73, 8.38, 330.85
423.92, 7.26, 328.31
423.97, 7.30, 328.38
424.03, 7.34, 328.45
424.09, 7.38, 328.53
424.15, 7.42, 328.61
424.21, 7.47, 328.70
424.28, 7.52, 328.78
424.35, 7.56, 328.87
424.42, 7.61, 328.97
424.49, 7.67, 329.06
424.57, 7.72, 329.16
424.65, 7.78, 329.27
424.73, 7.84, 329.38
424.81, 7.90, 329.49
424.90, 7.96, 329.61
425.00, 8.03, 329.73
425.10, 8.10, 329.86
425.20, 8.17, 330.00
425.36, 8.24, 330.21
425.61, 8.31, 330.52
423.99, 7.25, 328.29
424.05, 7.29, 328.37
424.11, 7.33, 328.44
424.17, 7.37, 328.52
424.23, 7.42, 328.60
424.30, 7.46, 328.69
424.37, 7.51, 328.78
424.44, 7.56, 328.87
424.51, 7.61, 328.96
424.59, 7.66, 329.06
424.67, 7.72, 329.16
424.75, 7.77, 329.26
424.83, 7.83, 329.37
¯424.92, 7.89, 329.49
425.02, 7.96, 329.61
425.11, 8.03, 329.73
425.22, 8.10, 329.87
425.32, 8.17, 330.00
425.50, 8.24, 330.22
425.75, 8.31, 330.53
424.06, 7.25, 328.27
424.12, 7.28, 328.35
424.18, 7.32, 328.43
424.25, 7.37, 328.51
424.32, 7.41, 328.59
424.39, 7.46, 328.68
424.46, 7.50, 328.77
424.53, 7.55, 328.86
424.60, 7.60, 328.95
424.68, 7.66, 329.05
424.77, 7.71, 329.15
424.85, 7.77, 329.26
424.94, 7.83, 329.37
425.03, 7.89, 329.48
425.13, 7.95, 329.61
425.23, 8.02, 329.73
425.34, 8.09, 329.87
425.45, 8.17, 330.01
425.63, 8.24, 330.23
424.13, 7.24, 328.25
424.19, 7.28, 328.33
424.26, 7.32, 328.41
424.32, 7.36, 328.49
424.39, 7.41, 328.57
424.46, 7.45, 328.66
424.54, 7.50, 328.75
424.61, 7.55, 328.84
424.70, 7.60, 328.94
424.78, 7.65, 329.04
424.87, 7.70, 329.14
424.96, 7.76, 329.25
425.05, 7.82, 329.36
425.15, 7.89, 329.48
425.25, 7.95, 329.60
425.35, 8.02, 329.73
425.46, 8.09, 329.87
425.58, 8.17, 330.01
425.77, 8.24, 330.24
424.20, 7.24, 328.23
424.26, 7.27, 328.30
424.33, 7.32, 328.38
424.40, 7.36, 328.46
424.47, 7.40, 328.55
424.54, 7.45, 328.63
¯424.62, 7.49, 328.72
424.70, 7.54, 328.82
424.78, 7.59, 328.92
424.87, 7.65, 329.02
424.96, 7.70, 329.12
425.05, 7.76, 329.23
425.15, 7.82, 329.35
425.25, 7.88, 329.47
425.36, 7.95, 329.59
425.47, 8.02, 329.72
425.59, 8.09, 329.86
425.71, 8.17, 330.01
424.27, 7.23, 328.21
424.33, 7.27, 328.28
424.40, 7.31, 328.36
424.47, 7.35, 328.44
424.55, 7.40, 328.53
424.62, 7.44, 328.61
424.70, 7.49, 328.70
424.78, 7.54, 328.80
424.87, 7.59, 328.89
424.96, 7.64, 328.99
425.05, 7.70, 329.10
425.15, 7.76, 329.21
425.25, 7.82, 329.33
425.35, 7.88, 329.45
425.47, 7.95, 329.57
425.58, 8.02, 329.71
425.70, 8.09, 329.85
424.34, 7.22, 328.18
424.40, 7.26, 328.26
424.47, 7.31, 328.34
424.55, 7.35, 328.42
424.62, 7.39, 328.50
424.70, 7.44, 328.59
424.78, 7.49, 328.68
424.87, 7.54, 328.77
424.96, 7.59, 328.87
425.05, 7.64, 328.97
425.14, 7.70, 329.08
425.24, 7.76, 329.19
425.35, 7.82, 329.31
425.46, 7.88, 329.43
425.57, 7.95, 329.55
425.69, 8.02, 329.69
425.90, 8.08, 329.91
424.41, 7.22, 328.16
424.48, 7.26, 328.24
424.55, 7.30, 328.31
424.62, 7.34, 328.39
424.70, 7.39, 328.48
¯424.78, 7.43, 328.57
424.87, 7.48, 328.66
424.96, 7.53, 328.75
425.05, 7.58, 328.85
425.14, 7.64, 328.95
425.24, 7.69, 329.06
425.34, 7.75, 329.17
425.45, 7.81, 329.28
425.56, 7.88, 329.41
425.68, 7.95, 329.53
425.86, 8.01, 329.72
424.48, 7.21, 328.13
424.55, 7.25, 328.21
424.62, 7.29, 328.29
424.70, 7.34, 328.37
424.78, 7.38, 328.45
424.87, 7.43, 328.54
424.95, 7.48, 328.63
425.04, 7.53, 328.73
425.14, 7.58, 328.82
425.23, 7.63, 328.93
425.34, 7.69, 329.03
425.44, 7.75, 329.14
425.56, 7.81, 329.26
425.67, 7.88, 329.38
425.82, 7.94, 329.54
426.23, 7.96, 329.94
424.55, 7.21, 328.11
424.62, 7.25, 328.19
424.70, 7.29, 328.26
424.78, 7.33, 328.34
424.86, 7.38, 328.43
424.95, 7.42, 328.52
425.04, 7.47, 328.61
425.13, 7.52, 328.70
425.23, 7.57, 328.80
425.33, 7.63, 328.90
425.44, 7.69, 329.01
425.55, 7.75, 329.12
425.66, 7.81, 329.24
425.78, 7.87, 329.36
426.18, 7.89, 329.74
424.61, 7.21, 328.07
424.70, 7.24, 328.16
424.78, 7.28, 328.24
424.86, 7.33, 328.32
424.95, 7.37, 328.40
425.03, 7.42, 328.49
425.13, 7.47, 328.58
425.22, 7.52, 328.68
425.32, 7.57, 328.77
¯425.43, 7.63, 328.88
425.54, 7.68, 328.98
425.65, 7.74, 329.10
425.77, 7.81, 329.21
426.13, 7.82, 329.55
426.57, 7.84, 329.96
424.68, 7.20, 328.04
424.77, 7.23, 328.13
424.86, 7.28, 328.21
424.94, 7.32, 328.29
425.03, 7.37, 328.38
425.12, 7.41, 328.46
425.21, 7.46, 328.55
425.31, 7.51, 328.65
425.42, 7.57, 328.75
425.52, 7.62, 328.85
425.64, 7.68, 328.96
425.75, 7.74, 329.07
426.07, 7.76, 329.36
426.51, 7.77, 329.75
424.74, 7.20, 328.01
424.84, 7.23, 328.10
424.93, 7.27, 328.18
425.02, 7.31, 328.26
425.11, 7.36, 328.35
425.21, 7.41, 328.44
425.30, 7.46, 328.53
425.41, 7.51, 328.62
425.51, 7.56, 328.72
425.62, 7.62, 328.82
425.74, 7.67, 328.93
426.02, 7.70, 329.18
426.44, 7.70, 329.55
426.94, 7.71, 329.99
424.81, 7.19, 327.97
424.91, 7.23, 328.07
425.01, 7.26, 328.16
425.10, 7.31, 328.24
425.20, 7.35, 328.32
425.29, 7.40, 328.41
425.39, 7.45, 328.50
425.50, 7.50, 328.59
425.61, 7.55, 328.69
425.72, 7.61, 328.80
425.97, 7.64, 329.01
426.38, 7.64, 329.36
426.86, 7.64, 329.76
438.19, 5.55, 339.18
424.88, 7.19, 327.94
424.98, 7.22, 328.03
425.09, 7.26, 328.13
¯425.19, 7.30, 328.21
425.28, 7.35, 328.29
425.38, 7.39, 328.38
425.49, 7.44, 328.47
425.59, 7.49, 328.57
425.71, 7.55, 328.67
425.92, 7.58, 328.84
426.31, 7.58, 329.17
426.77, 7.57, 329.55
427.32, 7.56, 330.00
437.92, 5.67, 338.57
424.94, 7.19, 327.90
425.05, 7.22, 327.99
425.17, 7.25, 328.09
425.27, 7.29, 328.18
425.37, 7.34, 328.26
425.47, 7.39, 328.35
425.58, 7.44, 328.44
425.69, 7.49, 328.54
425.86, 7.53, 328.68
426.25, 7.52, 328.99
426.69, 7.51, 329.34
427.22, 7.49, 329.77
433.62, 6.30, 334.79
437.64, 5.78, 337.96
425.01, 7.18, 327.87
425.12, 7.21, 327.96
425.24, 7.25, 328.05
425.36, 7.28, 328.15
425.46, 7.33, 328.23
425.56, 7.38, 328.32
425.67, 7.43, 328.41
425.81, 7.48, 328.52
426.18, 7.46, 328.81
426.61, 7.45, 329.15
427.12, 7.43, 329.54
427.66, 7.42, 329.96
433.55, 6.36, 334.46
437.42, 5.88, 337.42
425.08, 7.18, 327.83
425.19, 7.21, 327.92
425.31, 7.24, 328.01
425.44, 7.28, 328.11
425.55, 7.32, 328.20
425.66, 7.37, 328.29
425.77, 7.42, 328.38
426.11, 7.41, 328.64
426.53, 7.39, 328.95
426.98, 7.38, 329.29
427.40, 7.39, 329.61
431.86, 6.55, 332.91
¯433.47, 6.42, 334.12
437.21, 5.97, 336.91
425.15, 7.17, 327.79
425.26, 7.20, 327.88
425.39, 7.24, 327.97
425.52, 7.27, 328.07
425.64, 7.31, 328.17
425.75, 7.36, 328.25
426.04, 7.36, 328.47
426.43, 7.35, 328.75
426.77, 7.35, 329.01
427.16, 7.36, 329.30
427.61, 7.36, 329.63
431.83, 6.59, 332.66
433.39, 6.48, 333.80
437.01, 6.06, 336.42
440.75, 5.74, 339.15
425.22, 7.17, 327.75
425.34, 7.20, 327.84
425.46, 7.23, 327.93
425.59, 7.27, 328.03
425.73, 7.31, 328.13
425.97, 7.32, 328.30
426.26, 7.32, 328.51
426.58, 7.33, 328.74
426.94, 7.33, 329.00
427.36, 7.33, 329.30
428.32, 7.23, 329.98
431.79, 6.64, 332.41
433.35, 6.53, 333.51
436.81, 6.14, 335.95
440.30, 5.87, 338.42
425.29, 7.16, 327.71
425.41, 7.19, 327.80
425.54, 7.23, 327.89
425.67, 7.26, 327.99
425.83, 7.29, 328.10
426.10, 7.30, 328.29
426.40, 7.30, 328.50
426.74, 7.30, 328.74
427.12, 7.31, 329.00
427.55, 7.31, 329.30
430.71, 6.73, 331.44
431.81, 6.67, 332.20
433.32, 6.57, 333.23
435.31, 6.45, 334.61
439.91, 5.98, 337.76
425.35, 7.16, 327.67
425.48, 7.19, 327.76
425.61, 7.22, 327.85
425.75, 7.26, 327.95
¯425.96, 7.28, 328.09
426.23, 7.28, 328.28
426.55, 7.28, 328.49
426.90, 7.28, 328.73
427.30, 7.28, 329.00
427.88, 7.26, 329.38
430.75, 6.75, 331.27
431.77, 6.71, 331.95
433.25, 6.62, 332.94
435.18, 6.51, 334.24
439.67, 6.07, 337.22
425.42, 7.15, 327.63
425.55, 7.18, 327.72
425.69, 7.22, 327.81
425.85, 7.24, 327.92
426.09, 7.26, 328.07
426.37, 7.26, 328.26
426.70, 7.26, 328.47
427.07, 7.26, 328.72
427.49, 7.26, 328.99
430.33, 6.71, 330.80
430.79, 6.77, 331.10
431.72, 6.76, 331.71
433.22, 6.67, 332.68
435.11, 6.56, 333.91
439.42, 6.16, 336.69
425.49, 7.14, 327.59
425.63, 7.18, 327.67
425.76, 7.21, 327.76
425.98, 7.22, 327.90
426.22, 7.23, 328.06
426.51, 7.24, 328.24
426.86, 7.24, 328.46
427.24, 7.24, 328.71
427.69, 7.24, 328.98
430.33, 6.75, 330.62
430.83, 6.80, 330.94
431.68, 6.80, 331.48
433.22, 6.70, 332.45
435.03, 6.61, 333.59
439.11, 6.25, 336.14
425.56, 7.14, 327.54
425.70, 7.17, 327.63
425.87, 7.19, 327.74
426.10, 7.20, 327.88
426.36, 7.21, 328.04
426.66, 7.22, 328.22
427.02, 7.22, 328.44
427.42, 7.21, 328.69
428.76, 7.00, 329.50
430.33, 6.78, 330.44
¯430.87, 6.82, 330.77
431.69, 6.83, 331.28
433.16, 6.75, 332.18
434.96, 6.66, 333.27
438.90, 6.33, 335.66
425.64, 7.13, 327.50
425.77, 7.16, 327.58
425.99, 7.17, 327.71
426.23, 7.18, 327.86
426.50, 7.19, 328.02
426.80, 7.20, 328.20
427.18, 7.19, 328.42
427.61, 7.19, 328.68
429.47, 6.85, 329.76
430.33, 6.80, 330.27
430.91, 6.84, 330.61
431.67, 6.86, 331.07
433.08, 6.79, 331.90
434.93, 6.70, 333.00
438.74, 6.40, 335.24
425.71, 7.12, 327.45
425.88, 7.14, 327.56
426.11, 7.15, 327.69
426.37, 7.16, 327.84
426.64, 7.17, 328.00
426.96, 7.17, 328.18
427.35, 7.17, 328.41
428.14, 7.07, 328.85
429.51, 6.87, 329.62
430.33, 6.83, 330.09
430.96, 6.86, 330.46
431.64, 6.90, 330.85
433.09, 6.82, 331.68
434.90, 6.74, 332.72
438.63, 6.45, 334.85
425.78, 7.12, 327.41
426.00, 7.12, 327.53
426.24, 7.13, 327.66
426.50, 7.14, 327.81
426.79, 7.14, 327.97
427.11, 7.15, 328.15
427.53, 7.14, 328.38
428.75, 6.95, 329.05
429.55, 6.89, 329.49
430.35, 6.86, 329.94
431.00, 6.88, 330.30
431.61, 6.93, 330.64
433.08, 6.86, 331.46
434.81, 6.79, 332.42
438.52, 6.51, 334.46
442.07, 6.37, 336.44
¯425.89, 7.10, 327.38
426.12, 7.10, 327.50
426.37, 7.11, 327.64
426.64, 7.11, 327.79
426.94, 7.12, 327.95
427.27, 7.12, 328.13
427.71, 7.12, 328.36
428.78, 6.96, 328.93
429.58, 6.91, 329.35
430.38, 6.88, 329.78
431.04, 6.90, 330.14
431.62, 6.95, 330.46
433.02, 6.89, 331.21
434.79, 6.82, 332.16
438.40, 6.56, 334.09
441.64, 6.46, 335.83
426.00, 7.08, 327.35
426.24, 7.08, 327.47
426.50, 7.08, 327.61
426.78, 7.09, 327.76
427.10, 7.09, 327.92
427.45, 7.10, 328.10
428.14, 7.02, 328.46
428.81, 6.98, 328.81
429.61, 6.92, 329.22
430.40, 6.90, 329.63
431.08, 6.92, 329.98
431.61, 6.98, 330.27
432.98, 6.93, 330.98
434.77, 6.86, 331.91
438.33, 6.61, 333.75
441.57, 6.51, 335.43
426.11, 7.05, 327.31
426.36, 7.06, 327.44
426.63, 7.06, 327.58
426.93, 7.06, 327.73
427.26, 7.07, 327.89
427.62, 7.07, 328.08
428.17, 7.04, 328.35
428.84, 6.99, 328.68
429.64, 6.94, 329.08
430.42, 6.92, 329.48
431.12, 6.94, 329.83
431.60, 7.01, 330.08
432.99, 6.96, 330.78
434.73, 6.89, 331.65
438.28, 6.65, 333.42
441.49, 6.56, 335.03
426.23, 7.03, 327.28
426.49, 7.03, 327.41
426.77, 7.03, 327.55
¯427.08, 7.04, 327.70
427.43, 7.04, 327.87
427.72, 7.06, 328.01
428.19, 7.05, 328.24
428.86, 7.01, 328.56
429.66, 6.96, 328.95
430.44, 6.94, 329.32
431.16, 6.95, 329.67
431.58, 7.04, 329.89
432.99, 6.98, 330.57
434.67, 6.93, 331.38
438.22, 6.70, 333.09
441.40, 6.61, 334.64
426.35, 7.01, 327.25
426.62, 7.01, 327.37
426.92, 7.01, 327.51
427.24, 7.01, 327.67
427.51, 7.03, 327.79
427.80, 7.06, 327.93
428.22, 7.07, 328.13
428.88, 7.03, 328.44
429.68, 6.98, 328.81
430.45, 6.96, 329.17
431.19, 6.97, 329.52
431.59, 7.06, 329.71
432.96, 7.02, 330.35
434.67, 6.96, 331.15
438.15, 6.74, 332.77
441.28, 6.66, 334.23
426.47, 6.98, 327.21
426.75, 6.98, 327.34
427.06, 6.98, 327.48
427.31, 7.01, 327.59
427.56, 7.04, 327.71
427.88, 7.06, 327.85
428.30, 7.07, 328.05
428.90, 7.04, 328.32
429.70, 7.00, 328.67
430.46, 6.98, 329.02
431.22, 6.99, 329.36
431.63, 7.08, 329.55
432.92, 7.05, 330.14
434.66, 6.99, 330.92
438.12, 6.78, 332.47
441.18, 6.71, 333.85
426.60, 6.96, 327.17
426.89, 6.95, 327.30
427.12, 6.98, 327.40
427.36, 7.01, 327.51
427.62, 7.04, 327.62
427.96, 7.06, 327.77
¯428.39, 7.06, 327.96
428.92, 7.06, 328.19
429.71, 7.02, 328.53
430.48, 7.00, 328.87
431.26, 7.01, 329.21
431.66, 7.10, 329.39
432.94, 7.07, 329.95
434.63, 7.02, 330.68
438.09, 6.81, 332.17
441.15, 6.75, 333.50
426.73, 6.93, 327.13
426.95, 6.95, 327.23
427.17, 6.98, 327.32
427.41, 7.01, 327.43
427.67, 7.04, 327.54
428.04, 7.06, 327.69
428.48, 7.06, 327.88
428.97, 7.07, 328.09
429.72, 7.03, 328.40
430.52, 7.01, 328.73
431.29, 7.02, 329.06
431.69, 7.11, 329.23
432.98, 7.09, 329.77
434.59, 7.05, 330.44
438.09, 6.84, 331.89
441.12, 6.79, 333.16
426.78, 6.93, 327.06
426.99, 6.96, 327.15
427.22, 6.99, 327.24
427.46, 7.02, 327.34
427.72, 7.05, 327.45
428.12, 7.05, 327.61
428.56, 7.06, 327.79
429.07, 7.06, 327.99
429.73, 7.05, 328.26
430.55, 7.03, 328.59
431.33, 7.04, 328.90
431.72, 7.13, 329.07
433.00, 7.11, 329.58
434.62, 7.07, 330.23
438.10, 6.87, 331.62
441.09, 6.82, 332.82
426.82, 6.93, 326.99
427.04, 6.96, 327.07
427.26, 6.99, 327.16
427.51, 7.02, 327.26
427.79, 7.05, 327.37
428.20, 7.05, 327.53
428.65, 7.06, 327.70
429.16, 7.06, 327.90
429.74, 7.07, 328.13
¯430.57, 7.04, 328.45
431.36, 7.05, 328.75
431.75, 7.15, 328.91
433.02, 7.12, 329.40
434.64, 7.10, 330.03
438.11, 6.90, 331.35
441.05, 6.86, 332.49
426.86, 6.94, 326.91
427.08, 6.96, 326.99
427.31, 6.99, 327.08
427.56, 7.02, 327.17
427.86, 7.04, 327.29
428.27, 7.05, 327.44
428.73, 7.05, 327.61
429.25, 7.06, 327.81
429.81, 7.07, 328.01
430.60, 7.06, 328.31
431.38, 7.07, 328.60
431.79, 7.16, 328.75
433.04, 7.14, 329.22
434.66, 7.12, 329.82
438.12, 6.93, 331.08
441.00, 6.90, 332.15
426.90, 6.94, 326.83
427.12, 6.97, 326.91
427.35, 6.99, 327.00
427.61, 7.02, 327.09
427.93, 7.04, 327.20
428.35, 7.05, 327.35
428.82, 7.05, 327.52
429.33, 7.06, 327.70
429.87, 7.08, 327.90
430.62, 7.07, 328.16
431.41, 7.08, 328.44
431.82, 7.18, 328.60
433.10, 7.16, 329.05
434.67, 7.14, 329.61
438.12, 6.95, 330.82
441.01, 6.93, 331.84
426.94, 6.94, 326.75
427.16, 6.97, 326.83
427.40, 7.00, 326.91
427.65, 7.03, 327.00
428.00, 7.04, 327.12
428.43, 7.04, 327.27
428.90, 7.05, 327.43
429.38, 7.07, 327.59
429.93, 7.08, 327.78
430.68, 7.08, 328.03
431.44, 7.10, 328.29
431.85, 7.19, 328.44
¯433.16, 7.17, 328.88
434.72, 7.15, 329.41
438.14, 6.98, 330.56
441.08, 6.95, 331.56
426.98, 6.94, 326.68
427.20, 6.97, 326.75
427.44, 7.00, 326.83
427.70, 7.03, 326.91
428.07, 7.04, 327.03
428.50, 7.04, 327.18
428.96, 7.05, 327.33
429.42, 7.08, 327.48
430.00, 7.09, 327.66
430.75, 7.09, 327.91
431.47, 7.11, 328.14
431.88, 7.21, 328.28
433.20, 7.18, 328.71
434.79, 7.17, 329.22
438.18, 7.00, 330.31
441.18, 6.97, 331.28
427.02, 6.94, 326.60
427.24, 6.97, 326.67
427.48, 7.00, 326.74
427.74, 7.03, 326.83
428.14, 7.04, 326.95
428.58, 7.04, 327.08
429.00, 7.06, 327.22
429.46, 7.08, 327.36
430.06, 7.09, 327.54
430.81, 7.09, 327.78
431.50, 7.13, 327.99
431.90, 7.22, 328.12
433.22, 7.20, 328.53
434.85, 7.18, 329.03
438.22, 7.02, 330.06
441.28, 6.99, 331.00
427.06, 6.95, 326.52
427.28, 6.97, 326.59
427.53, 7.00, 326.66
427.80, 7.03, 326.74
428.20, 7.03, 326.86
428.63, 7.04, 326.98
429.04, 7.06, 327.11
429.50, 7.09, 327.24
430.11, 7.10, 327.42
430.88, 7.10, 327.65
431.52, 7.14, 327.84
431.94, 7.23, 327.97
433.24, 7.22, 328.35
434.90, 7.20, 328.84
438.32, 7.04, 329.83
¯441.38, 7.01, 330.72
427.09, 6.95, 326.44
427.32, 6.98, 326.50
427.57, 7.01, 326.57
427.87, 7.03, 326.66
428.27, 7.03, 326.77
428.66, 7.05, 326.88
429.08, 7.07, 327.00
429.54, 7.10, 327.13
430.17, 7.10, 327.30
430.94, 7.10, 327.52
431.54, 7.15, 327.69
432.01, 7.24, 327.82
433.28, 7.23, 328.18
434.92, 7.21, 328.63
438.42, 7.05, 329.60
441.45, 7.03, 330.44
427.13, 6.95, 326.36
427.36, 6.98, 326.42
427.61, 7.01, 326.48
427.92, 7.02, 326.57
428.31, 7.03, 326.67
428.70, 7.05, 326.78
429.12, 7.08, 326.89
429.58, 7.10, 327.01
430.22, 7.11, 327.18
430.99, 7.11, 327.38
431.56, 7.16, 327.54
432.07, 7.25, 327.68
433.36, 7.24, 328.02
434.97, 7.23, 328.44
438.51, 7.06, 329.36
441.51, 7.05, 330.15
427.16, 6.95, 326.27
427.40, 6.98, 326.33
427.64, 7.01, 326.40
427.98, 7.02, 326.48
428.34, 7.04, 326.57
428.73, 7.06, 326.67
429.15, 7.08, 326.78
429.62, 7.11, 326.89
430.27, 7.11, 327.06
431.04, 7.12, 327.25
431.59, 7.18, 327.39
432.13, 7.25, 327.53
433.43, 7.25, 327.85
435.05, 7.24, 328.25
438.59, 7.08, 329.12
441.60, 7.07, 329.87
427.20, 6.95, 326.19
427.43, 6.98, 326.25
¯427.68, 7.01, 326.31
428.02, 7.02, 326.39
428.37, 7.04, 326.47
428.76, 7.07, 326.56
429.18, 7.09, 326.66
429.65, 7.12, 326.78
430.32, 7.12, 326.93
431.09, 7.12, 327.11
431.61, 7.19, 327.24
432.18, 7.26, 327.38
433.49, 7.25, 327.68
435.14, 7.25, 328.07
438.67, 7.09, 328.88
441.69, 7.08, 329.59
427.22, 6.96, 326.11
427.47, 6.98, 326.16
427.72, 7.01, 326.22
428.05, 7.03, 326.29
428.40, 7.05, 326.37
428.79, 7.07, 326.46
429.21, 7.10, 326.55
429.69, 7.12, 326.66
430.37, 7.12, 326.81
431.13, 7.13, 326.97
431.63, 7.20, 327.09
432.23, 7.27, 327.23
433.55, 7.26, 327.51
435.21, 7.25, 327.88
438.74, 7.11, 328.64
441.78, 7.10, 329.31
427.24, 6.96, 326.02
427.49, 6.99, 326.07
427.75, 7.02, 326.13
428.07, 7.03, 326.20
428.43, 7.06, 326.27
428.82, 7.08, 326.35
429.24, 7.10, 326.44
429.73, 7.13, 326.54
430.40, 7.13, 326.68
431.17, 7.14, 326.84
431.65, 7.21, 326.94
432.29, 7.28, 327.07
433.61, 7.27, 327.34
435.29, 7.26, 327.69
438.81, 7.12, 328.40
441.87, 7.12, 329.02
427.26, 6.97, 325.94
427.51, 6.99, 325.98
427.78, 7.02, 326.04
428.10, 7.04, 326.10
428.45, 7.06, 326.17
¯428.84, 7.08, 326.24
429.27, 7.11, 326.33
429.77, 7.13, 326.42
430.44, 7.14, 326.55
431.21, 7.15, 326.70
431.67, 7.22, 326.79
432.34, 7.28, 326.92
433.67, 7.28, 327.17
435.35, 7.27, 327.49
438.88, 7.13, 328.15
441.95, 7.13, 328.74
445.44, 7.19, 329.40
427.28, 6.97, 325.85
427.53, 7.00, 325.90
427.80, 7.02, 325.95
428.13, 7.04, 326.00
428.48, 7.06, 326.07
428.87, 7.09, 326.14
429.30, 7.11, 326.21
429.80, 7.14, 326.30
430.47, 7.14, 326.42
431.24, 7.15, 326.56
431.69, 7.23, 326.64
432.38, 7.29, 326.77
433.74, 7.29, 327.00
435.43, 7.28, 327.30
438.97, 7.15, 327.91
442.12, 7.14, 328.47
445.09, 7.24, 328.99
427.30, 6.98, 325.76
427.55, 7.00, 325.81
427.83, 7.03, 325.85
428.16, 7.05, 325.91
428.51, 7.07, 325.96
428.90, 7.09, 326.03
429.33, 7.12, 326.10
429.83, 7.14, 326.18
430.50, 7.15, 326.29
431.28, 7.16, 326.42
431.71, 7.24, 326.49
432.43, 7.30, 326.61
433.79, 7.29, 326.83
435.51, 7.29, 327.11
439.08, 7.15, 327.67
442.31, 7.15, 328.19
444.81, 7.28, 328.60
427.32, 6.98, 325.68
427.57, 7.00, 325.72
427.85, 7.03, 325.76
428.18, 7.05, 325.81
428.54, 7.07, 325.86
¯428.93, 7.10, 325.92
429.36, 7.12, 325.99
429.87, 7.15, 326.06
430.53, 7.16, 326.16
431.31, 7.17, 326.28
431.73, 7.25, 326.34
432.48, 7.30, 326.46
433.85, 7.30, 326.66
435.57, 7.30, 326.91
439.21, 7.16, 327.43
442.47, 7.16, 327.91
444.54, 7.33, 328.23
427.34, 6.98, 325.59
427.59, 7.01, 325.63
427.88, 7.03, 325.67
428.20, 7.05, 325.71
428.56, 7.08, 325.76
428.96, 7.10, 325.81
429.39, 7.13, 325.87
429.91, 7.15, 325.94
430.57, 7.16, 326.03
431.34, 7.17, 326.13
431.75, 7.26, 326.19
432.54, 7.31, 326.30
433.91, 7.31, 326.48
435.65, 7.30, 326.71
439.33, 7.17, 327.19
442.62, 7.17, 327.63
444.51, 7.35, 327.89
427.35, 6.99, 325.50
427.61, 7.01, 325.54
427.90, 7.04, 325.57
428.23, 7.06, 325.61
428.59, 7.08, 325.66
428.98, 7.10, 325.70
429.42, 7.13, 325.76
429.95, 7.15, 325.82
430.62, 7.16, 325.90
431.39, 7.18, 325.99
431.77, 7.27, 326.04
432.59, 7.31, 326.14
433.97, 7.31, 326.31
435.72, 7.31, 326.51
439.45, 7.17, 326.95
442.76, 7.18, 327.34
444.57, 7.37, 327.56
427.37, 6.99, 325.42
427.62, 7.02, 325.45
427.92, 7.04, 325.48
428.25, 7.06, 325.51
428.61, 7.08, 325.55
¯429.01, 7.11, 325.60
429.44, 7.14, 325.64
429.98, 7.16, 325.70
430.66, 7.17, 325.77
431.43, 7.18, 325.85
431.79, 7.28, 325.89
432.63, 7.32, 325.99
434.02, 7.32, 326.13
435.79, 7.32, 326.31
439.57, 7.18, 326.70
442.90, 7.19, 327.05
445.19, 7.35, 327.30
427.38, 6.99, 325.33
427.64, 7.02, 325.35
427.93, 7.04, 325.38
428.27, 7.06, 325.41
428.63, 7.09, 325.45
429.03, 7.11, 325.49
429.47, 7.14, 325.53
430.02, 7.16, 325.58
430.70, 7.17, 325.64
431.46, 7.19, 325.71
431.81, 7.29, 325.75
432.68, 7.33, 325.83
434.08, 7.33, 325.95
435.85, 7.33, 326.11
439.68, 7.19, 326.45
443.03, 7.20, 326.75
427.40, 7.00, 325.24
427.65, 7.02, 325.26
427.95, 7.04, 325.29
428.29, 7.07, 325.31
428.65, 7.09, 325.34
429.05, 7.11, 325.38
429.49, 7.14, 325.41
430.05, 7.16, 325.45
430.73, 7.17, 325.51
431.50, 7.19, 325.57
431.83, 7.29, 325.60
432.72, 7.33, 325.67
434.13, 7.33, 325.77
435.91, 7.33, 325.91
439.78, 7.20, 326.20
443.15, 7.20, 326.45
427.41, 7.00, 325.15
427.67, 7.03, 325.17
427.97, 7.05, 325.19
428.30, 7.07, 325.21
428.67, 7.09, 325.24
429.07, 7.12, 325.26
429.51, 7.15, 325.29
¯430.08, 7.16, 325.33
430.77, 7.18, 325.37
431.53, 7.20, 325.42
431.84, 7.30, 325.45
432.76, 7.34, 325.51
434.17, 7.34, 325.59
435.97, 7.34, 325.70
439.90, 7.20, 325.94
443.27, 7.21, 326.15
427.42, 7.00, 325.07
427.68, 7.03, 325.08
427.98, 7.05, 325.10
428.32, 7.07, 325.11
428.69, 7.10, 325.13
429.09, 7.12, 325.15
429.54, 7.15, 325.18
430.11, 7.17, 325.20
430.79, 7.18, 325.24
431.55, 7.20, 325.28
431.86, 7.31, 325.30
432.79, 7.34, 325.34
434.22, 7.34, 325.41
436.04, 7.34, 325.50
440.02, 7.21, 325.68
443.45, 7.22, 325.85
427.43, 7.00, 324.98
427.69, 7.03, 324.99
428.00, 7.05, 325.00
428.33, 7.07, 325.01
428.70, 7.10, 325.03
429.11, 7.12, 325.04
429.55, 7.15, 325.06
430.13, 7.17, 325.08
430.81, 7.18, 325.10
431.58, 7.21, 325.13
431.88, 7.31, 325.15
432.84, 7.34, 325.18
434.28, 7.35, 325.23
436.12, 7.35, 325.29
440.14, 7.21, 325.42
443.67, 7.22, 325.54
427.44, 7.01, 324.89
427.70, 7.03, 324.90
428.01, 7.06, 324.90
428.35, 7.08, 324.91
428.72, 7.10, 324.92
429.12, 7.13, 324.93
429.57, 7.16, 324.94
430.16, 7.17, 324.95
430.83, 7.19, 324.97
431.60, 7.21, 324.98
¯431.90, 7.32, 325.00
432.88, 7.35, 325.02
434.34, 7.35, 325.05
436.19, 7.35, 325.08
440.25, 7.22, 325.16
443.88, 7.22, 325.23
427.45, 7.01, 324.80
427.71, 7.04, 324.80
428.02, 7.06, 324.81
428.36, 7.08, 324.81
428.73, 7.10, 324.81
429.14, 7.13, 324.82
429.59, 7.16, 324.82
430.18, 7.18, 324.83
430.85, 7.19, 324.83
431.62, 7.22, 324.84
431.92, 7.33, 324.84
432.92, 7.35, 324.85
434.40, 7.35, 324.86
436.26, 7.36, 324.87
440.33, 7.22, 324.89
444.06, 7.23, 324.91
445.88, 7.44, 324.94
427.46, 7.01, 324.71
427.72, 7.04, 324.71
428.03, 7.06, 324.71
428.37, 7.08, 324.71
428.74, 7.11, 324.71
429.15, 7.13, 324.70
429.60, 7.16, 324.70
430.20, 7.18, 324.70
430.87, 7.20, 324.69
431.64, 7.22, 324.69
431.93, 7.33, 324.69
432.95, 7.36, 324.69
434.44, 7.36, 324.67
436.33, 7.36, 324.66
440.39, 7.23, 324.62
443.88, 7.26, 324.60
445.62, 7.48, 324.59
427.46, 7.01, 324.62
427.72, 7.04, 324.62
428.04, 7.06, 324.61
428.38, 7.08, 324.61
428.75, 7.11, 324.60
429.16, 7.14, 324.59
429.61, 7.17, 324.58
430.21, 7.18, 324.57
430.88, 7.20, 324.56
431.66, 7.22, 324.54
431.95, 7.34, 324.54
¯432.98, 7.36, 324.52
434.47, 7.36, 324.49
436.38, 7.37, 324.45
440.45, 7.24, 324.35
443.69, 7.28, 324.28
427.47, 7.02, 324.53
427.73, 7.04, 324.52
428.04, 7.06, 324.51
428.39, 7.09, 324.50
428.76, 7.11, 324.49
429.17, 7.14, 324.48
429.62, 7.17, 324.46
430.22, 7.19, 324.44
430.89, 7.21, 324.42
431.67, 7.23, 324.39
431.97, 7.34, 324.39
433.00, 7.37, 324.35
434.50, 7.37, 324.30
436.43, 7.37, 324.23
440.51, 7.25, 324.08
443.68, 7.30, 323.97
427.47, 7.02, 324.44
427.73, 7.05, 324.43
428.05, 7.07, 324.42
428.39, 7.09, 324.40
428.77, 7.11, 324.38
429.18, 7.14, 324.36
429.63, 7.17, 324.34
430.22, 7.19, 324.31
430.90, 7.21, 324.28
431.68, 7.23, 324.24
431.98, 7.34, 324.23
433.02, 7.37, 324.18
434.53, 7.37, 324.11
436.49, 7.37, 324.01
440.59, 7.25, 323.80
443.72, 7.31, 323.65
427.47, 7.02, 324.35
427.74, 7.05, 324.34
428.05, 7.07, 324.32
428.40, 7.09, 324.30
428.77, 7.12, 324.28
429.18, 7.14, 324.25
429.64, 7.18, 324.22
430.23, 7.19, 324.19
430.91, 7.21, 324.14
431.70, 7.24, 324.09
432.00, 7.35, 324.08
433.04, 7.37, 324.02
434.57, 7.38, 323.92
436.53, 7.38, 323.79
¯440.65, 7.26, 323.53
443.76, 7.32, 323.33
427.47, 7.02, 324.26
427.74, 7.05, 324.24
428.05, 7.07, 324.22
428.40, 7.09, 324.19
428.78, 7.12, 324.17
429.20, 7.14, 324.14
429.66, 7.18, 324.10
430.25, 7.19, 324.06
430.94, 7.21, 324.00
431.71, 7.24, 323.94
432.01, 7.35, 323.93
433.06, 7.38, 323.85
434.60, 7.38, 323.73
436.58, 7.38, 323.57
440.74, 7.26, 323.24
443.80, 7.33, 323.01
427.47, 7.02, 324.17
427.75, 7.05, 324.15
428.07, 7.07, 324.12
428.42, 7.09, 324.09
428.80, 7.12, 324.06
429.22, 7.14, 324.02
429.67, 7.18, 323.98
430.27, 7.19, 323.93
430.96, 7.21, 323.86
431.73, 7.24, 323.79
432.03, 7.35, 323.77
433.08, 7.38, 323.68
434.63, 7.38, 323.53
436.62, 7.39, 323.35
440.84, 7.26, 322.96
444.10, 7.32, 322.66
427.47, 7.03, 324.08
427.76, 7.05, 324.05
428.08, 7.07, 324.02
428.43, 7.09, 323.99
428.81, 7.12, 323.95
429.24, 7.14, 323.90
429.68, 7.18, 323.86
430.28, 7.19, 323.79
430.98, 7.21, 323.72
431.73, 7.24, 323.64
432.04, 7.36, 323.61
433.10, 7.38, 323.50
434.65, 7.39, 323.34
436.65, 7.39, 323.13
440.93, 7.27, 322.67
445.40, 7.25, 322.20
427.47, 7.03, 323.99
¯427.77, 7.05, 323.96
428.09, 7.07, 323.92
428.44, 7.09, 323.88
428.83, 7.11, 323.83
429.25, 7.14, 323.78
429.69, 7.18, 323.73
430.30, 7.20, 323.66
431.00, 7.21, 323.58
431.74, 7.25, 323.49
432.06, 7.36, 323.46
433.11, 7.39, 323.33
434.67, 7.39, 323.15
436.68, 7.39, 322.90
441.01, 7.27, 322.38
445.21, 7.27, 321.88
427.47, 7.03, 323.90
427.77, 7.05, 323.86
428.10, 7.07, 323.82
428.45, 7.09, 323.77
428.84, 7.11, 323.72
429.26, 7.14, 323.67
429.70, 7.18, 323.61
430.31, 7.20, 323.53
431.00, 7.22, 323.44
431.74, 7.25, 323.34
432.07, 7.36, 323.30
433.12, 7.39, 323.16
434.69, 7.39, 322.95
436.71, 7.40, 322.68
441.08, 7.27, 322.09
445.03, 7.30, 321.56
427.48, 7.03, 323.81
427.78, 7.04, 323.77
428.10, 7.06, 323.72
428.46, 7.09, 323.67
428.85, 7.11, 323.61
429.26, 7.14, 323.55
429.70, 7.18, 323.49
430.32, 7.20, 323.40
431.00, 7.22, 323.30
431.74, 7.25, 323.19
432.08, 7.36, 323.14
433.13, 7.39, 322.99
434.70, 7.40, 322.75
436.74, 7.40, 322.45
441.13, 7.28, 321.80
444.85, 7.32, 321.25
427.48, 7.02, 323.72
427.78, 7.04, 323.67
428.11, 7.06, 323.62
428.47, 7.09, 323.56
¯428.86, 7.11, 323.50
429.27, 7.14, 323.43
429.71, 7.18, 323.36
430.33, 7.20, 323.26
430.99, 7.22, 323.16
431.74, 7.26, 323.03
432.10, 7.36, 322.98
433.13, 7.40, 322.81
434.71, 7.40, 322.56
436.76, 7.41, 322.23
441.15, 7.28, 321.51
444.66, 7.34, 320.94
427.49, 7.02, 323.63
427.79, 7.04, 323.57
428.12, 7.06, 323.52
428.47, 7.08, 323.45
428.87, 7.11, 323.38
429.27, 7.14, 323.31
429.71, 7.18, 323.24
430.33, 7.20, 323.13
430.99, 7.23, 323.01
431.74, 7.26, 322.88
432.11, 7.36, 322.82
433.13, 7.40, 322.64
434.72, 7.40, 322.36
436.77, 7.41, 322.00
441.17, 7.29, 321.22
444.47, 7.36, 320.63
427.49, 7.02, 323.53
427.79, 7.04, 323.48
428.12, 7.06, 323.41
428.48, 7.08, 323.34
428.86, 7.11, 323.27
429.27, 7.14, 323.20
429.71, 7.18, 323.11
430.33, 7.20, 322.99
430.98, 7.23, 322.87
431.73, 7.26, 322.73
432.12, 7.36, 322.66
433.13, 7.40, 322.47
434.72, 7.41, 322.16
436.79, 7.41, 321.77
441.18, 7.29, 320.92
444.28, 7.38, 320.33
427.49, 7.02, 323.44
427.79, 7.04, 323.38
428.12, 7.06, 323.31
428.48, 7.08, 323.24
428.86, 7.11, 323.16
429.26, 7.14, 323.08
429.71, 7.18, 322.99
¯430.33, 7.20, 322.86
430.97, 7.23, 322.73
431.71, 7.26, 322.58
432.13, 7.36, 322.50
433.13, 7.40, 322.29
434.73, 7.41, 321.96
436.81, 7.41, 321.54
441.19, 7.30, 320.63
444.32, 7.39, 319.99
427.49, 7.02, 323.35
427.79, 7.04, 323.28
428.12, 7.06, 323.21
428.48, 7.08, 323.13
428.86, 7.11, 323.05
429.26, 7.14, 322.96
429.71, 7.18, 322.86
430.32, 7.20, 322.73
430.96, 7.23, 322.59
431.70, 7.27, 322.43
432.15, 7.36, 322.33
433.13, 7.41, 322.12
434.73, 7.41, 321.76
436.83, 7.42, 321.30
441.18, 7.30, 320.34
444.37, 7.39, 319.64
427.48, 7.02, 323.25
427.79, 7.03, 323.18
428.12, 7.05, 323.10
428.48, 7.08, 323.02
428.85, 7.11, 322.93
429.26, 7.14, 322.84
429.70, 7.18, 322.74
430.30, 7.20, 322.60
430.94, 7.23, 322.45
431.68, 7.27, 322.27
432.16, 7.36, 322.17
433.12, 7.41, 321.94
434.73, 7.41, 321.56
436.84, 7.42, 321.07
441.21, 7.31, 320.04
444.43, 7.39, 319.28
427.48, 7.01, 323.16
427.78, 7.03, 323.08
428.12, 7.05, 323.00
428.48, 7.08, 322.91
428.84, 7.11, 322.82
429.25, 7.14, 322.72
429.70, 7.18, 322.61
430.29, 7.20, 322.46
430.93, 7.24, 322.31
431.67, 7.27, 322.12
¯432.17, 7.36, 322.00
433.11, 7.41, 321.77
434.72, 7.42, 321.36
436.84, 7.42, 320.83
441.26, 7.31, 319.73
444.53, 7.39, 318.91
427.47, 7.01, 323.06
427.78, 7.03, 322.98
428.11, 7.05, 322.90
428.47, 7.08, 322.80
428.84, 7.11, 322.71
429.24, 7.14, 322.60
429.69, 7.18, 322.48
430.27, 7.20, 322.33
430.91, 7.24, 322.16
431.65, 7.27, 321.97
432.18, 7.36, 321.83
433.09, 7.41, 321.59
434.71, 7.42, 321.16
436.84, 7.42, 320.60
441.31, 7.31, 319.41
444.62, 7.39, 318.54
427.47, 7.01, 322.97
427.77, 7.03, 322.89
428.11, 7.05, 322.79
428.46, 7.07, 322.70
428.83, 7.11, 322.59
429.23, 7.14, 322.48
429.68, 7.18, 322.36
430.25, 7.21, 322.20
430.89, 7.24, 322.02
431.63, 7.27, 321.81
432.19, 7.36, 321.66
433.07, 7.42, 321.42
434.70, 7.42, 320.96
436.83, 7.43, 320.37
441.35, 7.31, 319.10
444.70, 7.39, 318.17
427.46, 7.01, 322.88
427.77, 7.03, 322.79
428.10, 7.05, 322.69
428.44, 7.07, 322.59
428.81, 7.10, 322.48
429.22, 7.14, 322.36
429.66, 7.18, 322.23
430.22, 7.21, 322.07
430.86, 7.24, 321.88
431.62, 7.27, 321.66
432.20, 7.35, 321.49
433.05, 7.42, 321.24
434.68, 7.42, 320.76
¯436.81, 7.43, 320.13
441.38, 7.31, 318.78
444.76, 7.39, 317.79
427.45, 7.00, 322.78
427.76, 7.02, 322.69
428.09, 7.04, 322.58
428.43, 7.07, 322.48
428.80, 7.10, 322.37
429.20, 7.14, 322.24
429.64, 7.18, 322.11
430.20, 7.21, 321.94
430.84, 7.24, 321.74
431.60, 7.28, 321.50
432.22, 7.35, 321.31
433.03, 7.42, 321.07
434.66, 7.42, 320.56
436.80, 7.43, 319.90
441.40, 7.31, 318.47
427.44, 7.00, 322.69
427.75, 7.02, 322.59
428.07, 7.04, 322.48
428.41, 7.07, 322.37
428.78, 7.10, 322.25
429.18, 7.14, 322.12
429.62, 7.18, 321.98
430.17, 7.21, 321.80
430.81, 7.24, 321.60
431.57, 7.28, 321.35
432.23, 7.35, 321.14
433.00, 7.42, 320.89
434.63, 7.43, 320.36
436.77, 7.43, 319.67
441.44, 7.30, 318.14
427.43, 7.00, 322.59
427.73, 7.02, 322.49
428.06, 7.04, 322.38
428.40, 7.07, 322.26
428.76, 7.10, 322.14
429.16, 7.14, 322.01
429.60, 7.18, 321.86
430.14, 7.21, 321.67
430.78, 7.24, 321.46
431.55, 7.28, 321.20
432.25, 7.34, 320.96
432.97, 7.42, 320.72
434.60, 7.43, 320.16
436.74, 7.43, 319.43
441.49, 7.30, 317.81
427.41, 7.00, 322.50
427.72, 7.01, 322.39
428.04, 7.04, 322.28
¯428.37, 7.07, 322.16
428.74, 7.10, 322.03
429.13, 7.14, 321.89
429.57, 7.18, 321.73
430.11, 7.21, 321.54
430.75, 7.25, 321.32
431.52, 7.28, 321.04
432.26, 7.34, 320.78
432.94, 7.42, 320.54
434.57, 7.43, 319.96
436.70, 7.44, 319.20
441.53, 7.30, 317.48
427.40, 6.99, 322.40
427.71, 7.01, 322.29
428.02, 7.04, 322.17
428.35, 7.07, 322.05
428.71, 7.10, 321.92
429.11, 7.14, 321.77
429.54, 7.18, 321.61
430.08, 7.21, 321.41
430.72, 7.25, 321.17
431.49, 7.28, 320.89
432.27, 7.33, 320.60
432.90, 7.43, 320.37
434.53, 7.43, 319.76
436.66, 7.44, 318.97
441.56, 7.29, 317.14
427.38, 6.99, 322.31
427.68, 7.01, 322.19
427.99, 7.04, 322.07
428.32, 7.07, 321.95
428.68, 7.10, 321.81
429.08, 7.14, 321.65
429.51, 7.18, 321.49
430.04, 7.21, 321.28
430.69, 7.25, 321.03
431.46, 7.28, 320.73
432.29, 7.32, 320.41
432.85, 7.43, 320.20
434.48, 7.43, 319.57
436.62, 7.44, 318.74
441.58, 7.29, 316.81
427.36, 6.99, 322.22
427.65, 7.01, 322.10
427.96, 7.04, 321.97
428.29, 7.07, 321.84
428.65, 7.10, 321.70
429.05, 7.14, 321.54
429.48, 7.18, 321.36
430.01, 7.21, 321.15
430.65, 7.25, 320.89
¯431.42, 7.28, 320.58
432.30, 7.32, 320.23
432.81, 7.43, 320.03
434.43, 7.43, 319.37
436.56, 7.44, 318.51
441.60, 7.29, 316.47
427.32, 6.99, 322.13
427.62, 7.01, 322.01
427.93, 7.04, 321.87
428.26, 7.07, 321.74
428.62, 7.10, 321.59
429.02, 7.14, 321.42
429.45, 7.18, 321.24
429.97, 7.21, 321.02
430.61, 7.25, 320.75
431.38, 7.28, 320.43
432.32, 7.31, 320.04
432.76, 7.43, 319.85
434.37, 7.44, 319.18
436.51, 7.44, 318.28
441.60, 7.29, 316.13
427.29, 6.99, 322.04
427.58, 7.01, 321.91
427.90, 7.04, 321.77
428.23, 7.07, 321.63
428.59, 7.10, 321.47
428.98, 7.14, 321.30
429.41, 7.18, 321.12
429.93, 7.22, 320.89
430.58, 7.25, 320.61
431.34, 7.28, 320.28
432.33, 7.30, 319.84
432.70, 7.43, 319.69
434.32, 7.44, 318.98
436.46, 7.44, 318.04
441.60, 7.28, 315.80
427.25, 6.99, 321.95
427.55, 7.01, 321.82
427.87, 7.04, 321.67
428.20, 7.07, 321.53
428.55, 7.10, 321.36
428.95, 7.14, 321.19
429.38, 7.18, 320.99
429.88, 7.22, 320.76
430.53, 7.25, 320.47
431.29, 7.28, 320.13
432.33, 7.29, 319.66
432.64, 7.43, 319.52
434.25, 7.44, 318.79
436.41, 7.44, 317.81
441.58, 7.28, 315.46
¯427.21, 6.99, 321.87
427.51, 7.01, 321.73
427.84, 7.03, 321.57
428.16, 7.07, 321.42
428.52, 7.10, 321.25
428.91, 7.13, 321.07
429.34, 7.17, 320.87
429.84, 7.22, 320.64
430.49, 7.24, 320.33
431.24, 7.28, 319.98
432.27, 7.30, 319.49
432.58, 7.43, 319.35
434.19, 7.44, 318.59
436.36, 7.44, 317.58
441.56, 7.28, 315.13
427.18, 6.99, 321.78
427.48, 7.01, 321.63
427.80, 7.03, 321.48
428.13, 7.06, 321.32
428.48, 7.10, 321.15
428.87, 7.13, 320.96
429.30, 7.17, 320.75
429.79, 7.22, 320.51
430.44, 7.25, 320.19
431.18, 7.28, 319.83
432.20, 7.30, 319.33
432.51, 7.44, 319.19
434.12, 7.44, 318.40
436.29, 7.44, 317.34
441.53, 7.27, 314.79
427.14, 7.00, 321.69
427.44, 7.01, 321.54
427.76, 7.03, 321.38
428.09, 7.06, 321.21
428.44, 7.10, 321.04
428.83, 7.13, 320.84
429.26, 7.17, 320.63
429.74, 7.22, 320.38
430.38, 7.25, 320.06
431.13, 7.28, 319.68
432.13, 7.30, 319.18
432.44, 7.44, 319.02
434.05, 7.44, 318.21
436.23, 7.44, 317.11
441.49, 7.27, 314.46
427.10, 7.00, 321.61
427.40, 7.01, 321.45
427.73, 7.03, 321.28
428.05, 7.06, 321.11
428.40, 7.09, 320.93
428.79, 7.13, 320.73
¯429.21, 7.17, 320.50
429.69, 7.22, 320.26
430.32, 7.25, 319.93
431.07, 7.28, 319.54
432.06, 7.30, 319.02
432.45, 7.43, 318.82
433.97, 7.44, 318.02
436.17, 7.44, 316.88
441.48, 7.26, 314.10
427.06, 7.00, 321.52
427.36, 7.01, 321.36
427.68, 7.03, 321.18
428.01, 7.06, 321.01
428.36, 7.09, 320.82
428.75, 7.13, 320.61
429.17, 7.17, 320.38
429.64, 7.21, 320.13
430.27, 7.25, 319.79
431.01, 7.28, 319.39
431.98, 7.30, 318.86
432.45, 7.42, 318.61
433.90, 7.44, 317.83
436.12, 7.44, 316.63
441.46, 7.26, 313.74
427.02, 7.00, 321.44
427.31, 7.01, 321.27
427.64, 7.03, 321.09
427.97, 7.06, 320.91
428.32, 7.09, 320.71
428.70, 7.13, 320.50
429.12, 7.17, 320.26
429.59, 7.21, 320.00
430.20, 7.25, 319.66
430.95, 7.28, 319.24
431.91, 7.30, 318.71
432.45, 7.41, 318.41
433.82, 7.44, 317.64
436.06, 7.44, 316.39
441.44, 7.25, 313.39
426.97, 6.99, 321.35
427.27, 7.01, 321.18
427.59, 7.03, 320.99
427.92, 7.06, 320.80
428.27, 7.09, 320.60
428.65, 7.13, 320.38
429.07, 7.17, 320.14
429.54, 7.21, 319.88
430.14, 7.25, 319.53
430.88, 7.28, 319.10
431.82, 7.30, 318.56
432.45, 7.40, 318.19
¯433.74, 7.44, 317.45
435.98, 7.44, 316.16
441.40, 7.24, 313.04
426.93, 6.99, 321.27
427.22, 7.01, 321.09
427.54, 7.03, 320.90
427.88, 7.05, 320.70
428.22, 7.09, 320.50
428.60, 7.12, 320.27
429.01, 7.17, 320.03
429.48, 7.21, 319.75
430.07, 7.25, 319.40
430.81, 7.28, 318.96
431.74, 7.31, 318.41
432.46, 7.39, 317.98
433.65, 7.44, 317.27
435.89, 7.43, 315.93
441.34, 7.24, 312.69
426.88, 6.99, 321.18
427.18, 7.01, 321.00
427.49, 7.03, 320.81
427.83, 7.05, 320.60
428.18, 7.09, 320.39
428.55, 7.12, 320.16
428.96, 7.16, 319.91
429.43, 7.21, 319.62
430.00, 7.25, 319.27
430.74, 7.28, 318.81
431.65, 7.31, 318.26
432.47, 7.38, 317.76
433.56, 7.44, 317.09
435.83, 7.43, 315.69
441.29, 7.23, 312.33
426.84, 6.99, 321.10
427.13, 7.01, 320.92
427.44, 7.03, 320.72
427.78, 7.05, 320.50
428.13, 7.08, 320.28
428.50, 7.12, 320.05
428.90, 7.16, 319.79
429.37, 7.21, 319.50
429.93, 7.25, 319.14
430.67, 7.28, 318.67
431.57, 7.31, 318.10
432.48, 7.36, 317.53
433.46, 7.44, 316.90
435.76, 7.43, 315.45
441.22, 7.22, 311.99
426.79, 6.99, 321.02
427.08, 7.01, 320.83
427.39, 7.03, 320.62
¯427.74, 7.05, 320.40
428.07, 7.08, 320.18
428.44, 7.12, 319.94
428.84, 7.16, 319.68
429.31, 7.20, 319.37
429.86, 7.25, 319.01
430.59, 7.28, 318.53
431.49, 7.30, 317.95
432.49, 7.35, 317.29
433.38, 7.44, 316.72
435.68, 7.42, 315.21
441.14, 7.22, 311.64
426.74, 6.99, 320.93
427.03, 7.01, 320.74
427.34, 7.03, 320.53
427.68, 7.05, 320.30
428.02, 7.08, 320.08
428.38, 7.12, 319.83
428.78, 7.16, 319.56
429.25, 7.20, 319.25
429.79, 7.25, 318.89
430.52, 7.27, 318.39
431.40, 7.30, 317.80
432.51, 7.33, 317.05
433.28, 7.44, 316.54
435.57, 7.42, 314.99
441.05, 7.21, 311.30
426.69, 6.99, 320.85
426.97, 7.01, 320.66
427.28, 7.03, 320.44
427.61, 7.05, 320.21
427.96, 7.08, 319.97
428.32, 7.12, 319.72
428.72, 7.16, 319.45
429.18, 7.20, 319.13
429.71, 7.24, 318.76
430.43, 7.27, 318.26
431.31, 7.30, 317.65
432.52, 7.32, 316.81
433.17, 7.44, 316.36
435.45, 7.42, 314.78
440.95, 7.20, 310.96
426.64, 6.99, 320.77
426.92, 7.01, 320.57
427.22, 7.03, 320.36
427.55, 7.05, 320.13
427.90, 7.08, 319.87
428.26, 7.11, 319.62
428.66, 7.16, 319.33
429.12, 7.20, 319.00
429.64, 7.24, 318.63
¯430.34, 7.27, 318.13
431.22, 7.30, 317.50
432.50, 7.31, 316.59
433.07, 7.44, 316.18
435.33, 7.42, 314.56
440.84, 7.20, 310.63
426.59, 6.99, 320.69
426.86, 7.01, 320.49
427.16, 7.03, 320.27
427.48, 7.05, 320.04
427.84, 7.07, 319.77
428.20, 7.11, 319.51
428.59, 7.15, 319.22
429.05, 7.19, 318.88
429.57, 7.24, 318.50
430.25, 7.27, 318.00
431.13, 7.30, 317.35
432.39, 7.31, 316.43
432.95, 7.44, 316.01
435.21, 7.42, 314.35
440.71, 7.19, 310.30
426.53, 6.99, 320.62
426.81, 7.00, 320.41
427.10, 7.03, 320.19
427.41, 7.05, 319.95
427.78, 7.07, 319.67
428.13, 7.11, 319.40
428.52, 7.15, 319.11
428.98, 7.19, 318.76
429.49, 7.24, 318.37
430.15, 7.27, 317.87
431.03, 7.30, 317.21
432.28, 7.31, 316.26
432.84, 7.44, 315.84
435.08, 7.41, 314.14
440.58, 7.19, 309.98
426.48, 6.99, 320.54
426.75, 7.00, 320.33
427.03, 7.03, 320.11
427.34, 7.05, 319.86
427.71, 7.07, 319.57
428.07, 7.11, 319.30
428.46, 7.15, 318.99
428.91, 7.19, 318.64
429.41, 7.24, 318.25
430.06, 7.27, 317.74
430.93, 7.30, 317.07
432.17, 7.30, 316.10
432.72, 7.44, 315.67
434.96, 7.41, 313.92
440.43, 7.18, 309.66
¯426.42, 6.99, 320.46
426.68, 7.00, 320.25
426.96, 7.03, 320.03
427.27, 7.05, 319.78
427.64, 7.07, 319.48
428.00, 7.10, 319.19
428.39, 7.14, 318.88
428.84, 7.18, 318.52
429.32, 7.23, 318.13
429.96, 7.27, 317.62
430.82, 7.30, 316.93
432.05, 7.30, 315.94
432.64, 7.43, 315.47
434.83, 7.41, 313.71
440.28, 7.17, 309.34
426.36, 6.98, 320.38
426.62, 7.00, 320.17
426.89, 7.03, 319.95
427.20, 7.05, 319.70
427.56, 7.07, 319.39
427.93, 7.10, 319.09
428.32, 7.14, 318.77
428.76, 7.18, 318.40
429.23, 7.23, 318.02
429.86, 7.27, 317.50
430.71, 7.30, 316.79
431.93, 7.30, 315.78
432.63, 7.41, 315.21
434.68, 7.41, 313.51
438.08, 7.35, 310.71
426.30, 6.98, 320.31
426.55, 7.00, 320.10
426.82, 7.03, 319.87
427.12, 7.05, 319.61
427.48, 7.07, 319.31
427.86, 7.10, 318.99
428.24, 7.14, 318.66
428.68, 7.18, 318.29
429.14, 7.23, 317.90
429.76, 7.27, 317.38
430.60, 7.30, 316.66
431.81, 7.30, 315.63
432.63, 7.40, 314.93
434.53, 7.40, 313.32
437.95, 7.34, 310.42
426.24, 6.98, 320.24
426.48, 7.00, 320.02
426.75, 7.03, 319.79
427.05, 7.05, 319.53
427.40, 7.07, 319.22
427.79, 7.09, 318.88
¯428.17, 7.13, 318.55
428.59, 7.18, 318.18
429.04, 7.23, 317.79
429.65, 7.27, 317.25
430.49, 7.30, 316.53
431.68, 7.30, 315.48
432.63, 7.38, 314.66
434.39, 7.40, 313.12
437.82, 7.33, 310.12
426.17, 6.98, 320.17
426.41, 7.01, 319.95
426.68, 7.03, 319.71
426.97, 7.05, 319.45
427.32, 7.07, 319.14
427.71, 7.09, 318.79
428.09, 7.13, 318.44
428.50, 7.18, 318.08
428.95, 7.23, 317.67
429.55, 7.27, 317.13
430.37, 7.29, 316.40
431.55, 7.30, 315.34
432.63, 7.36, 314.36
434.24, 7.40, 312.92
437.67, 7.33, 309.84
426.11, 6.98, 320.10
426.34, 7.01, 319.88
426.60, 7.03, 319.64
426.89, 7.05, 319.37
427.24, 7.07, 319.05
427.62, 7.09, 318.70
428.01, 7.13, 318.34
428.41, 7.17, 317.97
428.85, 7.23, 317.56
429.45, 7.27, 317.01
430.25, 7.29, 316.27
431.42, 7.29, 315.19
432.65, 7.33, 314.06
434.09, 7.39, 312.72
437.49, 7.32, 309.58
426.04, 6.98, 320.03
426.27, 7.01, 319.81
426.53, 7.03, 319.57
426.81, 7.05, 319.29
427.15, 7.07, 318.97
427.53, 7.09, 318.61
427.93, 7.12, 318.24
428.32, 7.17, 317.86
428.76, 7.22, 317.45
429.35, 7.26, 316.89
430.13, 7.29, 316.15
431.28, 7.29, 315.05
¯432.66, 7.31, 313.74
433.92, 7.39, 312.54
437.30, 7.32, 309.34
425.97, 6.98, 319.97
426.20, 7.00, 319.74
426.45, 7.03, 319.49
426.73, 7.05, 319.22
427.07, 7.07, 318.89
427.44, 7.09, 318.52
427.84, 7.12, 318.14
428.22, 7.17, 317.76
428.66, 7.22, 317.34
429.24, 7.26, 316.77
430.00, 7.29, 316.02
431.14, 7.29, 314.92
432.67, 7.28, 313.42
433.76, 7.39, 312.36
437.09, 7.31, 309.10
425.90, 6.98, 319.90
426.13, 7.00, 319.67
426.38, 7.03, 319.42
426.65, 7.05, 319.14
426.98, 7.07, 318.81
427.35, 7.09, 318.44
427.75, 7.12, 318.04
428.13, 7.17, 317.66
428.56, 7.22, 317.23
429.13, 7.26, 316.65
429.87, 7.29, 315.91
430.99, 7.29, 314.78
432.63, 7.26, 313.14
433.58, 7.38, 312.18
436.88, 7.31, 308.87
425.83, 6.98, 319.84
426.05, 7.00, 319.60
426.30, 7.03, 319.35
426.57, 7.05, 319.07
426.90, 7.07, 318.73
427.26, 7.09, 318.36
427.64, 7.12, 317.96
428.03, 7.16, 317.56
428.45, 7.22, 317.12
429.02, 7.25, 316.53
429.74, 7.29, 315.79
430.84, 7.29, 314.66
432.47, 7.26, 312.98
433.41, 7.38, 312.01
436.68, 7.30, 308.62
425.75, 6.98, 319.78
425.98, 7.00, 319.54
426.22, 7.03, 319.28
¯426.49, 7.05, 319.00
426.81, 7.07, 318.66
427.16, 7.09, 318.28
427.53, 7.12, 317.89
427.93, 7.16, 317.46
428.35, 7.21, 317.02
428.91, 7.25, 316.42
429.60, 7.29, 315.69
430.69, 7.29, 314.53
432.30, 7.26, 312.82
433.22, 7.38, 311.84
436.47, 7.29, 308.39
425.67, 6.99, 319.73
425.90, 7.00, 319.47
426.14, 7.03, 319.21
426.40, 7.05, 318.93
