ŸVERSION 0.7
FIELDS x y z
SIZE 8 8 8
TYPE F F F
COUNT 1 1 1
WIDTH 2271
HEIGHT 1
VIEWPOINT 396.98, 14.13, 247.21 1 382.65, 8.80, 261.04
POINTS 2271
DATA ascii
376.41, 8.25, 262.02
375.71, 8.35, 262.30
363.29, 8.04, 267.27
376.52, 8.65, 261.99
376.52, 8.78, 261.99
376.52, 8.91, 262.00
376.52, 9.04, 262.00
380.79, 7.08, 260.30
380.60, 7.08, 260.38
380.41, 7.09, 260.46
380.20, 7.10, 260.54
379.97, 7.10, 260.64
379.73, 7.11, 260.74
379.46, 7.12, 260.86
378.72, 7.00, 261.16
378.36, 7.01, 261.31
377.97, 7.02, 261.47
377.52, 7.02, 261.66
377.03, 7.04, 261.86
376.48, 7.05, 262.09
375.85, 7.07, 262.36
376.34, 7.29, 262.16
376.35, 7.43, 262.16
376.35, 7.57, 262.17
376.35, 7.70, 262.17
376.35, 7.84, 262.18
376.44, 7.98, 262.14
376.44, 8.11, 262.15
376.44, 8.25, 262.15
375.85, 8.35, 262.40
363.73, 8.04, 267.44
376.55, 8.65, 262.12
376.56, 8.78, 262.12
376.56, 8.91, 262.12
¯376.56, 9.04, 262.13
380.82, 7.08, 260.36
380.64, 7.09, 260.44
380.45, 7.09, 260.52
380.24, 7.10, 260.61
380.01, 7.10, 260.71
379.77, 7.11, 260.81
379.50, 7.12, 260.93
378.78, 7.00, 261.24
378.42, 7.01, 261.39
378.03, 7.02, 261.56
377.59, 7.03, 261.75
377.11, 7.04, 261.96
376.57, 7.05, 262.20
375.95, 7.07, 262.47
375.23, 7.09, 262.78
374.48, 7.12, 263.10
373.59, 7.16, 263.49
372.51, 7.20, 263.96
371.11, 7.23, 264.57
376.47, 7.98, 262.27
376.48, 8.11, 262.27
376.48, 8.24, 262.28
375.99, 8.35, 262.49
375.87, 8.48, 262.55
376.59, 8.64, 262.24
376.59, 8.77, 262.25
376.59, 8.90, 262.25
376.59, 9.03, 262.26
380.85, 7.08, 260.41
380.68, 7.09, 260.49
380.49, 7.09, 260.58
380.28, 7.10, 260.67
380.06, 7.10, 260.77
379.82, 7.11, 260.88
379.55, 7.12, 261.00
378.83, 7.00, 261.32
378.48, 7.01, 261.48
378.10, 7.02, 261.65
377.66, 7.03, 261.85
377.18, 7.04, 262.06
376.65, 7.06, 262.30
376.04, 7.07, 262.58
375.34, 7.09, 262.90
374.58, 7.12, 263.24
373.71, 7.16, 263.63
372.65, 7.20, 264.11
371.27, 7.23, 264.73
375.68, 7.89, 262.77
375.68, 8.03, 262.77
375.68, 8.18, 262.78
¯375.68, 8.33, 262.78
376.62, 8.51, 262.37
376.62, 8.64, 262.37
376.62, 8.77, 262.38
376.62, 8.90, 262.38
376.62, 9.03, 262.38
380.89, 7.08, 260.47
380.71, 7.09, 260.55
380.52, 7.09, 260.64
380.32, 7.10, 260.74
380.10, 7.11, 260.84
379.86, 7.11, 260.95
379.60, 7.12, 261.07
379.32, 7.13, 261.21
378.54, 7.01, 261.56
378.16, 7.02, 261.74
377.73, 7.03, 261.94
377.26, 7.04, 262.16
376.74, 7.06, 262.41
376.14, 7.08, 262.69
375.45, 7.09, 263.01
374.69, 7.12, 263.37
373.83, 7.16, 263.77
372.78, 7.20, 264.26
374.95, 7.64, 263.27
375.72, 7.88, 262.91
375.72, 8.03, 262.92
375.72, 8.17, 262.92
375.72, 8.32, 262.93
376.65, 8.50, 262.50
376.66, 8.63, 262.50
376.66, 8.76, 262.50
376.66, 8.90, 262.51
376.66, 9.03, 262.51
380.93, 7.08, 260.53
380.75, 7.09, 260.61
380.56, 7.09, 260.70
380.36, 7.10, 260.80
380.14, 7.11, 260.91
379.91, 7.11, 261.02
379.65, 7.12, 261.15
379.37, 7.13, 261.28
378.60, 7.01, 261.65
378.23, 7.02, 261.83
377.81, 7.03, 262.03
377.34, 7.04, 262.26
376.83, 7.06, 262.51
376.24, 7.08, 262.80
375.56, 7.10, 263.13
374.79, 7.12, 263.50
373.96, 7.16, 263.90
¯372.92, 7.20, 264.40
375.76, 7.73, 263.05
376.15, 7.91, 262.87
376.17, 8.06, 262.86
375.76, 8.17, 263.06
375.76, 8.31, 263.07
376.69, 8.50, 262.63
376.69, 8.63, 262.63
376.69, 8.76, 262.63
376.69, 8.89, 262.64
376.69, 9.02, 262.64
380.96, 7.08, 260.58
380.79, 7.09, 260.67
380.60, 7.10, 260.76
380.41, 7.10, 260.86
380.19, 7.11, 260.97
379.96, 7.12, 261.09
379.70, 7.12, 261.22
379.42, 7.13, 261.36
378.67, 7.02, 261.73
378.29, 7.02, 261.92
377.88, 7.03, 262.13
377.42, 7.05, 262.36
376.92, 7.07, 262.61
376.34, 7.08, 262.90
375.66, 7.10, 263.24
374.90, 7.12, 263.62
374.09, 7.17, 264.03
376.00, 7.60, 263.09
375.80, 7.72, 263.19
376.44, 7.93, 262.88
369.88, 7.50, 266.15
374.93, 8.26, 263.65
376.72, 8.49, 262.76
376.72, 8.62, 262.76
376.73, 8.76, 262.76
376.73, 8.89, 262.77
376.73, 9.02, 262.77
381.00, 7.09, 260.64
380.83, 7.09, 260.73
380.65, 7.10, 260.82
380.45, 7.10, 260.92
380.24, 7.11, 261.03
380.00, 7.12, 261.15
379.75, 7.12, 261.29
379.48, 7.13, 261.43
379.17, 7.14, 261.59
378.36, 7.03, 262.00
377.95, 7.04, 262.22
377.50, 7.05, 262.45
377.01, 7.07, 262.71
¯376.43, 7.08, 263.01
375.77, 7.10, 263.35
375.01, 7.13, 263.75
374.22, 7.17, 264.16
376.53, 7.66, 262.97
371.91, 7.24, 265.36
370.82, 7.34, 265.93
370.08, 7.50, 266.32
376.76, 8.35, 262.88
376.76, 8.49, 262.89
376.76, 8.62, 262.89
376.76, 8.75, 262.89
376.76, 8.88, 262.90
376.76, 9.02, 262.90
381.04, 7.09, 260.69
380.87, 7.09, 260.78
380.69, 7.10, 260.88
380.49, 7.10, 260.98
380.28, 7.11, 261.10
380.05, 7.12, 261.22
379.80, 7.13, 261.35
379.53, 7.13, 261.50
379.23, 7.14, 261.66
378.43, 7.03, 262.09
378.03, 7.04, 262.31
377.58, 7.05, 262.55
377.10, 7.07, 262.81
376.53, 7.09, 263.11
375.88, 7.11, 263.46
375.14, 7.13, 263.86
374.35, 7.17, 264.28
373.36, 7.21, 264.82
372.07, 7.24, 265.51
371.00, 7.34, 266.08
370.27, 7.50, 266.48
376.79, 8.35, 263.01
376.79, 8.48, 263.02
376.79, 8.61, 263.02
376.79, 8.75, 263.03
376.80, 8.88, 263.03
376.80, 9.01, 263.03
381.08, 7.09, 260.74
380.91, 7.09, 260.84
380.73, 7.10, 260.94
380.54, 7.10, 261.04
380.33, 7.11, 261.16
380.10, 7.12, 261.29
379.86, 7.13, 261.42
379.59, 7.14, 261.57
379.29, 7.14, 261.74
378.96, 7.15, 261.92
¯378.10, 7.04, 262.39
377.66, 7.05, 262.64
377.18, 7.07, 262.90
376.63, 7.09, 263.21
375.99, 7.11, 263.56
375.27, 7.13, 263.97
374.48, 7.17, 264.41
373.50, 7.21, 264.95
372.24, 7.24, 265.65
371.19, 7.34, 266.24
370.47, 7.50, 266.65
369.19, 7.64, 267.36
376.83, 8.34, 263.15
376.83, 8.48, 263.15
376.83, 8.61, 263.15
376.83, 8.74, 263.16
376.83, 8.88, 263.16
376.83, 9.01, 263.17
381.11, 7.09, 260.80
380.95, 7.09, 260.89
380.77, 7.10, 260.99
380.58, 7.11, 261.10
380.38, 7.11, 261.22
380.15, 7.12, 261.35
379.91, 7.13, 261.49
379.64, 7.14, 261.64
379.35, 7.15, 261.81
379.03, 7.16, 262.00
378.18, 7.04, 262.48
377.74, 7.05, 262.73
377.27, 7.07, 263.00
376.73, 7.09, 263.31
376.11, 7.11, 263.67
375.40, 7.14, 264.08
374.61, 7.17, 264.53
373.65, 7.21, 265.08
372.43, 7.25, 265.78
371.38, 7.34, 266.39
370.66, 7.50, 266.81
369.42, 7.64, 267.52
376.86, 8.60, 263.29
376.86, 8.74, 263.29
376.87, 8.87, 263.30
376.87, 9.01, 263.30
381.15, 7.09, 260.85
380.99, 7.09, 260.95
380.82, 7.10, 261.05
380.63, 7.11, 261.16
380.42, 7.11, 261.28
380.20, 7.12, 261.41
379.96, 7.13, 261.56
¯379.70, 7.14, 261.71
379.41, 7.15, 261.88
379.09, 7.16, 262.07
378.25, 7.04, 262.57
377.83, 7.06, 262.82
377.36, 7.08, 263.09
376.84, 7.10, 263.41
376.22, 7.12, 263.77
375.52, 7.14, 264.19
374.74, 7.18, 264.65
373.80, 7.21, 265.21
372.63, 7.25, 265.90
371.57, 7.34, 266.53
370.85, 7.50, 266.96
369.59, 7.63, 267.71
375.21, 8.55, 264.42
376.12, 8.72, 263.89
376.17, 8.87, 263.86
376.23, 9.02, 263.84
381.19, 7.09, 260.90
381.03, 7.10, 261.00
380.86, 7.10, 261.11
380.67, 7.11, 261.22
380.47, 7.11, 261.34
380.25, 7.12, 261.48
380.02, 7.13, 261.62
379.76, 7.14, 261.78
379.47, 7.15, 261.96
379.16, 7.16, 262.15
378.81, 7.17, 262.36
377.91, 7.06, 262.91
377.45, 7.08, 263.19
376.94, 7.10, 263.50
376.34, 7.12, 263.87
375.65, 7.15, 264.29
374.87, 7.18, 264.77
373.95, 7.22, 265.33
372.82, 7.26, 266.02
371.76, 7.34, 266.67
371.04, 7.50, 267.12
369.72, 7.62, 267.93
374.91, 8.37, 264.79
375.27, 8.55, 264.57
376.19, 8.72, 264.02
376.25, 8.87, 263.99
376.28, 9.01, 263.97
381.23, 7.09, 260.95
381.07, 7.10, 261.05
380.90, 7.10, 261.16
380.72, 7.11, 261.28
380.52, 7.12, 261.40
¯380.31, 7.12, 261.54
380.07, 7.13, 261.69
379.82, 7.14, 261.85
379.54, 7.15, 262.03
379.22, 7.16, 262.22
378.88, 7.17, 262.44
377.99, 7.06, 263.00
377.54, 7.08, 263.28
377.04, 7.10, 263.60
376.45, 7.12, 263.97
375.78, 7.15, 264.39
375.00, 7.18, 264.89
374.10, 7.22, 265.46
373.01, 7.26, 266.14
371.95, 7.35, 266.82
371.24, 7.50, 267.27
369.85, 7.62, 268.15
375.26, 8.37, 264.77
376.10, 8.56, 264.24
376.27, 8.71, 264.14
376.32, 8.86, 264.11
376.32, 9.01, 264.12
381.28, 7.09, 261.00
381.12, 7.10, 261.11
380.95, 7.10, 261.22
380.77, 7.11, 261.34
380.57, 7.12, 261.46
380.36, 7.12, 261.60
380.13, 7.13, 261.75
379.88, 7.14, 261.92
379.60, 7.15, 262.10
379.29, 7.16, 262.30
378.95, 7.17, 262.52
378.57, 7.18, 262.77
377.64, 7.08, 263.37
377.14, 7.10, 263.70
376.57, 7.13, 264.06
375.91, 7.15, 264.49
375.14, 7.18, 264.99
374.25, 7.22, 265.58
373.20, 7.27, 266.26
372.14, 7.35, 266.96
371.44, 7.50, 267.41
369.98, 7.61, 268.37
375.32, 8.37, 264.92
376.29, 8.56, 264.30
376.34, 8.71, 264.27
376.39, 8.86, 264.24
376.34, 9.00, 264.28
381.32, 7.09, 261.05
381.16, 7.10, 261.16
¯381.00, 7.10, 261.27
380.82, 7.11, 261.39
380.62, 7.12, 261.52
380.41, 7.12, 261.66
380.19, 7.13, 261.81
379.94, 7.14, 261.98
379.66, 7.15, 262.17
379.36, 7.16, 262.37
379.02, 7.17, 262.59
378.65, 7.19, 262.85
377.73, 7.08, 263.46
377.24, 7.10, 263.79
376.69, 7.13, 264.16
376.04, 7.16, 264.59
375.29, 7.19, 265.10
374.41, 7.22, 265.69
373.39, 7.27, 266.37
372.32, 7.35, 267.09
371.64, 7.50, 267.55
370.12, 7.60, 268.57
375.21, 8.19, 265.19
376.03, 8.39, 264.64
376.36, 8.56, 264.43
376.42, 8.71, 264.40
376.44, 8.85, 264.39
376.36, 9.00, 264.44
381.36, 7.09, 261.10
381.21, 7.10, 261.21
381.04, 7.10, 261.32
380.86, 7.11, 261.45
380.67, 7.12, 261.58
380.47, 7.13, 261.72
380.24, 7.13, 261.88
380.00, 7.14, 262.05
379.73, 7.15, 262.23
379.43, 7.16, 262.44
379.10, 7.17, 262.67
378.73, 7.19, 262.93
377.82, 7.08, 263.55
377.34, 7.11, 263.88
376.80, 7.13, 264.25
376.17, 7.16, 264.69
375.43, 7.19, 265.20
374.57, 7.23, 265.80
373.58, 7.28, 266.48
372.50, 7.35, 267.23
371.79, 7.49, 267.73
370.29, 7.60, 268.77
375.37, 8.18, 265.28
376.36, 8.40, 264.60
376.44, 8.55, 264.56
¯376.49, 8.70, 264.52
376.47, 8.85, 264.54
376.38, 9.00, 264.61
381.40, 7.09, 261.15
381.25, 7.10, 261.26
381.09, 7.11, 261.38
380.91, 7.11, 261.50
380.73, 7.12, 261.64
380.52, 7.13, 261.78
380.30, 7.14, 261.94
380.06, 7.14, 262.11
379.79, 7.15, 262.30
379.50, 7.16, 262.51
379.17, 7.18, 262.74
378.81, 7.19, 263.00
378.40, 7.20, 263.30
377.45, 7.11, 263.97
376.92, 7.14, 264.34
376.30, 7.16, 264.79
375.57, 7.19, 265.30
374.74, 7.23, 265.90
373.77, 7.28, 266.59
374.46, 7.56, 266.11
374.47, 7.75, 266.11
375.11, 7.98, 265.66
375.43, 8.18, 265.44
376.46, 8.40, 264.72
376.51, 8.55, 264.68
376.55, 8.70, 264.66
376.49, 8.84, 264.71
376.40, 8.99, 264.78
381.45, 7.09, 261.20
381.30, 7.10, 261.31
381.14, 7.11, 261.43
380.96, 7.11, 261.55
380.78, 7.12, 261.69
380.58, 7.13, 261.84
380.36, 7.14, 262.00
380.12, 7.14, 262.18
379.86, 7.15, 262.37
379.57, 7.17, 262.58
379.25, 7.18, 262.82
378.89, 7.19, 263.08
378.48, 7.20, 263.38
377.55, 7.11, 264.06
377.03, 7.14, 264.43
376.43, 7.17, 264.88
375.72, 7.20, 265.40
374.90, 7.24, 266.00
374.76, 7.40, 266.11
374.77, 7.58, 266.11
¯374.78, 7.76, 266.11
375.41, 8.00, 265.65
376.30, 8.23, 265.01
376.53, 8.39, 264.85
376.59, 8.54, 264.81
376.60, 8.69, 264.81
376.51, 8.84, 264.88
376.13, 9.00, 265.16
381.49, 7.10, 261.25
381.34, 7.10, 261.36
381.18, 7.11, 261.48
381.01, 7.11, 261.61
380.83, 7.12, 261.75
380.63, 7.13, 261.90
380.42, 7.14, 262.06
380.18, 7.15, 262.24
379.92, 7.16, 262.43
379.64, 7.17, 262.65
379.32, 7.18, 262.89
378.97, 7.19, 263.15
378.57, 7.20, 263.45
377.66, 7.11, 264.14
377.15, 7.14, 264.53
376.55, 7.17, 264.97
375.86, 7.20, 265.50
375.06, 7.24, 266.10
375.00, 7.41, 266.16
375.07, 7.60, 266.11
375.08, 7.78, 266.11
375.48, 7.99, 265.82
376.56, 8.23, 265.01
376.61, 8.39, 264.98
376.66, 8.54, 264.94
376.62, 8.69, 264.98
376.53, 8.84, 265.05
376.29, 8.99, 265.24
381.53, 7.10, 261.30
381.39, 7.10, 261.41
381.23, 7.11, 261.53
381.07, 7.11, 261.66
380.88, 7.12, 261.80
380.69, 7.13, 261.95
380.48, 7.14, 262.12
380.24, 7.15, 262.30
379.99, 7.16, 262.50
379.71, 7.17, 262.71
379.40, 7.18, 262.96
379.05, 7.19, 263.23
378.66, 7.21, 263.53
378.25, 7.23, 263.85
377.26, 7.14, 264.61
¯376.68, 7.17, 265.06
376.00, 7.20, 265.59
375.22, 7.24, 266.20
374.99, 7.39, 266.39
375.11, 7.58, 266.30
375.40, 7.79, 266.08
375.54, 7.98, 265.98
376.63, 8.23, 265.14
376.69, 8.38, 265.11
376.71, 8.53, 265.09
376.64, 8.68, 265.15
376.56, 8.83, 265.22
376.36, 8.99, 265.38
381.58, 7.10, 261.34
381.44, 7.10, 261.46
381.28, 7.11, 261.58
381.12, 7.11, 261.71
380.94, 7.12, 261.85
380.75, 7.13, 262.01
380.54, 7.14, 262.18
380.31, 7.15, 262.36
380.06, 7.16, 262.56
379.78, 7.17, 262.78
379.47, 7.18, 263.03
379.13, 7.19, 263.30
378.75, 7.21, 263.60
378.34, 7.23, 263.93
377.38, 7.15, 264.70
376.81, 7.18, 265.15
376.15, 7.21, 265.69
375.38, 7.25, 266.30
374.51, 7.30, 267.00
375.09, 7.56, 266.54
375.53, 7.79, 266.20
376.57, 8.06, 265.38
376.71, 8.22, 265.27
376.76, 8.38, 265.24
376.75, 8.53, 265.25
376.67, 8.67, 265.33
376.37, 8.83, 265.57
376.42, 8.98, 265.53
381.62, 7.10, 261.39
381.48, 7.10, 261.50
381.33, 7.11, 261.63
381.17, 7.12, 261.76
380.99, 7.12, 261.91
380.80, 7.13, 262.06
380.60, 7.14, 262.23
380.37, 7.15, 262.42
380.12, 7.16, 262.62
379.85, 7.17, 262.85
¯379.55, 7.18, 263.10
379.21, 7.19, 263.37
378.84, 7.21, 263.68
378.44, 7.23, 264.01
377.99, 7.26, 264.38
376.94, 7.18, 265.24
376.29, 7.21, 265.78
375.53, 7.25, 266.40
374.69, 7.30, 267.10
375.29, 7.57, 266.61
375.59, 7.78, 266.37
376.73, 8.06, 265.44
376.79, 8.22, 265.41
376.83, 8.37, 265.38
376.78, 8.52, 265.43
376.69, 8.67, 265.50
376.43, 8.82, 265.72
376.46, 8.98, 265.70
381.67, 7.10, 261.43
381.53, 7.10, 261.55
381.38, 7.11, 261.68
381.22, 7.12, 261.81
381.05, 7.12, 261.96
380.86, 7.13, 262.12
380.66, 7.14, 262.29
380.44, 7.15, 262.48
380.19, 7.16, 262.68
379.93, 7.17, 262.91
379.63, 7.18, 263.16
379.30, 7.19, 263.44
378.94, 7.21, 263.75
378.54, 7.23, 264.08
378.10, 7.26, 264.46
377.07, 7.18, 265.33
376.43, 7.21, 265.87
375.69, 7.25, 266.50
374.87, 7.30, 267.19
375.58, 7.59, 266.60
376.50, 7.87, 265.83
376.81, 8.05, 265.58
376.87, 8.21, 265.54
376.88, 8.36, 265.53
376.80, 8.51, 265.60
376.44, 8.66, 265.91
376.47, 8.82, 265.89
376.40, 8.98, 265.96
381.72, 7.10, 261.48
381.58, 7.10, 261.60
381.43, 7.11, 261.73
381.27, 7.12, 261.86
381.10, 7.12, 262.01
¯380.92, 7.13, 262.17
380.72, 7.14, 262.35
380.50, 7.15, 262.54
380.26, 7.16, 262.74
380.00, 7.17, 262.97
379.71, 7.18, 263.23
379.38, 7.19, 263.51
379.03, 7.21, 263.82
378.64, 7.23, 264.16
378.20, 7.26, 264.54
377.19, 7.18, 265.42
376.57, 7.22, 265.96
375.85, 7.25, 266.59
375.05, 7.31, 267.29
375.65, 7.58, 266.78
376.83, 7.89, 265.76
376.89, 8.05, 265.71
376.94, 8.20, 265.67
376.91, 8.36, 265.71
376.83, 8.50, 265.79
376.49, 8.65, 266.09
376.42, 8.81, 266.15
376.33, 8.98, 266.23
381.76, 7.10, 261.52
381.63, 7.10, 261.64
381.48, 7.11, 261.77
381.33, 7.12, 261.91
381.16, 7.12, 262.06
380.98, 7.13, 262.22
380.78, 7.14, 262.40
380.57, 7.15, 262.60
380.33, 7.16, 262.80
380.07, 7.17, 263.04
379.79, 7.18, 263.29
379.46, 7.20, 263.58
379.12, 7.21, 263.89
378.74, 7.24, 264.23
378.31, 7.26, 264.62
377.83, 7.29, 265.05
376.72, 7.22, 266.04
376.00, 7.26, 266.68
375.58, 7.36, 267.07
375.71, 7.56, 266.95
376.92, 7.88, 265.89
376.97, 8.04, 265.85
377.00, 8.20, 265.82
376.94, 8.35, 265.89
376.85, 8.50, 265.97
376.44, 8.64, 266.34
376.35, 8.81, 266.43
381.81, 7.10, 261.56
¯381.68, 7.11, 261.69
381.53, 7.11, 261.82
381.38, 7.12, 261.96
381.22, 7.13, 262.11
381.04, 7.13, 262.28
380.84, 7.14, 262.46
380.63, 7.15, 262.65
380.40, 7.16, 262.86
380.15, 7.17, 263.10
379.86, 7.18, 263.36
379.55, 7.20, 263.65
379.21, 7.22, 263.96
378.84, 7.24, 264.30
378.42, 7.26, 264.69
377.94, 7.29, 265.13
376.86, 7.22, 266.13
376.16, 7.26, 266.78
375.39, 7.31, 267.48
376.76, 7.69, 266.23
377.00, 7.87, 266.03
377.05, 8.03, 265.98
377.05, 8.19, 265.99
376.96, 8.34, 266.07
376.46, 8.47, 266.54
376.37, 8.64, 266.63
381.86, 7.10, 261.61
381.73, 7.11, 261.73
381.59, 7.11, 261.86
381.44, 7.12, 262.01
381.27, 7.13, 262.16
381.10, 7.13, 262.33
380.91, 7.14, 262.51
380.70, 7.15, 262.71
380.48, 7.16, 262.92
380.22, 7.17, 263.16
379.94, 7.18, 263.42
379.64, 7.20, 263.71
379.31, 7.22, 264.03
378.94, 7.24, 264.38
378.53, 7.26, 264.77
378.06, 7.29, 265.21
377.00, 7.22, 266.21
376.31, 7.26, 266.86
375.57, 7.31, 267.57
376.29, 7.60, 266.90
377.08, 7.87, 266.16
377.12, 8.03, 266.12
377.07, 8.18, 266.18
376.99, 8.33, 266.26
376.39, 8.46, 266.83
381.91, 7.10, 261.65
¯381.78, 7.11, 261.78
381.64, 7.11, 261.91
381.49, 7.12, 262.05
381.33, 7.13, 262.21
381.16, 7.13, 262.38
380.97, 7.14, 262.56
380.77, 7.15, 262.76
380.55, 7.16, 262.98
380.30, 7.17, 263.22
380.02, 7.19, 263.48
379.72, 7.20, 263.78
379.40, 7.22, 264.09
379.04, 7.24, 264.44
378.64, 7.27, 264.84
378.18, 7.30, 265.28
377.66, 7.33, 265.79
376.47, 7.26, 266.95
376.27, 7.40, 267.15
376.43, 7.60, 267.00
376.49, 7.78, 266.94
376.55, 7.95, 266.90
377.10, 8.17, 266.37
376.41, 8.28, 267.04
381.95, 7.10, 261.69
381.83, 7.11, 261.82
381.69, 7.11, 261.95
381.55, 7.12, 262.10
381.39, 7.13, 262.26
381.22, 7.14, 262.43
381.03, 7.14, 262.61
380.83, 7.15, 262.82
380.62, 7.16, 263.03
380.37, 7.17, 263.28
380.11, 7.19, 263.55
379.81, 7.20, 263.84
379.49, 7.22, 264.16
379.14, 7.24, 264.51
378.75, 7.27, 264.91
378.30, 7.30, 265.36
377.79, 7.33, 265.87
376.63, 7.27, 267.03
376.44, 7.41, 267.22
376.51, 7.59, 267.16
376.56, 7.77, 267.11
376.52, 7.93, 267.16
376.43, 8.10, 267.26
369.91, 7.85, 273.78
382.00, 7.10, 261.73
381.88, 7.11, 261.86
381.75, 7.11, 262.00
381.60, 7.12, 262.15
¯381.45, 7.13, 262.30
381.28, 7.14, 262.48
381.10, 7.14, 262.66
380.90, 7.15, 262.87
380.69, 7.16, 263.09
380.45, 7.18, 263.33
380.19, 7.19, 263.61
379.90, 7.20, 263.90
379.59, 7.22, 264.22
379.24, 7.24, 264.58
378.86, 7.27, 264.98
378.42, 7.30, 265.43
377.92, 7.33, 265.94
377.35, 7.37, 266.54
376.52, 7.39, 267.39
376.58, 7.58, 267.33
376.55, 7.75, 267.37
376.46, 7.91, 267.47
375.01, 7.96, 268.97
370.15, 7.84, 273.96
382.05, 7.10, 261.77
381.93, 7.11, 261.90
381.80, 7.11, 262.04
381.66, 7.12, 262.19
381.51, 7.13, 262.35
381.34, 7.14, 262.52
381.16, 7.14, 262.71
380.97, 7.15, 262.92
380.76, 7.17, 263.14
380.53, 7.18, 263.39
380.27, 7.19, 263.66
379.99, 7.20, 263.96
379.68, 7.22, 264.29
379.34, 7.24, 264.65
378.97, 7.27, 265.05
378.54, 7.30, 265.50
378.05, 7.33, 266.02
377.49, 7.37, 266.61
376.59, 7.38, 267.56
376.57, 7.55, 267.59
376.48, 7.72, 267.70
375.12, 7.75, 269.13
375.02, 7.94, 269.25
370.39, 7.84, 274.14
382.10, 7.10, 261.81
381.98, 7.11, 261.94
381.85, 7.11, 262.08
381.72, 7.12, 262.23
381.57, 7.13, 262.40
381.41, 7.14, 262.57
381.23, 7.14, 262.76
¯381.04, 7.15, 262.97
380.84, 7.17, 263.19
380.61, 7.18, 263.44
380.35, 7.19, 263.72
380.08, 7.20, 264.02
379.78, 7.22, 264.35
379.45, 7.25, 264.71
379.08, 7.27, 265.11
378.66, 7.30, 265.57
378.18, 7.34, 266.09
377.63, 7.38, 266.69
376.43, 7.33, 267.99
375.66, 7.39, 268.84
375.06, 7.51, 269.49
375.13, 7.73, 269.42
375.03, 7.92, 269.55
370.64, 7.83, 274.32
382.15, 7.10, 261.85
382.04, 7.11, 261.98
381.91, 7.11, 262.12
381.77, 7.12, 262.28
381.63, 7.13, 262.44
381.47, 7.14, 262.62
381.30, 7.14, 262.81
381.11, 7.16, 263.02
380.91, 7.17, 263.24
380.68, 7.18, 263.50
380.43, 7.19, 263.78
380.16, 7.20, 264.08
379.87, 7.22, 264.41
379.55, 7.25, 264.77
379.19, 7.27, 265.18
378.77, 7.30, 265.64
378.31, 7.34, 266.16
377.78, 7.38, 266.76
377.13, 7.42, 267.48
375.85, 7.39, 268.91
375.04, 7.48, 269.82
375.14, 7.70, 269.73
375.04, 7.90, 269.85
370.88, 7.82, 274.50
368.88, 8.02, 276.75
382.20, 7.10, 261.89
382.09, 7.11, 262.02
381.96, 7.11, 262.16
381.83, 7.12, 262.32
381.69, 7.13, 262.48
381.53, 7.14, 262.66
381.36, 7.15, 262.86
381.18, 7.16, 263.07
380.98, 7.17, 263.30
¯380.76, 7.18, 263.55
380.52, 7.19, 263.83
380.25, 7.21, 264.14
379.97, 7.22, 264.47
379.65, 7.25, 264.83
379.30, 7.27, 265.24
378.89, 7.30, 265.71
378.44, 7.34, 266.23
377.92, 7.38, 266.83
377.29, 7.42, 267.56
376.05, 7.39, 268.99
375.15, 7.47, 270.03
375.14, 7.68, 270.05
372.81, 7.68, 272.72
371.13, 7.82, 274.66
369.36, 8.02, 276.71
382.26, 7.10, 261.92
382.14, 7.11, 262.06
382.02, 7.12, 262.20
381.89, 7.12, 262.36
381.75, 7.13, 262.53
381.60, 7.14, 262.71
381.43, 7.15, 262.91
381.25, 7.16, 263.12
381.06, 7.17, 263.35
380.84, 7.18, 263.60
380.60, 7.19, 263.89
380.34, 7.21, 264.19
380.06, 7.23, 264.52
379.75, 7.25, 264.89
379.41, 7.27, 265.31
379.01, 7.30, 265.77
378.57, 7.34, 266.30
378.06, 7.38, 266.90
377.45, 7.42, 267.63
376.24, 7.40, 269.06
375.38, 7.47, 270.09
374.32, 7.56, 271.34
373.04, 7.67, 272.86
371.48, 7.82, 274.71
369.76, 8.02, 276.76
382.31, 7.10, 261.96
382.19, 7.11, 262.10
382.08, 7.12, 262.24
381.95, 7.12, 262.40
381.81, 7.13, 262.57
381.66, 7.14, 262.75
381.50, 7.15, 262.95
381.32, 7.16, 263.16
381.13, 7.17, 263.40
380.92, 7.18, 263.66
¯380.69, 7.19, 263.94
380.43, 7.21, 264.25
380.16, 7.23, 264.58
379.86, 7.25, 264.95
379.52, 7.28, 265.37
379.13, 7.31, 265.84
378.70, 7.34, 266.37
378.21, 7.38, 266.97
377.61, 7.42, 267.70
376.96, 7.49, 268.49
375.61, 7.47, 270.14
374.57, 7.56, 271.41
373.34, 7.67, 272.91
371.83, 7.82, 274.76
370.15, 8.02, 276.81
382.36, 7.10, 262.00
382.25, 7.11, 262.14
382.13, 7.12, 262.28
382.01, 7.12, 262.44
381.87, 7.13, 262.61
381.72, 7.14, 262.79
381.56, 7.15, 263.00
381.39, 7.16, 263.21
381.21, 7.17, 263.44
381.00, 7.18, 263.71
380.77, 7.19, 263.99
380.53, 7.21, 264.30
380.26, 7.23, 264.64
379.96, 7.25, 265.01
379.63, 7.28, 265.43
379.25, 7.31, 265.90
378.83, 7.34, 266.43
378.35, 7.38, 267.04
377.77, 7.43, 267.76
377.14, 7.49, 268.56
375.82, 7.48, 270.21
374.82, 7.56, 271.47
373.64, 7.68, 272.96
372.17, 7.82, 274.81
370.54, 8.02, 276.86
382.41, 7.10, 262.03
382.30, 7.11, 262.17
382.19, 7.12, 262.32
382.07, 7.12, 262.48
381.93, 7.13, 262.65
381.79, 7.14, 262.84
381.63, 7.15, 263.04
381.47, 7.16, 263.25
381.28, 7.17, 263.49
381.08, 7.18, 263.76
380.86, 7.19, 264.04
¯380.62, 7.21, 264.35
380.35, 7.23, 264.69
380.06, 7.25, 265.07
379.74, 7.28, 265.49
379.38, 7.31, 265.96
378.96, 7.34, 266.49
378.49, 7.38, 267.10
377.94, 7.43, 267.82
377.32, 7.49, 268.62
376.04, 7.48, 270.27
375.07, 7.57, 271.53
373.93, 7.68, 273.00
372.50, 7.82, 274.85
370.93, 8.02, 276.89
382.46, 7.10, 262.07
382.36, 7.11, 262.21
382.25, 7.12, 262.36
382.13, 7.12, 262.52
382.00, 7.13, 262.69
381.85, 7.14, 262.88
381.70, 7.15, 263.08
381.54, 7.16, 263.30
381.36, 7.17, 263.54
381.16, 7.18, 263.80
380.94, 7.19, 264.09
380.71, 7.21, 264.40
380.45, 7.23, 264.75
380.17, 7.25, 265.12
379.85, 7.28, 265.55
379.50, 7.31, 266.02
379.09, 7.34, 266.56
378.63, 7.38, 267.17
378.10, 7.43, 267.88
377.50, 7.49, 268.68
376.79, 7.56, 269.63
375.32, 7.57, 271.58
374.22, 7.68, 273.04
372.78, 7.82, 274.96
371.28, 8.02, 276.96
382.52, 7.10, 262.10
382.41, 7.11, 262.24
382.30, 7.12, 262.39
382.19, 7.12, 262.56
382.06, 7.13, 262.73
381.92, 7.14, 262.92
381.77, 7.15, 263.12
381.61, 7.16, 263.34
381.44, 7.17, 263.58
381.24, 7.18, 263.85
381.03, 7.19, 264.14
380.80, 7.21, 264.46
¯380.55, 7.23, 264.80
380.27, 7.25, 265.18
379.96, 7.28, 265.60
379.62, 7.31, 266.08
379.22, 7.34, 266.62
378.78, 7.39, 267.23
378.26, 7.43, 267.94
377.68, 7.49, 268.74
376.99, 7.56, 269.69
375.57, 7.57, 271.62
374.51, 7.69, 273.08
373.06, 7.82, 275.07
371.61, 8.02, 277.05
382.57, 7.10, 262.13
382.47, 7.11, 262.28
382.36, 7.12, 262.43
382.25, 7.12, 262.59
382.12, 7.13, 262.77
381.99, 7.14, 262.96
381.84, 7.15, 263.16
381.68, 7.16, 263.38
381.51, 7.17, 263.63
381.32, 7.18, 263.90
381.11, 7.19, 264.19
380.89, 7.21, 264.50
380.65, 7.23, 264.85
380.38, 7.25, 265.23
380.07, 7.28, 265.66
379.74, 7.31, 266.13
379.35, 7.34, 266.68
378.92, 7.39, 267.29
378.42, 7.44, 267.99
377.86, 7.50, 268.79
377.19, 7.57, 269.74
375.82, 7.58, 271.67
374.78, 7.69, 273.13
373.41, 7.82, 275.07
371.94, 8.01, 277.15
382.62, 7.10, 262.17
382.52, 7.11, 262.31
382.42, 7.12, 262.46
382.31, 7.12, 262.63
382.18, 7.13, 262.81
382.05, 7.14, 263.00
381.91, 7.15, 263.20
381.76, 7.16, 263.42
381.59, 7.17, 263.67
381.40, 7.18, 263.94
381.20, 7.19, 264.23
380.98, 7.21, 264.55
380.74, 7.23, 264.90
¯380.48, 7.25, 265.28
380.19, 7.28, 265.71
379.86, 7.31, 266.19
379.48, 7.35, 266.74
379.06, 7.39, 267.35
378.58, 7.44, 268.05
378.03, 7.50, 268.84
377.39, 7.57, 269.79
376.06, 7.58, 271.71
375.05, 7.69, 273.18
373.75, 7.82, 275.07
372.26, 8.01, 277.24
382.68, 7.10, 262.20
382.58, 7.11, 262.34
382.48, 7.12, 262.50
382.37, 7.12, 262.66
382.25, 7.13, 262.84
382.12, 7.14, 263.04
381.98, 7.15, 263.24
381.83, 7.16, 263.47
381.67, 7.17, 263.71
381.48, 7.18, 263.99
381.29, 7.19, 264.28
381.07, 7.21, 264.60
380.84, 7.23, 264.95
380.59, 7.25, 265.33
380.30, 7.28, 265.77
379.98, 7.31, 266.24
379.61, 7.35, 266.79
379.20, 7.39, 267.41
378.74, 7.44, 268.10
378.21, 7.50, 268.90
377.58, 7.57, 269.84
376.85, 7.66, 270.93
375.33, 7.69, 273.21
374.09, 7.83, 275.07
372.58, 8.00, 277.34
382.73, 7.10, 262.23
382.64, 7.11, 262.38
382.54, 7.12, 262.53
382.43, 7.12, 262.70
382.31, 7.13, 262.88
382.19, 7.14, 263.07
382.05, 7.15, 263.28
381.91, 7.16, 263.51
381.74, 7.17, 263.76
381.57, 7.18, 264.03
381.38, 7.19, 264.32
381.17, 7.21, 264.65
380.94, 7.23, 265.00
380.69, 7.26, 265.38
¯380.41, 7.28, 265.82
380.10, 7.31, 266.30
379.74, 7.35, 266.85
379.34, 7.39, 267.47
378.90, 7.44, 268.15
378.39, 7.50, 268.95
377.78, 7.57, 269.88
377.07, 7.66, 270.98
375.61, 7.69, 273.24
374.42, 7.83, 275.07
372.88, 8.00, 277.46
382.79, 7.10, 262.26
382.69, 7.11, 262.41
382.60, 7.12, 262.56
382.49, 7.12, 262.73
382.38, 7.13, 262.91
382.25, 7.14, 263.11
382.12, 7.15, 263.32
381.98, 7.16, 263.54
381.82, 7.17, 263.80
381.65, 7.18, 264.07
381.46, 7.20, 264.37
381.26, 7.21, 264.69
381.04, 7.23, 265.04
380.80, 7.26, 265.43
380.52, 7.28, 265.87
380.22, 7.31, 266.35
379.88, 7.35, 266.90
379.49, 7.39, 267.52
379.06, 7.44, 268.20
378.56, 7.50, 269.00
377.97, 7.58, 269.93
377.29, 7.66, 271.02
375.88, 7.70, 273.27
374.75, 7.83, 275.07
373.22, 8.00, 277.51
382.84, 7.10, 262.29
382.75, 7.11, 262.44
382.66, 7.12, 262.60
382.55, 7.12, 262.77
382.44, 7.13, 262.95
382.32, 7.14, 263.15
382.19, 7.15, 263.36
382.06, 7.16, 263.58
381.90, 7.17, 263.84
381.73, 7.18, 264.11
381.55, 7.20, 264.41
381.35, 7.21, 264.74
381.14, 7.23, 265.09
380.90, 7.26, 265.48
380.63, 7.28, 265.92
¯380.34, 7.31, 266.40
380.01, 7.35, 266.95
379.63, 7.39, 267.58
379.21, 7.44, 268.25
378.73, 7.51, 269.05
378.17, 7.58, 269.98
377.51, 7.66, 271.06
376.70, 7.77, 272.40
375.05, 7.83, 275.09
373.60, 8.00, 277.48
382.90, 7.10, 262.32
382.81, 7.11, 262.47
382.72, 7.12, 262.63
382.61, 7.12, 262.80
382.51, 7.13, 262.98
382.39, 7.14, 263.18
382.26, 7.15, 263.39
382.13, 7.16, 263.62
381.98, 7.17, 263.87
381.82, 7.18, 264.15
381.64, 7.20, 264.45
381.45, 7.21, 264.78
381.24, 7.23, 265.13
381.01, 7.26, 265.52
380.75, 7.28, 265.97
380.46, 7.31, 266.45
380.14, 7.35, 267.00
379.77, 7.39, 267.63
379.37, 7.45, 268.30
378.91, 7.51, 269.09
378.36, 7.58, 270.02
377.72, 7.67, 271.11
376.94, 7.77, 272.43
375.36, 7.83, 275.11
373.98, 8.00, 277.46
382.95, 7.10, 262.35
382.87, 7.11, 262.50
382.78, 7.12, 262.66
382.68, 7.12, 262.83
382.57, 7.13, 263.01
382.46, 7.14, 263.21
382.34, 7.15, 263.43
382.21, 7.16, 263.66
382.06, 7.17, 263.91
381.90, 7.18, 264.19
381.73, 7.20, 264.49
381.54, 7.21, 264.82
381.34, 7.23, 265.18
381.11, 7.26, 265.57
380.86, 7.28, 266.01
380.58, 7.31, 266.50
¯380.27, 7.35, 267.05
379.91, 7.39, 267.68
379.53, 7.45, 268.35
379.08, 7.51, 269.14
378.55, 7.58, 270.06
377.93, 7.67, 271.15
377.18, 7.77, 272.46
375.66, 7.84, 275.13
374.35, 8.00, 277.43
383.01, 7.10, 262.38
382.92, 7.11, 262.53
382.84, 7.12, 262.69
382.74, 7.12, 262.86
382.64, 7.13, 263.05
382.53, 7.14, 263.25
382.41, 7.15, 263.46
382.28, 7.16, 263.69
382.14, 7.17, 263.95
381.98, 7.18, 264.23
381.82, 7.20, 264.53
381.63, 7.21, 264.86
381.44, 7.23, 265.22
381.22, 7.26, 265.61
380.97, 7.28, 266.06
380.71, 7.32, 266.54
380.40, 7.35, 267.09
380.05, 7.39, 267.73
379.68, 7.45, 268.40
379.25, 7.51, 269.18
378.74, 7.58, 270.10
378.15, 7.67, 271.18
377.42, 7.77, 272.49
375.96, 7.84, 275.15
374.71, 8.00, 277.40
383.06, 7.10, 262.40
382.98, 7.11, 262.55
382.90, 7.12, 262.72
382.80, 7.12, 262.89
382.70, 7.13, 263.08
382.60, 7.14, 263.28
382.48, 7.15, 263.49
382.36, 7.16, 263.73
382.22, 7.17, 263.99
382.07, 7.18, 264.27
381.91, 7.20, 264.57
381.73, 7.21, 264.90
381.54, 7.23, 265.26
381.32, 7.26, 265.66
381.09, 7.28, 266.10
380.83, 7.32, 266.59
380.53, 7.35, 267.14
¯380.19, 7.39, 267.78
379.84, 7.45, 268.44
379.42, 7.51, 269.23
378.93, 7.58, 270.14
378.35, 7.67, 271.22
377.66, 7.77, 272.52
376.80, 7.90, 274.14
375.07, 8.01, 277.38
383.12, 7.10, 262.43
383.04, 7.11, 262.58
382.96, 7.12, 262.74
382.87, 7.12, 262.92
382.77, 7.13, 263.11
382.66, 7.14, 263.31
382.55, 7.15, 263.53
382.43, 7.16, 263.76
382.30, 7.17, 264.02
382.15, 7.18, 264.30
381.99, 7.20, 264.61
381.82, 7.21, 264.94
381.64, 7.23, 265.30
381.43, 7.26, 265.70
381.20, 7.28, 266.14
380.95, 7.32, 266.64
380.67, 7.35, 267.18
380.34, 7.39, 267.82
379.99, 7.45, 268.48
379.59, 7.51, 269.27
379.12, 7.59, 270.18
378.56, 7.67, 271.26
377.90, 7.78, 272.54
377.07, 7.90, 274.16
375.42, 8.01, 277.35
373.77, 8.21, 280.55
383.18, 7.10, 262.46
383.10, 7.11, 262.61
383.02, 7.12, 262.77
382.93, 7.12, 262.95
382.84, 7.13, 263.14
382.73, 7.14, 263.34
382.63, 7.15, 263.56
382.51, 7.16, 263.79
382.38, 7.17, 264.05
382.24, 7.18, 264.34
382.08, 7.20, 264.64
381.92, 7.21, 264.98
381.74, 7.23, 265.34
381.54, 7.26, 265.74
381.32, 7.28, 266.19
381.07, 7.32, 266.68
380.80, 7.35, 267.23
¯380.48, 7.39, 267.86
380.15, 7.45, 268.52
379.76, 7.51, 269.31
379.31, 7.59, 270.22
378.77, 7.67, 271.29
378.14, 7.78, 272.56
377.34, 7.90, 274.17
375.76, 8.01, 277.32
374.17, 8.21, 280.52
383.23, 7.10, 262.48
383.16, 7.11, 262.63
383.08, 7.12, 262.80
383.00, 7.12, 262.98
382.90, 7.13, 263.17
382.80, 7.14, 263.37
382.70, 7.15, 263.59
382.59, 7.16, 263.82
382.46, 7.17, 264.09
382.32, 7.18, 264.37
382.17, 7.20, 264.68
382.01, 7.21, 265.02
381.84, 7.23, 265.38
381.64, 7.26, 265.78
381.43, 7.28, 266.23
381.19, 7.32, 266.72
380.93, 7.35, 267.27
380.62, 7.40, 267.90
380.30, 7.45, 268.57
379.93, 7.51, 269.35
379.49, 7.59, 270.25
378.98, 7.67, 271.32
378.37, 7.78, 272.58
377.60, 7.90, 274.18
376.10, 8.01, 277.29
374.58, 8.21, 280.46
383.29, 7.10, 262.50
383.22, 7.11, 262.66
383.14, 7.12, 262.83
383.06, 7.12, 263.00
382.97, 7.13, 263.19
382.87, 7.14, 263.40
382.77, 7.15, 263.62
382.66, 7.16, 263.86
382.54, 7.17, 264.12
382.41, 7.18, 264.40
382.26, 7.20, 264.71
382.11, 7.21, 265.05
381.94, 7.23, 265.42
381.75, 7.26, 265.82
381.54, 7.28, 266.27
381.31, 7.32, 266.76
¯381.06, 7.35, 267.31
380.77, 7.40, 267.94
380.46, 7.45, 268.60
380.09, 7.51, 269.39
379.68, 7.59, 270.29
379.18, 7.67, 271.36
378.60, 7.78, 272.60
377.86, 7.90, 274.19
376.95, 8.06, 276.16
374.99, 8.21, 280.38
383.35, 7.10, 262.53
383.28, 7.11, 262.68
383.20, 7.12, 262.85
383.12, 7.12, 263.03
383.04, 7.13, 263.22
382.95, 7.14, 263.43
382.85, 7.15, 263.65
382.74, 7.16, 263.89
382.62, 7.17, 264.15
382.49, 7.18, 264.44
382.35, 7.20, 264.75
382.20, 7.21, 265.09
382.04, 7.23, 265.45
381.86, 7.26, 265.86
381.66, 7.28, 266.30
381.43, 7.32, 266.80
381.19, 7.35, 267.35
380.91, 7.40, 267.97
380.61, 7.45, 268.64
380.26, 7.52, 269.42
379.86, 7.59, 270.32
379.39, 7.68, 271.38
378.83, 7.78, 272.62
378.13, 7.90, 274.20
377.26, 8.06, 276.14
375.39, 8.21, 280.31
383.41, 7.10, 262.55
383.34, 7.11, 262.71
383.27, 7.12, 262.87
383.19, 7.12, 263.05
383.11, 7.13, 263.25
383.02, 7.14, 263.46
382.92, 7.15, 263.68
382.82, 7.16, 263.92
382.70, 7.17, 264.18
382.58, 7.18, 264.47
382.44, 7.20, 264.78
382.30, 7.21, 265.12
382.14, 7.23, 265.49
381.97, 7.26, 265.89
381.77, 7.28, 266.34
¯381.56, 7.32, 266.84
381.32, 7.35, 267.39
381.05, 7.40, 268.01
380.77, 7.45, 268.68
380.43, 7.52, 269.46
380.04, 7.59, 270.35
379.59, 7.68, 271.41
379.06, 7.78, 272.64
378.39, 7.91, 274.20
377.56, 8.06, 276.13
375.78, 8.21, 280.24
383.46, 7.10, 262.57
383.40, 7.11, 262.73
383.33, 7.12, 262.90
383.25, 7.12, 263.08
383.17, 7.13, 263.27
383.09, 7.14, 263.48
383.00, 7.15, 263.70
382.90, 7.16, 263.94
382.78, 7.17, 264.21
382.67, 7.18, 264.50
382.54, 7.20, 264.81
382.39, 7.21, 265.15
382.24, 7.23, 265.52
382.07, 7.26, 265.93
381.89, 7.28, 266.38
381.68, 7.32, 266.88
381.45, 7.35, 267.43
381.20, 7.40, 268.04
380.92, 7.45, 268.71
380.60, 7.52, 269.49
380.23, 7.59, 270.38
379.79, 7.68, 271.43
379.29, 7.78, 272.66
378.64, 7.91, 274.21
377.85, 8.06, 276.11
376.16, 8.21, 280.20
383.52, 7.10, 262.59
383.46, 7.11, 262.75
383.39, 7.11, 262.92
383.32, 7.12, 263.10
383.24, 7.13, 263.30
383.16, 7.14, 263.51
383.07, 7.15, 263.73
382.97, 7.16, 263.97
382.87, 7.17, 264.24
382.75, 7.18, 264.53
382.63, 7.20, 264.84
382.49, 7.21, 265.19
382.34, 7.23, 265.55
382.18, 7.26, 265.96
¯382.00, 7.28, 266.41
381.80, 7.31, 266.92
381.58, 7.35, 267.46
381.34, 7.40, 268.07
381.07, 7.46, 268.74
380.76, 7.52, 269.53
380.41, 7.59, 270.41
379.99, 7.68, 271.45
379.51, 7.78, 272.67
378.90, 7.91, 274.21
378.15, 8.06, 276.10
377.11, 8.25, 278.72
383.58, 7.10, 262.62
383.52, 7.11, 262.77
383.46, 7.11, 262.94
383.39, 7.12, 263.13
383.31, 7.13, 263.32
383.23, 7.14, 263.53
383.14, 7.15, 263.76
383.05, 7.16, 264.00
382.95, 7.17, 264.27
382.84, 7.18, 264.55
382.72, 7.19, 264.87
382.59, 7.21, 265.22
382.44, 7.23, 265.59
382.29, 7.26, 266.00
382.12, 7.28, 266.45
381.92, 7.31, 266.95
381.71, 7.35, 267.50
381.48, 7.40, 268.11
381.23, 7.46, 268.78
380.93, 7.52, 269.55
380.59, 7.59, 270.44
380.19, 7.68, 271.48
379.73, 7.79, 272.69
379.15, 7.91, 274.21
378.43, 8.06, 276.09
377.44, 8.25, 278.68
383.64, 7.10, 262.64
383.58, 7.11, 262.79
383.52, 7.11, 262.97
383.45, 7.12, 263.15
383.38, 7.13, 263.34
383.30, 7.14, 263.56
383.22, 7.15, 263.78
383.13, 7.16, 264.02
383.03, 7.17, 264.29
382.93, 7.18, 264.58
382.81, 7.19, 264.90
382.68, 7.21, 265.25
382.55, 7.23, 265.62
¯382.40, 7.26, 266.03
382.23, 7.28, 266.48
382.04, 7.31, 266.99
381.85, 7.35, 267.53
381.62, 7.40, 268.14
381.38, 7.46, 268.81
381.09, 7.52, 269.58
380.77, 7.59, 270.47
380.39, 7.68, 271.50
379.95, 7.79, 272.70
379.40, 7.91, 274.21
378.72, 8.06, 276.07
377.78, 8.25, 278.64
383.70, 7.10, 262.65
383.64, 7.11, 262.81
383.58, 7.11, 262.99
383.52, 7.12, 263.17
383.45, 7.13, 263.37
383.37, 7.14, 263.58
383.29, 7.15, 263.80
383.21, 7.16, 264.05
383.11, 7.17, 264.32
383.01, 7.18, 264.61
382.90, 7.19, 264.93
382.78, 7.21, 265.27
382.65, 7.23, 265.65
382.50, 7.26, 266.06
382.34, 7.28, 266.51
382.17, 7.31, 267.02
381.98, 7.35, 267.56
381.76, 7.40, 268.17
381.53, 7.46, 268.83
381.26, 7.52, 269.61
380.95, 7.59, 270.49
380.59, 7.68, 271.52
380.17, 7.79, 272.72
379.65, 7.91, 274.21
379.00, 8.06, 276.06
378.11, 8.25, 278.61
383.76, 7.10, 262.67
383.70, 7.11, 262.83
383.65, 7.11, 263.01
383.58, 7.12, 263.19
383.52, 7.13, 263.39
383.45, 7.14, 263.60
383.37, 7.15, 263.83
383.29, 7.16, 264.07
383.20, 7.17, 264.34
383.10, 7.18, 264.63
382.99, 7.19, 264.95
382.88, 7.21, 265.30
¯382.75, 7.23, 265.68
382.61, 7.25, 266.09
382.46, 7.28, 266.54
382.29, 7.31, 267.05
382.11, 7.35, 267.60
381.91, 7.40, 268.20
381.68, 7.46, 268.86
381.43, 7.52, 269.63
381.13, 7.60, 270.51
380.79, 7.68, 271.54
380.39, 7.79, 272.73
379.90, 7.91, 274.21
379.28, 8.06, 276.05
378.43, 8.24, 278.57
383.82, 7.10, 262.69
383.76, 7.11, 262.85
383.71, 7.11, 263.03
383.65, 7.12, 263.21
383.59, 7.13, 263.41
383.52, 7.14, 263.62
383.45, 7.15, 263.85
383.37, 7.16, 264.10
383.28, 7.17, 264.37
383.19, 7.18, 264.66
383.08, 7.19, 264.98
382.97, 7.21, 265.33
382.85, 7.23, 265.70
382.72, 7.25, 266.12
382.57, 7.28, 266.57
382.41, 7.31, 267.08
382.24, 7.35, 267.63
382.05, 7.40, 268.22
381.84, 7.46, 268.89
381.59, 7.52, 269.66
381.31, 7.60, 270.54
380.98, 7.68, 271.55
380.61, 7.79, 272.74
380.14, 7.91, 274.20
379.56, 8.06, 276.03
378.76, 8.24, 278.54
383.88, 7.10, 262.71
383.83, 7.11, 262.87
383.77, 7.11, 263.04
383.72, 7.12, 263.23
383.66, 7.13, 263.43
383.59, 7.13, 263.64
383.52, 7.14, 263.87
383.45, 7.16, 264.12
383.36, 7.17, 264.39
383.27, 7.18, 264.68
383.18, 7.19, 265.00
¯383.07, 7.21, 265.35
382.96, 7.23, 265.73
382.83, 7.25, 266.15
382.69, 7.28, 266.60
382.54, 7.31, 267.11
382.37, 7.35, 267.66
382.19, 7.40, 268.25
381.99, 7.46, 268.91
381.75, 7.52, 269.68
381.49, 7.60, 270.56
381.18, 7.68, 271.57
380.82, 7.79, 272.76
380.38, 7.91, 274.20
379.83, 8.06, 276.02
379.07, 8.24, 278.51
383.94, 7.10, 262.73
383.89, 7.11, 262.89
383.84, 7.11, 263.06
383.78, 7.12, 263.25
383.73, 7.13, 263.45
383.66, 7.13, 263.66
383.60, 7.14, 263.89
383.53, 7.15, 264.14
383.45, 7.17, 264.41
383.36, 7.18, 264.70
383.27, 7.19, 265.03
383.17, 7.21, 265.38
383.06, 7.23, 265.76
382.94, 7.25, 266.17
382.81, 7.28, 266.63
382.66, 7.31, 267.14
382.50, 7.35, 267.69
382.33, 7.40, 268.28
382.14, 7.46, 268.94
381.92, 7.52, 269.70
381.67, 7.60, 270.58
381.37, 7.68, 271.59
381.03, 7.79, 272.77
380.62, 7.91, 274.20
380.10, 8.06, 276.00
379.39, 8.24, 278.47
378.23, 8.47, 282.47
383.99, 7.10, 262.74
383.95, 7.11, 262.90
383.90, 7.11, 263.08
383.85, 7.12, 263.26
383.80, 7.13, 263.47
383.74, 7.13, 263.68
383.67, 7.14, 263.91
383.61, 7.15, 264.16
383.53, 7.17, 264.43
¯383.45, 7.18, 264.73
383.36, 7.19, 265.05
383.26, 7.21, 265.40
383.16, 7.23, 265.78
383.02, 7.23, 266.31
382.86, 7.24, 266.86
382.69, 7.25, 267.49
382.57, 7.32, 267.92
382.44, 7.39, 268.40
382.29, 7.46, 268.96
382.08, 7.52, 269.73
381.84, 7.60, 270.60
381.57, 7.68, 271.60
381.25, 7.79, 272.77
380.86, 7.91, 274.19
380.37, 8.06, 275.99
379.70, 8.24, 278.43
378.61, 8.47, 282.41
384.05, 7.10, 262.76
384.01, 7.10, 262.92
383.97, 7.11, 263.09
383.92, 7.12, 263.28
383.87, 7.12, 263.48
383.81, 7.13, 263.70
383.75, 7.14, 263.93
383.69, 7.15, 264.18
383.62, 7.16, 264.45
383.54, 7.18, 264.75
383.44, 7.18, 265.13
383.24, 7.09, 265.90
383.13, 7.12, 266.30
383.02, 7.15, 266.74
382.89, 7.18, 267.23
382.76, 7.21, 267.75
382.62, 7.26, 268.30
382.46, 7.32, 268.91
382.27, 7.37, 269.63
382.20, 7.50, 269.90
382.02, 7.60, 270.62
381.76, 7.69, 271.62
381.46, 7.79, 272.78
381.09, 7.91, 274.19
380.63, 8.06, 275.97
380.00, 8.24, 278.40
378.98, 8.47, 282.35
384.11, 7.10, 262.77
384.07, 7.10, 262.93
384.03, 7.11, 263.11
383.99, 7.12, 263.30
383.94, 7.12, 263.50
383.88, 7.13, 263.72
¯383.83, 7.14, 263.95
383.77, 7.15, 264.20
383.70, 7.16, 264.48
383.52, 7.06, 265.21
383.43, 7.07, 265.56
383.34, 7.09, 265.93
383.24, 7.12, 266.32
383.14, 7.14, 266.76
383.02, 7.17, 267.25
382.89, 7.21, 267.78
382.76, 7.26, 268.32
382.61, 7.32, 268.94
382.43, 7.37, 269.65
382.24, 7.44, 270.44
382.13, 7.57, 270.91
381.95, 7.69, 271.63
381.67, 7.79, 272.78
381.33, 7.91, 274.19
380.90, 8.06, 275.96
380.31, 8.24, 278.36
379.35, 8.46, 282.30
384.17, 7.10, 262.78
384.14, 7.10, 262.95
384.10, 7.11, 263.12
384.05, 7.12, 263.31
384.01, 7.12, 263.52
383.96, 7.13, 263.73
383.90, 7.14, 263.96
383.75, 7.03, 264.62
383.68, 7.04, 264.91
383.61, 7.06, 265.23
383.53, 7.07, 265.58
383.45, 7.09, 265.95
383.35, 7.12, 266.35
383.25, 7.14, 266.79
383.14, 7.17, 267.28
383.02, 7.21, 267.80
382.90, 7.26, 268.35
382.75, 7.31, 268.96
382.59, 7.37, 269.67
382.41, 7.44, 270.46
382.20, 7.52, 271.38
382.08, 7.66, 271.92
381.88, 7.79, 272.79
381.56, 7.91, 274.18
381.16, 8.06, 275.94
380.61, 8.24, 278.33
379.71, 8.46, 282.24
384.24, 7.10, 262.80
384.20, 7.10, 262.96
384.16, 7.11, 263.14
¯384.12, 7.12, 263.33
384.08, 7.12, 263.53
384.03, 7.12, 263.77
383.89, 7.02, 264.37
383.84, 7.03, 264.64
383.77, 7.04, 264.93
383.70, 7.06, 265.25
383.63, 7.07, 265.61
383.55, 7.09, 265.97
383.46, 7.12, 266.37
383.37, 7.14, 266.81
383.26, 7.17, 267.30
383.15, 7.21, 267.82
383.03, 7.26, 268.37
382.90, 7.31, 268.99
382.75, 7.37, 269.68
382.58, 7.44, 270.48
382.39, 7.52, 271.40
382.17, 7.62, 272.41
382.05, 7.78, 272.96
381.79, 7.91, 274.17
381.42, 8.06, 275.92
380.91, 8.24, 278.29
380.07, 8.46, 282.19
384.30, 7.10, 262.81
384.26, 7.10, 262.97
384.23, 7.11, 263.15
384.19, 7.11, 263.34
384.07, 7.00, 263.91
384.03, 7.01, 264.14
383.98, 7.02, 264.39
383.92, 7.03, 264.66
383.86, 7.04, 264.95
383.80, 7.05, 265.27
383.73, 7.07, 265.63
383.66, 7.09, 265.99
383.58, 7.12, 266.39
383.49, 7.14, 266.83
383.39, 7.17, 267.33
383.28, 7.21, 267.84
383.17, 7.26, 268.39
383.05, 7.31, 269.01
382.91, 7.37, 269.70
382.75, 7.44, 270.50
382.57, 7.52, 271.42
382.37, 7.62, 272.43
382.12, 7.73, 273.65
382.02, 7.91, 274.17
381.67, 8.06, 275.91
381.20, 8.24, 278.26
380.42, 8.46, 282.14
¯384.36, 7.10, 262.82
384.33, 7.10, 262.99
384.29, 7.11, 263.16
384.19, 6.99, 263.71
384.15, 7.00, 263.92
384.11, 7.01, 264.15
384.06, 7.02, 264.40
384.01, 7.03, 264.67
383.95, 7.04, 264.97
383.89, 7.05, 265.29
383.83, 7.07, 265.64
383.76, 7.09, 266.01
383.69, 7.11, 266.41
383.60, 7.14, 266.85
383.51, 7.17, 267.35
383.42, 7.21, 267.87
383.31, 7.26, 268.42
383.20, 7.31, 269.03
383.07, 7.37, 269.72
382.92, 7.44, 270.51
382.75, 7.52, 271.43
382.57, 7.62, 272.45
382.34, 7.73, 273.65
382.15, 7.88, 274.71
381.93, 8.06, 275.89
381.50, 8.24, 278.22
380.78, 8.45, 282.09
384.42, 7.09, 262.83
384.39, 7.10, 263.00
384.30, 6.98, 263.52
384.26, 6.99, 263.72
384.23, 7.00, 263.93
384.19, 7.01, 264.17
384.14, 7.02, 264.42
384.10, 7.03, 264.69
384.05, 7.04, 264.99
383.99, 7.05, 265.31
383.93, 7.07, 265.66
383.87, 7.09, 266.03
383.80, 7.11, 266.43
383.72, 7.14, 266.87
383.64, 7.17, 267.37
383.55, 7.21, 267.88
383.45, 7.26, 268.44
383.35, 7.31, 269.05
383.23, 7.37, 269.74
383.09, 7.44, 270.53
382.94, 7.52, 271.45
382.76, 7.62, 272.46
382.56, 7.73, 273.65
382.32, 7.86, 275.07
¯382.18, 8.06, 275.91
381.79, 8.24, 278.19
381.12, 8.45, 282.04
384.48, 7.09, 262.86
384.40, 6.97, 263.34
384.37, 6.98, 263.53
384.34, 6.99, 263.73
384.30, 7.00, 263.95
384.27, 7.01, 264.18
384.23, 7.02, 264.43
384.18, 7.03, 264.70
384.14, 7.04, 265.00
384.09, 7.05, 265.32
384.03, 7.07, 265.68
383.97, 7.09, 266.04
383.91, 7.11, 266.45
383.84, 7.14, 266.89
383.76, 7.17, 267.39
383.68, 7.21, 267.90
383.59, 7.26, 268.46
383.50, 7.31, 269.07
383.39, 7.37, 269.76
383.27, 7.44, 270.54
383.12, 7.52, 271.46
382.96, 7.62, 272.46
382.78, 7.73, 273.65
382.56, 7.86, 275.06
382.29, 8.02, 276.76
382.07, 8.23, 278.15
381.47, 8.45, 282.00
384.49, 6.97, 263.17
384.47, 6.97, 263.35
384.44, 6.98, 263.54
384.41, 6.99, 263.74
384.38, 6.99, 263.96
384.35, 7.00, 264.19
384.31, 7.01, 264.44
384.27, 7.03, 264.72
384.23, 7.04, 265.02
384.18, 7.05, 265.34
384.13, 7.07, 265.69
384.08, 7.09, 266.06
384.02, 7.11, 266.46
383.96, 7.14, 266.91
383.89, 7.17, 267.40
383.81, 7.21, 267.92
383.73, 7.25, 268.47
383.64, 7.31, 269.09
383.55, 7.37, 269.78
383.44, 7.44, 270.56
383.30, 7.52, 271.47
¯383.16, 7.62, 272.47
383.00, 7.73, 273.64
382.79, 7.86, 275.06
382.52, 8.01, 276.98
382.35, 8.23, 278.16
381.81, 8.45, 281.95
384.56, 6.96, 263.18
384.53, 6.97, 263.36
384.51, 6.98, 263.55
384.48, 6.99, 263.75
384.46, 6.99, 263.97
384.43, 7.00, 264.20
384.39, 7.01, 264.46
384.36, 7.02, 264.73
384.32, 7.04, 265.03
384.28, 7.05, 265.35
384.23, 7.06, 265.71
384.18, 7.09, 266.07
384.13, 7.11, 266.48
384.07, 7.14, 266.92
384.01, 7.17, 267.42
383.94, 7.21, 267.94
383.87, 7.25, 268.49
383.79, 7.31, 269.11
383.70, 7.37, 269.80
383.61, 7.44, 270.57
383.49, 7.52, 271.49
383.36, 7.62, 272.47
383.21, 7.73, 273.64
383.03, 7.86, 275.04
382.79, 8.01, 276.95
382.48, 8.20, 279.29
382.15, 8.45, 281.91
384.62, 6.96, 263.18
384.60, 6.97, 263.37
384.58, 6.98, 263.56
384.56, 6.98, 263.76
384.53, 6.99, 263.98
384.51, 7.00, 264.22
384.48, 7.01, 264.47
384.44, 7.02, 264.74
384.41, 7.03, 265.04
384.37, 7.05, 265.37
384.33, 7.06, 265.72
384.29, 7.08, 266.09
384.24, 7.11, 266.49
384.19, 7.13, 266.94
384.14, 7.16, 267.44
384.08, 7.20, 267.95
384.01, 7.25, 268.51
383.94, 7.31, 269.13
¯383.86, 7.37, 269.82
383.78, 7.44, 270.58
383.67, 7.52, 271.50
383.56, 7.62, 272.47
383.43, 7.73, 273.64
383.27, 7.86, 275.02
383.05, 8.01, 276.92
382.76, 8.19, 279.42
382.48, 8.44, 281.87
384.69, 6.96, 263.19
384.67, 6.97, 263.37
384.65, 6.97, 263.57
384.63, 6.98, 263.77
384.61, 6.99, 263.99
384.59, 7.00, 264.22
384.56, 7.01, 264.48
384.53, 7.02, 264.75
384.50, 7.03, 265.05
384.47, 7.05, 265.38
384.43, 7.06, 265.73
384.40, 7.08, 266.10
384.36, 7.11, 266.50
384.31, 7.13, 266.95
384.26, 7.16, 267.45
384.21, 7.20, 267.97
384.15, 7.25, 268.52
384.09, 7.30, 269.14
384.02, 7.37, 269.83
383.94, 7.44, 270.59
383.85, 7.52, 271.51
383.76, 7.62, 272.47
383.64, 7.73, 273.64
383.50, 7.86, 275.00
383.31, 8.01, 276.88
383.06, 8.19, 279.38
384.76, 6.96, 263.20
384.74, 6.97, 263.38
384.72, 6.97, 263.57
384.70, 6.98, 263.78
384.69, 6.99, 264.00
384.67, 7.00, 264.23
384.64, 7.01, 264.49
384.62, 7.02, 264.76
384.59, 7.03, 265.06
384.57, 7.04, 265.39
384.53, 7.06, 265.74
384.50, 7.08, 266.11
384.47, 7.11, 266.52
384.43, 7.13, 266.97
384.39, 7.16, 267.47
384.34, 7.20, 267.98
¯384.29, 7.25, 268.54
384.24, 7.30, 269.16
384.18, 7.37, 269.85
384.11, 7.44, 270.61
384.04, 7.52, 271.51
383.95, 7.62, 272.48
383.85, 7.73, 273.63
383.74, 7.86, 274.98
383.58, 8.01, 276.85
383.36, 8.19, 279.36
384.82, 6.96, 263.20
384.81, 6.97, 263.39
384.79, 6.97, 263.58
384.78, 6.98, 263.79
384.76, 6.99, 264.01
384.75, 7.00, 264.24
384.73, 7.01, 264.50
384.71, 7.02, 264.77
384.69, 7.03, 265.07
384.66, 7.04, 265.40
384.64, 7.06, 265.75
384.61, 7.08, 266.12
384.58, 7.10, 266.53
384.55, 7.13, 266.98
384.51, 7.16, 267.48
384.47, 7.20, 267.99
384.43, 7.25, 268.55
384.39, 7.30, 269.17
384.34, 7.36, 269.86
384.28, 7.44, 270.63
384.22, 7.52, 271.52
384.15, 7.62, 272.48
384.07, 7.73, 273.63
383.97, 7.86, 274.96
383.84, 8.01, 276.82
383.65, 8.19, 279.34
384.89, 6.96, 263.21
384.88, 6.97, 263.39
384.87, 6.97, 263.59
384.85, 6.98, 263.79
384.84, 6.99, 264.01
384.83, 7.00, 264.25
384.81, 7.01, 264.50
384.80, 7.02, 264.78
384.78, 7.03, 265.08
384.76, 7.04, 265.41
384.74, 7.06, 265.76
384.72, 7.08, 266.13
384.69, 7.10, 266.54
384.67, 7.13, 266.99
384.64, 7.16, 267.49
¯384.61, 7.20, 268.00
384.57, 7.25, 268.56
384.54, 7.30, 269.19
384.50, 7.36, 269.88
384.45, 7.43, 270.64
384.40, 7.52, 271.53
384.34, 7.62, 272.49
384.28, 7.73, 273.63
384.20, 7.86, 274.94
384.09, 8.01, 276.79
383.95, 8.19, 279.31
384.95, 6.96, 263.21
384.95, 6.97, 263.40
384.94, 6.97, 263.59
384.93, 6.98, 263.80
384.92, 6.99, 264.02
384.91, 7.00, 264.25
384.90, 7.01, 264.51
384.88, 7.02, 264.79
384.87, 7.03, 265.09
384.85, 7.04, 265.42
384.84, 7.06, 265.77
384.82, 7.08, 266.14
384.80, 7.10, 266.55
384.78, 7.13, 267.00
384.76, 7.16, 267.50
384.74, 7.20, 268.01
384.71, 7.24, 268.57
384.69, 7.30, 269.20
384.66, 7.36, 269.89
384.62, 7.43, 270.65
384.58, 7.51, 271.54
384.54, 7.61, 272.50
384.49, 7.73, 273.62
384.43, 7.86, 274.92
384.35, 8.01, 276.76
384.24, 8.19, 279.29
385.02, 6.96, 263.22
385.01, 6.96, 263.40
385.01, 6.97, 263.60
385.00, 6.98, 263.80
384.99, 6.99, 264.02
384.99, 6.99, 264.26
384.98, 7.00, 264.52
384.97, 7.01, 264.79
384.96, 7.03, 265.09
384.95, 7.04, 265.42
384.94, 7.06, 265.77
384.93, 7.08, 266.15
384.92, 7.10, 266.56
384.90, 7.13, 267.01
¯384.89, 7.15, 267.51
384.87, 7.20, 268.02
384.86, 7.24, 268.58
384.84, 7.30, 269.21
384.82, 7.36, 269.90
384.79, 7.43, 270.67
384.77, 7.51, 271.54
384.74, 7.61, 272.50
384.70, 7.73, 273.62
384.66, 7.86, 274.92
384.61, 8.01, 276.73
384.53, 8.18, 279.28
385.09, 6.96, 263.22
385.08, 6.96, 263.40
385.08, 6.97, 263.60
385.08, 6.98, 263.81
385.07, 6.98, 264.03
385.07, 6.99, 264.26
385.06, 7.00, 264.52
385.06, 7.01, 264.80
385.05, 7.02, 265.10
385.05, 7.04, 265.43
385.04, 7.05, 265.78
385.04, 7.07, 266.15
385.03, 7.10, 266.56
385.02, 7.12, 267.02
385.01, 7.15, 267.52
385.01, 7.19, 268.03
385.00, 7.24, 268.59
384.99, 7.29, 269.22
384.97, 7.36, 269.90
384.96, 7.43, 270.67
384.95, 7.51, 271.54
384.93, 7.61, 272.49
384.91, 7.73, 273.61
384.89, 7.86, 274.91
384.86, 8.01, 276.69
384.82, 8.18, 279.25
385.15, 6.96, 263.22
385.15, 6.96, 263.41
385.15, 6.97, 263.60
385.15, 6.97, 263.81
385.15, 6.98, 264.03
385.15, 6.99, 264.27
385.15, 7.00, 264.52
385.15, 7.01, 264.80
385.15, 7.02, 265.10
385.15, 7.04, 265.43
385.14, 7.05, 265.79
385.14, 7.07, 266.16
385.14, 7.10, 266.57
¯385.14, 7.12, 267.02
385.14, 7.15, 267.53
385.14, 7.19, 268.04
385.14, 7.24, 268.60
385.14, 7.29, 269.23
385.13, 7.36, 269.90
385.13, 7.43, 270.67
385.13, 7.51, 271.54
385.13, 7.63, 272.32
385.12, 7.73, 273.59
385.12, 7.86, 274.90
385.12, 8.01, 276.66
385.11, 8.18, 279.20
385.22, 6.96, 263.23
385.22, 6.96, 263.41
385.22, 6.97, 263.61
385.22, 6.97, 263.81
385.23, 6.98, 264.03
385.23, 6.99, 264.27
385.23, 7.00, 264.53
385.24, 7.01, 264.80
385.24, 7.02, 265.11
385.24, 7.03, 265.44
385.25, 7.05, 265.79
385.25, 7.07, 266.16
385.26, 7.09, 266.57
385.26, 7.12, 267.03
385.27, 7.15, 267.53
385.27, 7.19, 268.04
385.28, 7.24, 268.61
385.29, 7.29, 269.23
385.29, 7.35, 269.91
385.30, 7.43, 270.68
385.31, 7.51, 271.54
385.32, 7.64, 272.16
385.34, 7.73, 273.57
385.35, 7.86, 274.89
385.37, 8.01, 276.63
385.40, 8.18, 279.16
385.33, 8.78, 272.25
385.28, 6.95, 263.23
385.29, 6.96, 263.41
385.29, 6.96, 263.61
385.30, 6.97, 263.81
