žVERSION 0.7
FIELDS x y z
SIZE 8 8 8
TYPE F F F
COUNT 1 1 1
WIDTH 2271
HEIGHT 1
VIEWPOINT 326.74, 6.81, 328.52 1 337.25, 2.40, 311.34
POINTS 2271
DATA ascii
333.95, 0.16, 308.59
333.86, 0.18, 308.38
333.76, 0.19, 308.17
333.66, 0.20, 307.93
333.56, 0.22, 307.68
333.44, 0.23, 307.41
333.31, 0.25, 307.12
333.17, 0.27, 306.80
333.02, 0.29, 306.45
332.86, 0.32, 306.06
332.67, 0.34, 305.63
332.47, 0.37, 305.16
332.27, 0.42, 304.70
331.89, 0.40, 303.80
331.46, 0.39, 302.80
¯331.12, 0.44, 302.02
330.80, 0.53, 301.28
330.26, 0.57, 300.04
328.94, 0.48, 296.96
326.67, 0.28, 291.68
333.96, 0.15, 308.80
333.87, 0.16, 308.61
333.78, 0.17, 308.40
333.68, 0.18, 308.18
333.58, 0.20, 307.95
333.46, 0.21, 307.70
333.34, 0.23, 307.43
333.21, 0.24, 307.14
333.07, 0.26, 306.81
332.91, 0.28, 306.46
332.74, 0.31, 306.08
332.55, 0.33, 305.65
332.33, 0.36, 305.17
332.10, 0.40, 304.66
331.72, 0.38, 303.79
331.26, 0.37, 302.78
330.91, 0.43, 301.99
330.54, 0.50, 301.16
329.93, 0.54, 299.79
328.32, 0.39, 296.18
326.09, 0.23, 291.21
333.88, 0.15, 308.82
333.79, 0.15, 308.63
333.70, 0.16, 308.42
333.60, 0.18, 308.20
333.49, 0.19, 307.97
333.37, 0.20, 307.72
333.24, 0.22, 307.45
333.11, 0.24, 307.15
332.96, 0.26, 306.83
332.80, 0.28, 306.48
332.62, 0.30, 306.09
332.42, 0.32, 305.66
332.20, 0.35, 305.19
331.94, 0.38, 304.63
331.54, 0.37, 303.78
331.07, 0.36, 302.75
330.70, 0.41, 301.97
330.29, 0.48, 301.08
329.66, 0.52, 299.71
327.66, 0.30, 295.41
333.81, 0.14, 308.84
333.72, 0.15, 308.65
333.62, 0.16, 308.44
333.51, 0.17, 308.23
333.40, 0.18, 307.99
¯333.28, 0.20, 307.74
333.15, 0.21, 307.47
333.01, 0.23, 307.17
332.85, 0.25, 306.85
332.68, 0.27, 306.50
332.49, 0.29, 306.11
332.29, 0.32, 305.68
332.06, 0.34, 305.20
331.79, 0.37, 304.66
331.37, 0.35, 303.77
330.87, 0.34, 302.73
330.49, 0.40, 301.95
330.06, 0.46, 301.05
329.38, 0.49, 299.63
327.02, 0.21, 294.72
333.74, 0.14, 308.87
333.64, 0.14, 308.67
333.54, 0.15, 308.47
333.43, 0.16, 308.25
333.31, 0.18, 308.01
333.18, 0.19, 307.76
333.05, 0.21, 307.49
332.90, 0.22, 307.19
332.74, 0.24, 306.87
332.57, 0.26, 306.52
332.37, 0.28, 306.13
332.16, 0.31, 305.70
331.92, 0.33, 305.22
331.65, 0.36, 304.68
331.19, 0.34, 303.76
330.67, 0.33, 302.72
330.28, 0.38, 301.93
329.84, 0.45, 301.05
329.09, 0.47, 299.54
326.40, 0.14, 294.13
333.66, 0.13, 308.89
333.56, 0.14, 308.69
333.46, 0.15, 308.49
333.34, 0.16, 308.27
333.22, 0.17, 308.04
333.09, 0.18, 307.78
332.95, 0.20, 307.51
332.80, 0.21, 307.21
332.63, 0.23, 306.89
332.45, 0.25, 306.54
332.25, 0.27, 306.15
332.03, 0.30, 305.72
331.78, 0.32, 305.24
331.50, 0.35, 304.70
331.02, 0.33, 303.76
330.48, 0.31, 302.71
¯330.06, 0.37, 301.91
329.62, 0.44, 301.05
328.80, 0.45, 299.46
325.96, 0.10, 293.95
333.59, 0.13, 308.91
333.49, 0.13, 308.72
333.38, 0.14, 308.51
333.26, 0.15, 308.30
333.14, 0.16, 308.06
333.00, 0.18, 307.81
332.85, 0.19, 307.53
332.70, 0.21, 307.24
332.52, 0.22, 306.92
332.33, 0.24, 306.56
332.13, 0.26, 306.17
331.90, 0.29, 305.74
331.64, 0.31, 305.26
331.35, 0.34, 304.72
330.86, 0.32, 303.79
330.27, 0.30, 302.70
329.86, 0.35, 301.92
329.40, 0.43, 301.06
328.53, 0.43, 299.44
325.63, 0.09, 293.99
333.52, 0.12, 308.94
333.41, 0.13, 308.74
333.30, 0.14, 308.54
333.18, 0.15, 308.32
333.05, 0.16, 308.09
332.91, 0.17, 307.84
332.76, 0.18, 307.56
332.59, 0.20, 307.26
332.41, 0.22, 306.94
332.22, 0.23, 306.59
332.00, 0.26, 306.19
331.76, 0.28, 305.76
331.50, 0.30, 305.28
331.20, 0.33, 304.74
330.69, 0.31, 303.82
330.07, 0.28, 302.69
329.65, 0.34, 301.93
329.17, 0.41, 301.06
328.27, 0.42, 299.43
325.30, 0.08, 294.04
333.44, 0.12, 308.96
333.33, 0.12, 308.77
333.22, 0.13, 308.57
333.09, 0.14, 308.35
332.96, 0.15, 308.12
332.82, 0.16, 307.86
332.66, 0.18, 307.59
¯332.49, 0.19, 307.29
332.30, 0.21, 306.97
332.10, 0.23, 306.61
331.88, 0.25, 306.22
331.63, 0.27, 305.79
331.36, 0.29, 305.30
331.05, 0.32, 304.76
330.53, 0.30, 303.85
329.90, 0.27, 302.76
329.44, 0.33, 301.94
328.94, 0.40, 301.07
328.01, 0.40, 299.44
324.92, 0.06, 294.01
333.37, 0.11, 308.99
333.26, 0.12, 308.80
333.14, 0.13, 308.59
333.01, 0.14, 308.38
332.87, 0.15, 308.15
332.72, 0.16, 307.89
332.56, 0.17, 307.62
332.39, 0.19, 307.32
332.20, 0.20, 307.00
331.99, 0.22, 306.64
331.75, 0.24, 306.25
331.50, 0.26, 305.81
331.21, 0.28, 305.33
330.89, 0.31, 304.78
330.36, 0.29, 303.88
329.75, 0.27, 302.85
329.24, 0.32, 301.97
328.71, 0.38, 301.07
327.76, 0.39, 299.46
324.53, 0.04, 293.97
333.30, 0.10, 309.02
333.18, 0.11, 308.83
333.06, 0.12, 308.62
332.93, 0.13, 308.41
332.78, 0.14, 308.17
332.63, 0.15, 307.92
332.47, 0.16, 307.65
332.29, 0.18, 307.35
332.09, 0.19, 307.03
331.88, 0.22, 306.69
331.63, 0.23, 306.28
331.37, 0.25, 305.84
331.07, 0.27, 305.35
330.74, 0.30, 304.81
330.20, 0.28, 303.92
329.61, 0.27, 302.94
329.06, 0.31, 302.05
328.48, 0.37, 301.08
¯327.51, 0.38, 299.49
324.16, 0.02, 293.98
333.22, 0.10, 309.05
333.11, 0.11, 308.86
332.98, 0.11, 308.65
332.84, 0.12, 308.44
332.70, 0.13, 308.21
332.54, 0.15, 307.95
332.37, 0.16, 307.68
332.18, 0.17, 307.39
331.98, 0.19, 307.07
331.78, 0.21, 306.74
331.53, 0.23, 306.34
331.23, 0.24, 305.87
330.93, 0.26, 305.38
330.58, 0.29, 304.83
330.04, 0.27, 303.97
329.46, 0.27, 303.04
328.89, 0.31, 302.13
328.27, 0.36, 301.15
327.25, 0.37, 299.51
323.88, 0.02, 294.13
333.15, 0.09, 309.08
333.03, 0.10, 308.89
332.90, 0.11, 308.68
332.76, 0.12, 308.47
332.61, 0.13, 308.24
332.45, 0.14, 307.99
332.27, 0.15, 307.72
332.08, 0.16, 307.42
331.88, 0.18, 307.12
331.67, 0.21, 306.79
331.42, 0.23, 306.40
331.12, 0.24, 305.94
330.78, 0.25, 305.41
330.43, 0.28, 304.86
329.91, 0.27, 304.06
329.31, 0.27, 303.13
328.71, 0.30, 302.20
328.08, 0.36, 301.23
326.99, 0.35, 299.55
323.59, 0.01, 294.29
333.08, 0.09, 309.11
332.95, 0.10, 308.92
332.82, 0.10, 308.72
332.68, 0.11, 308.50
332.52, 0.12, 308.27
332.36, 0.13, 308.02
332.18, 0.14, 307.75
331.98, 0.16, 307.46
331.78, 0.18, 307.16
¯331.57, 0.20, 306.84
331.32, 0.22, 306.46
331.01, 0.24, 306.00
330.66, 0.25, 305.48
330.27, 0.27, 304.89
329.78, 0.27, 304.15
329.17, 0.27, 303.23
328.53, 0.30, 302.29
327.86, 0.35, 301.28
326.75, 0.35, 299.61
323.31, 0.01, 294.45
333.01, 0.08, 309.14
332.88, 0.09, 308.95
332.74, 0.10, 308.75
332.59, 0.10, 308.53
332.43, 0.11, 308.30
332.26, 0.12, 308.06
332.08, 0.14, 307.79
331.89, 0.15, 307.51
331.69, 0.18, 307.21
331.46, 0.20, 306.89
331.21, 0.22, 306.52
330.90, 0.24, 306.07
330.54, 0.25, 305.55
330.14, 0.27, 304.97
329.64, 0.27, 304.24
329.02, 0.27, 303.33
328.36, 0.30, 302.37
327.65, 0.34, 301.34
326.53, 0.34, 299.70
323.03, 0.01, 294.62
332.94, 0.08, 309.17
332.80, 0.08, 308.99
332.66, 0.09, 308.78
332.51, 0.10, 308.57
332.35, 0.11, 308.34
332.17, 0.12, 308.09
331.99, 0.13, 307.83
331.79, 0.15, 307.56
331.59, 0.17, 307.27
331.36, 0.20, 306.95
331.11, 0.22, 306.59
330.79, 0.23, 306.14
330.43, 0.25, 305.63
330.01, 0.26, 305.04
329.51, 0.27, 304.33
328.88, 0.27, 303.44
328.18, 0.29, 302.45
327.44, 0.33, 301.40
326.30, 0.33, 299.79
322.76, 0.00, 294.78
¯332.86, 0.07, 309.21
332.73, 0.08, 309.02
332.58, 0.08, 308.82
332.43, 0.09, 308.60
332.26, 0.10, 308.38
332.08, 0.11, 308.13
331.90, 0.13, 307.88
331.70, 0.15, 307.61
331.49, 0.17, 307.32
331.26, 0.19, 307.00
331.00, 0.22, 306.65
330.68, 0.23, 306.20
330.31, 0.25, 305.70
329.88, 0.26, 305.12
329.37, 0.27, 304.41
328.73, 0.27, 303.53
327.99, 0.28, 302.52
327.22, 0.32, 301.46
326.03, 0.32, 299.83
322.50, 0.00, 294.98
332.79, 0.07, 309.24
332.65, 0.07, 309.06
332.50, 0.08, 308.86
332.34, 0.08, 308.64
332.17, 0.09, 308.41
331.99, 0.10, 308.17
331.81, 0.12, 307.93
331.61, 0.14, 307.66
331.39, 0.16, 307.37
331.15, 0.19, 307.06
330.89, 0.21, 306.71
330.57, 0.23, 306.28
330.19, 0.24, 305.77
329.75, 0.26, 305.19
329.23, 0.27, 304.50
328.58, 0.27, 303.63
327.81, 0.28, 302.60
327.01, 0.31, 301.53
325.70, 0.29, 299.79
322.21, 0.00, 295.14
332.72, 0.06, 309.28
332.58, 0.07, 309.09
332.43, 0.07, 308.89
332.26, 0.08, 308.68
332.09, 0.09, 308.45
331.91, 0.10, 308.22
331.72, 0.12, 307.98
331.52, 0.14, 307.71
331.29, 0.16, 307.43
331.05, 0.18, 307.11
330.78, 0.21, 306.77
¯330.46, 0.23, 306.35
330.08, 0.24, 305.85
329.63, 0.25, 305.27
329.10, 0.27, 304.59
328.43, 0.27, 303.72
327.64, 0.27, 302.69
326.80, 0.30, 301.61
325.37, 0.27, 299.76
321.96, 0.00, 295.34
332.65, 0.06, 309.32
332.51, 0.06, 309.13
332.35, 0.07, 308.93
332.18, 0.07, 308.72
332.00, 0.08, 308.50
331.82, 0.10, 308.27
331.63, 0.12, 308.03
331.42, 0.14, 307.77
331.20, 0.16, 307.48
330.95, 0.18, 307.17
330.68, 0.21, 306.83
330.35, 0.23, 306.42
329.96, 0.24, 305.92
329.50, 0.25, 305.35
328.97, 0.26, 304.68
328.29, 0.27, 303.82
327.47, 0.27, 302.79
326.61, 0.30, 301.71
325.04, 0.25, 299.74
321.71, 0.00, 295.55
332.59, 0.05, 309.36
332.44, 0.06, 309.18
332.28, 0.06, 308.98
332.10, 0.07, 308.77
331.93, 0.08, 308.55
331.74, 0.09, 308.33
331.54, 0.11, 308.08
331.33, 0.13, 307.82
331.10, 0.15, 307.54
330.85, 0.18, 307.23
330.57, 0.20, 306.89
330.24, 0.22, 306.50
329.84, 0.24, 306.00
329.37, 0.25, 305.43
328.83, 0.26, 304.76
328.14, 0.26, 303.92
327.31, 0.27, 302.90
326.42, 0.29, 301.81
324.73, 0.23, 299.75
321.46, 0.00, 295.76
332.52, 0.05, 309.41
332.37, 0.06, 309.22
¯332.21, 0.06, 309.03
332.03, 0.06, 308.82
331.86, 0.08, 308.61
331.67, 0.09, 308.39
331.47, 0.11, 308.15
331.25, 0.13, 307.89
331.01, 0.15, 307.60
330.74, 0.17, 307.29
330.46, 0.20, 306.95
330.14, 0.22, 306.57
329.72, 0.23, 306.08
329.24, 0.24, 305.51
328.69, 0.26, 304.85
328.00, 0.26, 304.03
327.15, 0.26, 303.01
326.22, 0.29, 301.92
324.41, 0.20, 299.77
321.22, 0.00, 295.97
332.46, 0.05, 309.45
332.30, 0.05, 309.27
332.14, 0.06, 309.08
331.96, 0.07, 308.88
331.79, 0.08, 308.67
331.59, 0.09, 308.45
331.39, 0.11, 308.22
331.17, 0.13, 307.96
330.92, 0.15, 307.68
330.65, 0.17, 307.37
330.36, 0.19, 307.03
330.03, 0.22, 306.65
329.60, 0.23, 306.15
329.12, 0.24, 305.59
328.55, 0.25, 304.94
327.85, 0.26, 304.13
326.99, 0.26, 303.13
325.98, 0.27, 301.97
324.11, 0.19, 299.80
320.97, 0.00, 296.18
332.39, 0.05, 309.50
332.24, 0.05, 309.32
332.07, 0.05, 309.13
331.90, 0.07, 308.94
331.72, 0.08, 308.74
331.52, 0.10, 308.52
331.31, 0.11, 308.28
331.09, 0.13, 308.03
330.84, 0.15, 307.75
330.57, 0.17, 307.45
330.27, 0.19, 307.11
329.93, 0.22, 306.73
329.49, 0.23, 306.24
¯329.00, 0.24, 305.68
328.42, 0.25, 305.03
327.71, 0.26, 304.24
326.83, 0.26, 303.25
325.72, 0.25, 302.00
323.82, 0.17, 299.87
320.73, 0.00, 296.40
332.33, 0.04, 309.55
332.17, 0.05, 309.37
332.00, 0.05, 309.18
331.83, 0.07, 309.00
331.65, 0.08, 308.80
331.45, 0.10, 308.58
331.24, 0.11, 308.35
331.01, 0.13, 308.10
330.76, 0.15, 307.83
330.48, 0.17, 307.53
330.18, 0.20, 307.20
329.82, 0.21, 306.80
329.39, 0.23, 306.33
328.88, 0.24, 305.77
328.29, 0.25, 305.13
327.55, 0.25, 304.33
326.66, 0.25, 303.35
325.45, 0.24, 302.04
323.53, 0.15, 299.94
320.50, 0.00, 296.62
332.27, 0.04, 309.59
332.10, 0.04, 309.42
331.94, 0.05, 309.24
331.76, 0.07, 309.06
331.58, 0.08, 308.86
331.38, 0.10, 308.65
331.17, 0.11, 308.42
330.93, 0.13, 308.17
330.68, 0.15, 307.90
330.40, 0.17, 307.61
330.09, 0.20, 307.28
329.71, 0.21, 306.88
329.28, 0.22, 306.42
328.76, 0.23, 305.87
328.16, 0.25, 305.24
327.39, 0.24, 304.41
326.48, 0.24, 303.44
325.22, 0.22, 302.11
323.24, 0.14, 300.01
320.26, 0.00, 296.84
332.21, 0.04, 309.64
332.04, 0.04, 309.47
331.87, 0.05, 309.30
331.70, 0.07, 309.12
¯331.51, 0.08, 308.93
331.31, 0.10, 308.72
331.09, 0.11, 308.49
330.85, 0.13, 308.25
330.60, 0.15, 307.98
330.31, 0.17, 307.69
329.99, 0.19, 307.36
329.61, 0.21, 306.96
329.17, 0.22, 306.51
328.65, 0.23, 305.97
328.03, 0.24, 305.33
327.23, 0.24, 304.50
326.30, 0.24, 303.54
324.99, 0.21, 302.20
322.96, 0.12, 300.09
320.03, 0.00, 297.07
332.14, 0.03, 309.69
331.98, 0.04, 309.53
331.81, 0.05, 309.36
331.64, 0.07, 309.18
331.45, 0.08, 308.99
331.24, 0.10, 308.79
331.02, 0.11, 308.57
330.78, 0.13, 308.32
330.52, 0.15, 308.06
330.23, 0.17, 307.77
329.90, 0.19, 307.44
329.51, 0.20, 307.05
329.06, 0.22, 306.60
328.53, 0.23, 306.07
327.89, 0.24, 305.42
327.07, 0.23, 304.60
326.11, 0.23, 303.63
324.76, 0.20, 302.28
322.67, 0.11, 300.18
319.80, 0.00, 297.30
332.08, 0.03, 309.74
331.92, 0.04, 309.59
331.75, 0.05, 309.42
331.57, 0.07, 309.25
331.38, 0.08, 309.06
331.17, 0.10, 308.86
330.95, 0.11, 308.64
330.70, 0.13, 308.40
330.44, 0.15, 308.14
330.15, 0.17, 307.86
329.80, 0.19, 307.52
329.40, 0.20, 307.13
328.96, 0.22, 306.69
328.42, 0.23, 306.17
327.75, 0.23, 305.51
¯326.91, 0.22, 304.69
325.91, 0.22, 303.71
324.53, 0.19, 302.37
322.38, 0.09, 300.27
319.58, 0.00, 297.53
332.02, 0.03, 309.80
331.86, 0.04, 309.65
331.69, 0.05, 309.48
331.51, 0.07, 309.31
331.32, 0.08, 309.13
331.11, 0.10, 308.93
330.88, 0.11, 308.71
330.63, 0.13, 308.48
330.36, 0.15, 308.22
330.06, 0.17, 307.94
329.70, 0.18, 307.60
329.30, 0.20, 307.21
328.85, 0.21, 306.78
328.31, 0.23, 306.27
327.61, 0.22, 305.61
326.75, 0.22, 304.79
325.71, 0.20, 303.80
324.30, 0.17, 302.46
322.12, 0.08, 300.39
319.35, 0.00, 297.77
331.97, 0.03, 309.85
331.81, 0.04, 309.71
331.63, 0.05, 309.55
331.45, 0.07, 309.38
331.25, 0.08, 309.19
331.04, 0.10, 309.00
330.81, 0.11, 308.78
330.56, 0.13, 308.55
330.28, 0.15, 308.30
329.98, 0.17, 308.02
329.61, 0.18, 307.68
329.20, 0.20, 307.30
328.74, 0.21, 306.87
328.20, 0.22, 306.37
327.47, 0.22, 305.70
326.60, 0.21, 304.90
325.50, 0.19, 303.89
324.06, 0.16, 302.55
321.87, 0.07, 300.53
319.13, 0.00, 298.00
331.91, 0.03, 309.91
331.75, 0.04, 309.77
331.58, 0.05, 309.61
331.39, 0.07, 309.44
331.19, 0.08, 309.26
330.97, 0.10, 309.07
¯330.74, 0.11, 308.86
330.49, 0.13, 308.63
330.21, 0.15, 308.38
329.89, 0.17, 308.09
329.52, 0.18, 307.76
329.10, 0.19, 307.39
328.63, 0.21, 306.97
328.08, 0.22, 306.47
327.34, 0.21, 305.80
326.45, 0.20, 305.00
325.28, 0.18, 303.96
323.83, 0.15, 302.66
321.60, 0.06, 300.66
318.92, 0.00, 298.24
331.86, 0.03, 309.97
331.70, 0.04, 309.83
331.52, 0.05, 309.67
331.33, 0.07, 309.51
331.13, 0.08, 309.33
330.91, 0.09, 309.14
330.67, 0.11, 308.93
330.41, 0.13, 308.71
330.13, 0.15, 308.47
329.80, 0.16, 308.17
329.42, 0.17, 307.84
329.00, 0.19, 307.48
328.53, 0.20, 307.06
327.96, 0.22, 306.57
327.20, 0.21, 305.91
326.29, 0.20, 305.11
325.05, 0.16, 304.02
323.60, 0.13, 302.76
321.33, 0.05, 300.78
318.70, 0.00, 298.49
331.81, 0.03, 310.03
331.64, 0.04, 309.89
331.46, 0.05, 309.74
331.27, 0.06, 309.58
331.07, 0.08, 309.40
330.84, 0.09, 309.21
330.60, 0.11, 309.01
330.34, 0.13, 308.79
330.06, 0.15, 308.55
329.72, 0.16, 308.26
329.34, 0.17, 307.94
328.91, 0.19, 307.58
328.44, 0.21, 307.17
327.84, 0.21, 306.66
327.07, 0.20, 306.01
326.14, 0.19, 305.22
324.81, 0.14, 304.09
¯323.35, 0.12, 302.85
321.05, 0.03, 300.91
318.49, 0.00, 298.73
341.08, 0.26, 315.53
341.26, 0.28, 315.59
341.45, 0.29, 315.67
341.66, 0.31, 315.74
341.88, 0.33, 315.82
342.08, 0.36, 315.90
342.31, 0.40, 315.98
342.55, 0.43, 316.07
342.80, 0.47, 316.16
343.08, 0.51, 316.26
343.37, 0.55, 316.37
343.69, 0.60, 316.49
344.00, 0.65, 316.61
344.35, 0.71, 316.73
344.73, 0.78, 316.87
345.14, 0.85, 317.02
345.59, 0.93, 317.19
346.08, 1.01, 317.37
346.61, 1.11, 317.57
347.21, 1.22, 317.79
347.94, 1.33, 318.06
348.83, 1.46, 318.39
349.86, 1.61, 318.77
351.14, 1.79, 319.24
353.07, 1.99, 319.95
354.75, 2.26, 320.57
341.09, 0.26, 315.45
341.28, 0.28, 315.52
341.47, 0.30, 315.59
341.68, 0.31, 315.66
341.89, 0.34, 315.74
342.10, 0.37, 315.81
342.32, 0.40, 315.89
342.56, 0.43, 315.97
342.82, 0.47, 316.06
343.09, 0.51, 316.16
343.39, 0.55, 316.26
343.71, 0.60, 316.38
344.04, 0.65, 316.49
344.38, 0.71, 316.62
344.76, 0.78, 316.75
345.17, 0.85, 316.90
345.63, 0.93, 317.06
346.11, 1.02, 317.23
346.64, 1.11, 317.41
347.27, 1.22, 317.64
348.02, 1.33, 317.90
348.91, 1.46, 318.21
¯349.96, 1.61, 318.58
351.24, 1.78, 319.04
352.84, 1.99, 319.60
354.89, 2.26, 320.33
341.11, 0.27, 315.38
341.29, 0.28, 315.44
341.49, 0.30, 315.51
341.70, 0.32, 315.58
341.90, 0.34, 315.65
342.11, 0.37, 315.72
342.34, 0.40, 315.80
342.57, 0.44, 315.88
342.83, 0.47, 315.96
343.10, 0.51, 316.06
343.40, 0.56, 316.16
343.73, 0.60, 316.27
344.06, 0.65, 316.38
344.42, 0.71, 316.50
344.79, 0.78, 316.63
345.21, 0.85, 316.77
345.66, 0.93, 316.92
346.15, 1.02, 317.08
346.69, 1.11, 317.27
347.33, 1.22, 317.48
348.09, 1.33, 317.74
348.98, 1.46, 318.04
350.05, 1.61, 318.40
351.34, 1.78, 318.84
352.37, 2.00, 319.18
355.03, 2.25, 320.08
341.12, 0.27, 315.31
341.31, 0.28, 315.37
341.50, 0.30, 315.43
341.71, 0.32, 315.50
341.92, 0.35, 315.57
342.13, 0.38, 315.63
342.35, 0.41, 315.71
342.59, 0.44, 315.78
342.84, 0.48, 315.86
343.12, 0.52, 315.95
343.42, 0.56, 316.05
343.75, 0.60, 316.16
344.09, 0.66, 316.26
344.44, 0.71, 316.38
344.83, 0.78, 316.50
345.24, 0.85, 316.64
345.70, 0.93, 316.78
346.18, 1.02, 316.94
346.75, 1.11, 317.12
347.39, 1.21, 317.33
348.16, 1.33, 317.58
¯349.06, 1.46, 317.87
350.14, 1.61, 318.21
351.44, 1.78, 318.63
352.23, 2.00, 318.89
355.17, 2.25, 319.84
340.84, 0.38, 315.15
341.32, 0.29, 315.29
341.52, 0.30, 315.35
341.73, 0.32, 315.42
341.93, 0.35, 315.48
342.14, 0.38, 315.55
342.36, 0.41, 315.61
342.60, 0.45, 315.69
342.86, 0.48, 315.77
343.13, 0.52, 315.85
343.44, 0.56, 315.94
343.77, 0.60, 316.05
344.11, 0.66, 316.15
344.46, 0.72, 316.26
344.86, 0.78, 316.38
345.27, 0.85, 316.51
345.73, 0.93, 316.65
346.23, 1.02, 316.80
346.81, 1.11, 316.98
347.45, 1.21, 317.17
348.23, 1.33, 317.41
349.14, 1.46, 317.69
350.22, 1.60, 318.03
351.22, 1.79, 318.33
352.35, 2.00, 318.68
355.32, 2.25, 319.59
340.85, 0.39, 315.08
341.02, 0.40, 315.13
341.53, 0.31, 315.28
341.74, 0.33, 315.34
341.94, 0.35, 315.40
342.15, 0.38, 315.46
342.37, 0.41, 315.52
342.61, 0.45, 315.59
342.87, 0.49, 315.67
343.14, 0.52, 315.75
343.46, 0.56, 315.84
343.79, 0.61, 315.94
344.12, 0.66, 316.03
344.48, 0.72, 316.14
344.87, 0.78, 316.25
345.30, 0.85, 316.38
345.76, 0.93, 316.51
346.28, 1.01, 316.66
346.86, 1.11, 316.83
347.51, 1.21, 317.02
¯348.30, 1.32, 317.25
349.21, 1.45, 317.52
350.31, 1.60, 317.84
350.81, 1.80, 317.98
352.47, 1.99, 318.47
355.46, 2.25, 319.34
340.85, 0.39, 315.01
341.03, 0.40, 315.06
341.22, 0.42, 315.11
341.75, 0.33, 315.26
341.95, 0.36, 315.31
342.16, 0.39, 315.37
342.38, 0.42, 315.43
342.62, 0.45, 315.50
342.88, 0.49, 315.57
343.16, 0.53, 315.65
343.48, 0.56, 315.73
343.81, 0.61, 315.83
344.14, 0.66, 315.92
344.50, 0.72, 316.02
344.89, 0.78, 316.13
345.32, 0.85, 316.24
345.80, 0.93, 316.38
346.33, 1.01, 316.52
346.91, 1.10, 316.68
347.57, 1.21, 316.86
348.36, 1.32, 317.08
349.29, 1.45, 317.34
350.10, 1.61, 317.57
350.86, 1.79, 317.77
352.60, 1.99, 318.26
355.60, 2.25, 319.09
340.86, 0.39, 314.94
341.04, 0.41, 314.99
341.23, 0.42, 315.04
341.76, 0.33, 315.18
341.96, 0.36, 315.23
342.17, 0.39, 315.28
342.39, 0.42, 315.34
342.63, 0.46, 315.40
342.89, 0.49, 315.47
343.18, 0.53, 315.55
343.50, 0.57, 315.63
343.83, 0.61, 315.72
344.16, 0.66, 315.80
344.52, 0.72, 315.90
344.91, 0.79, 316.00
345.34, 0.85, 316.11
345.83, 0.93, 316.24
346.38, 1.01, 316.38
346.97, 1.10, 316.54
¯347.63, 1.21, 316.71
348.43, 1.32, 316.92
349.36, 1.45, 317.16
349.71, 1.63, 317.25
350.96, 1.79, 317.58
352.73, 1.99, 318.04
355.75, 2.25, 318.83
340.87, 0.40, 314.87
341.04, 0.41, 314.91
341.23, 0.43, 314.96
341.44, 0.44, 315.01
341.97, 0.36, 315.14
342.18, 0.39, 315.20
342.40, 0.42, 315.25
342.64, 0.46, 315.31
342.91, 0.49, 315.38
343.20, 0.53, 315.45
343.51, 0.57, 315.52
343.84, 0.61, 315.61
344.18, 0.67, 315.69
344.54, 0.72, 315.78
344.93, 0.79, 315.87
345.36, 0.86, 315.98
345.87, 0.93, 316.10
346.41, 1.01, 316.24
347.02, 1.10, 316.39
347.68, 1.20, 316.55
348.50, 1.32, 316.75
348.98, 1.47, 316.87
349.75, 1.62, 317.06
351.06, 1.79, 317.38
352.85, 1.99, 317.83
355.90, 2.25, 318.58
340.87, 0.40, 314.80
341.05, 0.41, 314.84
341.24, 0.43, 314.89
341.44, 0.45, 314.93
341.64, 0.47, 314.98
341.89, 0.48, 315.04
342.41, 0.43, 315.16
342.66, 0.46, 315.22
342.92, 0.49, 315.28
343.22, 0.53, 315.35
343.53, 0.57, 315.42
343.86, 0.61, 315.50
344.19, 0.67, 315.57
344.55, 0.72, 315.66
344.94, 0.79, 315.75
345.39, 0.85, 315.85
345.90, 0.93, 315.97
346.44, 1.01, 316.10
¯347.05, 1.10, 316.24
347.74, 1.20, 316.40
348.32, 1.33, 316.53
348.79, 1.48, 316.64
349.82, 1.62, 316.88
351.16, 1.79, 317.19
352.98, 1.99, 317.61
356.04, 2.24, 318.32
340.88, 0.40, 314.73
341.05, 0.42, 314.77
341.24, 0.43, 314.81
341.43, 0.45, 314.86
341.63, 0.47, 314.90
341.85, 0.50, 314.95
342.08, 0.52, 315.00
342.67, 0.46, 315.12
342.94, 0.49, 315.18
343.23, 0.53, 315.25
343.55, 0.57, 315.32
343.87, 0.61, 315.39
344.21, 0.67, 315.46
344.57, 0.73, 315.54
344.96, 0.79, 315.62
345.42, 0.85, 315.72
345.93, 0.93, 315.83
346.48, 1.01, 315.95
347.09, 1.10, 316.08
347.65, 1.21, 316.21
347.95, 1.36, 316.27
348.87, 1.48, 316.47
349.90, 1.62, 316.69
351.26, 1.79, 316.99
353.11, 1.98, 317.39
356.19, 2.24, 318.06
340.88, 0.41, 314.67
341.06, 0.42, 314.70
341.25, 0.44, 314.74
341.43, 0.46, 314.78
341.63, 0.48, 314.82
341.84, 0.50, 314.86
342.07, 0.53, 314.91
342.32, 0.55, 314.96
342.95, 0.49, 315.09
343.25, 0.53, 315.15
343.56, 0.57, 315.21
343.89, 0.62, 315.28
344.22, 0.67, 315.34
344.58, 0.73, 315.42
344.99, 0.79, 315.50
345.45, 0.85, 315.59
345.96, 0.92, 315.70
¯346.51, 1.01, 315.81
346.90, 1.12, 315.89
347.21, 1.25, 315.95
348.02, 1.35, 316.11
348.95, 1.47, 316.30
349.97, 1.62, 316.51
351.36, 1.78, 316.79
353.24, 1.98, 317.17
356.34, 2.24, 317.80
340.89, 0.41, 314.60
341.06, 0.42, 314.63
341.25, 0.44, 314.67
341.43, 0.46, 314.70
341.63, 0.48, 314.74
341.84, 0.51, 314.78
342.07, 0.53, 314.82
342.32, 0.56, 314.87
342.58, 0.59, 314.92
342.86, 0.62, 314.97
343.57, 0.57, 315.11
343.90, 0.62, 315.17
344.23, 0.67, 315.23
344.59, 0.73, 315.30
345.02, 0.79, 315.38
345.48, 0.85, 315.46
345.97, 0.92, 315.56
346.13, 1.05, 315.59
346.59, 1.15, 315.67
347.26, 1.24, 315.80
348.10, 1.35, 315.96
349.03, 1.47, 316.13
350.04, 1.62, 316.32
351.45, 1.78, 316.59
353.37, 1.98, 316.95
356.50, 2.24, 317.54
340.89, 0.41, 314.53
341.06, 0.43, 314.56
341.25, 0.44, 314.59
341.42, 0.47, 314.62
341.62, 0.49, 314.66
341.83, 0.51, 314.70
342.06, 0.54, 314.74
342.32, 0.56, 314.78
342.58, 0.59, 314.82
342.86, 0.62, 314.87
343.17, 0.66, 314.93
343.49, 0.70, 314.98
343.87, 0.74, 315.05
344.26, 0.79, 315.12
344.66, 0.84, 315.19
345.04, 0.91, 315.25
¯345.49, 0.99, 315.33
346.03, 1.06, 315.42
346.64, 1.15, 315.53
347.32, 1.24, 315.65
348.17, 1.34, 315.80
349.11, 1.47, 315.96
350.11, 1.61, 316.13
351.54, 1.78, 316.38
353.50, 1.98, 316.72
356.69, 2.24, 317.28
340.89, 0.42, 314.46
341.06, 0.43, 314.49
341.25, 0.45, 314.52
341.42, 0.47, 314.55
341.62, 0.49, 314.58
341.83, 0.52, 314.61
342.06, 0.54, 314.65
342.32, 0.57, 314.69
342.57, 0.60, 314.73
342.86, 0.63, 314.78
343.17, 0.66, 314.83
343.48, 0.70, 314.88
343.83, 0.75, 314.93
344.19, 0.80, 314.99
344.58, 0.86, 315.05
345.02, 0.92, 315.12
345.50, 0.99, 315.20
346.05, 1.06, 315.29
346.68, 1.14, 315.39
347.37, 1.24, 315.50
348.24, 1.34, 315.64
349.19, 1.46, 315.79
350.18, 1.61, 315.94
351.64, 1.77, 316.18
353.63, 1.97, 316.49
356.88, 2.24, 317.01
340.89, 0.42, 314.40
341.07, 0.43, 314.42
341.25, 0.45, 314.45
341.41, 0.48, 314.47
341.61, 0.50, 314.50
341.82, 0.52, 314.53
342.05, 0.55, 314.56
342.31, 0.57, 314.60
342.57, 0.60, 314.64
342.85, 0.63, 314.68
343.16, 0.67, 314.73
343.48, 0.71, 314.77
343.83, 0.75, 314.82
344.19, 0.80, 314.87
344.57, 0.86, 314.93
¯345.02, 0.92, 315.00
345.51, 0.99, 315.07
346.07, 1.06, 315.15
346.73, 1.14, 315.24
347.43, 1.23, 315.34
348.32, 1.34, 315.47
349.27, 1.46, 315.61
350.25, 1.61, 315.75
351.73, 1.77, 315.97
353.76, 1.97, 316.26
357.08, 2.24, 316.75
340.89, 0.42, 314.33
341.07, 0.44, 314.35
341.24, 0.46, 314.37
341.41, 0.48, 314.40
341.60, 0.50, 314.42
341.81, 0.53, 314.45
342.04, 0.55, 314.48
342.31, 0.57, 314.51
342.56, 0.60, 314.55
342.84, 0.64, 314.58
343.16, 0.67, 314.63
343.48, 0.71, 314.67
343.82, 0.75, 314.71
344.19, 0.80, 314.76
344.57, 0.86, 314.81
345.03, 0.92, 314.87
345.51, 0.99, 314.93
346.10, 1.06, 315.01
346.78, 1.14, 315.10
347.49, 1.23, 315.19
348.39, 1.33, 315.31
349.35, 1.45, 315.44
350.32, 1.60, 315.56
351.82, 1.77, 315.76
353.90, 1.97, 316.03
357.27, 2.24, 316.47
340.89, 0.43, 314.26
341.06, 0.44, 314.28
341.23, 0.46, 314.30
341.40, 0.49, 314.32
341.60, 0.51, 314.34
341.81, 0.53, 314.37
342.03, 0.56, 314.39
342.30, 0.58, 314.43
342.56, 0.61, 314.46
342.83, 0.64, 314.49
343.16, 0.67, 314.53
343.47, 0.71, 314.56
343.82, 0.76, 314.60
344.18, 0.81, 314.65
¯344.56, 0.87, 314.69
345.03, 0.92, 314.74
345.51, 0.99, 314.80
346.12, 1.06, 314.87
346.82, 1.13, 314.95
347.56, 1.22, 315.04
348.46, 1.33, 315.14
349.43, 1.45, 315.26
350.39, 1.60, 315.37
351.92, 1.77, 315.55
354.03, 1.97, 315.79
360.33, 2.25, 316.53
340.89, 0.43, 314.19
341.06, 0.44, 314.21
341.23, 0.46, 314.23
341.39, 0.49, 314.25
341.59, 0.51, 314.27
341.80, 0.54, 314.29
342.02, 0.56, 314.31
342.29, 0.58, 314.34
342.55, 0.61, 314.36
342.83, 0.64, 314.39
343.15, 0.67, 314.43
343.47, 0.71, 314.46
343.81, 0.76, 314.49
344.18, 0.81, 314.53
344.56, 0.87, 314.57
345.03, 0.92, 314.62
345.52, 0.99, 314.67
346.14, 1.06, 314.73
346.86, 1.13, 314.81
347.62, 1.22, 314.88
348.53, 1.32, 314.98
349.50, 1.45, 315.08
350.46, 1.60, 315.18
352.01, 1.76, 315.33
354.17, 1.96, 315.56
360.59, 2.25, 316.22
340.89, 0.43, 314.13
341.06, 0.45, 314.14
341.22, 0.47, 314.16
341.39, 0.49, 314.17
341.58, 0.52, 314.19
341.79, 0.54, 314.21
342.01, 0.57, 314.23
342.29, 0.58, 314.25
342.54, 0.61, 314.27
342.82, 0.65, 314.30
343.15, 0.68, 314.33
343.46, 0.72, 314.36
343.80, 0.76, 314.39
¯344.17, 0.81, 314.42
344.55, 0.87, 314.45
345.04, 0.92, 314.49
345.52, 0.99, 314.54
346.16, 1.05, 314.59
346.91, 1.13, 314.66
347.68, 1.22, 314.73
348.60, 1.32, 314.81
349.57, 1.44, 314.90
350.53, 1.59, 314.98
352.11, 1.76, 315.12
354.31, 1.96, 315.31
360.87, 2.24, 315.90
340.88, 0.43, 314.06
341.06, 0.45, 314.07
341.21, 0.47, 314.09
341.38, 0.50, 314.10
341.57, 0.52, 314.11
341.78, 0.55, 314.13
342.00, 0.57, 314.14
342.28, 0.59, 314.16
342.53, 0.62, 314.18
342.81, 0.65, 314.20
343.14, 0.68, 314.23
343.45, 0.72, 314.25
343.79, 0.76, 314.28
344.17, 0.81, 314.30
344.54, 0.87, 314.33
345.04, 0.92, 314.37
345.52, 0.99, 314.41
346.18, 1.05, 314.45
346.95, 1.12, 314.51
347.74, 1.21, 314.57
348.67, 1.31, 314.64
349.65, 1.44, 314.71
350.60, 1.59, 314.78
352.20, 1.76, 314.90
354.45, 1.96, 315.07
361.06, 2.24, 315.57
340.88, 0.44, 313.99
341.05, 0.45, 314.00
341.20, 0.48, 314.01
341.37, 0.50, 314.02
341.56, 0.53, 314.04
341.77, 0.55, 314.05
341.98, 0.58, 314.06
342.27, 0.59, 314.08
342.52, 0.62, 314.09
342.80, 0.65, 314.11
343.13, 0.68, 314.13
343.44, 0.72, 314.15
¯343.78, 0.77, 314.17
344.16, 0.81, 314.19
344.53, 0.87, 314.21
345.04, 0.92, 314.25
345.52, 0.99, 314.27
346.20, 1.05, 314.32
346.99, 1.12, 314.36
347.80, 1.21, 314.41
348.74, 1.31, 314.47
349.72, 1.43, 314.53
350.67, 1.59, 314.59
352.29, 1.75, 314.68
354.59, 1.96, 314.82
340.88, 0.44, 313.93
341.04, 0.46, 313.94
341.19, 0.48, 313.94
341.36, 0.51, 313.95
341.55, 0.53, 313.96
341.75, 0.55, 313.97
341.97, 0.58, 313.98
342.26, 0.59, 313.99
342.51, 0.62, 314.00
342.78, 0.66, 314.02
343.12, 0.68, 314.03
343.44, 0.72, 314.05
343.77, 0.77, 314.06
344.15, 0.82, 314.08
344.53, 0.87, 314.10
345.04, 0.92, 314.12
345.52, 0.99, 314.14
346.22, 1.05, 314.18
347.03, 1.11, 314.21
347.86, 1.20, 314.25
348.81, 1.30, 314.30
349.79, 1.43, 314.34
350.74, 1.58, 314.39
352.39, 1.75, 314.46
354.73, 1.95, 314.57
340.87, 0.44, 313.86
341.03, 0.46, 313.87
341.18, 0.48, 313.87
341.35, 0.51, 313.88
341.54, 0.53, 313.88
341.74, 0.56, 313.89
341.96, 0.58, 313.90
342.25, 0.60, 313.91
342.50, 0.63, 313.91
342.77, 0.66, 313.92
343.11, 0.69, 313.93
343.43, 0.73, 313.94
343.76, 0.77, 313.96
¯344.14, 0.82, 313.97
344.52, 0.88, 313.98
345.04, 0.92, 314.00
345.52, 0.99, 314.01
346.23, 1.05, 314.04
347.07, 1.11, 314.06
347.91, 1.20, 314.09
348.88, 1.30, 314.12
349.86, 1.42, 314.15
350.81, 1.58, 314.18
352.48, 1.74, 314.24
354.87, 1.95, 314.32
340.86, 0.44, 313.80
341.02, 0.46, 313.80
341.17, 0.49, 313.80
341.34, 0.51, 313.80
341.53, 0.54, 313.81
341.73, 0.56, 313.81
341.94, 0.59, 313.82
342.24, 0.60, 313.82
342.49, 0.63, 313.83
342.76, 0.66, 313.83
343.09, 0.69, 313.84
343.41, 0.73, 313.84
343.75, 0.77, 313.85
344.13, 0.82, 313.86
344.50, 0.88, 313.86
345.04, 0.92, 313.87
345.52, 0.99, 313.88
346.25, 1.04, 313.89
347.11, 1.10, 313.91
347.97, 1.19, 313.93
348.94, 1.29, 313.94
349.93, 1.42, 313.96
350.88, 1.58, 313.98
352.58, 1.74, 314.01
356.70, 1.93, 314.09
340.86, 0.44, 313.73
341.01, 0.47, 313.73
341.16, 0.49, 313.73
341.32, 0.52, 313.73
341.51, 0.54, 313.73
341.71, 0.57, 313.73
341.93, 0.59, 313.73
342.23, 0.60, 313.74
342.47, 0.63, 313.74
342.74, 0.67, 313.74
343.08, 0.69, 313.74
343.40, 0.73, 313.74
343.74, 0.77, 313.74
344.12, 0.82, 313.74
¯344.49, 0.88, 313.75
345.03, 0.92, 313.75
345.51, 0.99, 313.75
346.26, 1.04, 313.75
347.15, 1.10, 313.76
348.03, 1.18, 313.76
349.01, 1.29, 313.77
350.01, 1.41, 313.77
350.95, 1.57, 313.77
352.67, 1.74, 313.78
356.89, 1.92, 313.80
340.85, 0.45, 313.66
341.00, 0.47, 313.66
341.15, 0.50, 313.66
341.31, 0.52, 313.66
341.50, 0.54, 313.66
341.70, 0.57, 313.66
341.92, 0.59, 313.65
342.21, 0.60, 313.65
342.46, 0.64, 313.65
342.73, 0.67, 313.65
343.06, 0.69, 313.64
343.39, 0.73, 313.64
343.73, 0.78, 313.64
344.11, 0.82, 313.63
344.48, 0.88, 313.63
345.01, 0.93, 313.62
345.51, 0.99, 313.62
346.28, 1.04, 313.61
347.19, 1.10, 313.60
348.08, 1.18, 313.60
349.08, 1.28, 313.59
350.08, 1.41, 313.58
351.02, 1.57, 313.57
352.77, 1.73, 313.55
357.08, 1.92, 313.51
340.84, 0.45, 313.60
340.99, 0.47, 313.60
341.14, 0.50, 313.59
341.30, 0.52, 313.59
341.48, 0.55, 313.58
341.68, 0.57, 313.58
341.90, 0.60, 313.57
342.20, 0.61, 313.57
342.45, 0.64, 313.56
342.71, 0.67, 313.56
343.05, 0.70, 313.55
343.38, 0.73, 313.54
343.71, 0.78, 313.53
344.10, 0.82, 313.52
344.47, 0.88, 313.51
¯344.98, 0.93, 313.50
345.51, 0.99, 313.49
346.29, 1.04, 313.47
347.23, 1.09, 313.45
348.13, 1.17, 313.43
349.15, 1.27, 313.40
350.15, 1.40, 313.38
351.09, 1.56, 313.36
352.86, 1.73, 313.32
357.26, 1.92, 313.22
340.83, 0.45, 313.53
340.98, 0.48, 313.53
341.12, 0.50, 313.52
341.28, 0.53, 313.52
341.47, 0.55, 313.51
341.67, 0.58, 313.50
341.89, 0.60, 313.49
342.18, 0.61, 313.48
342.43, 0.64, 313.47
342.70, 0.67, 313.46
343.03, 0.70, 313.45
343.36, 0.73, 313.44
343.70, 0.78, 313.43
344.08, 0.82, 313.41
344.45, 0.88, 313.40
344.96, 0.93, 313.38
345.50, 0.99, 313.36
346.30, 1.03, 313.33
347.26, 1.09, 313.29
348.18, 1.17, 313.26
349.22, 1.27, 313.22
350.22, 1.40, 313.18
351.15, 1.56, 313.15
352.96, 1.72, 313.08
357.46, 1.91, 312.91
340.82, 0.45, 313.47
340.96, 0.48, 313.46
341.11, 0.50, 313.45
341.27, 0.53, 313.45
341.45, 0.55, 313.44
341.65, 0.58, 313.43
341.87, 0.60, 313.41
342.16, 0.61, 313.40
342.42, 0.64, 313.39
342.68, 0.68, 313.37
343.01, 0.70, 313.36
343.35, 0.74, 313.34
343.68, 0.78, 313.32
344.06, 0.82, 313.30
344.44, 0.88, 313.28
344.94, 0.93, 313.26
¯345.49, 0.99, 313.23
346.31, 1.03, 313.19
347.26, 1.08, 313.14
348.24, 1.16, 313.09
349.28, 1.26, 313.03
350.29, 1.39, 312.98
351.22, 1.55, 312.93
354.34, 1.69, 312.78
357.67, 1.91, 312.61
340.81, 0.46, 313.40
340.95, 0.48, 313.40
341.10, 0.51, 313.39
341.25, 0.53, 313.38
341.44, 0.56, 313.36
341.63, 0.58, 313.35
341.85, 0.60, 313.34
342.14, 0.62, 313.32
342.40, 0.64, 313.30
342.66, 0.68, 313.28
342.99, 0.70, 313.26
343.33, 0.74, 313.24
343.66, 0.78, 313.22
344.04, 0.83, 313.19
344.42, 0.88, 313.17
344.91, 0.93, 313.14
345.49, 0.99, 313.10
346.33, 1.03, 313.04
347.27, 1.08, 312.98
348.29, 1.16, 312.92
349.35, 1.25, 312.85
350.37, 1.39, 312.78
351.29, 1.55, 312.72
354.46, 1.68, 312.51
357.83, 1.90, 312.29
340.80, 0.46, 313.34
340.94, 0.48, 313.33
341.08, 0.51, 313.32
341.24, 0.54, 313.31
341.42, 0.56, 313.29
341.61, 0.59, 313.28
341.84, 0.61, 313.26
342.12, 0.62, 313.23
342.38, 0.65, 313.21
342.64, 0.68, 313.19
342.97, 0.71, 313.17
343.32, 0.74, 313.14
343.64, 0.78, 313.11
344.02, 0.83, 313.08
344.41, 0.88, 313.05
344.89, 0.93, 313.02
345.48, 0.98, 312.97
¯346.34, 1.02, 312.90
347.27, 1.08, 312.83
348.33, 1.15, 312.74
349.42, 1.25, 312.66
350.44, 1.38, 312.57
351.37, 1.54, 312.50
354.59, 1.68, 312.25
357.99, 1.90, 311.98
340.78, 0.46, 313.28
340.92, 0.49, 313.26
341.07, 0.51, 313.25
341.22, 0.54, 313.24
341.40, 0.56, 313.22
341.59, 0.59, 313.20
341.82, 0.61, 313.18
342.10, 0.62, 313.15
342.36, 0.65, 313.13
342.62, 0.68, 313.10
342.95, 0.71, 313.07
343.30, 0.74, 313.04
343.63, 0.78, 313.01
344.00, 0.83, 312.97
344.39, 0.88, 312.94
344.86, 0.94, 312.89
345.47, 0.98, 312.84
346.34, 1.02, 312.76
347.28, 1.08, 312.67
348.38, 1.14, 312.57
349.49, 1.24, 312.46
350.51, 1.37, 312.37
351.45, 1.54, 312.28
354.71, 1.67, 311.98
358.15, 1.89, 311.65
340.77, 0.46, 313.21
340.91, 0.49, 313.20
341.05, 0.51, 313.18
341.20, 0.54, 313.17
341.38, 0.57, 313.15
341.58, 0.59, 313.13
341.80, 0.61, 313.10
342.08, 0.63, 313.07
342.34, 0.65, 313.04
342.60, 0.68, 313.02
342.93, 0.71, 312.98
343.28, 0.74, 312.94
343.61, 0.78, 312.91
343.98, 0.83, 312.87
344.37, 0.88, 312.82
344.83, 0.94, 312.78
345.46, 0.98, 312.71
346.33, 1.02, 312.61
¯347.27, 1.07, 312.51
348.43, 1.14, 312.39
349.55, 1.23, 312.27
350.59, 1.37, 312.16
352.54, 1.49, 311.95
354.83, 1.67, 311.70
358.30, 1.89, 311.33
340.75, 0.47, 313.15
340.89, 0.49, 313.13
341.03, 0.52, 313.11
341.19, 0.55, 313.10
341.36, 0.57, 313.07
341.56, 0.59, 313.05
341.78, 0.62, 313.02
342.06, 0.63, 312.99
342.32, 0.65, 312.96
342.58, 0.69, 312.93
342.90, 0.71, 312.89
343.26, 0.74, 312.84
343.59, 0.78, 312.80
343.96, 0.83, 312.76
344.35, 0.88, 312.71
344.80, 0.94, 312.66
345.45, 0.98, 312.58
346.30, 1.02, 312.47
347.27, 1.07, 312.36
348.47, 1.13, 312.21
349.62, 1.23, 312.07
350.66, 1.36, 311.94
352.60, 1.49, 311.71
354.92, 1.66, 311.43
358.41, 1.89, 311.00
340.74, 0.47, 313.09
340.87, 0.49, 313.07
341.02, 0.52, 313.05
341.17, 0.55, 313.03
341.34, 0.57, 313.00
341.53, 0.60, 312.98
341.75, 0.62, 312.95
342.03, 0.63, 312.91
342.30, 0.65, 312.87
342.56, 0.69, 312.84
342.88, 0.71, 312.79
343.24, 0.74, 312.75
343.57, 0.78, 312.70
343.94, 0.83, 312.65
344.34, 0.88, 312.60
344.77, 0.94, 312.54
345.44, 0.98, 312.45
346.26, 1.02, 312.34
347.27, 1.07, 312.20
¯348.52, 1.12, 312.03
349.69, 1.22, 311.87
350.74, 1.35, 311.73
352.68, 1.48, 311.46
355.01, 1.66, 311.15
358.52, 1.88, 310.67
340.72, 0.47, 313.02
340.86, 0.49, 313.00
341.00, 0.52, 312.98
341.15, 0.55, 312.96
341.32, 0.57, 312.93
341.51, 0.60, 312.90
341.73, 0.62, 312.87
342.01, 0.63, 312.83
342.28, 0.65, 312.79
342.54, 0.69, 312.75
342.85, 0.72, 312.70
343.22, 0.74, 312.65
343.54, 0.79, 312.60
343.91, 0.83, 312.54
344.32, 0.88, 312.48
344.73, 0.94, 312.42
345.42, 0.98, 312.32
346.23, 1.02, 312.20
347.26, 1.07, 312.04
348.56, 1.12, 311.85
349.75, 1.21, 311.67
351.30, 1.32, 311.44
352.76, 1.48, 311.22
355.10, 1.65, 310.87
358.50, 1.88, 310.36
340.71, 0.47, 312.96
340.84, 0.50, 312.94
340.98, 0.52, 312.92
341.13, 0.55, 312.89
341.30, 0.58, 312.86
341.49, 0.60, 312.83
341.71, 0.62, 312.80
341.98, 0.64, 312.75
342.26, 0.66, 312.70
342.51, 0.69, 312.66
342.83, 0.72, 312.61
343.20, 0.74, 312.55
343.52, 0.79, 312.50
343.89, 0.83, 312.44
344.29, 0.88, 312.37
344.70, 0.94, 312.30
345.41, 0.98, 312.19
346.19, 1.02, 312.06
347.25, 1.06, 311.88
348.60, 1.11, 311.66
¯349.82, 1.20, 311.46
351.33, 1.31, 311.22
352.85, 1.47, 310.96
355.20, 1.64, 310.58
358.40, 1.88, 310.05
340.69, 0.47, 312.90
340.82, 0.50, 312.87
340.96, 0.53, 312.85
341.11, 0.55, 312.82
341.28, 0.58, 312.79
341.47, 0.60, 312.76
341.68, 0.63, 312.72
341.96, 0.64, 312.67
342.24, 0.66, 312.62
342.49, 0.69, 312.58
342.80, 0.72, 312.52
343.17, 0.74, 312.45
343.50, 0.79, 312.40
343.86, 0.83, 312.33
344.27, 0.88, 312.26
344.66, 0.94, 312.19
345.39, 0.97, 312.06
346.14, 1.02, 311.92
347.23, 1.06, 311.73
348.64, 1.10, 311.48
349.89, 1.19, 311.25
351.35, 1.31, 310.99
352.94, 1.46, 310.71
355.27, 1.64, 310.29
358.30, 1.87, 309.75
340.67, 0.48, 312.84
340.80, 0.50, 312.81
340.94, 0.53, 312.78
341.09, 0.56, 312.75
341.26, 0.58, 312.72
341.44, 0.61, 312.69
341.66, 0.63, 312.64
341.93, 0.64, 312.59
342.21, 0.66, 312.54
342.47, 0.69, 312.49
342.77, 0.72, 312.43
343.14, 0.74, 312.36
343.47, 0.79, 312.29
343.84, 0.83, 312.22
344.25, 0.88, 312.14
344.64, 0.94, 312.07
345.36, 0.97, 311.93
346.10, 1.02, 311.79
347.22, 1.06, 311.57
348.68, 1.09, 311.29
350.61, 1.14, 310.92
¯351.37, 1.30, 310.77
353.01, 1.46, 310.45
355.37, 1.63, 310.00
358.19, 1.87, 309.45
340.65, 0.48, 312.77
340.78, 0.50, 312.75
340.92, 0.53, 312.72
341.07, 0.56, 312.69
341.24, 0.58, 312.65
341.42, 0.61, 312.61
341.63, 0.63, 312.57
341.90, 0.64, 312.51
342.19, 0.66, 312.45
342.44, 0.69, 312.40
342.74, 0.72, 312.34
343.11, 0.75, 312.26
343.45, 0.79, 312.19
343.81, 0.83, 312.12
344.22, 0.88, 312.03
344.61, 0.94, 311.95
345.31, 0.98, 311.81
346.06, 1.02, 311.65
347.20, 1.05, 311.41
348.72, 1.09, 311.10
350.63, 1.13, 310.70
351.40, 1.30, 310.54
353.06, 1.45, 310.20
355.48, 1.63, 309.70
358.15, 1.87, 309.14
340.63, 0.48, 312.71
340.77, 0.50, 312.68
340.90, 0.53, 312.65
341.05, 0.56, 312.62
341.21, 0.58, 312.58
341.40, 0.61, 312.54
341.61, 0.63, 312.50
341.88, 0.65, 312.44
342.17, 0.66, 312.37
342.41, 0.69, 312.32
342.71, 0.72, 312.25
343.08, 0.75, 312.17
343.42, 0.79, 312.09
343.78, 0.83, 312.01
344.19, 0.88, 311.92
344.59, 0.94, 311.83
345.27, 0.98, 311.68
346.01, 1.02, 311.52
347.18, 1.05, 311.26
348.76, 1.08, 310.91
350.64, 1.13, 310.49
351.39, 1.30, 310.32
¯353.10, 1.44, 309.94
355.59, 1.62, 309.39
358.14, 1.87, 308.82
340.61, 0.48, 312.65
340.75, 0.50, 312.62
340.88, 0.53, 312.59
341.03, 0.56, 312.55
341.19, 0.59, 312.52
341.37, 0.61, 312.47
341.58, 0.63, 312.42
341.85, 0.65, 312.36
342.14, 0.66, 312.29
342.39, 0.70, 312.23
342.68, 0.72, 312.16
343.05, 0.75, 312.07
343.40, 0.79, 311.99
343.75, 0.83, 311.91
344.16, 0.88, 311.81
344.56, 0.94, 311.71
345.23, 0.98, 311.56
345.96, 1.03, 311.38
347.16, 1.05, 311.10
349.95, 0.97, 310.44
350.62, 1.13, 310.28
351.40, 1.29, 310.09
353.15, 1.44, 309.68
355.71, 1.61, 309.07
358.12, 1.86, 308.50
340.59, 0.48, 312.59
340.72, 0.51, 312.56
340.86, 0.53, 312.52
341.01, 0.56, 312.49
341.16, 0.59, 312.45
341.35, 0.61, 312.40
341.55, 0.64, 312.35
341.82, 0.65, 312.28
342.11, 0.66, 312.21
342.36, 0.70, 312.15
342.65, 0.73, 312.07
343.01, 0.75, 311.98
343.37, 0.79, 311.89
343.72, 0.83, 311.80
344.12, 0.88, 311.70
344.54, 0.94, 311.60
345.18, 0.98, 311.43
345.91, 1.03, 311.25
347.13, 1.05, 310.94
349.93, 0.97, 310.24
350.61, 1.12, 310.07
351.42, 1.28, 309.87
353.19, 1.43, 309.42
¯355.75, 1.61, 308.78
358.06, 1.86, 308.19
340.57, 0.48, 312.53
340.70, 0.51, 312.50
340.84, 0.53, 312.46
340.98, 0.56, 312.42
341.14, 0.59, 312.38
341.32, 0.61, 312.33
341.52, 0.64, 312.28
341.78, 0.65, 312.21
342.07, 0.67, 312.13
342.33, 0.70, 312.06
342.62, 0.73, 311.98
342.98, 0.75, 311.89
343.34, 0.78, 311.79
343.69, 0.83, 311.70
344.09, 0.88, 311.59
344.51, 0.94, 311.48
345.13, 0.98, 311.31
345.86, 1.03, 311.12
347.11, 1.04, 310.79
349.91, 0.97, 310.04
350.59, 1.12, 309.86
351.44, 1.28, 309.63
353.23, 1.43, 309.15
355.66, 1.61, 308.51
358.00, 1.86, 307.88
340.55, 0.48, 312.47
340.68, 0.51, 312.43
340.82, 0.53, 312.40
340.96, 0.56, 312.36
341.11, 0.59, 312.31
341.29, 0.62, 312.26
341.49, 0.64, 312.21
341.75, 0.65, 312.13
342.04, 0.67, 312.05
342.30, 0.70, 311.98
342.58, 0.73, 311.90
342.94, 0.75, 311.80
343.31, 0.78, 311.69
343.66, 0.83, 311.59
344.06, 0.88, 311.48
344.48, 0.94, 311.36
345.09, 0.98, 311.19
345.81, 1.03, 310.99
347.08, 1.04, 310.63
349.89, 0.96, 309.84
350.57, 1.11, 309.65
351.45, 1.27, 309.40
353.27, 1.42, 308.89
355.53, 1.61, 308.25
¯357.94, 1.86, 307.57
340.53, 0.48, 312.41
340.66, 0.51, 312.37
340.79, 0.54, 312.33
340.94, 0.56, 312.29
341.09, 0.59, 312.24
341.26, 0.62, 312.19
341.46, 0.64, 312.13
341.72, 0.66, 312.06
342.00, 0.67, 311.97
342.27, 0.70, 311.89
342.55, 0.73, 311.81
342.91, 0.75, 311.70
343.28, 0.78, 311.59
343.63, 0.83, 311.49
344.02, 0.88, 311.37
344.45, 0.93, 311.24
345.04, 0.98, 311.07
345.77, 1.03, 310.85
347.05, 1.04, 310.48
349.87, 0.96, 309.64
350.56, 1.11, 309.43
351.47, 1.27, 309.16
353.32, 1.41, 308.62
355.41, 1.60, 307.99
357.88, 1.85, 307.26
340.51, 0.48, 312.35
340.64, 0.51, 312.31
340.77, 0.54, 312.27
340.91, 0.56, 312.22
341.06, 0.59, 312.18
341.24, 0.62, 312.12
341.43, 0.64, 312.06
341.69, 0.66, 311.98
341.97, 0.67, 311.89
342.24, 0.70, 311.81
342.51, 0.73, 311.72
342.87, 0.75, 311.61
343.25, 0.78, 311.49
343.60, 0.83, 311.39
343.99, 0.88, 311.26
344.42, 0.93, 311.13
344.99, 0.98, 310.95
345.75, 1.02, 310.71
347.03, 1.04, 310.32
349.85, 0.95, 309.44
350.57, 1.10, 309.21
351.48, 1.26, 308.93
353.35, 1.41, 308.34
355.30, 1.60, 307.73
359.25, 1.83, 306.50
¯359.82, 2.17, 306.32
340.49, 0.49, 312.29
340.61, 0.51, 312.25
340.75, 0.54, 312.21
340.89, 0.57, 312.16
341.03, 0.59, 312.11
341.21, 0.62, 312.05
341.40, 0.65, 311.99
341.65, 0.66, 311.91
341.93, 0.68, 311.82
342.21, 0.70, 311.73
342.48, 0.73, 311.64
342.83, 0.76, 311.52
343.22, 0.78, 311.40
343.56, 0.83, 311.28
343.95, 0.88, 311.15
344.39, 0.93, 311.01
344.94, 0.98, 310.83
345.72, 1.02, 310.57
348.32, 0.90, 309.73
349.83, 0.95, 309.23
350.58, 1.09, 308.99
351.49, 1.25, 308.69
353.37, 1.40, 308.07
355.19, 1.60, 307.48
358.39, 1.84, 306.43
359.46, 2.17, 306.07
340.46, 0.49, 312.23
340.59, 0.51, 312.19
340.72, 0.54, 312.14
340.86, 0.57, 312.09
341.01, 0.60, 312.04
341.18, 0.62, 311.99
341.36, 0.65, 311.92
341.62, 0.66, 311.84
341.89, 0.68, 311.74
342.18, 0.70, 311.64
342.44, 0.73, 311.55
342.79, 0.76, 311.43
343.18, 0.78, 311.30
343.53, 0.83, 311.18
343.92, 0.88, 311.05
344.35, 0.93, 310.90
344.88, 0.98, 310.71
345.69, 1.02, 310.44
348.25, 0.90, 309.56
349.80, 0.94, 309.03
350.59, 1.09, 308.76
351.43, 1.25, 308.47
353.38, 1.39, 307.80
355.08, 1.60, 307.22
¯357.42, 1.85, 306.42
359.14, 2.16, 305.82
359.70, 2.51, 305.63
340.44, 0.49, 312.17
340.57, 0.51, 312.13
340.70, 0.54, 312.08
340.84, 0.57, 312.03
340.98, 0.60, 311.98
341.15, 0.62, 311.92
341.33, 0.65, 311.85
341.58, 0.66, 311.76
341.86, 0.68, 311.66
342.15, 0.70, 311.56
342.40, 0.73, 311.47
342.75, 0.76, 311.34
343.13, 0.78, 311.21
343.49, 0.83, 311.08
343.88, 0.88, 310.94
344.31, 0.93, 310.78
344.83, 0.98, 310.60
345.63, 1.02, 310.31
348.18, 0.90, 309.40
349.78, 0.94, 308.82
350.56, 1.08, 308.54
351.44, 1.25, 308.23
353.40, 1.39, 307.53
354.97, 1.60, 306.96
357.32, 1.84, 306.12
358.84, 2.16, 305.57
359.35, 2.50, 305.39
340.42, 0.49, 312.11
340.54, 0.51, 312.07
340.67, 0.54, 312.02
340.81, 0.57, 311.97
340.95, 0.60, 311.91
341.12, 0.62, 311.85
341.30, 0.65, 311.78
341.54, 0.67, 311.69
341.82, 0.68, 311.59
342.11, 0.70, 311.48
342.37, 0.73, 311.38
342.71, 0.76, 311.25
343.09, 0.79, 311.11
343.45, 0.83, 310.97
343.84, 0.87, 310.83
344.27, 0.93, 310.67
344.77, 0.98, 310.48
345.57, 1.02, 310.18
348.10, 0.90, 309.24
349.77, 0.93, 308.61
350.45, 1.08, 308.36
¯351.47, 1.24, 307.97
353.41, 1.38, 307.25
354.86, 1.60, 306.70
357.23, 1.84, 305.82
358.54, 2.16, 305.32
359.04, 2.50, 305.13
340.39, 0.49, 312.05
340.52, 0.51, 312.01
340.65, 0.54, 311.96
340.78, 0.57, 311.90
340.93, 0.60, 311.85
341.09, 0.62, 311.78
341.27, 0.65, 311.71
341.51, 0.67, 311.62
341.78, 0.68, 311.51
342.07, 0.70, 311.40
342.33, 0.73, 311.30
342.67, 0.76, 311.17
343.05, 0.79, 311.02
343.42, 0.82, 310.87
343.80, 0.87, 310.72
344.23, 0.93, 310.56
344.72, 0.98, 310.36
345.50, 1.02, 310.06
345.23, 1.19, 310.16
345.10, 1.34, 310.21
345.08, 1.47, 310.22
345.08, 1.61, 310.22
345.08, 1.74, 310.22
345.08, 1.88, 310.22
345.08, 2.01, 310.22
345.07, 2.14, 310.21
345.07, 2.28, 310.21
345.07, 2.41, 310.21
340.37, 0.49, 312.00
340.49, 0.51, 311.95
340.62, 0.54, 311.89
340.75, 0.57, 311.84
340.90, 0.60, 311.78
341.05, 0.63, 311.72
341.23, 0.65, 311.64
341.47, 0.67, 311.55
341.74, 0.68, 311.44
342.03, 0.70, 311.32
342.29, 0.73, 311.21
342.62, 0.76, 311.08
343.00, 0.79, 310.93
343.38, 0.82, 310.77
343.76, 0.87, 310.61
344.19, 0.92, 310.44
344.66, 0.98, 310.25
¯345.44, 1.02, 309.93
345.00, 1.21, 310.11
344.94, 1.35, 310.13
344.93, 1.48, 310.13
344.93, 1.61, 310.13
344.93, 1.75, 310.13
344.93, 1.88, 310.13
344.93, 2.01, 310.13
344.93, 2.14, 310.13
344.93, 2.27, 310.13
344.92, 2.41, 310.13
340.34, 0.49, 311.94
340.46, 0.51, 311.89
340.59, 0.54, 311.83
340.73, 0.57, 311.78
340.87, 0.60, 311.72
341.02, 0.63, 311.65
341.20, 0.65, 311.57
341.43, 0.67, 311.48
341.70, 0.69, 311.36
341.99, 0.70, 311.24
342.26, 0.73, 311.13
342.58, 0.76, 310.99
342.95, 0.79, 310.83
343.34, 0.82, 310.67
343.72, 0.87, 310.51
344.14, 0.92, 310.33
344.60, 0.98, 310.13
345.05, 1.06, 309.95
344.90, 1.21, 310.01
344.85, 1.35, 310.03
344.84, 1.48, 310.03
344.84, 1.61, 310.03
344.84, 1.75, 310.03
344.84, 1.88, 310.02
344.84, 2.01, 310.02
344.84, 2.14, 310.02
344.84, 2.27, 310.02
344.84, 2.41, 310.02
340.32, 0.49, 311.88
340.44, 0.51, 311.83
340.56, 0.54, 311.77
340.70, 0.57, 311.71
340.84, 0.60, 311.65
340.99, 0.63, 311.58
341.17, 0.65, 311.51
341.39, 0.67, 311.41
341.65, 0.69, 311.29
341.94, 0.70, 311.16
342.22, 0.73, 311.04
342.54, 0.76, 310.90
¯342.91, 0.79, 310.74
343.31, 0.82, 310.56
343.68, 0.87, 310.40
344.10, 0.92, 310.22
344.56, 0.98, 310.01
345.02, 1.06, 309.81
344.85, 1.21, 309.88
344.80, 1.35, 309.90
344.80, 1.48, 309.90
344.80, 1.61, 309.90
344.80, 1.74, 309.90
344.80, 1.88, 309.90
344.80, 2.01, 309.90
344.80, 2.14, 309.90
344.80, 2.27, 309.90
344.80, 2.40, 309.90
340.29, 0.49, 311.82
340.41, 0.51, 311.77
340.54, 0.54, 311.71
340.67, 0.57, 311.65
340.81, 0.60, 311.59
340.96, 0.63, 311.52
341.13, 0.65, 311.44
341.35, 0.67, 311.34
341.61, 0.69, 311.22
341.90, 0.71, 311.09
342.18, 0.73, 310.96
342.49, 0.76, 310.82
342.86, 0.79, 310.65
343.27, 0.82, 310.46
343.64, 0.87, 310.29
344.05, 0.92, 310.10
344.52, 0.98, 309.89
346.24, 0.90, 309.11
344.87, 1.20, 309.73
344.81, 1.34, 309.76
344.80, 1.48, 309.76
344.80, 1.61, 309.76
344.80, 1.74, 309.76
344.80, 1.87, 309.76
344.80, 2.01, 309.75
344.80, 2.14, 309.75
344.80, 2.27, 309.75
344.80, 2.40, 309.75
340.26, 0.49, 311.77
340.38, 0.51, 311.71
340.51, 0.54, 311.65
340.64, 0.57, 311.59
340.78, 0.60, 311.52
340.92, 0.63, 311.45
341.10, 0.65, 311.37
¯341.31, 0.68, 311.27
341.57, 0.69, 311.15
341.85, 0.71, 311.01
342.14, 0.73, 310.87
342.44, 0.76, 310.73
342.81, 0.79, 310.56
343.21, 0.82, 310.37
343.59, 0.87, 310.19
344.01, 0.92, 309.99
344.47, 0.98, 309.77
346.16, 0.90, 308.97
347.61, 0.90, 308.29
344.91, 1.33, 309.56
344.88, 1.46, 309.57
344.89, 1.60, 309.57
344.89, 1.73, 309.57
344.89, 1.87, 309.57
344.89, 2.00, 309.56
344.89, 2.14, 309.56
344.89, 2.27, 309.56
344.90, 2.41, 309.56
340.23, 0.49, 311.71
340.35, 0.51, 311.65
340.48, 0.54, 311.59
340.61, 0.57, 311.52
340.75, 0.60, 311.46
340.89, 0.63, 311.39
341.06, 0.65, 311.30
341.27, 0.68, 311.20
341.52, 0.69, 311.08
341.80, 0.71, 310.94
342.10, 0.73, 310.79
342.40, 0.76, 310.65
342.76, 0.79, 310.47
343.16, 0.82, 310.27
343.55, 0.86, 310.08
343.96, 0.92, 309.88
344.97, 0.90, 309.38
346.09, 0.90, 308.84
347.52, 0.90, 308.14
348.90, 0.95, 307.46
349.69, 1.08, 307.07
351.25, 1.20, 306.31
352.41, 1.38, 305.74
353.76, 1.59, 305.07
355.79, 1.83, 304.07
356.42, 2.14, 303.77
356.68, 2.46, 303.63
356.91, 2.78, 303.52
340.21, 0.49, 311.65
340.32, 0.51, 311.59
¯340.45, 0.54, 311.53
340.58, 0.56, 311.46
340.71, 0.59, 311.39
340.86, 0.63, 311.32
341.02, 0.65, 311.24
341.23, 0.68, 311.13
341.48, 0.69, 311.00
341.76, 0.71, 310.86
342.06, 0.73, 310.71
342.35, 0.76, 310.56
342.71, 0.79, 310.38
343.11, 0.82, 310.18
343.50, 0.86, 309.98
343.91, 0.91, 309.77
344.90, 0.90, 309.26
346.01, 0.90, 308.71
347.42, 0.90, 307.99
348.77, 0.95, 307.30
349.57, 1.08, 306.90
351.07, 1.20, 306.14
352.20, 1.38, 305.56
353.60, 1.59, 304.85
355.48, 1.83, 303.89
356.09, 2.14, 303.58
356.41, 2.45, 303.42
356.63, 2.78, 303.30
340.18, 0.48, 311.60
340.29, 0.51, 311.53
340.42, 0.54, 311.47
340.55, 0.56, 311.40
340.68, 0.59, 311.33
340.83, 0.62, 311.25
340.99, 0.65, 311.17
341.18, 0.68, 311.07
341.43, 0.69, 310.93
341.71, 0.71, 310.79
342.01, 0.73, 310.63
342.30, 0.76, 310.48
342.65, 0.79, 310.29
343.05, 0.82, 310.08
343.46, 0.86, 309.87
343.86, 0.91, 309.66
344.83, 0.90, 309.15
345.93, 0.90, 308.57
347.33, 0.90, 307.84
348.64, 0.95, 307.15
349.43, 1.09, 306.73
350.89, 1.20, 305.96
351.99, 1.38, 305.38
353.45, 1.59, 304.62
355.22, 1.83, 303.68
¯355.76, 2.13, 303.40
356.14, 2.45, 303.20
356.36, 2.77, 303.08
340.15, 0.48, 311.54
340.26, 0.51, 311.48
340.39, 0.54, 311.41
340.51, 0.56, 311.34
340.65, 0.59, 311.27
340.79, 0.62, 311.19
340.95, 0.65, 311.10
341.14, 0.68, 311.00
341.39, 0.70, 310.87
