ŸVERSION 0.7
FIELDS x y z
SIZE 8 8 8
TYPE F F F
COUNT 1 1 1
WIDTH 2271
HEIGHT 1
VIEWPOINT 441.27, 14.25, 272.91 1 437.11, 8.82, 292.35
POINTS 2271
DATA ascii
430.12, 6.82, 288.90
429.70, 6.82, 288.90
429.23, 6.81, 288.91
428.66, 6.80, 288.91
428.66, 6.93, 288.91
428.66, 7.06, 288.91
427.51, 6.96, 288.92
427.51, 7.11, 288.92
427.51, 7.25, 288.92
427.51, 7.40, 288.92
427.51, 7.54, 288.92
427.51, 7.68, 288.92
427.51, 7.83, 288.92
427.51, 7.97, 288.93
427.51, 8.11, 288.93
427.51, 8.25, 288.93
427.51, 8.40, 288.93
427.51, 8.54, 288.93
427.51, 8.68, 288.93
427.51, 8.82, 288.93
427.51, 8.96, 288.93
427.51, 9.10, 288.93
427.51, 9.24, 288.94
431.69, 6.81, 288.98
431.43, 6.81, 288.98
431.14, 6.81, 288.99
430.83, 6.81, 288.99
430.48, 6.81, 289.00
430.11, 6.81, 289.01
429.87, 6.86, 289.01
429.81, 6.96, 289.01
429.76, 7.07, 289.02
429.71, 7.17, 289.02
429.66, 7.27, 289.02
429.61, 7.38, 289.02
428.68, 7.32, 289.04
428.68, 7.45, 289.04
428.68, 7.58, 289.04
427.51, 7.54, 289.06
427.51, 7.68, 289.06
427.51, 7.83, 289.07
427.51, 7.97, 289.07
427.51, 8.11, 289.07
¯427.51, 8.25, 289.07
427.51, 8.40, 289.07
427.51, 8.54, 289.07
427.51, 8.68, 289.07
427.51, 8.82, 289.07
427.51, 8.96, 289.07
427.51, 9.10, 289.08
427.51, 9.24, 289.08
431.69, 6.81, 289.06
431.43, 6.81, 289.07
431.14, 6.81, 289.08
430.83, 6.81, 289.09
430.48, 6.81, 289.10
430.12, 6.81, 289.11
430.07, 6.91, 289.11
430.02, 7.01, 289.12
429.97, 7.12, 289.12
429.92, 7.22, 289.12
429.87, 7.32, 289.12
429.82, 7.42, 289.13
429.77, 7.52, 289.13
429.69, 7.62, 289.13
428.53, 7.55, 289.17
428.11, 7.62, 289.19
427.51, 7.68, 289.21
427.51, 7.83, 289.21
427.51, 7.97, 289.21
427.51, 8.11, 289.21
427.51, 8.25, 289.21
427.51, 8.39, 289.21
427.51, 8.54, 289.21
427.51, 8.68, 289.21
427.51, 8.82, 289.21
427.51, 8.96, 289.22
427.51, 9.10, 289.22
427.51, 9.24, 289.22
431.70, 6.81, 289.14
431.43, 6.81, 289.15
431.14, 6.81, 289.17
430.83, 6.81, 289.18
430.49, 6.81, 289.20
430.31, 6.87, 289.21
430.26, 6.97, 289.21
430.22, 7.06, 289.21
430.17, 7.16, 289.22
430.13, 7.26, 289.22
430.08, 7.36, 289.22
430.03, 7.46, 289.23
429.98, 7.56, 289.23
429.70, 7.62, 289.24
427.51, 7.39, 289.35
¯427.51, 7.54, 289.35
427.51, 7.68, 289.35
427.51, 7.82, 289.35
427.51, 7.97, 289.35
427.51, 8.11, 289.35
427.51, 8.25, 289.35
427.51, 8.39, 289.35
427.51, 8.53, 289.35
427.51, 8.68, 289.35
427.51, 8.82, 289.36
427.51, 8.96, 289.36
427.51, 9.10, 289.36
427.51, 9.24, 289.36
431.70, 6.81, 289.22
431.44, 6.81, 289.24
431.15, 6.81, 289.26
430.84, 6.81, 289.28
430.54, 6.82, 289.30
430.49, 6.92, 289.30
430.45, 7.01, 289.30
430.41, 7.11, 289.31
430.36, 7.21, 289.31
430.32, 7.30, 289.31
430.27, 7.40, 289.32
430.23, 7.50, 289.32
430.18, 7.60, 289.32
427.51, 7.24, 289.49
427.51, 7.39, 289.49
427.51, 7.53, 289.49
427.51, 7.68, 289.49
427.51, 7.82, 289.49
427.51, 7.96, 289.49
427.51, 8.11, 289.49
427.51, 8.25, 289.49
427.51, 8.39, 289.49
427.51, 8.53, 289.49
427.51, 8.67, 289.50
427.51, 8.82, 289.50
427.51, 8.96, 289.50
427.51, 9.10, 289.50
427.51, 9.24, 289.50
431.71, 6.81, 289.31
431.45, 6.81, 289.33
431.16, 6.81, 289.35
430.85, 6.81, 289.37
430.60, 6.84, 289.39
430.60, 6.95, 289.39
430.60, 7.05, 289.39
430.58, 7.15, 289.39
430.54, 7.25, 289.40
430.50, 7.34, 289.40
¯430.46, 7.44, 289.41
430.41, 7.53, 289.41
430.34, 7.62, 289.42
427.51, 7.24, 289.63
427.51, 7.39, 289.63
427.51, 7.53, 289.63
427.51, 7.68, 289.63
427.51, 7.82, 289.63
427.51, 7.96, 289.63
427.51, 8.11, 289.63
427.51, 8.25, 289.63
427.51, 8.39, 289.64
427.51, 8.53, 289.64
427.51, 8.67, 289.64
427.51, 8.81, 289.64
427.51, 8.96, 289.64
427.51, 9.10, 289.64
427.51, 9.24, 289.64
431.72, 6.81, 289.39
431.45, 6.81, 289.41
431.17, 6.81, 289.44
430.86, 6.81, 289.47
430.55, 6.82, 289.49
430.55, 6.93, 289.49
430.55, 7.04, 289.49
430.55, 7.14, 289.50
430.55, 7.25, 289.50
430.55, 7.35, 289.50
430.55, 7.46, 289.50
430.55, 7.56, 289.50
430.35, 7.62, 289.52
427.51, 7.24, 289.77
427.51, 7.38, 289.77
427.51, 7.53, 289.77
427.51, 7.67, 289.77
427.51, 7.82, 289.77
427.51, 7.96, 289.77
427.51, 8.10, 289.78
427.51, 8.25, 289.78
427.51, 8.39, 289.78
427.51, 8.53, 289.78
427.51, 8.67, 289.78
427.51, 8.81, 289.78
427.51, 8.95, 289.78
427.51, 9.10, 289.78
427.51, 9.24, 289.78
431.73, 6.81, 289.47
431.46, 6.81, 289.50
431.18, 6.81, 289.53
430.87, 6.81, 289.56
430.53, 6.81, 289.59
¯430.51, 6.91, 289.60
430.51, 7.02, 289.60
430.51, 7.13, 289.60
430.51, 7.23, 289.60
430.51, 7.34, 289.60
430.51, 7.44, 289.60
430.51, 7.55, 289.60
427.51, 7.09, 289.91
427.51, 7.24, 289.91
427.51, 7.38, 289.91
427.51, 7.53, 289.91
427.51, 7.67, 289.91
427.51, 7.81, 289.92
427.51, 7.96, 289.92
427.51, 8.10, 289.92
427.51, 8.24, 289.92
427.51, 8.39, 289.92
427.51, 8.53, 289.92
427.51, 8.67, 289.92
427.51, 8.81, 289.92
427.51, 8.95, 289.92
427.51, 9.10, 289.93
427.51, 9.24, 289.93
431.74, 6.81, 289.55
431.48, 6.81, 289.58
431.19, 6.81, 289.62
430.88, 6.81, 289.65
430.54, 6.81, 289.69
430.46, 6.90, 289.70
430.46, 7.00, 289.70
429.27, 6.80, 289.84
428.69, 6.78, 289.91
428.12, 6.78, 289.98
427.53, 6.80, 290.05
427.51, 6.94, 290.05
427.51, 7.09, 290.05
427.51, 7.23, 290.05
427.51, 7.38, 290.06
427.51, 7.52, 290.06
427.51, 7.67, 290.06
427.51, 7.81, 290.06
427.51, 7.96, 290.06
427.51, 8.10, 290.06
427.51, 8.24, 290.06
427.51, 8.38, 290.06
427.51, 8.53, 290.06
427.51, 8.67, 290.06
427.51, 8.81, 290.07
427.51, 8.95, 290.07
427.51, 9.09, 290.07
427.51, 9.24, 290.07
¯431.75, 6.81, 289.63
431.49, 6.81, 289.67
431.20, 6.81, 289.71
430.89, 6.81, 289.75
430.56, 6.81, 289.79
430.19, 6.81, 289.84
429.78, 6.81, 289.89
429.29, 6.80, 289.96
428.72, 6.78, 290.03
428.15, 6.79, 290.11
427.57, 6.80, 290.19
427.51, 6.93, 290.20
427.51, 7.08, 290.20
427.51, 7.23, 290.20
427.51, 7.37, 290.20
427.51, 7.52, 290.20
427.51, 7.66, 290.20
427.51, 7.81, 290.20
427.51, 7.95, 290.20
427.51, 8.10, 290.20
427.51, 8.24, 290.20
427.51, 8.38, 290.21
427.51, 8.52, 290.21
427.51, 8.67, 290.21
427.51, 8.81, 290.21
427.51, 8.95, 290.21
427.51, 9.09, 290.21
427.51, 9.24, 290.21
431.76, 6.81, 289.72
431.50, 6.81, 289.75
431.22, 6.81, 289.80
430.91, 6.81, 289.84
430.57, 6.81, 289.89
430.20, 6.81, 289.94
429.80, 6.81, 290.00
429.31, 6.80, 290.07
428.75, 6.79, 290.16
428.19, 6.79, 290.24
427.60, 6.80, 290.33
427.51, 6.93, 290.34
427.51, 7.08, 290.34
427.51, 7.22, 290.34
427.51, 7.37, 290.34
427.51, 7.52, 290.34
427.51, 7.66, 290.34
427.51, 7.81, 290.35
427.51, 7.95, 290.35
427.51, 8.09, 290.35
427.51, 8.24, 290.35
427.51, 8.38, 290.35
427.51, 8.52, 290.35
¯427.51, 8.67, 290.35
427.51, 8.81, 290.35
427.51, 8.95, 290.35
427.51, 9.09, 290.35
427.51, 9.24, 290.36
431.78, 6.81, 289.80
431.52, 6.81, 289.84
431.23, 6.81, 289.88
430.93, 6.81, 289.93
430.59, 6.81, 289.99
430.22, 6.81, 290.05
429.82, 6.81, 290.11
429.33, 6.80, 290.19
428.79, 6.79, 290.28
428.23, 6.79, 290.37
427.63, 6.80, 290.46
427.11, 6.84, 290.55
426.60, 6.90, 290.63
426.04, 6.96, 290.72
425.09, 6.98, 290.87
424.64, 7.10, 290.95
424.13, 7.22, 291.03
423.59, 7.35, 291.12
423.13, 7.50, 291.19
422.65, 7.66, 291.27
422.17, 7.84, 291.35
421.94, 8.05, 291.39
420.61, 8.21, 291.60
419.65, 8.42, 291.76
418.19, 8.65, 291.99
416.47, 8.92, 292.27
414.95, 9.23, 292.52
413.61, 9.59, 292.74
431.79, 6.81, 289.88
431.53, 6.81, 289.92
431.25, 6.81, 289.97
430.94, 6.81, 290.03
430.79, 6.87, 290.05
430.24, 6.81, 290.15
429.84, 6.81, 290.22
429.36, 6.80, 290.30
428.82, 6.79, 290.40
428.27, 6.80, 290.49
427.67, 6.80, 290.60
427.16, 6.85, 290.69
426.66, 6.91, 290.78
426.11, 6.97, 290.87
425.45, 7.03, 290.99
424.89, 7.13, 291.09
424.19, 7.22, 291.21
423.70, 7.35, 291.30
¯423.25, 7.51, 291.38
422.77, 7.67, 291.46
422.33, 7.85, 291.54
422.11, 8.05, 291.58
421.86, 8.26, 291.63
420.47, 8.44, 291.87
419.48, 8.67, 292.05
418.04, 8.92, 292.30
416.24, 9.22, 292.62
414.78, 9.56, 292.88
431.81, 6.81, 289.96
431.55, 6.81, 290.01
431.27, 6.81, 290.06
431.20, 6.89, 290.07
431.18, 6.98, 290.08
431.16, 7.08, 290.08
431.14, 7.17, 290.09
431.12, 7.26, 290.09
431.10, 7.36, 290.10
431.08, 7.45, 290.10
431.06, 7.54, 290.10
427.21, 6.85, 290.83
426.72, 6.91, 290.92
426.17, 6.97, 291.03
425.57, 7.04, 291.14
424.94, 7.13, 291.26
424.24, 7.22, 291.40
423.81, 7.36, 291.48
423.37, 7.51, 291.56
422.89, 7.68, 291.65
422.50, 7.86, 291.73
422.27, 8.06, 291.78
422.04, 8.27, 291.82
421.40, 8.47, 291.94
420.38, 8.68, 292.14
419.30, 8.92, 292.34
417.88, 9.20, 292.62
415.99, 9.53, 292.98
431.83, 6.81, 290.04
431.57, 6.81, 290.09
431.29, 6.81, 290.15
431.20, 6.88, 290.17
431.18, 6.98, 290.17
431.16, 7.07, 290.18
431.14, 7.17, 290.18
431.12, 7.26, 290.19
431.10, 7.35, 290.19
431.08, 7.44, 290.19
431.06, 7.54, 290.20
427.27, 6.86, 290.97
426.79, 6.92, 291.07
¯426.28, 6.99, 291.17
425.62, 7.05, 291.31
424.99, 7.13, 291.44
424.33, 7.22, 291.57
423.92, 7.37, 291.66
423.48, 7.52, 291.75
423.02, 7.68, 291.84
422.66, 7.86, 291.92
422.44, 8.06, 291.96
422.21, 8.27, 292.01
421.98, 8.48, 292.06
421.05, 8.69, 292.25
420.29, 8.92, 292.41
419.17, 9.18, 292.64
417.70, 9.48, 292.94
431.85, 6.81, 290.12
431.59, 6.81, 290.18
431.31, 6.81, 290.24
431.21, 6.88, 290.26
431.19, 6.97, 290.26
431.17, 7.07, 290.27
431.15, 7.16, 290.27
431.13, 7.25, 290.28
431.11, 7.35, 290.28
431.09, 7.44, 290.29
431.06, 7.53, 290.29
427.35, 6.86, 291.10
426.88, 6.93, 291.21
426.38, 7.00, 291.32
425.67, 7.05, 291.47
425.05, 7.13, 291.61
424.44, 7.23, 291.74
424.03, 7.37, 291.83
423.60, 7.53, 291.93
423.14, 7.69, 292.03
422.81, 7.87, 292.10
422.60, 8.07, 292.15
422.38, 8.27, 292.20
422.15, 8.49, 292.25
421.91, 8.70, 292.30
420.96, 8.92, 292.51
420.19, 9.17, 292.68
419.03, 9.45, 292.94
431.87, 6.81, 290.20
431.61, 6.81, 290.26
431.33, 6.81, 290.32
431.21, 6.87, 290.35
431.19, 6.97, 290.36
431.17, 7.06, 290.36
431.15, 7.15, 290.37
431.13, 7.25, 290.37
¯431.11, 7.34, 290.38
431.09, 7.43, 290.39
431.07, 7.53, 290.39
427.44, 6.88, 291.23
426.98, 6.94, 291.34
426.48, 7.01, 291.46
425.73, 7.05, 291.63
425.11, 7.13, 291.78
424.54, 7.24, 291.91
424.14, 7.38, 292.01
423.71, 7.53, 292.11
423.26, 7.69, 292.21
422.97, 7.88, 292.28
422.76, 8.08, 292.33
422.54, 8.28, 292.39
422.31, 8.49, 292.44
422.08, 8.70, 292.50
421.68, 8.92, 292.59
420.88, 9.16, 292.78
420.10, 9.42, 292.96
431.89, 6.81, 290.28
431.63, 6.81, 290.34
431.35, 6.81, 290.41
431.21, 6.86, 290.45
431.19, 6.96, 290.45
431.17, 7.05, 290.46
431.15, 7.15, 290.46
431.13, 7.24, 290.47
431.11, 7.34, 290.48
431.09, 7.43, 290.48
431.07, 7.52, 290.49
427.52, 6.89, 291.36
427.07, 6.95, 291.47
426.58, 7.02, 291.60
425.78, 7.05, 291.80
425.16, 7.13, 291.95
424.64, 7.25, 292.08
424.25, 7.39, 292.18
423.83, 7.54, 292.28
423.38, 7.70, 292.40
423.12, 7.88, 292.46
422.91, 8.08, 292.51
422.70, 8.28, 292.57
422.48, 8.49, 292.63
422.25, 8.70, 292.68
422.02, 8.92, 292.74
421.52, 9.15, 292.87
420.18, 9.42, 293.20
431.91, 6.81, 290.36
431.65, 6.81, 290.43
431.38, 6.81, 290.50
¯431.21, 6.86, 290.54
431.19, 6.95, 290.55
431.17, 7.05, 290.55
431.15, 7.14, 290.56
431.13, 7.23, 290.57
431.11, 7.33, 290.57
431.09, 7.42, 290.58
431.07, 7.52, 290.58
427.61, 6.90, 291.49
427.17, 6.96, 291.61
426.68, 7.03, 291.73
425.87, 7.06, 291.95
425.22, 7.13, 292.12
424.75, 7.25, 292.24
424.35, 7.39, 292.35
423.94, 7.54, 292.46
423.50, 7.70, 292.58
423.27, 7.89, 292.64
423.07, 8.09, 292.69
422.86, 8.29, 292.75
422.64, 8.49, 292.81
422.42, 8.70, 292.87
422.19, 8.92, 292.93
421.93, 9.15, 293.00
420.32, 9.42, 293.42
431.93, 6.81, 290.44
431.68, 6.81, 290.51
431.40, 6.81, 290.58
431.21, 6.85, 290.64
431.19, 6.94, 290.64
431.17, 7.04, 290.65
431.15, 7.13, 290.66
431.13, 7.23, 290.66
431.11, 7.32, 290.67
431.09, 7.42, 290.68
431.07, 7.51, 290.68
430.95, 7.58, 290.72
427.26, 6.97, 291.74
426.78, 7.04, 291.87
425.96, 7.06, 292.10
425.28, 7.13, 292.29
424.85, 7.26, 292.41
424.46, 7.40, 292.52
424.05, 7.55, 292.63
423.61, 7.71, 292.76
423.42, 7.90, 292.81
423.22, 8.09, 292.87
423.01, 8.29, 292.93
422.78, 8.49, 292.99
422.51, 8.70, 293.07
422.23, 8.92, 293.15
¯421.94, 9.15, 293.23
420.47, 9.41, 293.64
431.95, 6.81, 290.52
431.70, 6.81, 290.59
431.43, 6.81, 290.67
431.21, 6.84, 290.73
431.19, 6.94, 290.74
431.17, 7.03, 290.75
431.15, 7.13, 290.75
431.13, 7.22, 290.76
431.11, 7.32, 290.77
431.09, 7.41, 290.77
431.07, 7.51, 290.78
430.98, 7.58, 290.81
427.36, 6.98, 291.87
426.89, 7.05, 292.00
426.06, 7.07, 292.25
425.34, 7.13, 292.46
424.95, 7.26, 292.57
424.57, 7.40, 292.68
424.16, 7.55, 292.80
423.76, 7.71, 292.92
423.56, 7.90, 292.99
423.31, 8.09, 293.06
423.06, 8.29, 293.13
422.80, 8.49, 293.21
422.53, 8.70, 293.29
422.24, 8.92, 293.38
421.95, 9.15, 293.47
420.62, 9.41, 293.86
431.98, 6.81, 290.59
431.73, 6.81, 290.67
431.46, 6.81, 290.76
431.22, 6.83, 290.83
431.20, 6.93, 290.84
431.17, 7.02, 290.84
431.15, 7.12, 290.85
431.13, 7.21, 290.86
431.11, 7.31, 290.87
431.09, 7.40, 290.87
431.07, 7.50, 290.88
431.01, 7.58, 290.90
427.45, 6.99, 291.99
426.99, 7.06, 292.14
426.16, 7.08, 292.39
425.41, 7.14, 292.62
425.06, 7.27, 292.73
424.68, 7.41, 292.85
424.27, 7.56, 292.98
423.81, 7.71, 293.12
423.57, 7.90, 293.20
¯423.32, 8.09, 293.27
423.07, 8.28, 293.35
422.81, 8.49, 293.43
422.54, 8.70, 293.52
422.25, 8.92, 293.61
421.95, 9.15, 293.70
420.77, 9.40, 294.07
432.01, 6.81, 290.67
431.76, 6.81, 290.75
431.48, 6.81, 290.84
431.22, 6.82, 290.93
431.20, 6.92, 290.94
431.18, 7.01, 290.94
431.16, 7.11, 290.95
431.14, 7.21, 290.96
431.11, 7.30, 290.96
431.09, 7.40, 290.97
431.07, 7.49, 290.98
431.04, 7.58, 290.99
427.55, 7.00, 292.12
427.09, 7.07, 292.27
426.25, 7.08, 292.54
425.51, 7.14, 292.78
425.16, 7.27, 292.89
424.76, 7.41, 293.02
424.30, 7.55, 293.17
423.82, 7.71, 293.33
423.58, 7.89, 293.41
423.34, 8.08, 293.49
423.08, 8.28, 293.57
422.82, 8.48, 293.66
422.55, 8.70, 293.75
422.26, 8.92, 293.84
421.96, 9.14, 293.94
420.91, 9.40, 294.28
432.03, 6.81, 290.75
431.78, 6.81, 290.83
431.51, 6.81, 290.93
431.22, 6.81, 291.03
431.20, 6.91, 291.03
431.18, 7.00, 291.04
431.16, 7.10, 291.05
431.14, 7.20, 291.06
431.12, 7.29, 291.06
431.10, 7.39, 291.07
431.08, 7.49, 291.08
431.05, 7.58, 291.09
427.64, 7.01, 292.24
427.19, 7.07, 292.39
426.35, 7.09, 292.68
425.61, 7.15, 292.93
¯425.22, 7.27, 293.06
424.80, 7.41, 293.21
424.34, 7.55, 293.37
423.85, 7.70, 293.53
423.60, 7.89, 293.62
423.35, 8.08, 293.70
423.10, 8.28, 293.79
422.83, 8.48, 293.88
422.56, 8.69, 293.98
422.27, 8.91, 294.08
421.97, 9.14, 294.18
421.06, 9.40, 294.49
432.06, 6.81, 290.83
431.81, 6.81, 290.92
431.55, 6.81, 291.01
431.25, 6.81, 291.11
431.20, 6.90, 291.13
431.18, 7.00, 291.14
431.16, 7.09, 291.15
429.80, 6.82, 291.63
429.34, 6.82, 291.79
428.82, 6.82, 291.98
428.45, 6.87, 292.11
428.11, 6.94, 292.23
427.74, 7.01, 292.36
427.29, 7.08, 292.52
426.45, 7.10, 292.82
425.66, 7.15, 293.10
425.26, 7.27, 293.25
424.83, 7.40, 293.40
424.37, 7.54, 293.56
423.88, 7.70, 293.74
423.61, 7.88, 293.83
423.37, 8.07, 293.92
423.11, 8.27, 294.01
422.84, 8.48, 294.11
422.57, 8.69, 294.21
422.28, 8.91, 294.31
421.98, 9.14, 294.42
421.20, 9.39, 294.70
432.09, 6.81, 290.90
431.84, 6.81, 291.00
431.58, 6.81, 291.09
431.29, 6.81, 291.20
430.97, 6.81, 291.32
430.63, 6.81, 291.45
430.24, 6.81, 291.59
429.84, 6.82, 291.74
429.38, 6.82, 291.91
428.87, 6.82, 292.10
428.53, 6.88, 292.22
¯428.19, 6.95, 292.35
427.82, 7.02, 292.49
427.39, 7.09, 292.65
426.55, 7.10, 292.96
425.69, 7.14, 293.28
425.29, 7.26, 293.43
424.86, 7.40, 293.59
424.41, 7.54, 293.76
423.92, 7.69, 293.94
423.63, 7.87, 294.05
423.38, 8.07, 294.14
423.12, 8.27, 294.24
422.85, 8.47, 294.34
422.57, 8.69, 294.44
422.28, 8.91, 294.55
421.98, 9.14, 294.67
421.34, 9.39, 294.91
432.12, 6.81, 290.98
431.88, 6.81, 291.08
431.61, 6.81, 291.18
431.32, 6.81, 291.29
431.01, 6.81, 291.41
430.66, 6.81, 291.54
430.29, 6.81, 291.69
429.89, 6.82, 291.84
429.43, 6.82, 292.02
428.93, 6.82, 292.22
428.61, 6.89, 292.34
428.27, 6.95, 292.47
427.91, 7.03, 292.61
427.48, 7.10, 292.78
426.64, 7.11, 293.10
425.73, 7.13, 293.45
425.33, 7.26, 293.61
424.90, 7.39, 293.78
424.44, 7.53, 293.95
423.95, 7.69, 294.15
423.64, 7.87, 294.26
423.40, 8.06, 294.36
423.14, 8.26, 294.46
422.87, 8.47, 294.57
422.58, 8.69, 294.68
422.29, 8.91, 294.79
421.99, 9.14, 294.91
421.19, 9.40, 295.22
432.15, 6.81, 291.06
431.91, 6.81, 291.15
431.65, 6.81, 291.26
431.36, 6.81, 291.38
431.05, 6.81, 291.50
430.70, 6.81, 291.64
¯430.33, 6.81, 291.79
429.93, 6.82, 291.95
429.49, 6.82, 292.13
429.00, 6.83, 292.33
428.69, 6.89, 292.45
428.36, 6.96, 292.59
428.00, 7.03, 292.73
427.57, 7.10, 292.90
426.73, 7.11, 293.24
425.76, 7.13, 293.63
425.36, 7.25, 293.79
424.93, 7.39, 293.97
424.48, 7.53, 294.15
423.99, 7.68, 294.35
423.66, 7.86, 294.48
423.41, 8.06, 294.59
423.15, 8.26, 294.69
422.88, 8.47, 294.80
422.59, 8.68, 294.92
422.29, 8.91, 295.04
421.95, 9.14, 295.18
421.01, 9.40, 295.56
432.18, 6.81, 291.13
431.94, 6.81, 291.23
431.68, 6.81, 291.34
431.40, 6.81, 291.46
431.09, 6.81, 291.59
430.96, 6.88, 291.65
430.96, 6.99, 291.65
430.96, 7.10, 291.65
430.97, 7.20, 291.65
430.97, 7.31, 291.65
430.97, 7.42, 291.65
430.97, 7.52, 291.65
428.08, 7.04, 292.85
427.66, 7.11, 293.03
426.82, 7.12, 293.38
425.83, 7.13, 293.80
425.40, 7.25, 293.98
424.97, 7.38, 294.16
424.51, 7.52, 294.35
424.02, 7.68, 294.56
423.68, 7.86, 294.70
423.42, 8.05, 294.81
423.16, 8.25, 294.92
422.88, 8.46, 295.04
422.59, 8.68, 295.17
422.29, 8.91, 295.29
421.88, 9.14, 295.46
420.84, 9.41, 295.90
432.22, 6.81, 291.21
¯431.98, 6.81, 291.31
431.72, 6.81, 291.43
431.43, 6.81, 291.55
431.21, 6.84, 291.65
431.19, 6.94, 291.65
431.17, 7.04, 291.66
431.15, 7.14, 291.67
431.13, 7.24, 291.68
431.11, 7.34, 291.69
431.09, 7.43, 291.70
431.06, 7.53, 291.71
428.17, 7.04, 292.97
427.74, 7.11, 293.16
426.91, 7.12, 293.52
425.94, 7.13, 293.95
425.44, 7.24, 294.16
425.01, 7.38, 294.35
424.55, 7.52, 294.55
424.06, 7.67, 294.77
423.69, 7.85, 294.93
423.43, 8.05, 295.04
423.16, 8.25, 295.16
422.88, 8.46, 295.29
422.58, 8.68, 295.42
422.23, 8.90, 295.57
421.73, 9.14, 295.79
420.77, 9.41, 296.21
432.25, 6.81, 291.28
432.01, 6.81, 291.39
431.76, 6.81, 291.51
431.47, 6.81, 291.63
431.22, 6.83, 291.75
431.19, 6.93, 291.76
431.17, 7.03, 291.77
431.15, 7.13, 291.78
431.13, 7.23, 291.79
431.11, 7.33, 291.80
431.09, 7.43, 291.81
431.07, 7.52, 291.82
428.21, 7.04, 293.11
427.79, 7.11, 293.30
427.01, 7.12, 293.66
426.04, 7.14, 294.09
425.47, 7.24, 294.35
425.05, 7.37, 294.54
424.59, 7.51, 294.75
424.08, 7.66, 294.98
423.69, 7.84, 295.16
423.43, 8.04, 295.28
423.16, 8.24, 295.40
422.87, 8.45, 295.53
¯422.57, 8.67, 295.67
422.17, 8.90, 295.86
421.56, 9.14, 296.13
420.70, 9.41, 296.52
432.29, 6.81, 291.36
432.05, 6.81, 291.47
431.79, 6.81, 291.59
431.52, 6.81, 291.72
431.22, 6.81, 291.86
431.20, 6.91, 291.87
431.18, 7.02, 291.88
431.15, 7.12, 291.89
431.13, 7.21, 291.90
431.11, 7.31, 291.91
431.09, 7.41, 291.92
431.07, 7.51, 291.93
428.25, 7.03, 293.25
427.83, 7.10, 293.45
427.10, 7.13, 293.79
426.15, 7.14, 294.24
425.51, 7.23, 294.54
425.09, 7.36, 294.74
424.62, 7.51, 294.96
424.07, 7.65, 295.22
423.70, 7.83, 295.39
423.43, 8.03, 295.52
423.16, 8.24, 295.65
422.87, 8.45, 295.79
422.51, 8.67, 295.96
422.10, 8.90, 296.15
421.41, 9.15, 296.48
420.63, 9.42, 296.84
432.33, 6.81, 291.43
432.09, 6.81, 291.54
431.83, 6.81, 291.67
431.56, 6.81, 291.80
431.26, 6.81, 291.95
431.20, 6.90, 291.98
431.18, 7.00, 291.99
431.16, 7.10, 292.00
431.14, 7.20, 292.01
431.11, 7.30, 292.02
431.09, 7.40, 292.03
431.07, 7.51, 292.04
430.95, 7.58, 292.10
427.88, 7.10, 293.59
427.20, 7.13, 293.92
426.25, 7.14, 294.38
425.56, 7.22, 294.72
425.12, 7.36, 294.93
424.61, 7.49, 295.19
¯424.08, 7.64, 295.45
423.70, 7.82, 295.63
423.43, 8.02, 295.76
423.16, 8.23, 295.90
422.84, 8.44, 296.05
422.45, 8.66, 296.24
422.04, 8.90, 296.45
421.35, 9.15, 296.78
420.34, 9.42, 297.27
432.36, 6.81, 291.50
432.13, 6.81, 291.62
431.88, 6.81, 291.75
431.60, 6.81, 291.89
431.30, 6.81, 292.04
431.20, 6.89, 292.09
431.18, 6.99, 292.10
431.16, 7.09, 292.11
431.14, 7.19, 292.12
431.12, 7.29, 292.13
431.10, 7.39, 292.14
431.07, 7.49, 292.16
431.00, 7.58, 292.19
427.93, 7.09, 293.73
427.30, 7.14, 294.06
426.36, 7.15, 294.53
425.60, 7.22, 294.91
425.11, 7.34, 295.16
424.59, 7.48, 295.42
424.09, 7.63, 295.68
423.70, 7.82, 295.87
423.43, 8.02, 296.01
423.15, 8.22, 296.15
422.79, 8.44, 296.34
422.39, 8.66, 296.54
421.97, 8.89, 296.75
421.12, 9.15, 297.18
432.40, 6.81, 291.57
432.17, 6.81, 291.70
431.92, 6.81, 291.83
431.65, 6.81, 291.97
431.35, 6.81, 292.12
431.21, 6.87, 292.20
431.18, 6.97, 292.21
431.16, 7.08, 292.22
431.14, 7.18, 292.23
431.12, 7.28, 292.25
431.10, 7.38, 292.26
431.08, 7.48, 292.27
431.05, 7.58, 292.28
427.99, 7.09, 293.88
427.39, 7.14, 294.19
¯426.47, 7.15, 294.67
425.59, 7.20, 295.13
425.10, 7.33, 295.38
424.58, 7.47, 295.66
424.10, 7.62, 295.91
423.70, 7.81, 296.12
423.43, 8.01, 296.26
423.11, 8.21, 296.43
422.73, 8.43, 296.63
422.33, 8.65, 296.84
421.85, 8.89, 297.09
420.82, 9.15, 297.63
432.44, 6.81, 291.65
432.21, 6.81, 291.77
431.96, 6.81, 291.90
431.69, 6.81, 292.05
431.40, 6.81, 292.21
431.21, 6.86, 292.31
431.19, 6.96, 292.32
431.17, 7.06, 292.34
431.14, 7.17, 292.35
431.12, 7.27, 292.36
431.10, 7.37, 292.37
431.08, 7.47, 292.39
431.06, 7.58, 292.40
428.04, 7.09, 294.02
427.49, 7.14, 294.32
426.59, 7.16, 294.81
425.59, 7.19, 295.34
425.10, 7.31, 295.61
424.59, 7.46, 295.89
424.11, 7.61, 296.15
423.71, 7.80, 296.36
423.43, 8.00, 296.51
423.06, 8.20, 296.71
422.67, 8.42, 296.92
422.27, 8.65, 297.14
421.57, 8.89, 297.52
420.19, 9.16, 298.27
432.48, 6.81, 291.72
432.25, 6.81, 291.85
432.01, 6.81, 291.98
431.74, 6.81, 292.13
431.44, 6.81, 292.30
431.21, 6.84, 292.42
431.19, 6.95, 292.44
431.17, 7.05, 292.45
431.15, 7.15, 292.46
431.12, 7.25, 292.48
431.10, 7.36, 292.49
431.08, 7.46, 292.50
¯431.06, 7.56, 292.52
428.09, 7.08, 294.17
427.60, 7.15, 294.44
426.70, 7.16, 294.94
425.59, 7.17, 295.56
425.09, 7.30, 295.84
424.60, 7.44, 296.11
424.12, 7.60, 296.38
423.71, 7.79, 296.61
423.38, 7.99, 296.80
423.01, 8.19, 297.00
422.63, 8.41, 297.22
422.15, 8.64, 297.49
421.29, 8.88, 297.97
432.52, 6.81, 291.79
432.30, 6.81, 291.92
432.05, 6.81, 292.06
431.78, 6.81, 292.21
431.49, 6.81, 292.38
431.22, 6.83, 292.54
431.19, 6.93, 292.55
431.17, 7.03, 292.57
431.15, 7.14, 292.58
431.13, 7.24, 292.59
431.11, 7.35, 292.61
431.08, 7.45, 292.62
431.06, 7.55, 292.63
428.15, 7.08, 294.31
427.70, 7.15, 294.57
426.81, 7.16, 295.08
425.58, 7.15, 295.79
425.08, 7.28, 296.08
424.62, 7.43, 296.35
424.13, 7.59, 296.63
423.70, 7.77, 296.88
423.34, 7.97, 297.08
422.97, 8.18, 297.30
422.58, 8.41, 297.52
421.97, 8.63, 297.88
420.75, 8.88, 298.58
432.57, 6.81, 291.86
432.34, 6.81, 291.99
432.10, 6.81, 292.14
431.83, 6.81, 292.29
431.55, 6.81, 292.46
431.23, 6.81, 292.65
431.20, 6.91, 292.67
431.18, 7.02, 292.69
431.15, 7.12, 292.70
431.13, 7.23, 292.71
431.11, 7.33, 292.73
¯431.09, 7.44, 292.74
428.60, 7.00, 294.22
428.21, 7.07, 294.45
427.77, 7.15, 294.71
426.91, 7.17, 295.22
425.58, 7.14, 296.01
425.09, 7.27, 296.31
424.63, 7.42, 296.58
424.14, 7.58, 296.87
423.67, 7.76, 297.16
423.31, 7.96, 297.37
422.93, 8.17, 297.60
422.44, 8.39, 297.89
421.74, 8.63, 298.31
432.61, 6.81, 291.93
432.39, 6.81, 292.06
432.14, 6.81, 292.21
431.88, 6.81, 292.37
431.60, 6.81, 292.55
431.29, 6.81, 292.74
430.96, 6.82, 292.94
430.60, 6.82, 293.16
430.20, 6.83, 293.41
429.75, 6.84, 293.68
429.40, 6.88, 293.90
429.03, 6.93, 294.12
428.66, 7.00, 294.35
428.26, 7.07, 294.60
427.83, 7.14, 294.86
427.02, 7.17, 295.36
425.58, 7.12, 296.24
425.11, 7.26, 296.53
424.65, 7.41, 296.82
424.20, 7.58, 297.09
423.63, 7.75, 297.44
423.27, 7.95, 297.67
422.89, 8.16, 297.90
422.27, 8.38, 298.29
420.29, 8.59, 299.50
432.65, 6.81, 292.00
432.43, 6.81, 292.14
432.19, 6.81, 292.29
431.93, 6.81, 292.45
431.65, 6.81, 292.63
431.35, 6.81, 292.82
431.02, 6.82, 293.03
430.76, 6.85, 293.20
430.76, 6.97, 293.20
429.83, 6.84, 293.79
429.45, 6.87, 294.03
429.08, 6.93, 294.26
¯428.72, 6.99, 294.49
428.32, 7.06, 294.74
427.89, 7.14, 295.02
427.14, 7.17, 295.49
425.58, 7.10, 296.48
425.13, 7.24, 296.76
424.70, 7.40, 297.04
424.26, 7.57, 297.31
423.60, 7.73, 297.73
423.23, 7.94, 297.97
422.73, 8.15, 298.29
422.09, 8.37, 298.70
432.70, 6.81, 292.07
432.48, 6.81, 292.21
432.24, 6.81, 292.36
431.99, 6.81, 292.53
431.71, 6.81, 292.71
431.40, 6.81, 292.91
431.08, 6.82, 293.12
430.92, 6.89, 293.22
430.93, 7.00, 293.22
430.93, 7.12, 293.22
430.93, 7.24, 293.22
430.93, 7.36, 293.22
430.93, 7.47, 293.22
430.93, 7.59, 293.22
430.93, 7.70, 293.22
427.25, 7.17, 295.62
425.58, 7.09, 296.71
425.17, 7.23, 296.98
424.76, 7.39, 297.25
424.17, 7.54, 297.64
423.57, 7.72, 298.03
423.17, 7.92, 298.29
422.56, 8.13, 298.69
420.13, 8.28, 300.28
432.74, 6.81, 292.13
432.53, 6.81, 292.28
432.29, 6.81, 292.44
432.04, 6.81, 292.61
431.76, 6.81, 292.79
431.46, 6.81, 292.99
431.14, 6.82, 293.21
431.08, 6.92, 293.25
431.09, 7.03, 293.25
431.09, 7.15, 293.25
431.09, 7.26, 293.25
431.09, 7.38, 293.25
431.06, 7.49, 293.27
431.04, 7.60, 293.29
431.01, 7.70, 293.31
¯427.36, 7.18, 295.76
425.62, 7.07, 296.93
425.23, 7.22, 297.19
424.83, 7.38, 297.47
424.07, 7.52, 297.98
423.54, 7.70, 298.34
423.02, 7.90, 298.68
422.45, 8.11, 299.07
432.79, 6.81, 292.20
432.58, 6.81, 292.35
432.35, 6.81, 292.51
432.09, 6.81, 292.68
431.82, 6.81, 292.87
431.52, 6.81, 293.08
431.21, 6.82, 293.30
431.18, 6.93, 293.32
431.15, 7.03, 293.34
431.13, 7.14, 293.36
431.10, 7.25, 293.38
431.07, 7.36, 293.40
431.04, 7.47, 293.41
431.02, 7.58, 293.43
430.99, 7.69, 293.45
427.48, 7.18, 295.89
425.68, 7.06, 297.13
425.30, 7.22, 297.40
424.89, 7.38, 297.68
423.96, 7.49, 298.32
423.46, 7.68, 298.68
422.91, 7.88, 299.06
420.29, 7.98, 300.87
432.84, 6.81, 292.27
432.63, 6.81, 292.42
432.40, 6.81, 292.58
432.15, 6.81, 292.76
431.88, 6.81, 292.95
431.59, 6.81, 293.16
431.27, 6.82, 293.39
431.16, 6.90, 293.47
431.13, 7.01, 293.49
431.11, 7.12, 293.51
431.08, 7.23, 293.53
431.05, 7.34, 293.55
431.02, 7.45, 293.57
431.00, 7.56, 293.59
430.97, 7.67, 293.61
427.60, 7.18, 296.01
425.75, 7.06, 297.33
425.36, 7.21, 297.61
424.96, 7.37, 297.90
423.86, 7.47, 298.68
¯423.36, 7.66, 299.04
422.83, 7.86, 299.42
420.35, 7.97, 301.20
432.89, 6.81, 292.33
432.68, 6.81, 292.49
432.45, 6.81, 292.65
432.20, 6.81, 292.83
431.94, 6.81, 293.03
431.65, 6.81, 293.24
431.34, 6.82, 293.47
431.14, 6.87, 293.62
431.11, 6.98, 293.64
431.09, 7.09, 293.66
431.06, 7.20, 293.68
431.03, 7.32, 293.70
431.00, 7.43, 293.72
430.98, 7.54, 293.74
430.95, 7.65, 293.76
427.71, 7.18, 296.14
425.83, 7.05, 297.52
425.43, 7.20, 297.82
424.98, 7.35, 298.16
423.79, 7.44, 299.03
423.29, 7.63, 299.40
420.96, 7.71, 301.11
432.94, 6.81, 292.40
432.73, 6.81, 292.55
432.51, 6.81, 292.72
432.26, 6.81, 292.91
432.00, 6.81, 293.11
431.71, 6.82, 293.32
431.41, 6.82, 293.56
431.07, 6.83, 293.81
431.09, 6.95, 293.79
431.07, 7.07, 293.82
431.04, 7.18, 293.84
431.01, 7.29, 293.86
430.98, 7.41, 293.88
430.95, 7.52, 293.90
430.93, 7.63, 293.93
427.79, 7.18, 296.30
425.94, 7.04, 297.70
425.50, 7.19, 298.03
424.90, 7.32, 298.49
423.73, 7.42, 299.38
423.22, 7.61, 299.76
421.02, 7.70, 301.43
432.99, 6.81, 292.46
432.78, 6.81, 292.62
432.56, 6.81, 292.79
432.32, 6.81, 292.98
¯432.06, 6.81, 293.18
431.78, 6.82, 293.40
431.47, 6.82, 293.64
431.14, 6.83, 293.90
431.07, 6.93, 293.95
431.05, 7.04, 293.98
431.02, 7.15, 294.00
430.99, 7.27, 294.02
430.96, 7.38, 294.05
430.93, 7.50, 294.07
430.90, 7.61, 294.09
427.85, 7.17, 296.47
427.05, 7.21, 297.09
426.94, 7.38, 297.18
426.83, 7.56, 297.27
423.66, 7.39, 299.73
421.61, 7.44, 301.33
421.08, 7.69, 301.75
433.04, 6.81, 292.52
432.84, 6.81, 292.69
432.62, 6.81, 292.86
432.38, 6.81, 293.05
432.13, 6.81, 293.26
431.85, 6.82, 293.48
431.54, 6.82, 293.73
431.21, 6.83, 293.99
431.05, 6.90, 294.12
431.02, 7.01, 294.14
431.00, 7.13, 294.17
430.97, 7.24, 294.19
430.94, 7.36, 294.22
430.91, 7.48, 294.24
430.88, 7.59, 294.26
430.82, 7.70, 294.31
427.64, 7.29, 296.86
427.54, 7.46, 296.94
427.44, 7.62, 297.02
427.34, 7.80, 297.11
421.68, 7.43, 301.64
419.84, 7.57, 303.12
433.09, 6.81, 292.59
432.89, 6.81, 292.75
432.68, 6.81, 292.93
432.44, 6.81, 293.12
432.19, 6.82, 293.33
431.92, 6.82, 293.56
431.61, 6.82, 293.81
431.29, 6.83, 294.08
431.03, 6.86, 294.29
431.00, 6.98, 294.31
430.97, 7.10, 294.34
¯429.62, 6.86, 295.46
429.25, 6.93, 295.76
428.86, 6.99, 296.08
428.44, 7.07, 296.43
427.99, 7.15, 296.80
427.86, 7.31, 296.91
427.84, 7.48, 296.93
427.82, 7.66, 296.94
427.80, 7.84, 296.96
427.78, 8.01, 296.98
419.86, 7.56, 303.51
433.15, 6.81, 292.65
432.95, 6.81, 292.82
432.73, 6.81, 293.00
432.51, 6.81, 293.19
432.26, 6.82, 293.41
431.98, 6.82, 293.64
431.69, 6.82, 293.89
431.36, 6.83, 294.16
431.01, 6.83, 294.46
430.79, 6.89, 294.65
430.79, 7.02, 294.65
430.79, 7.15, 294.65
430.79, 7.28, 294.65
430.79, 7.41, 294.65
430.79, 7.54, 294.65
430.80, 7.67, 294.65
427.93, 7.30, 297.09
427.91, 7.47, 297.10
427.89, 7.65, 297.12
423.01, 7.26, 301.26
421.81, 7.40, 302.28
420.54, 7.59, 303.36
420.53, 7.91, 303.37
420.53, 8.22, 303.37
433.20, 6.81, 292.71
433.00, 6.81, 292.88
432.79, 6.81, 293.07
432.57, 6.81, 293.26
432.32, 6.82, 293.48
432.05, 6.82, 293.71
431.76, 6.82, 293.97
431.44, 6.83, 294.25
431.09, 6.83, 294.55
430.92, 6.91, 294.70
430.92, 7.04, 294.70
430.92, 7.17, 294.70
430.92, 7.30, 294.70
430.92, 7.42, 294.70
430.93, 7.55, 294.70
430.89, 7.67, 294.73
¯428.98, 7.46, 296.40
428.92, 7.61, 296.46
428.85, 7.77, 296.52
423.20, 7.26, 301.45
421.88, 7.39, 302.60
420.78, 7.59, 303.56
420.71, 7.90, 303.63
420.64, 8.21, 303.69
433.26, 6.81, 292.77
433.06, 6.81, 292.95
432.86, 6.81, 293.13
432.63, 6.82, 293.33
432.39, 6.82, 293.55
432.13, 6.82, 293.79
431.84, 6.82, 294.05
431.52, 6.83, 294.33
431.17, 6.83, 294.64
431.05, 6.92, 294.75
431.02, 7.04, 294.78
430.98, 7.16, 294.82
430.93, 7.28, 294.86
430.89, 7.40, 294.90
430.85, 7.52, 294.94
430.80, 7.64, 294.98
429.36, 7.51, 296.27
429.30, 7.66, 296.33
429.24, 7.81, 296.38
423.40, 7.26, 301.63
422.12, 7.40, 302.78
421.02, 7.60, 303.77
420.67, 7.89, 304.08
420.60, 8.20, 304.15
433.31, 6.81, 292.83
433.12, 6.81, 293.01
432.92, 6.81, 293.19
432.70, 6.82, 293.40
432.46, 6.82, 293.62
432.20, 6.82, 293.86
431.91, 6.82, 294.12
431.60, 6.83, 294.42
431.26, 6.83, 294.73
430.98, 6.87, 294.99
430.93, 6.99, 295.03
430.89, 7.11, 295.07
430.85, 7.23, 295.11
430.80, 7.35, 295.15
430.76, 7.48, 295.20
430.71, 7.60, 295.24
430.54, 7.70, 295.39
429.66, 7.70, 296.21
429.41, 7.81, 296.44
¯423.59, 7.26, 301.81
422.40, 7.40, 302.91
421.25, 7.60, 303.98
420.17, 7.84, 304.98
433.37, 6.81, 292.89
433.18, 6.81, 293.07
432.98, 6.81, 293.26
432.76, 6.82, 293.46
432.53, 6.82, 293.69
432.27, 6.82, 293.93
431.99, 6.82, 294.20
431.68, 6.83, 294.50
431.34, 6.83, 294.82
430.97, 6.84, 295.17
430.84, 6.94, 295.29
430.80, 7.06, 295.33
430.75, 7.18, 295.38
430.71, 7.31, 295.42
430.66, 7.43, 295.47
430.61, 7.56, 295.51
430.56, 7.69, 295.56
429.84, 7.71, 296.25
424.88, 7.15, 300.95
423.79, 7.26, 302.00
422.69, 7.41, 303.04
421.49, 7.60, 304.18
420.33, 7.83, 305.28
420.09, 8.15, 305.52
433.42, 6.81, 292.95
433.24, 6.81, 293.13
433.04, 6.82, 293.32
432.83, 6.82, 293.53
432.60, 6.82, 293.76
432.35, 6.82, 294.00
432.07, 6.82, 294.28
431.76, 6.83, 294.58
431.42, 6.83, 294.90
431.06, 6.84, 295.26
430.75, 6.88, 295.56
430.70, 7.01, 295.61
430.65, 7.13, 295.66
430.61, 7.26, 295.71
428.88, 7.01, 297.39
427.44, 6.89, 298.80
427.03, 7.02, 299.20
426.59, 7.15, 299.63
425.12, 7.16, 301.07
424.04, 7.27, 302.13
422.97, 7.42, 303.17
421.73, 7.60, 304.38
433.48, 6.81, 293.01
¯433.30, 6.81, 293.19
433.11, 6.82, 293.38
432.90, 6.82, 293.59
432.67, 6.82, 293.82
432.42, 6.82, 294.07
432.15, 6.82, 294.35
431.84, 6.83, 294.65
431.51, 6.83, 294.99
431.16, 6.84, 295.34
430.76, 6.85, 295.74
430.30, 6.86, 296.21
429.76, 6.87, 296.75
429.36, 6.93, 297.15
428.96, 7.00, 297.55
427.58, 6.89, 298.94
427.18, 7.02, 299.34
426.75, 7.15, 299.77
425.35, 7.16, 301.18
424.30, 7.27, 302.24
423.25, 7.43, 303.30
422.00, 7.60, 304.55
433.54, 6.81, 293.06
433.37, 6.81, 293.24
433.18, 6.82, 293.44
432.97, 6.82, 293.66
432.74, 6.82, 293.89
432.50, 6.82, 294.14
432.23, 6.83, 294.42
431.93, 6.83, 294.73
431.60, 6.83, 295.07
431.25, 6.84, 295.43
430.86, 6.85, 295.83
430.41, 6.86, 296.30
429.88, 6.87, 296.85
429.44, 6.92, 297.30
429.04, 6.99, 297.72
427.73, 6.89, 299.07
427.34, 7.02, 299.48
426.91, 7.16, 299.91
425.58, 7.17, 301.29
424.55, 7.28, 302.35
423.52, 7.43, 303.42
422.33, 7.61, 304.65
433.60, 6.81, 293.12
433.43, 6.82, 293.30
433.24, 6.82, 293.50
433.04, 6.82, 293.72
432.82, 6.82, 293.95
432.57, 6.82, 294.21
432.31, 6.83, 294.49
432.01, 6.83, 294.81
¯431.69, 6.83, 295.15
431.35, 6.84, 295.51
430.97, 6.86, 295.92
430.52, 6.86, 296.40
430.00, 6.87, 296.95
429.52, 6.91, 297.46
429.12, 6.98, 297.88
427.89, 6.89, 299.19
427.49, 7.02, 299.61
427.07, 7.16, 300.06
425.81, 7.18, 301.40
424.81, 7.29, 302.46
423.80, 7.44, 303.54
422.64, 7.62, 304.77
433.91, 6.95, 292.90
433.49, 6.82, 293.36
433.31, 6.82, 293.56
433.11, 6.82, 293.78
432.89, 6.82, 294.02
432.65, 6.82, 294.28
432.39, 6.83, 294.57
432.10, 6.83, 294.88
431.79, 6.84, 295.22
431.45, 6.84, 295.60
431.07, 6.86, 296.01
430.63, 6.86, 296.49
430.12, 6.87, 297.05
429.60, 6.90, 297.61
429.20, 6.97, 298.04
428.04, 6.90, 299.31
427.64, 7.02, 299.75
427.23, 7.15, 300.20
425.99, 7.18, 301.55
425.07, 7.30, 302.57
423.99, 7.44, 303.74
422.93, 7.62, 304.90
421.74, 9.15, 306.21
421.74, 9.48, 306.21
433.97, 6.95, 292.95
433.56, 6.82, 293.41
433.38, 6.82, 293.62
433.18, 6.82, 293.84
432.96, 6.82, 294.08
432.73, 6.82, 294.35
432.47, 6.83, 294.63
432.19, 6.83, 294.95
431.88, 6.84, 295.30
431.54, 6.85, 295.68
431.17, 6.86, 296.09
430.74, 6.86, 296.58
430.24, 6.87, 297.14
¯429.68, 6.88, 297.77
429.29, 6.96, 298.21
428.20, 6.90, 299.43
427.80, 7.02, 299.88
427.40, 7.15, 300.34
426.18, 7.18, 301.71
425.32, 7.31, 302.67
424.18, 7.43, 303.96
423.23, 7.63, 305.03
422.05, 9.15, 306.36
422.05, 9.48, 306.36
434.03, 6.95, 293.00
433.87, 6.95, 293.18
433.44, 6.82, 293.67
433.25, 6.82, 293.90
433.04, 6.82, 294.14
432.81, 6.83, 294.41
432.55, 6.83, 294.70
432.28, 6.83, 295.02
431.98, 6.84, 295.37
431.64, 6.85, 295.76
431.28, 6.86, 296.18
430.85, 6.86, 296.67
430.37, 6.87, 297.23
429.82, 6.89, 297.87
429.38, 6.95, 298.38
428.36, 6.90, 299.55
427.97, 7.02, 300.00
427.56, 7.15, 300.48
426.37, 7.18, 301.86
425.53, 7.31, 302.83
424.37, 7.43, 304.17
423.52, 7.63, 305.15
422.35, 9.15, 306.51
422.35, 9.48, 306.51
434.09, 6.95, 293.05
433.93, 6.95, 293.23
433.51, 6.82, 293.73
433.32, 6.82, 293.96
433.11, 6.82, 294.20
432.89, 6.83, 294.47
432.64, 6.83, 294.77
432.37, 6.83, 295.09
432.07, 6.84, 295.44
431.74, 6.85, 295.83
431.38, 6.86, 296.26
430.97, 6.87, 296.76
430.49, 6.88, 297.32
429.95, 6.89, 297.97
429.47, 6.94, 298.54
428.52, 6.90, 299.66
¯428.14, 7.02, 300.12
427.72, 7.15, 300.62
426.55, 7.18, 302.01
425.68, 7.30, 303.05
424.56, 7.43, 304.38
423.81, 7.64, 305.27
421.67, 7.78, 307.82
421.72, 8.12, 307.76
422.65, 9.15, 306.66
422.64, 9.47, 306.68
434.15, 6.95, 293.10
434.00, 6.95, 293.28
433.83, 6.95, 293.48
433.40, 6.82, 294.01
433.19, 6.82, 294.26
432.97, 6.83, 294.54
432.72, 6.83, 294.84
432.46, 6.83, 295.16
432.17, 6.84, 295.52
431.85, 6.85, 295.91
431.49, 6.86, 296.35
431.08, 6.87, 296.85
430.62, 6.88, 297.41
430.09, 6.89, 298.06
429.45, 6.90, 298.84
428.68, 6.90, 299.78
428.31, 7.02, 300.24
427.90, 7.15, 300.75
426.74, 7.18, 302.16
425.84, 7.29, 303.27
424.75, 7.42, 304.59
423.94, 7.63, 305.59
421.96, 8.12, 308.02
422.95, 9.15, 306.81
422.93, 9.47, 306.83
434.21, 6.95, 293.14
434.06, 6.95, 293.33
433.90, 6.95, 293.53
433.47, 6.82, 294.07
433.27, 6.82, 294.32
433.05, 6.83, 294.60
432.81, 6.83, 294.90
432.55, 6.84, 295.23
432.27, 6.84, 295.59
431.95, 6.85, 295.98
431.60, 6.86, 296.43
431.20, 6.87, 296.93
430.74, 6.88, 297.50
430.23, 6.89, 298.15
429.62, 6.90, 298.92
428.87, 6.91, 299.86
¯428.47, 7.02, 300.36
428.03, 7.15, 300.92
426.93, 7.18, 302.30
426.02, 7.29, 303.45
424.86, 7.41, 304.91
424.06, 7.61, 305.92
422.19, 8.12, 308.27
423.22, 9.15, 306.98
423.22, 9.47, 306.98
434.27, 6.95, 293.19
434.12, 6.95, 293.38
433.97, 6.96, 293.58
433.80, 6.96, 293.80
433.35, 6.83, 294.38
433.13, 6.83, 294.66
432.90, 6.83, 294.96
432.65, 6.84, 295.29
432.37, 6.84, 295.65
432.06, 6.85, 296.06
431.71, 6.86, 296.51
431.32, 6.87, 297.01
430.87, 6.88, 297.59
430.36, 6.89, 298.25
429.78, 6.91, 299.00
429.06, 6.92, 299.94
428.64, 7.03, 300.48
428.16, 7.14, 301.10
427.12, 7.18, 302.45
426.21, 7.29, 303.63
425.83, 7.50, 304.12
425.86, 7.77, 304.09
425.86, 8.04, 304.09
425.83, 8.31, 304.13
423.52, 9.14, 307.13
423.52, 9.47, 307.13
434.33, 6.95, 293.23
434.19, 6.95, 293.42
434.03, 6.96, 293.63
433.87, 6.96, 293.85
433.43, 6.83, 294.44
433.22, 6.83, 294.72
432.99, 6.83, 295.03
432.74, 6.84, 295.36
432.47, 6.85, 295.72
432.16, 6.85, 296.13
431.82, 6.86, 296.58
431.44, 6.87, 297.09
431.00, 6.88, 297.67
430.50, 6.89, 298.34
429.94, 6.91, 299.09
429.25, 6.92, 300.01
¯428.81, 7.03, 300.60
428.29, 7.13, 301.29
428.35, 7.36, 301.21
426.40, 7.28, 303.81
424.95, 7.36, 305.74
426.04, 7.77, 304.29
426.04, 8.04, 304.29
423.57, 8.17, 307.59
423.58, 8.49, 307.58
422.92, 8.81, 308.46
423.81, 9.14, 307.27
423.81, 9.46, 307.27
434.39, 6.95, 293.28
434.25, 6.95, 293.47
434.10, 6.96, 293.68
433.94, 6.96, 293.90
433.76, 6.96, 294.14
433.30, 6.83, 294.78
433.08, 6.83, 295.09
432.83, 6.84, 295.42
432.57, 6.85, 295.79
432.27, 6.85, 296.20
431.93, 6.86, 296.65
431.56, 6.87, 297.17
431.13, 6.88, 297.76
430.64, 6.90, 298.43
430.09, 6.91, 299.19
429.44, 6.93, 300.09
428.98, 7.03, 300.71
428.42, 7.12, 301.48
428.58, 7.37, 301.26
426.59, 7.28, 303.99
425.07, 7.34, 306.09
426.23, 7.77, 304.49
426.23, 8.04, 304.49
428.54, 8.44, 301.32
428.59, 8.66, 301.26
428.54, 8.87, 301.32
424.10, 9.14, 307.42
424.10, 9.46, 307.42
434.46, 6.95, 293.32
434.32, 6.95, 293.51
434.17, 6.96, 293.72
434.01, 6.96, 293.95
433.84, 6.96, 294.20
433.38, 6.83, 294.84
433.17, 6.83, 295.14
432.93, 6.84, 295.48
432.67, 6.85, 295.85
432.37, 6.86, 296.27
432.05, 6.86, 296.73
¯431.68, 6.87, 297.25
431.26, 6.88, 297.84
430.79, 6.90, 298.51
430.25, 6.92, 299.27
429.62, 6.94, 300.15
429.13, 7.02, 300.85
428.54, 7.11, 301.68
428.82, 7.38, 301.30
428.60, 7.56, 301.61
425.20, 7.33, 306.41
426.42, 7.76, 304.69
426.42, 8.03, 304.70
428.39, 8.42, 301.91
428.69, 8.66, 301.49
428.49, 8.87, 301.77
424.39, 9.14, 307.56
424.39, 9.46, 307.56
434.52, 6.95, 293.36
434.39, 6.95, 293.56
434.24, 6.96, 293.77
434.08, 6.96, 294.00
433.91, 6.96, 294.25
433.73, 6.96, 294.51
433.26, 6.84, 295.20
433.02, 6.84, 295.54
432.77, 6.85, 295.92
432.48, 6.86, 296.33
432.16, 6.87, 296.80
431.80, 6.88, 297.32
431.39, 6.89, 297.92
430.93, 6.90, 298.60
430.40, 6.92, 299.36
429.80, 6.94, 300.24
429.26, 7.01, 301.02
428.67, 7.10, 301.88
428.93, 7.37, 301.51
426.99, 7.27, 304.33
426.34, 7.45, 305.28
426.88, 7.79, 304.50
426.88, 8.05, 304.50
426.88, 8.32, 304.50
428.62, 8.65, 301.97
426.51, 8.84, 305.04
426.52, 9.12, 305.04
424.68, 9.46, 307.71
434.58, 6.95, 293.40
434.45, 6.96, 293.60
434.31, 6.96, 293.81
434.16, 6.96, 294.04
433.99, 6.96, 294.29
433.81, 6.97, 294.57
¯433.35, 6.84, 295.26
433.12, 6.84, 295.60
432.87, 6.85, 295.98
432.59, 6.86, 296.40
432.28, 6.87, 296.87
431.93, 6.88, 297.39
431.53, 6.89, 297.99
431.07, 6.90, 298.68
432.33, 7.44, 296.79
432.33, 7.57, 296.78
432.34, 7.71, 296.78
432.34, 7.85, 296.78
432.34, 7.98, 296.78
432.34, 8.11, 296.77
432.34, 8.25, 296.77
432.35, 8.38, 296.77
432.35, 8.51, 296.77
432.35, 8.65, 296.77
432.33, 8.78, 296.80
427.41, 8.85, 304.18
427.42, 9.11, 304.18
427.39, 9.36, 304.22
434.65, 6.95, 293.44
434.52, 6.96, 293.64
434.38, 6.96, 293.86
434.23, 6.96, 294.09
434.07, 6.96, 294.34
433.89, 6.97, 294.62
433.70, 6.97, 294.91
433.22, 6.84, 295.66
432.97, 6.85, 296.04
432.70, 6.86, 296.46
432.39, 6.87, 296.93
432.05, 6.88, 297.47
432.56, 7.20, 296.68
432.59, 7.35, 296.64
432.59, 7.48, 296.64
432.59, 7.61, 296.64
432.59, 7.74, 296.64
432.59, 7.88, 296.64
432.59, 8.01, 296.64
432.59, 8.14, 296.64
432.59, 8.27, 296.64
432.59, 8.40, 296.64
432.59, 8.53, 296.64
432.59, 8.66, 296.64
432.59, 8.78, 296.64
432.55, 8.91, 296.70
428.36, 9.10, 303.18
428.36, 9.33, 303.18
434.71, 6.95, 293.48
¯434.59, 6.96, 293.68
434.45, 6.96, 293.90
434.31, 6.96, 294.13
434.15, 6.96, 294.39
433.97, 6.97, 294.66
433.79, 6.97, 294.96
433.32, 6.85, 295.71
433.08, 6.85, 296.10
432.81, 6.86, 296.52
432.51, 6.87, 297.00
432.65, 7.06, 296.78
432.72, 7.22, 296.67
432.74, 7.36, 296.64
432.74, 7.49, 296.64
432.74, 7.62, 296.64
432.74, 7.75, 296.64
432.74, 7.88, 296.64
432.74, 8.01, 296.64
432.74, 8.14, 296.64
432.74, 8.27, 296.64
432.74, 8.40, 296.64
432.74, 8.53, 296.64
432.74, 8.66, 296.64
432.74, 8.79, 296.65
432.71, 8.91, 296.69
432.65, 9.04, 296.79
428.64, 9.33, 303.20
434.78, 6.95, 293.52
434.66, 6.96, 293.72
434.52, 6.96, 293.94
434.38, 6.96, 294.18
434.23, 6.96, 294.44
434.06, 6.97, 294.71
433.87, 6.97, 295.01
433.67, 6.98, 295.35
433.18, 6.85, 296.16
432.92, 6.86, 296.58
432.63, 6.87, 297.06
432.79, 7.07, 296.80
432.84, 7.23, 296.71
432.86, 7.36, 296.69
432.86, 7.50, 296.69
432.86, 7.63, 296.69
432.86, 7.76, 296.69
432.86, 7.89, 296.69
432.86, 8.02, 296.69
432.86, 8.15, 296.69
432.86, 8.27, 296.69
432.86, 8.40, 296.69
432.86, 8.53, 296.69
432.86, 8.66, 296.69
¯432.86, 8.79, 296.70
432.83, 8.91, 296.73
432.78, 9.04, 296.83
428.80, 9.33, 303.38
434.85, 6.95, 293.56
434.73, 6.96, 293.76
434.60, 6.96, 293.98
434.46, 6.96, 294.22
434.30, 6.96, 294.48
434.14, 6.97, 294.76
433.96, 6.97, 295.06
433.76, 6.98, 295.40
433.29, 6.85, 296.21
433.03, 6.86, 296.64
432.75, 6.87, 297.13
432.88, 7.06, 296.91
432.94, 7.22, 296.80
432.96, 7.36, 296.78
432.96, 7.49, 296.78
432.96, 7.62, 296.78
432.96, 7.75, 296.78
432.96, 7.88, 296.78
432.96, 8.01, 296.78
432.96, 8.14, 296.78
432.96, 8.27, 296.78
432.96, 8.40, 296.78
432.96, 8.53, 296.78
432.96, 8.66, 296.78
432.96, 8.79, 296.78
432.93, 8.91, 296.82
432.87, 9.04, 296.93
428.97, 9.33, 303.56
434.91, 6.96, 293.60
434.80, 6.96, 293.80
434.67, 6.96, 294.02
434.53, 6.96, 294.26
434.38, 6.96, 294.52
434.23, 6.97, 294.80
434.05, 6.97, 295.11
433.86, 6.98, 295.45
433.65, 6.98, 295.82
433.14, 6.86, 296.70
432.87, 6.87, 297.19
432.55, 6.88, 297.74
433.01, 7.21, 296.94
433.03, 7.35, 296.90
433.03, 7.48, 296.90
433.03, 7.61, 296.90
433.03, 7.74, 296.90
433.03, 7.88, 296.90
433.03, 8.01, 296.90
¯433.03, 8.14, 296.90
433.03, 8.27, 296.91
433.03, 8.40, 296.91
433.03, 8.53, 296.91
433.03, 8.65, 296.91
433.03, 8.78, 296.91
433.00, 8.91, 296.97
429.20, 9.09, 303.64
429.14, 9.33, 303.74
434.98, 6.96, 293.63
434.87, 6.96, 293.84
434.74, 6.96, 294.06
434.61, 6.96, 294.30
434.47, 6.97, 294.57
434.31, 6.97, 294.85
434.14, 6.97, 295.16
433.95, 6.98, 295.50
433.75, 6.99, 295.87
433.26, 6.86, 296.76
432.99, 6.87, 297.25
432.68, 6.88, 297.80
432.34, 6.90, 298.42
433.01, 7.30, 297.20
433.03, 7.44, 297.16
433.03, 7.58, 297.16
433.03, 7.71, 297.17
433.03, 7.85, 297.17
433.03, 7.98, 297.17
433.03, 8.11, 297.17
433.03, 8.25, 297.17
433.03, 8.38, 297.17
433.03, 8.51, 297.17
433.03, 8.65, 297.18
433.01, 8.78, 297.21
429.42, 8.86, 303.72
429.37, 9.09, 303.82
429.31, 9.34, 303.92
435.05, 6.96, 293.67
434.94, 6.96, 293.88
434.82, 6.96, 294.10
434.69, 6.96, 294.34
434.55, 6.97, 294.61
434.39, 6.97, 294.89
434.23, 6.97, 295.20
434.05, 6.98, 295.54
433.85, 6.99, 295.92
433.63, 6.99, 296.33
433.11, 6.87, 297.31
432.81, 6.89, 297.86
432.48, 6.90, 298.49
432.09, 6.91, 299.21
¯431.68, 6.94, 299.99
431.18, 6.96, 300.91
430.59, 6.99, 302.03
429.92, 7.03, 303.29
429.24, 7.11, 304.56
427.94, 7.10, 307.01
428.46, 7.48, 306.02
429.60, 7.90, 303.88
429.60, 8.14, 303.88
429.60, 8.38, 303.89
429.60, 8.62, 303.89
429.59, 8.86, 303.90
429.54, 9.09, 304.01
429.49, 9.34, 304.11
435.11, 6.96, 293.70
435.01, 6.96, 293.91
434.89, 6.96, 294.14
434.76, 6.96, 294.38
434.63, 6.97, 294.65
434.48, 6.97, 294.93
434.32, 6.97, 295.25
434.14, 6.98, 295.59
433.95, 6.99, 295.97
433.73, 7.00, 296.38
433.49, 7.00, 296.85
432.94, 6.89, 297.92
432.61, 6.90, 298.55
432.24, 6.91, 299.28
431.84, 6.94, 300.06
431.36, 6.96, 300.99
430.78, 6.99, 302.12
430.12, 7.03, 303.39
429.42, 7.10, 304.75
428.82, 7.23, 305.92
429.05, 7.54, 305.47
429.77, 7.90, 304.07
429.77, 8.14, 304.07
429.78, 8.38, 304.07
429.78, 8.62, 304.07
429.77, 8.85, 304.09
429.71, 9.09, 304.19
429.66, 9.34, 304.30
435.18, 6.96, 293.74
435.08, 6.96, 293.95
434.96, 6.96, 294.17
434.84, 6.96, 294.42
434.71, 6.97, 294.69
434.57, 6.97, 294.97
434.41, 6.98, 295.29
434.24, 6.98, 295.63
434.05, 6.99, 296.01
¯433.84, 7.00, 296.43
433.61, 7.00, 296.90
433.07, 6.89, 297.98
432.75, 6.90, 298.62
432.39, 6.91, 299.34
432.00, 6.94, 300.14
431.53, 6.96, 301.07
430.96, 6.99, 302.21
430.33, 7.03, 303.48
429.60, 7.09, 304.96
428.51, 7.12, 307.15
429.25, 7.53, 305.65
429.95, 7.89, 304.26
429.95, 8.13, 304.26
429.95, 8.37, 304.26
429.95, 8.61, 304.26
429.94, 8.85, 304.28
429.89, 9.09, 304.38
429.84, 9.34, 304.49
435.25, 6.96, 293.77
435.15, 6.96, 293.98
435.04, 6.96, 294.21
434.92, 6.96, 294.46
434.79, 6.97, 294.72
434.65, 6.97, 295.01
434.50, 6.98, 295.33
434.33, 6.98, 295.68
434.15, 6.99, 296.06
433.95, 7.00, 296.48
433.72, 7.01, 296.95
433.47, 7.02, 297.48
432.89, 6.90, 298.68
432.54, 6.91, 299.41
432.16, 6.94, 300.21
431.71, 6.97, 301.14
431.15, 6.99, 302.30
430.54, 7.03, 303.57
429.80, 7.08, 305.11
428.80, 7.12, 307.20
427.83, 7.23, 309.22
430.12, 7.89, 304.44
430.12, 8.13, 304.44
430.12, 8.37, 304.44
430.13, 8.61, 304.44
430.12, 8.85, 304.46
430.07, 9.10, 304.57
430.01, 9.34, 304.68
435.32, 6.96, 293.80
435.22, 6.96, 294.01
435.12, 6.96, 294.24
435.00, 6.96, 294.49
¯434.88, 6.97, 294.76
434.74, 6.97, 295.05
434.59, 6.98, 295.37
434.43, 6.98, 295.72
434.25, 6.99, 296.10
434.06, 7.00, 296.53
433.84, 7.01, 297.00
433.59, 7.02, 297.53
433.03, 6.90, 298.73
432.69, 6.92, 299.47
432.32, 6.94, 300.28
431.89, 6.97, 301.21
431.35, 6.99, 302.38
430.75, 7.03, 303.66
430.04, 7.08, 305.19
429.09, 7.13, 307.25
428.09, 7.23, 309.40
430.30, 7.88, 304.63
430.30, 8.12, 304.63
430.30, 8.37, 304.63
430.30, 8.61, 304.63
430.29, 8.85, 304.65
430.24, 9.10, 304.76
430.19, 9.34, 304.87
435.39, 6.96, 293.83
435.29, 6.96, 294.05
435.19, 6.96, 294.28
435.08, 6.96, 294.53
434.96, 6.97, 294.80
434.83, 6.97, 295.09
434.68, 6.98, 295.41
434.53, 6.98, 295.76
434.36, 6.99, 296.14
434.17, 7.00, 296.57
433.95, 7.01, 297.05
433.72, 7.02, 297.58
433.44, 7.03, 298.19
432.85, 6.92, 299.53
432.48, 6.94, 300.35
432.06, 6.97, 301.28
431.54, 6.99, 302.45
430.96, 7.03, 303.75
430.28, 7.08, 305.27
429.38, 7.14, 307.29
429.24, 7.39, 307.60
429.21, 7.96, 307.68
435.46, 6.96, 293.86
435.37, 6.96, 294.08
435.27, 6.96, 294.31
435.16, 6.96, 294.56
435.04, 6.97, 294.83
¯434.92, 6.97, 295.13
434.78, 6.98, 295.45
434.63, 6.98, 295.80
434.46, 6.99, 296.19
434.28, 7.00, 296.61
434.07, 7.01, 297.09
433.84, 7.02, 297.63
433.58, 7.03, 298.24
433.00, 6.92, 299.59
432.64, 6.94, 300.42
432.24, 6.97, 301.35
431.74, 6.99, 302.52
431.17, 7.03, 303.84
430.52, 7.09, 305.36
429.67, 7.14, 307.34
429.50, 7.39, 307.73
435.53, 6.96, 293.89
435.44, 6.96, 294.11
435.34, 6.96, 294.34
435.24, 6.97, 294.59
435.13, 6.97, 294.87
435.00, 6.97, 295.16
434.87, 6.98, 295.49
434.73, 6.98, 295.84
434.57, 6.99, 296.23
434.39, 7.00, 296.66
434.19, 7.01, 297.14
433.96, 7.02, 297.68
433.71, 7.03, 298.29
433.42, 7.04, 298.99
432.80, 6.94, 300.48
432.42, 6.97, 301.42
431.93, 6.99, 302.59
431.38, 7.03, 303.92
430.75, 7.09, 305.45
429.94, 7.15, 307.42
428.90, 7.22, 309.93
435.60, 6.96, 293.92
435.52, 6.96, 294.14
435.42, 6.96, 294.37
435.32, 6.97, 294.62
435.21, 6.97, 294.90
435.09, 6.97, 295.20
434.96, 6.98, 295.52
434.82, 6.99, 295.87
434.67, 6.99, 296.26
434.50, 7.00, 296.70
434.31, 7.01, 297.18
434.09, 7.02, 297.72
433.85, 7.03, 298.34
433.57, 7.04, 299.04
¯433.24, 7.06, 299.86
432.60, 6.97, 301.49
432.13, 6.99, 302.66
431.60, 7.03, 304.00
430.99, 7.09, 305.53
430.21, 7.15, 307.50
429.17, 7.21, 310.10
435.67, 6.96, 293.94
435.59, 6.96, 294.16
435.50, 6.96, 294.40
435.40, 6.97, 294.65
435.30, 6.97, 294.93
435.18, 6.97, 295.23
435.06, 6.98, 295.55
434.92, 6.99, 295.91
434.77, 6.99, 296.30
434.61, 7.00, 296.74
434.42, 7.01, 297.22
434.22, 7.02, 297.77
433.98, 7.03, 298.39
433.71, 7.05, 299.09
433.40, 7.06, 299.91
432.77, 6.97, 301.55
432.33, 6.99, 302.72
431.81, 7.03, 304.07
431.23, 7.09, 305.61
430.48, 7.15, 307.57
429.46, 7.21, 310.25
435.74, 6.96, 293.97
435.66, 6.96, 294.19
435.58, 6.96, 294.43
435.48, 6.97, 294.68
435.38, 6.97, 294.96
435.27, 6.97, 295.26
435.15, 6.98, 295.59
