žVERSION 0.7
FIELDS x y z
SIZE 8 8 8
TYPE F F F
COUNT 1 1 1
WIDTH 2271
HEIGHT 1
VIEWPOINT 333.43, 6.89, 314.34 1 353.57, 3.79, 311.23
POINTS 2271
DATA ascii
357.61, 1.93, 313.14
358.00, 1.96, 313.17
358.43, 1.99, 313.21
358.89, 2.02, 313.25
359.42, 2.05, 313.30
360.03, 2.09, 313.35
360.72, 2.14, 313.41
361.54, 2.19, 313.48
362.53, 2.24, 313.57
363.29, 2.34, 313.64
364.12, 2.46, 313.72
365.66, 2.56, 313.85
370.64, 2.56, 314.29
371.08, 2.82, 314.33
374.67, 3.05, 314.65
375.37, 3.39, 314.72
356.43, 1.85, 312.95
356.70, 1.86, 312.97
356.98, 1.88, 312.99
357.30, 1.91, 313.02
357.65, 1.93, 313.04
358.04, 1.95, 313.07
358.46, 1.98, 313.10
358.93, 2.01, 313.14
359.46, 2.05, 313.18
360.08, 2.09, 313.22
360.77, 2.13, 313.28
361.60, 2.18, 313.34
¯362.51, 2.25, 313.41
363.26, 2.35, 313.46
364.09, 2.47, 313.53
365.82, 2.56, 313.66
370.20, 2.58, 313.98
370.76, 2.84, 314.02
370.90, 3.12, 314.04
371.03, 3.40, 314.05
375.18, 3.74, 314.37
375.35, 4.09, 314.39
375.53, 4.44, 314.41
356.45, 1.84, 312.87
356.72, 1.86, 312.89
357.01, 1.88, 312.91
357.32, 1.90, 312.93
357.68, 1.93, 312.95
358.07, 1.95, 312.97
358.49, 1.98, 313.00
358.96, 2.01, 313.03
359.50, 2.05, 313.06
360.12, 2.09, 313.10
360.81, 2.13, 313.14
361.66, 2.18, 313.19
362.48, 2.26, 313.24
363.23, 2.36, 313.29
364.05, 2.48, 313.34
365.99, 2.55, 313.45
369.77, 2.61, 313.68
370.45, 2.85, 313.73
370.58, 3.13, 313.74
370.71, 3.41, 313.75
370.85, 3.69, 313.76
370.98, 3.98, 313.78
375.17, 4.43, 314.03
375.35, 4.79, 314.05
375.53, 5.15, 314.07
356.47, 1.84, 312.79
356.74, 1.86, 312.81
357.03, 1.88, 312.82
357.35, 1.90, 312.84
357.71, 1.92, 312.85
358.09, 1.95, 312.87
358.52, 1.98, 312.89
359.00, 2.01, 312.91
359.54, 2.04, 312.94
360.16, 2.08, 312.97
360.86, 2.13, 313.00
361.72, 2.18, 313.04
362.45, 2.26, 313.07
363.19, 2.36, 313.11
364.10, 2.48, 313.15
¯366.12, 2.55, 313.25
369.36, 2.63, 313.40
370.15, 2.87, 313.44
370.28, 3.14, 313.45
370.41, 3.41, 313.46
370.54, 3.69, 313.47
370.67, 3.97, 313.48
370.80, 4.26, 313.49
370.93, 4.55, 313.50
371.07, 4.84, 313.51
375.34, 5.48, 313.72
356.49, 1.84, 312.72
356.76, 1.86, 312.72
357.05, 1.88, 312.73
357.37, 1.90, 312.74
357.73, 1.92, 312.76
358.12, 1.94, 312.77
358.55, 1.97, 312.78
359.03, 2.01, 312.80
359.58, 2.04, 312.82
360.20, 2.08, 312.84
360.90, 2.13, 312.86
361.75, 2.18, 312.89
362.41, 2.27, 312.91
363.16, 2.37, 312.94
364.24, 2.47, 312.97
366.20, 2.55, 313.03
368.97, 2.65, 313.12
369.86, 2.88, 313.16
369.99, 3.15, 313.16
370.11, 3.42, 313.17
370.23, 3.69, 313.18
370.36, 3.97, 313.19
370.49, 4.25, 313.20
370.62, 4.53, 313.20
370.75, 4.82, 313.21
370.88, 5.12, 313.22
371.02, 5.42, 313.23
375.33, 6.18, 313.38
356.51, 1.83, 312.64
356.78, 1.85, 312.64
357.08, 1.87, 312.65
357.40, 1.89, 312.65
357.76, 1.92, 312.66
358.15, 1.94, 312.67
358.58, 1.97, 312.67
359.06, 2.00, 312.68
359.62, 2.04, 312.69
360.23, 2.08, 312.71
360.94, 2.13, 312.72
361.72, 2.18, 312.73
¯362.38, 2.27, 312.75
363.12, 2.38, 312.76
364.37, 2.46, 312.79
366.27, 2.55, 312.82
368.61, 2.67, 312.86
369.58, 2.89, 312.88
369.70, 3.16, 312.89
369.82, 3.42, 312.90
369.94, 3.69, 312.90
370.06, 3.96, 312.91
370.19, 4.24, 312.91
370.31, 4.52, 312.92
370.44, 4.81, 312.93
370.57, 5.09, 312.93
370.70, 5.39, 312.94
370.83, 5.69, 312.94
356.53, 1.83, 312.56
356.80, 1.85, 312.56
357.10, 1.87, 312.56
357.42, 1.89, 312.56
357.78, 1.91, 312.56
358.17, 1.94, 312.56
358.61, 1.97, 312.57
359.09, 2.00, 312.57
359.65, 2.03, 312.57
360.27, 2.08, 312.57
360.98, 2.12, 312.58
361.69, 2.19, 312.58
362.35, 2.28, 312.58
363.08, 2.38, 312.59
364.51, 2.46, 312.60
366.35, 2.55, 312.60
368.26, 2.69, 312.61
369.31, 2.90, 312.62
369.42, 3.16, 312.62
369.54, 3.42, 312.63
369.66, 3.69, 312.63
369.77, 3.96, 312.64
369.89, 4.23, 312.64
370.02, 4.51, 312.64
370.14, 4.79, 312.65
370.26, 5.07, 312.65
370.39, 5.36, 312.65
370.52, 5.65, 312.66
356.54, 1.83, 312.48
356.82, 1.85, 312.47
357.11, 1.86, 312.47
357.44, 1.89, 312.47
357.80, 1.91, 312.46
358.19, 1.93, 312.46
358.63, 1.96, 312.46
¯359.12, 2.00, 312.45
359.67, 2.03, 312.45
360.30, 2.07, 312.44
361.01, 2.12, 312.43
361.66, 2.19, 312.43
362.32, 2.28, 312.42
363.04, 2.39, 312.42
364.72, 2.44, 312.40
366.38, 2.55, 312.39
367.59, 2.72, 312.38
369.03, 2.91, 312.36
369.16, 3.17, 312.37
369.27, 3.43, 312.37
369.38, 3.69, 312.37
369.50, 3.95, 312.37
369.61, 4.22, 312.37
369.73, 4.50, 312.37
369.85, 4.77, 312.38
369.97, 5.05, 312.38
370.09, 5.34, 312.38
370.22, 5.62, 312.38
356.55, 1.82, 312.39
356.83, 1.84, 312.39
357.13, 1.86, 312.38
357.46, 1.88, 312.37
357.82, 1.91, 312.37
358.21, 1.93, 312.36
358.66, 1.96, 312.35
359.15, 1.99, 312.33
359.70, 2.03, 312.32
360.33, 2.07, 312.31
361.05, 2.12, 312.29
361.64, 2.20, 312.28
362.29, 2.29, 312.26
363.02, 2.39, 312.25
364.96, 2.43, 312.20
366.38, 2.55, 312.17
367.08, 2.74, 312.15
368.24, 2.94, 312.13
368.85, 3.18, 312.12
368.98, 3.43, 312.11
369.11, 3.69, 312.11
369.23, 3.95, 312.11
369.34, 4.21, 312.11
369.46, 4.48, 312.11
369.57, 4.75, 312.11
369.69, 5.03, 312.11
369.81, 5.31, 312.11
369.93, 5.59, 312.11
356.57, 1.82, 312.31
356.84, 1.84, 312.30
¯357.14, 1.86, 312.29
357.47, 1.88, 312.28
357.83, 1.90, 312.27
358.23, 1.93, 312.25
358.68, 1.96, 312.24
359.17, 1.99, 312.22
359.72, 2.03, 312.20
360.36, 2.07, 312.17
361.05, 2.12, 312.15
361.62, 2.20, 312.13
362.26, 2.29, 312.10
363.38, 2.36, 312.06
364.96, 2.43, 312.00
366.38, 2.55, 311.95
366.89, 2.75, 311.93
367.27, 2.97, 311.92
368.54, 3.18, 311.87
368.67, 3.43, 311.87
368.80, 3.69, 311.87
368.93, 3.94, 311.87
369.07, 4.21, 311.86
369.19, 4.47, 311.86
369.30, 4.74, 311.86
369.42, 5.01, 311.86
369.53, 5.29, 311.85
369.65, 5.57, 311.85
356.58, 1.82, 312.23
356.85, 1.84, 312.22
357.16, 1.85, 312.20
357.49, 1.88, 312.19
357.85, 1.90, 312.17
358.25, 1.92, 312.15
358.70, 1.95, 312.12
359.19, 1.99, 312.10
359.74, 2.02, 312.07
360.38, 2.06, 312.04
361.03, 2.12, 312.00
361.59, 2.20, 311.98
362.23, 2.30, 311.94
363.61, 2.34, 311.87
364.96, 2.43, 311.80
366.37, 2.55, 311.73
366.71, 2.76, 311.72
367.01, 2.98, 311.70
367.89, 3.19, 311.66
368.37, 3.43, 311.64
368.50, 3.68, 311.63
368.62, 3.94, 311.63
368.75, 4.20, 311.62
368.88, 4.46, 311.62
369.02, 4.72, 311.61
¯369.15, 4.99, 311.61
369.26, 5.26, 311.60
369.37, 5.54, 311.60
356.59, 1.81, 312.15
356.86, 1.83, 312.13
357.17, 1.85, 312.11
357.50, 1.87, 312.09
357.87, 1.89, 312.07
358.27, 1.92, 312.04
358.72, 1.95, 312.01
359.21, 1.98, 311.98
359.76, 2.02, 311.94
360.40, 2.06, 311.90
361.00, 2.12, 311.86
361.56, 2.21, 311.83
362.20, 2.30, 311.79
363.84, 2.32, 311.68
364.95, 2.43, 311.61
366.24, 2.56, 311.52
366.52, 2.77, 311.50
366.83, 2.98, 311.49
367.14, 3.21, 311.47
368.08, 3.44, 311.41
368.20, 3.68, 311.40
368.33, 3.93, 311.39
368.45, 4.18, 311.39
368.58, 4.44, 311.38
368.70, 4.70, 311.37
368.83, 4.97, 311.37
368.97, 5.24, 311.36
369.10, 5.51, 311.35
356.59, 1.81, 312.07
356.87, 1.83, 312.05
357.18, 1.85, 312.02
357.51, 1.87, 312.00
357.88, 1.89, 311.97
358.29, 1.92, 311.93
358.74, 1.94, 311.90
359.22, 1.98, 311.86
359.78, 2.02, 311.82
360.43, 2.06, 311.77
360.97, 2.13, 311.72
361.53, 2.21, 311.68
362.17, 2.30, 311.63
364.07, 2.31, 311.48
364.94, 2.43, 311.41
366.06, 2.57, 311.32
366.35, 2.78, 311.30
366.64, 2.99, 311.28
366.95, 3.21, 311.25
367.54, 3.44, 311.21
¯367.92, 3.68, 311.18
368.04, 3.93, 311.17
368.16, 4.17, 311.16
368.28, 4.43, 311.15
368.40, 4.68, 311.14
368.53, 4.94, 311.13
368.66, 5.21, 311.13
368.79, 5.48, 311.12
356.60, 1.81, 311.99
356.88, 1.83, 311.96
357.19, 1.84, 311.93
357.52, 1.86, 311.90
357.89, 1.89, 311.87
358.30, 1.91, 311.83
358.75, 1.94, 311.79
359.24, 1.98, 311.74
359.80, 2.01, 311.69
360.45, 2.05, 311.63
360.95, 2.13, 311.58
361.50, 2.21, 311.53
362.14, 2.30, 311.47
364.14, 2.30, 311.28
364.94, 2.43, 311.21
365.89, 2.58, 311.12
366.17, 2.78, 311.09
366.46, 2.99, 311.07
366.76, 3.21, 311.04
367.07, 3.44, 311.01
367.64, 3.68, 310.96
367.76, 3.92, 310.95
367.87, 4.16, 310.94
367.99, 4.41, 310.93
368.11, 4.67, 310.92
368.23, 4.92, 310.91
368.35, 5.18, 310.90
368.48, 5.45, 310.89
356.61, 1.80, 311.90
356.89, 1.82, 311.87
357.19, 1.84, 311.84
357.53, 1.86, 311.80
357.90, 1.88, 311.76
358.31, 1.91, 311.72
358.76, 1.94, 311.67
359.25, 1.97, 311.62
359.81, 2.01, 311.56
360.42, 2.05, 311.49
360.92, 2.13, 311.44
361.47, 2.22, 311.38
362.13, 2.30, 311.31
364.13, 2.30, 311.10
364.92, 2.43, 311.01
¯365.73, 2.59, 310.92
366.00, 2.79, 310.90
366.28, 3.00, 310.87
366.57, 3.22, 310.83
366.87, 3.44, 310.80
367.19, 3.67, 310.77
367.49, 3.91, 310.74
367.60, 4.15, 310.73
367.71, 4.40, 310.72
367.83, 4.65, 310.70
367.94, 4.90, 310.69
368.06, 5.16, 310.68
368.18, 5.42, 310.67
356.61, 1.80, 311.82
356.89, 1.82, 311.79
357.20, 1.84, 311.75
357.54, 1.86, 311.71
357.91, 1.88, 311.66
358.32, 1.90, 311.61
358.77, 1.93, 311.56
359.26, 1.97, 311.50
359.83, 2.00, 311.43
360.39, 2.06, 311.36
360.89, 2.13, 311.30
361.44, 2.22, 311.23
362.57, 2.26, 311.10
364.12, 2.30, 310.91
364.91, 2.43, 310.81
365.56, 2.60, 310.73
365.83, 2.80, 310.70
366.11, 3.00, 310.67
366.39, 3.22, 310.63
366.69, 3.44, 310.60
366.99, 3.67, 310.56
367.22, 3.91, 310.53
367.34, 4.15, 310.52
367.45, 4.39, 310.51
367.56, 4.63, 310.49
367.68, 4.88, 310.48
367.80, 5.14, 310.46
367.92, 5.39, 310.45
356.61, 1.80, 311.74
356.90, 1.81, 311.70
357.21, 1.83, 311.66
357.55, 1.85, 311.61
357.92, 1.87, 311.56
358.33, 1.90, 311.51
358.77, 1.93, 311.44
359.27, 1.96, 311.38
359.84, 2.00, 311.30
360.37, 2.06, 311.23
¯360.86, 2.13, 311.16
361.40, 2.22, 311.09
363.03, 2.21, 310.87
364.10, 2.30, 310.72
364.90, 2.43, 310.61
365.40, 2.61, 310.54
365.66, 2.80, 310.51
365.92, 3.01, 310.47
366.19, 3.22, 310.44
366.47, 3.44, 310.40
366.77, 3.67, 310.36
367.01, 3.90, 310.33
367.12, 4.14, 310.31
367.24, 4.38, 310.30
367.35, 4.62, 310.28
367.46, 4.87, 310.26
367.58, 5.12, 310.25
367.70, 5.37, 310.23
356.62, 1.79, 311.66
356.90, 1.81, 311.61
357.21, 1.83, 311.57
357.55, 1.85, 311.52
357.92, 1.87, 311.46
358.34, 1.90, 311.40
358.78, 1.93, 311.33
359.27, 1.96, 311.26
359.85, 2.00, 311.17
360.34, 2.06, 311.10
360.83, 2.14, 311.02
361.37, 2.22, 310.94
363.38, 2.18, 310.64
364.08, 2.30, 310.53
364.81, 2.44, 310.42
365.22, 2.62, 310.36
365.46, 2.81, 310.33
365.72, 3.01, 310.29
365.98, 3.22, 310.25
366.26, 3.44, 310.21
366.54, 3.66, 310.16
366.80, 3.90, 310.13
366.91, 4.13, 310.11
367.02, 4.37, 310.09
367.14, 4.61, 310.07
367.25, 4.85, 310.06
367.36, 5.10, 310.04
367.48, 5.35, 310.02
356.62, 1.79, 311.57
356.90, 1.81, 311.53
357.21, 1.82, 311.47
357.55, 1.84, 311.42
357.93, 1.87, 311.36
¯358.34, 1.89, 311.29
358.78, 1.92, 311.22
359.28, 1.96, 311.13
359.86, 1.99, 311.04
360.30, 2.06, 310.97
360.79, 2.14, 310.88
361.33, 2.22, 310.80
363.32, 2.18, 310.47
363.97, 2.30, 310.36
364.69, 2.44, 310.24
365.05, 2.62, 310.18
365.27, 2.82, 310.15
365.52, 3.02, 310.11
365.78, 3.23, 310.06
366.05, 3.44, 310.02
366.32, 3.66, 309.97
366.59, 3.89, 309.93
366.70, 4.12, 309.91
366.81, 4.36, 309.89
366.92, 4.59, 309.87
367.03, 4.84, 309.85
367.15, 5.08, 309.83
367.26, 5.33, 309.81
356.62, 1.79, 311.49
356.90, 1.80, 311.44
357.21, 1.82, 311.38
357.56, 1.84, 311.32
357.93, 1.86, 311.25
358.34, 1.89, 311.18
358.78, 1.92, 311.10
359.28, 1.95, 311.01
359.83, 1.99, 310.91
360.27, 2.06, 310.83
360.76, 2.14, 310.75
361.29, 2.22, 310.65
363.24, 2.18, 310.30
363.85, 2.31, 310.19
364.56, 2.45, 310.07
364.89, 2.63, 310.01
365.10, 2.82, 309.97
365.33, 3.02, 309.93
365.58, 3.23, 309.88
365.84, 3.44, 309.83
366.11, 3.66, 309.79
366.38, 3.89, 309.74
366.49, 4.11, 309.72
366.60, 4.35, 309.70
366.71, 4.58, 309.68
366.82, 4.82, 309.66
366.93, 5.06, 309.63
367.05, 5.31, 309.61
¯356.61, 1.78, 311.40
356.90, 1.80, 311.35
357.21, 1.82, 311.29
357.56, 1.84, 311.22
357.93, 1.86, 311.15
358.34, 1.88, 311.07
358.78, 1.91, 310.98
359.28, 1.95, 310.89
359.79, 1.99, 310.79
360.24, 2.06, 310.70
360.72, 2.14, 310.61
361.26, 2.22, 310.51
363.17, 2.19, 310.14
363.74, 2.32, 310.03
364.44, 2.45, 309.89
364.73, 2.64, 309.83
364.93, 2.83, 309.79
365.15, 3.03, 309.75
365.38, 3.23, 309.71
365.64, 3.44, 309.66
365.90, 3.66, 309.60
366.17, 3.88, 309.55
366.29, 4.11, 309.53
366.39, 4.34, 309.51
366.50, 4.57, 309.48
366.61, 4.80, 309.46
366.72, 5.04, 309.44
366.83, 5.29, 309.42
356.61, 1.78, 311.32
356.90, 1.79, 311.26
357.21, 1.81, 311.20
357.56, 1.83, 311.12
357.93, 1.85, 311.05
358.34, 1.88, 310.96
358.78, 1.91, 310.87
359.28, 1.94, 310.77
359.76, 1.99, 310.67
360.20, 2.06, 310.57
360.70, 2.14, 310.47
361.92, 2.14, 310.22
363.10, 2.19, 309.97
363.63, 2.32, 309.86
364.32, 2.46, 309.72
364.57, 2.64, 309.66
364.77, 2.83, 309.62
364.98, 3.03, 309.58
365.19, 3.23, 309.53
365.44, 3.44, 309.48
365.69, 3.65, 309.43
365.96, 3.87, 309.37
366.09, 4.10, 309.34
¯366.19, 4.33, 309.32
366.29, 4.56, 309.30
366.40, 4.79, 309.27
366.51, 5.03, 309.25
366.62, 5.27, 309.22
356.61, 1.77, 311.24
356.89, 1.79, 311.17
357.21, 1.81, 311.10
357.55, 1.83, 311.03
357.93, 1.85, 310.94
358.33, 1.87, 310.85
358.78, 1.90, 310.75
359.28, 1.94, 310.64
359.73, 1.99, 310.54
360.18, 2.06, 310.44
360.68, 2.14, 310.33
362.64, 2.06, 309.89
363.03, 2.19, 309.81
363.52, 2.33, 309.70
364.19, 2.46, 309.55
364.41, 2.65, 309.50
364.61, 2.84, 309.45
364.81, 3.03, 309.41
365.02, 3.23, 309.36
365.24, 3.44, 309.31
365.49, 3.65, 309.25
365.75, 3.87, 309.19
365.89, 4.09, 309.16
365.99, 4.32, 309.13
366.09, 4.54, 309.11
366.20, 4.77, 309.09
366.30, 5.01, 309.06
366.41, 5.25, 309.04
356.60, 1.77, 311.15
356.89, 1.78, 311.08
357.20, 1.80, 311.01
357.55, 1.82, 310.93
357.92, 1.84, 310.84
358.33, 1.87, 310.74
358.78, 1.90, 310.64
359.27, 1.93, 310.52
359.71, 1.99, 310.41
360.17, 2.06, 310.31
360.67, 2.13, 310.19
362.58, 2.06, 309.74
362.96, 2.19, 309.64
363.40, 2.33, 309.54
364.07, 2.47, 309.38
364.26, 2.65, 309.33
364.45, 2.84, 309.29
364.65, 3.03, 309.24
¯364.86, 3.23, 309.19
365.07, 3.43, 309.13
365.29, 3.64, 309.08
365.55, 3.86, 309.02
365.70, 4.08, 308.98
365.80, 4.31, 308.95
365.90, 4.53, 308.93
366.00, 4.76, 308.90
366.10, 4.99, 308.88
366.20, 5.23, 308.85
356.60, 1.76, 311.07
356.88, 1.78, 311.00
357.20, 1.80, 310.92
357.54, 1.82, 310.83
357.91, 1.84, 310.74
358.32, 1.87, 310.63
358.76, 1.90, 310.52
359.24, 1.93, 310.40
359.70, 1.99, 310.29
360.15, 2.05, 310.17
360.65, 2.13, 310.04
362.51, 2.06, 309.58
362.89, 2.19, 309.48
363.29, 2.34, 309.38
363.92, 2.47, 309.22
364.10, 2.66, 309.17
364.30, 2.84, 309.12
364.49, 3.03, 309.07
364.69, 3.23, 309.02
364.90, 3.43, 308.96
365.11, 3.64, 308.91
365.35, 3.86, 308.85
365.51, 4.08, 308.80
365.61, 4.30, 308.78
365.70, 4.52, 308.75
365.80, 4.75, 308.72
365.90, 4.98, 308.70
366.00, 5.21, 308.67
356.59, 1.76, 310.98
356.88, 1.78, 310.91
357.19, 1.79, 310.82
357.54, 1.81, 310.73
357.91, 1.83, 310.63
358.31, 1.86, 310.53
358.73, 1.90, 310.41
359.21, 1.93, 310.28
359.68, 1.98, 310.16
360.14, 2.05, 310.04
360.64, 2.12, 309.90
362.44, 2.06, 309.42
362.81, 2.20, 309.32
¯363.21, 2.34, 309.21
363.77, 2.48, 309.06
363.95, 2.66, 309.01
364.14, 2.84, 308.96
364.33, 3.03, 308.91
364.53, 3.23, 308.85
364.73, 3.43, 308.80
364.94, 3.64, 308.74
365.16, 3.85, 308.68
365.33, 4.07, 308.63
365.42, 4.29, 308.60
365.52, 4.51, 308.58
365.61, 4.73, 308.55
365.71, 4.96, 308.52
365.82, 5.19, 308.49
356.58, 1.76, 310.90
356.87, 1.77, 310.82
357.18, 1.79, 310.73
357.53, 1.81, 310.63
357.89, 1.83, 310.53
358.27, 1.86, 310.42
358.70, 1.89, 310.30
359.19, 1.93, 310.16
359.66, 1.98, 310.03
360.12, 2.05, 309.90
361.20, 2.04, 309.60
362.37, 2.06, 309.27
362.74, 2.20, 309.16
363.13, 2.34, 309.05
363.63, 2.49, 308.91
363.81, 2.66, 308.86
363.99, 2.85, 308.80
364.18, 3.04, 308.75
364.37, 3.23, 308.69
364.57, 3.43, 308.63
364.77, 3.63, 308.57
364.96, 3.84, 308.52
365.14, 4.06, 308.47
365.25, 4.28, 308.43
365.34, 4.50, 308.40
365.44, 4.72, 308.37
365.54, 4.95, 308.34
365.63, 5.18, 308.31
356.57, 1.75, 310.82
356.86, 1.77, 310.73
357.17, 1.78, 310.64
357.51, 1.80, 310.53
357.86, 1.83, 310.43
358.24, 1.86, 310.32
358.66, 1.89, 310.19
359.16, 1.93, 310.05
¯359.64, 1.98, 309.90
360.10, 2.04, 309.77
361.95, 1.94, 309.22
362.30, 2.06, 309.11
362.67, 2.20, 309.00
363.06, 2.34, 308.88
363.49, 2.49, 308.76
363.66, 2.67, 308.70
363.84, 2.85, 308.65
364.02, 3.04, 308.59
364.19, 3.23, 308.54
364.37, 3.43, 308.48
364.55, 3.63, 308.43
364.73, 3.84, 308.37
364.92, 4.05, 308.31
365.04, 4.27, 308.27
365.16, 4.48, 308.23
365.26, 4.71, 308.20
365.36, 4.93, 308.17
365.46, 5.16, 308.14
356.56, 1.75, 310.73
356.84, 1.76, 310.64
357.16, 1.78, 310.54
357.48, 1.80, 310.44
357.83, 1.83, 310.33
358.21, 1.86, 310.22
358.62, 1.89, 310.08
359.13, 1.92, 309.93
359.62, 1.97, 309.77
360.08, 2.04, 309.63
361.89, 1.94, 309.07
362.23, 2.06, 308.96
362.59, 2.20, 308.84
362.98, 2.34, 308.72
363.34, 2.49, 308.61
363.50, 2.67, 308.55
363.66, 2.85, 308.50
363.82, 3.04, 308.45
363.99, 3.23, 308.39
364.16, 3.42, 308.34
364.33, 3.62, 308.28
364.51, 3.83, 308.22
364.69, 4.04, 308.16
364.84, 4.25, 308.12
364.95, 4.47, 308.08
365.06, 4.69, 308.04
365.17, 4.92, 308.00
365.28, 5.14, 307.96
356.54, 1.74, 310.65
356.83, 1.76, 310.55
357.15, 1.77, 310.45
¯357.45, 1.80, 310.35
357.79, 1.83, 310.24
358.17, 1.86, 310.11
358.59, 1.89, 309.98
359.10, 1.92, 309.81
359.60, 1.97, 309.64
360.05, 2.03, 309.49
361.82, 1.94, 308.92
362.16, 2.06, 308.81
362.52, 2.20, 308.69
362.89, 2.34, 308.56
363.18, 2.50, 308.46
363.31, 2.68, 308.42
363.47, 2.86, 308.37
363.62, 3.04, 308.31
363.78, 3.23, 308.26
363.95, 3.42, 308.20
364.12, 3.62, 308.14
364.29, 3.82, 308.08
364.47, 4.03, 308.02
364.64, 4.24, 307.96
364.74, 4.46, 307.92
364.85, 4.68, 307.88
364.97, 4.90, 307.84
365.08, 5.12, 307.80
356.53, 1.74, 310.56
356.82, 1.75, 310.46
357.13, 1.77, 310.36
357.42, 1.80, 310.26
357.76, 1.83, 310.14
358.13, 1.86, 310.01
358.54, 1.89, 309.87
359.06, 1.92, 309.69
359.58, 1.96, 309.52
360.03, 2.03, 309.36
361.75, 1.94, 308.77
362.09, 2.06, 308.65
362.42, 2.20, 308.54
362.74, 2.35, 308.43
363.04, 2.50, 308.32
363.16, 2.68, 308.28
363.28, 2.86, 308.23
363.43, 3.04, 308.18
363.59, 3.23, 308.12
363.75, 3.42, 308.06
363.91, 3.61, 308.00
364.08, 3.81, 307.94
364.25, 4.02, 307.88
364.43, 4.23, 307.81
364.54, 4.45, 307.77
364.65, 4.66, 307.73
¯364.76, 4.88, 307.69
364.87, 5.10, 307.65
356.51, 1.73, 310.48
356.80, 1.75, 310.38
357.12, 1.76, 310.26
357.39, 1.80, 310.16
357.72, 1.83, 310.05
358.09, 1.86, 309.91
358.50, 1.89, 309.76
359.03, 1.92, 309.58
359.55, 1.96, 309.39
360.00, 2.02, 309.22
361.68, 1.94, 308.63
361.97, 2.07, 308.52
362.27, 2.21, 308.41
362.59, 2.35, 308.29
362.89, 2.51, 308.18
363.01, 2.68, 308.14
363.13, 2.86, 308.09
363.25, 3.04, 308.04
363.39, 3.23, 307.99
363.55, 3.41, 307.93
363.71, 3.61, 307.87
363.87, 3.81, 307.81
364.04, 4.01, 307.74
364.21, 4.22, 307.68
364.35, 4.43, 307.62
364.45, 4.65, 307.58
364.56, 4.86, 307.54
364.67, 5.09, 307.50
356.50, 1.73, 310.39
356.78, 1.74, 310.29
357.09, 1.76, 310.17
357.36, 1.79, 310.07
357.68, 1.83, 309.95
358.05, 1.86, 309.81
358.46, 1.89, 309.66
358.99, 1.91, 309.46
359.52, 1.95, 309.26
360.72, 1.90, 308.81
361.56, 1.94, 308.50
361.84, 2.07, 308.39
362.13, 2.21, 308.28
362.44, 2.36, 308.16
362.74, 2.51, 308.04
362.86, 2.68, 308.00
362.98, 2.86, 307.95
363.09, 3.04, 307.90
363.22, 3.22, 307.85
363.35, 3.41, 307.80
363.51, 3.60, 307.74
¯363.67, 3.80, 307.67
363.83, 4.00, 307.61
364.00, 4.21, 307.54
364.16, 4.42, 307.48
364.26, 4.63, 307.44
364.36, 4.85, 307.39
364.47, 5.07, 307.35
356.48, 1.72, 310.31
356.77, 1.74, 310.20
357.06, 1.76, 310.08
357.32, 1.79, 309.98
357.64, 1.82, 309.86
358.01, 1.85, 309.71
358.42, 1.89, 309.55
358.95, 1.91, 309.34
359.49, 1.95, 309.13
361.09, 1.84, 308.51
361.43, 1.95, 308.38
361.70, 2.08, 308.27
361.99, 2.22, 308.15
362.29, 2.36, 308.03
362.60, 2.51, 307.91
362.71, 2.69, 307.86
362.83, 2.86, 307.81
362.94, 3.04, 307.76
363.06, 3.22, 307.71
363.18, 3.41, 307.66
363.31, 3.60, 307.61
363.47, 3.79, 307.54
363.63, 3.99, 307.48
363.79, 4.20, 307.41
363.96, 4.41, 307.34
364.07, 4.62, 307.29
364.17, 4.83, 307.25
364.27, 5.05, 307.20
356.46, 1.72, 310.23
356.75, 1.73, 310.11
357.03, 1.75, 310.00
357.29, 1.79, 309.89
357.60, 1.82, 309.76
357.97, 1.85, 309.61
358.38, 1.88, 309.44
358.91, 1.91, 309.23
359.46, 1.94, 309.00
361.06, 1.83, 308.36
361.31, 1.96, 308.25
361.57, 2.09, 308.14
361.85, 2.22, 308.03
362.15, 2.36, 307.90
362.46, 2.51, 307.77
362.57, 2.69, 307.72
¯362.68, 2.86, 307.68
362.80, 3.04, 307.63
362.91, 3.22, 307.57
363.03, 3.40, 307.52
363.15, 3.59, 307.47
363.28, 3.79, 307.41
363.43, 3.98, 307.35
363.59, 4.19, 307.28
363.75, 4.39, 307.21
363.88, 4.60, 307.15
363.98, 4.81, 307.11
364.08, 5.03, 307.06
356.44, 1.71, 310.14
356.72, 1.72, 310.02
356.99, 1.75, 309.91
357.26, 1.79, 309.80
357.56, 1.82, 309.67
357.92, 1.85, 309.51
358.34, 1.88, 309.34
358.86, 1.90, 309.11
359.43, 1.93, 308.87
360.97, 1.83, 308.23
361.19, 1.96, 308.13
361.44, 2.09, 308.02
361.71, 2.23, 307.90
362.00, 2.37, 307.78
362.31, 2.52, 307.65
362.43, 2.69, 307.59
362.54, 2.86, 307.54
362.65, 3.04, 307.49
362.76, 3.22, 307.44
362.88, 3.40, 307.38
363.00, 3.59, 307.33
363.12, 3.78, 307.27
363.24, 3.97, 307.22
363.39, 4.17, 307.15
363.55, 4.38, 307.08
363.69, 4.59, 307.01
363.79, 4.80, 306.97
363.89, 5.01, 306.92
356.42, 1.71, 310.06
356.70, 1.72, 309.93
356.96, 1.75, 309.82
357.22, 1.78, 309.70
357.51, 1.82, 309.58
357.87, 1.85, 309.42
358.30, 1.88, 309.23
358.82, 1.90, 309.00
359.40, 1.93, 308.74
360.86, 1.84, 308.11
361.08, 1.96, 308.01
¯361.31, 2.10, 307.90
361.58, 2.23, 307.78
361.86, 2.37, 307.65
362.16, 2.52, 307.52
362.29, 2.69, 307.46
362.40, 2.86, 307.41
362.50, 3.04, 307.36
362.62, 3.22, 307.30
362.73, 3.40, 307.25
362.85, 3.58, 307.19
362.96, 3.77, 307.14
363.09, 3.97, 307.08
363.21, 4.16, 307.02
363.35, 4.37, 306.95
363.51, 4.58, 306.88
363.60, 4.78, 306.83
363.70, 4.99, 306.78
356.39, 1.70, 309.98
356.68, 1.71, 309.85
356.92, 1.74, 309.73
357.18, 1.78, 309.61
357.47, 1.82, 309.48
357.83, 1.85, 309.32
358.25, 1.88, 309.13
358.77, 1.90, 308.89
359.36, 1.92, 308.62
360.75, 1.84, 307.99
360.97, 1.97, 307.88
361.19, 2.10, 307.78
361.44, 2.23, 307.66
361.72, 2.37, 307.53
362.01, 2.52, 307.39
362.15, 2.69, 307.33
362.25, 2.86, 307.28
362.36, 3.03, 307.22
362.47, 3.21, 307.17
362.58, 3.39, 307.11
362.70, 3.58, 307.06
362.81, 3.77, 307.00
362.93, 3.96, 306.94
363.05, 4.15, 306.88
363.17, 4.35, 306.82
363.30, 4.56, 306.75
363.42, 4.77, 306.69
363.51, 4.98, 306.65
356.37, 1.69, 309.89
356.65, 1.71, 309.76
356.89, 1.74, 309.65
357.15, 1.78, 309.52
357.42, 1.82, 309.39
357.78, 1.85, 309.22
¯358.20, 1.87, 309.02
358.72, 1.89, 308.78
359.31, 1.92, 308.50
360.65, 1.84, 307.87
360.86, 1.97, 307.76
361.08, 2.10, 307.66
361.31, 2.24, 307.54
361.58, 2.38, 307.41
361.87, 2.52, 307.27
362.01, 2.69, 307.20
362.11, 2.86, 307.15
362.22, 3.03, 307.09
362.33, 3.21, 307.04
362.44, 3.39, 306.98
362.55, 3.57, 306.92
362.66, 3.76, 306.86
362.78, 3.95, 306.80
362.90, 4.15, 306.74
363.02, 4.34, 306.68
363.14, 4.55, 306.62
363.25, 4.75, 306.56
363.35, 4.96, 306.50
356.34, 1.69, 309.81
356.61, 1.70, 309.68
356.85, 1.74, 309.56
357.11, 1.77, 309.43
357.38, 1.81, 309.30
357.73, 1.84, 309.13
358.16, 1.87, 308.92
358.67, 1.89, 308.67
359.28, 1.91, 308.37
360.54, 1.85, 307.75
360.75, 1.97, 307.65
360.97, 2.10, 307.53
361.19, 2.24, 307.42
361.44, 2.38, 307.29
361.72, 2.52, 307.15
361.87, 2.69, 307.07
361.98, 2.86, 307.02
362.08, 3.03, 306.96
362.18, 3.21, 306.91
362.29, 3.38, 306.85
362.40, 3.57, 306.79
362.51, 3.75, 306.73
362.63, 3.94, 306.67
362.74, 4.14, 306.61
362.85, 4.33, 306.55
362.97, 4.53, 306.48
363.08, 4.74, 306.42
363.19, 4.95, 306.36
356.31, 1.68, 309.73
¯356.58, 1.70, 309.59
356.81, 1.73, 309.47
357.07, 1.77, 309.34
357.34, 1.81, 309.20
357.68, 1.84, 309.03
358.11, 1.87, 308.81
358.61, 1.89, 308.56
359.24, 1.90, 308.24
360.43, 1.85, 307.64
360.64, 1.97, 307.53
360.85, 2.10, 307.41
361.07, 2.24, 307.30
361.31, 2.38, 307.18
361.58, 2.53, 307.03
361.74, 2.69, 306.95
361.84, 2.86, 306.89
361.94, 3.03, 306.84
362.04, 3.20, 306.78
362.15, 3.38, 306.72
362.26, 3.56, 306.66
362.36, 3.75, 306.60
362.47, 3.93, 306.54
362.58, 4.13, 306.48
362.69, 4.32, 306.42
362.80, 4.52, 306.35
362.92, 4.73, 306.29
363.02, 4.93, 306.23
356.29, 1.68, 309.65
356.54, 1.70, 309.51
356.77, 1.73, 309.39
357.03, 1.77, 309.25
357.30, 1.81, 309.11
357.62, 1.84, 308.94
358.06, 1.86, 308.71
358.55, 1.88, 308.45
359.19, 1.90, 308.11
360.33, 1.85, 307.52
360.53, 1.97, 307.41
360.74, 2.10, 307.30
360.96, 2.24, 307.18
361.19, 2.38, 307.05
361.44, 2.53, 306.92
361.60, 2.69, 306.82
361.70, 2.85, 306.77
361.80, 3.02, 306.71
361.90, 3.20, 306.65
362.00, 3.38, 306.59
362.10, 3.56, 306.53
362.21, 3.74, 306.47
362.31, 3.93, 306.41
362.42, 4.12, 306.35
¯362.52, 4.31, 306.29
362.63, 4.51, 306.23
362.75, 4.71, 306.16
362.85, 4.92, 306.10
356.25, 1.67, 309.56
356.50, 1.69, 309.43
356.73, 1.73, 309.30
356.98, 1.76, 309.17
357.25, 1.80, 309.02
357.57, 1.84, 308.85
358.00, 1.86, 308.61
358.49, 1.88, 308.34
359.15, 1.89, 307.99
360.22, 1.85, 307.41
360.42, 1.98, 307.30
360.63, 2.11, 307.18
360.84, 2.24, 307.06
361.07, 2.38, 306.93
361.30, 2.53, 306.80
361.47, 2.68, 306.70
361.57, 2.85, 306.64
361.66, 3.02, 306.59
361.76, 3.19, 306.53
361.85, 3.37, 306.47
361.95, 3.55, 306.41
362.05, 3.73, 306.35
362.15, 3.92, 306.29
362.26, 4.11, 306.23
362.36, 4.30, 306.16
362.47, 4.50, 306.10
362.58, 4.70, 306.03
362.69, 4.90, 305.97
356.22, 1.67, 309.48
356.46, 1.69, 309.35
356.69, 1.72, 309.22
356.94, 1.76, 309.08
357.21, 1.80, 308.93
357.51, 1.84, 308.75
357.94, 1.86, 308.51
358.43, 1.88, 308.24
359.09, 1.88, 307.87
360.11, 1.85, 307.30
360.31, 1.98, 307.18
360.51, 2.11, 307.06
360.73, 2.24, 306.94
360.95, 2.38, 306.81
361.18, 2.53, 306.68
361.34, 2.68, 306.58
361.43, 2.85, 306.53
361.52, 3.02, 306.47
361.61, 3.19, 306.41
¯361.70, 3.37, 306.35
361.80, 3.54, 306.29
361.90, 3.72, 306.23
362.00, 3.91, 306.17
362.10, 4.10, 306.10
362.20, 4.29, 306.04
362.31, 4.49, 305.97
362.42, 4.69, 305.90
362.52, 4.89, 305.84
356.19, 1.66, 309.40
356.42, 1.69, 309.27
356.65, 1.72, 309.13
356.90, 1.75, 308.99
357.16, 1.79, 308.83
357.46, 1.83, 308.66
357.88, 1.85, 308.41
358.37, 1.88, 308.13
359.04, 1.88, 307.74
360.01, 1.85, 307.19
360.20, 1.98, 307.07
360.40, 2.11, 306.95
360.61, 2.24, 306.82
360.83, 2.38, 306.69
361.04, 2.53, 306.56
361.20, 2.68, 306.46
361.29, 2.85, 306.41
361.37, 3.02, 306.35
361.46, 3.19, 306.29
361.56, 3.36, 306.23
361.65, 3.54, 306.17
361.75, 3.72, 306.11
361.85, 3.90, 306.05
361.94, 4.09, 305.98
362.05, 4.28, 305.92
362.15, 4.47, 305.85
362.26, 4.67, 305.78
362.36, 4.88, 305.71
356.16, 1.65, 309.32
356.38, 1.68, 309.19
356.60, 1.72, 309.05
356.85, 1.75, 308.90
357.12, 1.79, 308.74
357.40, 1.83, 308.57
357.82, 1.85, 308.32
358.30, 1.87, 308.03
358.98, 1.87, 307.62
359.90, 1.85, 307.08
360.09, 1.98, 306.96
360.29, 2.11, 306.83
360.49, 2.24, 306.71
360.69, 2.38, 306.58
¯360.89, 2.53, 306.46
361.06, 2.68, 306.35
361.15, 2.84, 306.29
361.23, 3.01, 306.23
361.32, 3.18, 306.18
361.41, 3.36, 306.11
361.50, 3.53, 306.05
361.60, 3.71, 305.99
361.69, 3.89, 305.93
361.79, 4.08, 305.86
361.89, 4.27, 305.79
361.99, 4.46, 305.73
362.10, 4.66, 305.66
362.20, 4.86, 305.58
356.12, 1.65, 309.24
356.33, 1.68, 309.11
356.56, 1.71, 308.97
356.80, 1.75, 308.82
357.07, 1.78, 308.65
357.34, 1.83, 308.48
357.76, 1.85, 308.22
358.23, 1.87, 307.93
358.92, 1.87, 307.50
359.79, 1.85, 306.97
359.98, 1.98, 306.85
360.18, 2.10, 306.72
360.37, 2.24, 306.60
360.55, 2.38, 306.48
360.74, 2.53, 306.35
360.93, 2.68, 306.23
361.01, 2.84, 306.18
361.10, 3.01, 306.12
361.18, 3.18, 306.06
361.27, 3.35, 306.00
361.36, 3.52, 305.94
361.45, 3.70, 305.87
361.54, 3.88, 305.81
361.64, 4.07, 305.74
361.74, 4.26, 305.67
361.84, 4.45, 305.60
361.94, 4.65, 305.53
362.04, 4.85, 305.46
356.08, 1.64, 309.16
356.29, 1.67, 309.03
356.51, 1.71, 308.89
356.76, 1.74, 308.73
357.01, 1.78, 308.56
357.29, 1.82, 308.39
357.69, 1.84, 308.13
358.16, 1.87, 307.83
358.86, 1.86, 307.39
¯359.69, 1.85, 306.86
359.87, 1.98, 306.74
360.06, 2.10, 306.61
360.23, 2.24, 306.50
360.41, 2.38, 306.38
360.60, 2.52, 306.25
360.79, 2.68, 306.12
360.88, 2.84, 306.06
360.96, 3.00, 306.00
361.05, 3.17, 305.94
361.13, 3.34, 305.88
361.22, 3.52, 305.82
361.30, 3.70, 305.75
361.40, 3.88, 305.69
361.49, 4.06, 305.62
361.58, 4.25, 305.55
361.68, 4.44, 305.48
361.78, 4.63, 305.41
361.88, 4.83, 305.34
356.03, 1.64, 309.09
356.24, 1.67, 308.95
356.47, 1.70, 308.80
356.71, 1.74, 308.64
356.95, 1.78, 308.48
357.23, 1.82, 308.30
357.63, 1.84, 308.03
358.09, 1.86, 307.73
358.79, 1.85, 307.27
359.58, 1.85, 306.75
359.76, 1.98, 306.63
359.93, 2.11, 306.52
360.10, 2.24, 306.40
360.27, 2.38, 306.28
360.46, 2.52, 306.15
360.65, 2.67, 306.02
360.75, 2.83, 305.95
360.83, 3.00, 305.89
360.91, 3.17, 305.83
360.99, 3.34, 305.76
361.08, 3.51, 305.70
361.16, 3.69, 305.64
361.25, 3.87, 305.57
361.34, 4.05, 305.50
361.43, 4.24, 305.44
361.53, 4.43, 305.36
361.63, 4.62, 305.29
361.73, 4.82, 305.22
355.99, 1.64, 309.01
356.20, 1.67, 308.87
356.42, 1.70, 308.72
356.65, 1.73, 308.56
¯356.89, 1.77, 308.40
357.17, 1.81, 308.21
357.56, 1.84, 307.94
358.02, 1.86, 307.63
358.73, 1.85, 307.16
359.48, 1.85, 306.65
359.63, 1.98, 306.53
359.80, 2.11, 306.42
359.96, 2.24, 306.30
360.14, 2.38, 306.18
360.31, 2.52, 306.05
360.50, 2.67, 305.92
360.61, 2.83, 305.83
360.69, 3.00, 305.77
360.77, 3.16, 305.71
360.86, 3.33, 305.65
360.94, 3.51, 305.58
361.02, 3.68, 305.52
361.11, 3.86, 305.45
361.20, 4.04, 305.39
361.29, 4.23, 305.32
361.38, 4.42, 305.25
361.47, 4.61, 305.17
361.57, 4.81, 305.10
355.94, 1.63, 308.94
356.15, 1.66, 308.80
356.37, 1.69, 308.64
356.59, 1.73, 308.48
356.83, 1.77, 308.32
357.11, 1.81, 308.12
357.49, 1.83, 307.85
357.95, 1.86, 307.53
358.65, 1.84, 307.04
359.36, 1.85, 306.55
359.51, 1.98, 306.44
359.67, 2.11, 306.32
359.83, 2.24, 306.21
360.00, 2.38, 306.08
360.17, 2.52, 305.95
360.35, 2.67, 305.82
360.48, 2.83, 305.72
360.56, 2.99, 305.66
360.64, 3.16, 305.60
360.72, 3.33, 305.53
360.80, 3.50, 305.47
360.88, 3.67, 305.40
360.97, 3.85, 305.34
361.05, 4.03, 305.27
361.14, 4.22, 305.20
361.23, 4.41, 305.13
361.32, 4.60, 305.06
¯361.42, 4.79, 304.98
355.90, 1.63, 308.87
356.10, 1.66, 308.72
356.32, 1.69, 308.56
356.53, 1.73, 308.40
356.77, 1.77, 308.23
357.05, 1.81, 308.03
357.42, 1.83, 307.76
357.87, 1.85, 307.44
358.58, 1.84, 306.93
359.24, 1.85, 306.46
359.38, 1.98, 306.35
359.54, 2.11, 306.23
359.70, 2.24, 306.11
359.86, 2.38, 305.98
360.03, 2.52, 305.85
360.21, 2.67, 305.72
360.35, 2.82, 305.61
360.43, 2.99, 305.55
360.51, 3.15, 305.49
360.58, 3.32, 305.42
360.66, 3.49, 305.36
360.75, 3.67, 305.29
360.83, 3.84, 305.22
360.91, 4.02, 305.15
361.00, 4.21, 305.08
361.08, 4.39, 305.01
361.17, 4.59, 304.94
361.26, 4.78, 304.86
355.85, 1.62, 308.79
356.05, 1.65, 308.64
356.26, 1.69, 308.49
356.47, 1.72, 308.33
356.70, 1.77, 308.15
356.98, 1.80, 307.95
357.35, 1.83, 307.67
357.79, 1.85, 307.34
358.50, 1.83, 306.82
359.13, 1.85, 306.36
359.26, 1.98, 306.25
359.41, 2.11, 306.14
359.56, 2.24, 306.02
359.73, 2.38, 305.89
359.89, 2.52, 305.76
360.07, 2.66, 305.62
360.22, 2.82, 305.50
360.30, 2.98, 305.44
360.37, 3.15, 305.37
360.45, 3.31, 305.31
360.53, 3.48, 305.24
360.61, 3.66, 305.18
¯360.69, 3.83, 305.11
360.77, 4.01, 305.04
360.86, 4.20, 304.97
360.94, 4.38, 304.89
361.03, 4.57, 304.82
361.12, 4.77, 304.74
355.80, 1.62, 308.72
356.00, 1.65, 308.57
356.20, 1.68, 308.41
356.41, 1.72, 308.25
356.64, 1.76, 308.07
356.92, 1.80, 307.86
357.29, 1.82, 307.58
357.72, 1.84, 307.25
358.42, 1.83, 306.72
359.01, 1.85, 306.26
359.15, 1.98, 306.15
359.29, 2.11, 306.04
359.43, 2.24, 305.92
359.59, 2.38, 305.80
359.76, 2.52, 305.66
359.93, 2.66, 305.53
360.09, 2.81, 305.39
360.17, 2.98, 305.33
360.24, 3.14, 305.26
360.32, 3.31, 305.20
360.39, 3.48, 305.13
360.47, 3.65, 305.06
360.55, 3.83, 304.99
360.63, 4.01, 304.92
360.71, 4.19, 304.85
360.80, 4.37, 304.78
360.88, 4.56, 304.70
360.97, 4.76, 304.63
355.75, 1.61, 308.65
355.94, 1.64, 308.50
356.14, 1.68, 308.34
356.35, 1.72, 308.17
356.57, 1.76, 308.00
356.85, 1.79, 307.78
357.22, 1.82, 307.49
357.64, 1.84, 307.16
358.32, 1.82, 306.62
358.89, 1.85, 306.17
359.03, 1.98, 306.06
359.17, 2.10, 305.95
359.31, 2.24, 305.83
359.46, 2.37, 305.70
359.62, 2.51, 305.57
359.79, 2.66, 305.43
359.96, 2.81, 305.29
¯360.04, 2.97, 305.22
360.11, 3.13, 305.15
360.18, 3.30, 305.09
360.26, 3.47, 305.02
360.34, 3.64, 304.95
360.41, 3.82, 304.88
360.49, 4.00, 304.81
360.57, 4.18, 304.73
360.66, 4.36, 304.66
360.74, 4.55, 304.59
360.82, 4.74, 304.51
355.70, 1.61, 308.58
355.88, 1.64, 308.43
356.08, 1.68, 308.27
356.28, 1.71, 308.10
356.51, 1.76, 307.92
356.78, 1.79, 307.69
357.14, 1.81, 307.40
357.55, 1.84, 307.07
358.18, 1.83, 306.56
358.74, 1.86, 306.11
358.92, 1.97, 305.96
359.05, 2.10, 305.85
359.19, 2.23, 305.73
359.33, 2.37, 305.61
359.48, 2.51, 305.48
359.65, 2.66, 305.34
359.82, 2.80, 305.19
359.91, 2.96, 305.11
359.98, 3.13, 305.04
360.05, 3.29, 304.98
360.13, 3.46, 304.91
360.20, 3.63, 304.84
360.28, 3.81, 304.77
360.35, 3.99, 304.69
360.43, 4.17, 304.62
360.51, 4.35, 304.55
360.59, 4.54, 304.47
360.67, 4.73, 304.40
355.64, 1.60, 308.51
355.82, 1.64, 308.36
356.01, 1.67, 308.20
356.22, 1.71, 308.03
356.44, 1.75, 307.84
356.72, 1.78, 307.61
357.07, 1.81, 307.31
357.47, 1.83, 306.98
358.05, 1.84, 306.50
358.59, 1.86, 306.05
358.80, 1.97, 305.87
358.93, 2.10, 305.75
¯359.07, 2.23, 305.63
359.21, 2.37, 305.51
359.35, 2.51, 305.38
359.51, 2.65, 305.25
359.67, 2.80, 305.10
359.78, 2.96, 305.00
359.85, 3.12, 304.94
359.92, 3.29, 304.87
359.99, 3.46, 304.80
360.07, 3.63, 304.73
360.14, 3.80, 304.66
360.22, 3.98, 304.58
360.29, 4.16, 304.51
360.37, 4.34, 304.44
360.45, 4.53, 304.36
360.53, 4.72, 304.28
355.58, 1.60, 308.44
355.76, 1.63, 308.29
355.95, 1.67, 308.13
356.15, 1.71, 307.95
356.37, 1.75, 307.76
356.65, 1.78, 307.53
357.00, 1.80, 307.23
357.39, 1.83, 306.89
357.91, 1.84, 306.45
358.44, 1.87, 305.99
358.69, 1.97, 305.78
358.81, 2.10, 305.66
358.95, 2.23, 305.54
359.08, 2.36, 305.41
359.23, 2.50, 305.29
359.37, 2.65, 305.15
359.53, 2.80, 305.01
359.65, 2.95, 304.90
359.72, 3.12, 304.83
359.79, 3.28, 304.76
359.86, 3.45, 304.69
359.93, 3.62, 304.62
360.00, 3.79, 304.55
360.08, 3.97, 304.47
360.15, 4.15, 304.40
360.23, 4.33, 304.32
360.30, 4.52, 304.25
360.38, 4.71, 304.17
355.53, 1.60, 308.38
355.70, 1.63, 308.22
355.89, 1.67, 308.06
356.09, 1.70, 307.88
356.30, 1.74, 307.69
356.57, 1.78, 307.45
356.92, 1.80, 307.14
¯357.31, 1.82, 306.80
357.77, 1.85, 306.39
358.29, 1.88, 305.94
358.57, 1.97, 305.68
358.70, 2.09, 305.57
358.83, 2.22, 305.44
358.96, 2.36, 305.32
359.10, 2.50, 305.19
359.24, 2.64, 305.05
359.39, 2.79, 304.91
359.52, 2.95, 304.79
359.59, 3.11, 304.72
359.66, 3.27, 304.65
359.73, 3.44, 304.58
359.80, 3.61, 304.51
359.87, 3.78, 304.44
359.94, 3.96, 304.36
360.01, 4.14, 304.29
360.09, 4.32, 304.21
360.16, 4.51, 304.13
360.24, 4.70, 304.06
355.47, 1.59, 308.31
355.64, 1.63, 308.16
355.82, 1.66, 307.99
356.02, 1.70, 307.81
356.23, 1.74, 307.61
356.50, 1.77, 307.37
356.84, 1.79, 307.06
357.23, 1.82, 306.71
357.64, 1.85, 306.34
358.14, 1.88, 305.89
358.46, 1.96, 305.59
358.58, 2.09, 305.47
358.71, 2.22, 305.35
358.84, 2.36, 305.22
358.98, 2.49, 305.09
359.12, 2.64, 304.96
359.26, 2.79, 304.82
359.40, 2.94, 304.68
359.46, 3.10, 304.62
359.53, 3.27, 304.55
359.59, 3.43, 304.47
359.66, 3.60, 304.40
359.73, 3.77, 304.33
359.80, 3.95, 304.26
359.87, 4.13, 304.18
359.94, 4.31, 304.10
360.02, 4.50, 304.02
360.09, 4.68, 303.94
355.41, 1.59, 308.25
355.58, 1.62, 308.09
¯355.76, 1.66, 307.92
355.95, 1.69, 307.74
356.16, 1.73, 307.54
356.43, 1.77, 307.29
356.77, 1.79, 306.98
357.15, 1.81, 306.61
357.50, 1.86, 306.29
357.99, 1.89, 305.84
358.34, 1.96, 305.50
358.46, 2.09, 305.38
358.59, 2.22, 305.26
358.72, 2.35, 305.13
358.85, 2.49, 304.99
358.99, 2.63, 304.86
359.13, 2.78, 304.72
359.24, 2.93, 304.61
359.32, 3.09, 304.52
359.40, 3.26, 304.44
359.46, 3.42, 304.37
359.53, 3.59, 304.30
359.59, 3.77, 304.22
359.66, 3.94, 304.15
359.73, 4.12, 304.07
359.80, 4.30, 303.99
359.88, 4.48, 303.91
359.95, 4.67, 303.83
355.35, 1.58, 308.18
355.51, 1.62, 308.02
355.69, 1.65, 307.85
355.88, 1.69, 307.67
356.09, 1.73, 307.47
356.35, 1.76, 307.21
356.69, 1.78, 306.89
357.12, 1.79, 306.48
357.39, 1.86, 306.22
357.84, 1.89, 305.79
358.23, 1.96, 305.41
358.35, 2.08, 305.29
358.47, 2.21, 305.16
358.60, 2.35, 305.03
358.73, 2.48, 304.90
358.86, 2.63, 304.76
358.98, 2.77, 304.64
359.08, 2.93, 304.54
359.17, 3.09, 304.44
359.24, 3.25, 304.36
359.32, 3.42, 304.27
359.39, 3.58, 304.19
359.46, 3.76, 304.12
359.53, 3.93, 304.04
359.60, 4.11, 303.96
¯359.67, 4.29, 303.88
359.74, 4.47, 303.80
359.81, 4.66, 303.72
355.29, 1.58, 308.11
355.45, 1.61, 307.96
355.63, 1.65, 307.78
355.82, 1.69, 307.60
356.02, 1.73, 307.39
356.28, 1.76, 307.14
356.61, 1.78, 306.81
357.09, 1.77, 306.34
357.32, 1.84, 306.11
357.69, 1.90, 305.74
358.11, 1.95, 305.32
358.23, 2.08, 305.20
358.35, 2.21, 305.07
358.48, 2.34, 304.94
358.61, 2.48, 304.80
358.73, 2.62, 304.67
358.82, 2.77, 304.57
358.91, 2.92, 304.47
359.01, 3.08, 304.36
359.09, 3.24, 304.28
359.16, 3.41, 304.19
359.24, 3.58, 304.11
359.32, 3.75, 304.02
359.39, 3.92, 303.93
359.46, 4.10, 303.85
359.53, 4.28, 303.77
359.60, 4.46, 303.69
359.67, 4.65, 303.61
355.24, 1.57, 308.05
355.39, 1.61, 307.89
355.56, 1.64, 307.72
355.75, 1.68, 307.53
355.95, 1.72, 307.32
356.20, 1.75, 307.06
356.53, 1.77, 306.73
357.03, 1.76, 306.23
357.25, 1.83, 306.00
357.54, 1.90, 305.70
358.00, 1.95, 305.23
358.12, 2.07, 305.11
358.23, 2.20, 304.98
358.36, 2.33, 304.85
358.48, 2.47, 304.71
358.58, 2.62, 304.61
358.66, 2.77, 304.51
358.75, 2.92, 304.40
358.85, 3.08, 304.30
358.93, 3.24, 304.20
¯359.01, 3.40, 304.11
359.08, 3.57, 304.03
359.16, 3.74, 303.94
359.23, 3.91, 303.85
359.31, 4.09, 303.76
359.39, 4.27, 303.67
359.46, 4.45, 303.58
359.53, 4.64, 303.50
355.18, 1.57, 307.99
355.33, 1.60, 307.82
355.49, 1.64, 307.65
355.67, 1.68, 307.46
355.87, 1.72, 307.25
356.12, 1.75, 306.99
356.44, 1.77, 306.66
356.96, 1.75, 306.12
357.18, 1.82, 305.89
357.41, 1.90, 305.64
357.89, 1.94, 305.15
358.00, 2.07, 305.02
358.12, 2.20, 304.89
358.24, 2.33, 304.76
358.34, 2.47, 304.64
358.42, 2.61, 304.54
358.51, 2.76, 304.44
358.60, 2.91, 304.34
358.69, 3.07, 304.23
358.78, 3.23, 304.12
358.85, 3.39, 304.03
358.93, 3.56, 303.95
359.00, 3.73, 303.86
359.07, 3.90, 303.77
359.15, 4.08, 303.68
359.23, 4.26, 303.58
359.31, 4.44, 303.49
359.39, 4.63, 303.39
355.12, 1.56, 307.92
355.27, 1.60, 307.76
355.42, 1.63, 307.59
355.60, 1.67, 307.39
355.80, 1.71, 307.18
356.04, 1.74, 306.92
356.39, 1.75, 306.55
356.89, 1.74, 306.02
357.10, 1.81, 305.78
357.33, 1.89, 305.53
357.74, 1.94, 305.10
357.88, 2.06, 304.93
358.00, 2.19, 304.80
358.11, 2.32, 304.67
358.19, 2.47, 304.57
¯358.27, 2.61, 304.48
358.35, 2.76, 304.37
358.44, 2.91, 304.27
358.53, 3.06, 304.17
358.62, 3.22, 304.06
358.70, 3.38, 303.96
358.77, 3.55, 303.87
358.84, 3.72, 303.78
358.91, 3.89, 303.69
358.99, 4.06, 303.60
359.06, 4.24, 303.50
359.14, 4.43, 303.41
359.22, 4.61, 303.31
355.05, 1.55, 307.86
355.20, 1.59, 307.69
355.36, 1.63, 307.52
355.53, 1.67, 307.33
355.72, 1.71, 307.11
355.96, 1.74, 306.84
356.35, 1.73, 306.43
356.81, 1.73, 305.92
357.03, 1.80, 305.68
357.26, 1.88, 305.42
357.58, 1.95, 305.06
357.77, 2.06, 304.84
357.88, 2.18, 304.71
357.96, 2.32, 304.61
358.04, 2.46, 304.51
358.12, 2.61, 304.41
358.20, 2.75, 304.31
358.28, 2.90, 304.21
358.37, 3.06, 304.10
358.46, 3.21, 303.99
358.55, 3.37, 303.88
358.62, 3.54, 303.79
358.69, 3.71, 303.70
358.76, 3.88, 303.61
358.83, 4.05, 303.52
358.90, 4.23, 303.42
358.98, 4.41, 303.33
359.06, 4.60, 303.23
354.99, 1.55, 307.80
355.14, 1.58, 307.63
355.29, 1.62, 307.45
355.46, 1.66, 307.26
355.65, 1.70, 307.05
355.88, 1.73, 306.77
356.30, 1.72, 306.31
356.74, 1.71, 305.81
356.95, 1.79, 305.57
357.18, 1.87, 305.31
¯357.42, 1.95, 305.02
357.65, 2.05, 304.76
357.74, 2.18, 304.64
357.82, 2.32, 304.55
357.89, 2.46, 304.45
357.97, 2.60, 304.35
358.05, 2.75, 304.25
358.13, 2.90, 304.14
358.21, 3.05, 304.04
358.30, 3.21, 303.93
358.38, 3.37, 303.82
358.46, 3.53, 303.72
358.53, 3.70, 303.63
358.60, 3.87, 303.53
358.67, 4.04, 303.44
358.74, 4.22, 303.34
358.82, 4.40, 303.25
358.89, 4.59, 303.15
354.93, 1.54, 307.73
355.07, 1.58, 307.56
355.23, 1.61, 307.38
355.39, 1.65, 307.19
355.57, 1.69, 306.98
355.80, 1.72, 306.71
356.25, 1.70, 306.19
356.66, 1.70, 305.71
356.87, 1.78, 305.46
357.10, 1.85, 305.19
357.34, 1.94, 304.91
357.53, 2.04, 304.67
357.60, 2.18, 304.58
357.67, 2.31, 304.48
357.75, 2.45, 304.39
357.82, 2.60, 304.29
357.90, 2.74, 304.19
357.98, 2.89, 304.08
358.06, 3.04, 303.98
358.14, 3.20, 303.87
358.22, 3.36, 303.76
358.31, 3.52, 303.64
358.38, 3.69, 303.55
358.45, 3.86, 303.46
358.51, 4.03, 303.36
358.58, 4.21, 303.27
358.66, 4.39, 303.17
358.73, 4.57, 303.07
354.87, 1.53, 307.67
355.01, 1.57, 307.50
355.16, 1.61, 307.32
355.32, 1.65, 307.12
355.49, 1.69, 306.91
¯355.72, 1.72, 306.64
356.19, 1.68, 306.08
356.58, 1.69, 305.61
356.79, 1.76, 305.35
357.02, 1.84, 305.08
357.25, 1.93, 304.79
357.40, 2.04, 304.61
357.46, 2.18, 304.52
357.53, 2.31, 304.42
357.60, 2.45, 304.33
357.68, 2.59, 304.23
357.75, 2.74, 304.12
357.83, 2.88, 304.02
357.91, 3.04, 303.91
357.98, 3.19, 303.80
358.07, 3.35, 303.69
358.15, 3.51, 303.58
358.23, 3.68, 303.47
358.29, 3.85, 303.38
358.36, 4.02, 303.29
358.43, 4.19, 303.19
358.50, 4.37, 303.09
358.57, 4.56, 302.99
354.80, 1.53, 307.61
354.94, 1.56, 307.44
355.09, 1.60, 307.25
355.25, 1.64, 307.05
355.42, 1.68, 306.84
355.67, 1.70, 306.54
356.14, 1.66, 305.96
356.51, 1.68, 305.50
356.71, 1.75, 305.25
356.93, 1.83, 304.97
357.16, 1.91, 304.68
357.28, 2.03, 304.52
357.34, 2.17, 304.44
357.39, 2.31, 304.36
357.46, 2.45, 304.27
357.53, 2.59, 304.17
357.60, 2.73, 304.06
357.68, 2.88, 303.96
357.75, 3.03, 303.85
357.83, 3.18, 303.74
357.91, 3.34, 303.63
357.99, 3.50, 303.52
358.07, 3.67, 303.40
358.14, 3.83, 303.30
358.20, 4.01, 303.21
358.27, 4.18, 303.11
358.34, 4.36, 303.01
358.41, 4.54, 302.91
¯354.74, 1.52, 307.55
354.88, 1.55, 307.37
355.02, 1.59, 307.19
355.18, 1.63, 306.99
355.34, 1.67, 306.77
355.61, 1.69, 306.43
356.08, 1.65, 305.84
356.43, 1.66, 305.40
356.63, 1.74, 305.14
356.85, 1.81, 304.86
357.03, 1.91, 304.61
357.17, 2.03, 304.44
357.22, 2.16, 304.35
357.28, 2.30, 304.27
357.33, 2.44, 304.18
357.39, 2.58, 304.10
357.46, 2.73, 304.00
357.53, 2.87, 303.90
357.60, 3.02, 303.79
357.68, 3.17, 303.68
357.75, 3.33, 303.57
357.83, 3.49, 303.46
357.91, 3.66, 303.34
357.99, 3.82, 303.23
358.05, 4.00, 303.13
358.11, 4.17, 303.04
358.18, 4.35, 302.94
358.25, 4.53, 302.83
354.67, 1.51, 307.49
354.81, 1.55, 307.31
354.95, 1.58, 307.12
355.10, 1.62, 306.92
355.27, 1.67, 306.70
355.55, 1.67, 306.33
356.02, 1.63, 305.73
356.35, 1.65, 305.30
356.55, 1.72, 305.03
356.76, 1.80, 304.74
356.91, 1.91, 304.55
357.03, 2.02, 304.37
357.11, 2.15, 304.27
357.16, 2.29, 304.18
357.22, 2.43, 304.10
357.27, 2.57, 304.01
357.33, 2.72, 303.92
357.39, 2.86, 303.83
357.45, 3.01, 303.73
357.53, 3.17, 303.62
357.60, 3.32, 303.51
357.68, 3.48, 303.39
357.76, 3.65, 303.28
¯357.84, 3.81, 303.16
357.90, 3.98, 303.06
357.96, 4.16, 302.96
358.02, 4.34, 302.86
358.09, 4.52, 302.76
354.61, 1.51, 307.43
354.74, 1.54, 307.25
354.88, 1.58, 307.06
355.03, 1.62, 306.85
355.19, 1.66, 306.63
355.49, 1.65, 306.23
355.96, 1.61, 305.62
356.27, 1.64, 305.20
356.46, 1.71, 304.92
356.66, 1.79, 304.66
356.78, 1.90, 304.48
356.90, 2.02, 304.31
356.99, 2.14, 304.18
357.04, 2.28, 304.09
357.10, 2.42, 304.01
357.15, 2.56, 303.92
357.21, 2.71, 303.83
357.26, 2.86, 303.74
357.32, 3.01, 303.65
357.38, 3.16, 303.55
357.45, 3.31, 303.45
357.52, 3.47, 303.33
357.60, 3.64, 303.22
357.68, 3.80, 303.09
357.75, 3.97, 302.98
357.81, 4.15, 302.88
357.87, 4.32, 302.78
357.98, 4.51, 302.61
354.54, 1.50, 307.37
354.67, 1.53, 307.19
354.81, 1.57, 307.00
354.96, 1.61, 306.79
355.11, 1.65, 306.57
355.39, 1.65, 306.18
355.89, 1.59, 305.50
356.18, 1.62, 305.10
356.38, 1.69, 304.82
356.53, 1.79, 304.59
356.65, 1.90, 304.42
356.77, 2.01, 304.24
356.87, 2.14, 304.09
356.92, 2.27, 304.01
356.98, 2.41, 303.92
357.03, 2.55, 303.83
357.09, 2.70, 303.74
357.14, 2.85, 303.65
¯357.20, 3.00, 303.55
357.26, 3.15, 303.46
357.32, 3.30, 303.36
357.38, 3.46, 303.26
357.44, 3.62, 303.16
357.52, 3.79, 303.03
357.59, 3.96, 302.91
357.65, 4.13, 302.81
357.74, 4.31, 302.67
357.90, 4.51, 302.43
354.47, 1.49, 307.32
354.60, 1.52, 307.13
354.74, 1.56, 306.93
354.88, 1.60, 306.72
355.03, 1.64, 306.51
355.27, 1.66, 306.16
355.82, 1.57, 305.39
356.10, 1.61, 304.99
356.29, 1.68, 304.71
356.41, 1.78, 304.53
356.52, 1.89, 304.36
356.64, 2.01, 304.18
356.76, 2.13, 304.01
356.81, 2.26, 303.92
356.86, 2.40, 303.83
356.91, 2.55, 303.74
356.96, 2.69, 303.65
357.02, 2.84, 303.56
357.07, 2.99, 303.46
357.13, 3.14, 303.36
357.19, 3.29, 303.27
357.25, 3.45, 303.17
357.31, 3.61, 303.06
357.37, 3.78, 302.96
357.43, 3.95, 302.85
357.50, 4.12, 302.73
357.65, 4.31, 302.50
357.81, 4.51, 302.25
354.40, 1.48, 307.26
354.53, 1.52, 307.07
354.66, 1.55, 306.87
354.81, 1.59, 306.66
354.95, 1.64, 306.45
355.15, 1.66, 306.15
355.75, 1.56, 305.28
356.01, 1.59, 304.89
356.18, 1.67, 304.64
356.29, 1.78, 304.47
356.40, 1.89, 304.30
356.51, 2.00, 304.12
356.63, 2.12, 303.93
¯356.69, 2.25, 303.83
356.74, 2.39, 303.74
356.79, 2.54, 303.65
356.84, 2.68, 303.56
356.90, 2.83, 303.46
356.95, 2.98, 303.37
357.01, 3.13, 303.27
357.06, 3.28, 303.17
357.12, 3.44, 303.07
357.18, 3.60, 302.97
357.24, 3.77, 302.86
357.30, 3.94, 302.75
357.41, 4.12, 302.58
357.57, 4.31, 302.32
357.73, 4.50, 302.06
354.33, 1.47, 307.20
354.46, 1.51, 307.01
354.59, 1.54, 306.81
354.73, 1.58, 306.60
354.86, 1.63, 306.39
355.03, 1.67, 306.13
355.68, 1.54, 305.17
355.93, 1.58, 304.79
356.06, 1.67, 304.58
356.16, 1.77, 304.41
356.27, 1.88, 304.24
356.38, 1.99, 304.06
356.50, 2.11, 303.87
356.57, 2.24, 303.74
356.62, 2.38, 303.65
356.67, 2.53, 303.56
356.72, 2.67, 303.47
356.77, 2.82, 303.37
356.83, 2.97, 303.28
356.88, 3.12, 303.18
356.94, 3.27, 303.08
356.99, 3.43, 302.97
357.05, 3.59, 302.87
357.11, 3.76, 302.76
357.16, 3.93, 302.66
357.22, 4.10, 302.55
357.48, 4.30, 302.14
357.64, 4.50, 301.88
354.26, 1.47, 307.15
354.39, 1.50, 306.96
354.51, 1.53, 306.75
354.65, 1.58, 306.54
354.78, 1.62, 306.33
354.92, 1.67, 306.10
355.60, 1.52, 305.07
355.84, 1.56, 304.69
¯355.94, 1.66, 304.52
356.04, 1.77, 304.36
356.14, 1.88, 304.18
356.25, 1.99, 304.00
356.37, 2.11, 303.81
356.45, 2.23, 303.66
356.50, 2.37, 303.57
356.55, 2.52, 303.47
356.60, 2.66, 303.38
356.65, 2.81, 303.28
356.70, 2.96, 303.18
356.75, 3.11, 303.08
356.81, 3.26, 302.98
356.86, 3.42, 302.88
356.92, 3.58, 302.77
356.97, 3.75, 302.67
357.03, 3.92, 302.56
357.09, 4.09, 302.45
357.35, 4.29, 302.02
357.55, 4.50, 301.69
354.19, 1.46, 307.09
354.31, 1.49, 306.90
354.44, 1.53, 306.69
354.56, 1.57, 306.48
354.69, 1.61, 306.27
354.83, 1.66, 306.04
355.52, 1.50, 304.96
355.72, 1.56, 304.63
355.82, 1.66, 304.47
355.92, 1.76, 304.30
356.02, 1.87, 304.12
356.12, 1.98, 303.94
356.23, 2.10, 303.75
356.33, 2.22, 303.57
356.38, 2.36, 303.48
356.43, 2.50, 303.38
356.48, 2.65, 303.29
356.53, 2.80, 303.19
356.58, 2.95, 303.09
356.63, 3.10, 302.99
356.68, 3.25, 302.89
356.73, 3.41, 302.78
356.79, 3.57, 302.68
356.84, 3.74, 302.57
356.90, 3.91, 302.46
356.95, 4.08, 302.35
357.14, 4.27, 302.03
357.46, 4.50, 301.49
354.12, 1.45, 307.04
354.24, 1.48, 306.84
354.36, 1.52, 306.63
¯354.48, 1.56, 306.43
354.61, 1.61, 306.21
354.75, 1.65, 305.98
355.41, 1.49, 304.90
355.60, 1.55, 304.58
355.70, 1.65, 304.41
355.79, 1.76, 304.24
355.89, 1.86, 304.06
355.99, 1.98, 303.88
356.10, 2.09, 303.68
356.21, 2.21, 303.49
356.26, 2.35, 303.39
356.31, 2.49, 303.29
356.35, 2.64, 303.20
356.40, 2.79, 303.10
356.45, 2.94, 303.00
356.50, 3.09, 302.90
356.55, 3.24, 302.79
356.60, 3.40, 302.69
356.65, 3.56, 302.58
356.71, 3.73, 302.48
356.76, 3.90, 302.37
356.81, 4.07, 302.26
356.94, 4.26, 302.03
357.29, 4.48, 301.42
354.05, 1.44, 306.99
354.16, 1.47, 306.79
354.28, 1.51, 306.58
354.40, 1.55, 306.37
354.52, 1.60, 306.16
354.66, 1.65, 305.92
355.26, 1.51, 304.91
355.49, 1.55, 304.52
355.58, 1.65, 304.36
355.67, 1.75, 304.18
355.77, 1.86, 304.00
355.87, 1.97, 303.82
355.97, 2.08, 303.63
356.08, 2.20, 303.42
356.14, 2.34, 303.30
356.18, 2.48, 303.21
356.23, 2.63, 303.11
356.28, 2.77, 303.01
356.33, 2.92, 302.91
356.37, 3.08, 302.80
356.42, 3.23, 302.70
356.47, 3.39, 302.60
356.52, 3.55, 302.49
356.57, 3.72, 302.38
356.62, 3.89, 302.27
