žVERSION 0.7
FIELDS x y z
SIZE 8 8 8
TYPE F F F
COUNT 1 1 1
WIDTH 2271
HEIGHT 1
VIEWPOINT 422.22, 8.79, 364.48 1 402.87, 1.97, 366.50
POINTS 2271
DATA ascii
394.22, 0.16, 372.09
392.83, 0.16, 372.73
390.93, 0.14, 373.61
389.39, 0.22, 374.32
385.17, 0.08, 376.29
385.16, 0.43, 376.28
385.16, 0.78, 376.27
403.72, 0.30, 367.74
403.57, 0.30, 367.81
403.41, 0.30, 367.89
403.24, 0.30, 367.97
403.05, 0.29, 368.06
402.85, 0.29, 368.16
402.64, 0.29, 368.26
402.41, 0.28, 368.37
402.16, 0.28, 368.49
401.89, 0.28, 368.62
401.19, 0.14, 368.97
400.85, 0.13, 369.13
400.47, 0.13, 369.31
400.06, 0.13, 369.51
399.59, 0.13, 369.73
399.08, 0.12, 369.98
398.49, 0.12, 370.26
397.83, 0.12, 370.58
397.12, 0.13, 370.93
396.28, 0.13, 371.33
395.30, 0.13, 371.80
394.29, 0.16, 372.29
392.89, 0.17, 372.96
390.84, 0.13, 373.95
389.47, 0.23, 374.60
403.75, 0.30, 367.80
403.60, 0.30, 367.87
403.44, 0.30, 367.95
403.27, 0.30, 368.04
403.08, 0.29, 368.13
402.88, 0.29, 368.23
402.67, 0.29, 368.34
402.44, 0.28, 368.45
402.19, 0.28, 368.58
401.92, 0.28, 368.71
401.23, 0.14, 369.06
400.88, 0.13, 369.23
400.51, 0.13, 369.42
¯400.10, 0.13, 369.63
399.64, 0.13, 369.86
399.12, 0.13, 370.11
398.54, 0.12, 370.40
397.89, 0.12, 370.73
397.17, 0.13, 371.08
396.33, 0.13, 371.50
395.36, 0.14, 371.99
394.36, 0.17, 372.48
392.94, 0.17, 373.19
390.74, 0.11, 374.29
389.55, 0.24, 374.88
386.37, 0.20, 376.46
386.37, 0.53, 376.45
386.37, 0.87, 376.43
403.77, 0.30, 367.86
403.62, 0.30, 367.94
403.46, 0.30, 368.02
403.29, 0.30, 368.11
403.11, 0.29, 368.20
402.91, 0.29, 368.30
402.70, 0.29, 368.41
402.47, 0.28, 368.53
402.22, 0.28, 368.66
401.57, 0.14, 369.00
401.26, 0.14, 369.16
400.92, 0.14, 369.34
400.55, 0.13, 369.53
400.14, 0.13, 369.74
399.68, 0.13, 369.98
399.17, 0.13, 370.24
398.59, 0.12, 370.54
397.94, 0.12, 370.87
397.22, 0.13, 371.24
396.39, 0.13, 371.68
395.43, 0.14, 372.17
394.43, 0.17, 372.68
392.98, 0.17, 373.43
390.65, 0.09, 374.64
389.68, 0.25, 375.13
386.37, 0.20, 376.84
386.37, 0.53, 376.82
386.37, 0.87, 376.81
403.80, 0.30, 367.92
403.65, 0.30, 368.00
403.49, 0.30, 368.08
403.32, 0.30, 368.17
403.14, 0.30, 368.27
402.94, 0.29, 368.37
402.73, 0.29, 368.49
402.50, 0.29, 368.61
¯402.26, 0.28, 368.74
401.61, 0.14, 369.09
401.30, 0.14, 369.26
400.97, 0.14, 369.44
400.60, 0.13, 369.63
400.19, 0.13, 369.85
399.73, 0.13, 370.10
399.22, 0.13, 370.37
398.64, 0.13, 370.68
398.00, 0.13, 371.02
397.28, 0.13, 371.41
396.44, 0.14, 371.85
395.50, 0.15, 372.36
394.51, 0.18, 372.88
392.98, 0.16, 373.70
390.59, 0.08, 374.98
389.84, 0.26, 375.37
386.37, 0.19, 377.22
386.37, 0.53, 377.20
386.37, 0.87, 377.19
403.83, 0.30, 367.98
403.68, 0.30, 368.06
403.52, 0.30, 368.14
403.35, 0.30, 368.24
403.17, 0.30, 368.34
402.97, 0.29, 368.45
402.76, 0.29, 368.56
402.54, 0.29, 368.69
401.93, 0.14, 369.03
401.65, 0.14, 369.19
401.34, 0.14, 369.35
401.01, 0.14, 369.54
400.64, 0.14, 369.74
400.23, 0.13, 369.97
399.78, 0.13, 370.22
399.27, 0.13, 370.50
398.69, 0.13, 370.82
398.05, 0.13, 371.17
397.33, 0.13, 371.57
396.50, 0.14, 372.03
395.56, 0.15, 372.54
394.57, 0.18, 373.09
392.97, 0.15, 373.97
390.75, 0.09, 375.20
390.01, 0.28, 375.60
386.37, 0.19, 377.61
386.37, 0.53, 377.59
386.37, 0.88, 377.57
403.85, 0.31, 368.03
403.70, 0.30, 368.12
403.55, 0.30, 368.21
¯403.38, 0.30, 368.30
403.20, 0.30, 368.41
403.01, 0.29, 368.52
402.80, 0.29, 368.64
402.57, 0.29, 368.76
401.96, 0.14, 369.12
401.69, 0.14, 369.28
401.38, 0.14, 369.45
401.05, 0.14, 369.64
400.68, 0.14, 369.85
400.28, 0.14, 370.08
399.83, 0.13, 370.34
399.32, 0.13, 370.63
398.74, 0.13, 370.95
398.10, 0.13, 371.32
397.38, 0.13, 371.73
396.55, 0.14, 372.20
395.63, 0.15, 372.73
394.61, 0.18, 373.31
392.96, 0.15, 374.25
390.92, 0.11, 375.41
390.17, 0.29, 375.83
386.37, 0.19, 378.00
386.37, 0.54, 377.98
386.37, 0.88, 377.96
403.88, 0.31, 368.09
403.73, 0.30, 368.18
403.58, 0.30, 368.27
403.41, 0.30, 368.37
403.23, 0.30, 368.47
403.04, 0.30, 368.59
402.83, 0.29, 368.71
402.61, 0.29, 368.84
402.00, 0.14, 369.20
401.73, 0.14, 369.37
401.43, 0.14, 369.54
401.09, 0.14, 369.74
400.73, 0.14, 369.95
400.33, 0.14, 370.19
399.87, 0.14, 370.46
399.37, 0.13, 370.76
398.80, 0.13, 371.09
398.16, 0.13, 371.47
397.44, 0.14, 371.89
396.61, 0.14, 372.38
395.70, 0.16, 372.91
394.64, 0.18, 373.53
392.96, 0.14, 374.53
391.09, 0.13, 375.63
390.33, 0.31, 376.06
386.37, 0.19, 378.40
¯386.37, 0.54, 378.38
386.37, 0.88, 378.36
403.91, 0.31, 368.15
403.76, 0.31, 368.24
403.61, 0.30, 368.33
403.44, 0.30, 368.43
403.27, 0.30, 368.54
403.07, 0.30, 368.66
402.87, 0.29, 368.78
402.30, 0.15, 369.14
402.04, 0.15, 369.29
401.77, 0.14, 369.46
401.47, 0.14, 369.64
401.14, 0.14, 369.84
400.78, 0.14, 370.06
400.37, 0.14, 370.31
399.93, 0.14, 370.58
399.42, 0.14, 370.88
398.85, 0.13, 371.23
398.21, 0.13, 371.62
397.50, 0.14, 372.05
396.67, 0.14, 372.55
395.76, 0.16, 373.11
394.68, 0.18, 373.76
392.95, 0.13, 374.81
391.26, 0.14, 375.84
390.58, 0.33, 376.25
390.58, 0.62, 376.23
390.57, 0.90, 376.22
390.55, 1.18, 376.22
403.94, 0.31, 368.21
403.79, 0.31, 368.30
403.64, 0.30, 368.39
403.48, 0.30, 368.50
403.30, 0.30, 368.61
403.11, 0.30, 368.73
402.90, 0.29, 368.86
402.34, 0.15, 369.22
402.09, 0.15, 369.38
401.81, 0.15, 369.55
401.51, 0.14, 369.74
401.19, 0.14, 369.94
400.82, 0.14, 370.17
400.42, 0.14, 370.42
399.98, 0.14, 370.70
399.48, 0.14, 371.01
398.91, 0.14, 371.37
398.27, 0.13, 371.77
397.56, 0.14, 372.21
396.73, 0.14, 372.73
395.78, 0.15, 373.33
¯394.72, 0.17, 373.99
392.86, 0.11, 375.16
391.43, 0.16, 376.05
390.66, 0.34, 376.52
390.58, 0.62, 376.56
390.58, 0.90, 376.54
390.58, 1.18, 376.53
403.97, 0.31, 368.26
403.83, 0.31, 368.36
403.67, 0.30, 368.45
403.51, 0.30, 368.56
403.33, 0.30, 368.67
403.14, 0.30, 368.80
402.61, 0.15, 369.15
402.38, 0.15, 369.30
402.13, 0.15, 369.46
401.86, 0.15, 369.64
401.56, 0.15, 369.83
401.23, 0.14, 370.04
400.87, 0.14, 370.27
400.47, 0.14, 370.53
400.03, 0.14, 370.82
399.53, 0.14, 371.14
398.97, 0.14, 371.50
398.33, 0.14, 371.92
397.62, 0.14, 372.38
396.79, 0.15, 372.91
395.80, 0.15, 373.55
394.77, 0.17, 374.22
392.88, 0.10, 375.44
391.67, 0.19, 376.21
391.65, 0.46, 376.21
391.63, 0.72, 376.21
391.60, 0.99, 376.21
391.58, 1.26, 376.21
404.00, 0.31, 368.32
403.86, 0.31, 368.41
403.71, 0.31, 368.52
403.54, 0.30, 368.62
403.37, 0.30, 368.74
403.18, 0.30, 368.87
402.65, 0.15, 369.23
402.42, 0.15, 369.38
402.17, 0.15, 369.55
401.90, 0.15, 369.73
401.60, 0.15, 369.92
401.28, 0.15, 370.14
400.92, 0.14, 370.38
400.53, 0.14, 370.64
400.09, 0.14, 370.94
399.59, 0.14, 371.27
¯399.03, 0.14, 371.64
398.39, 0.14, 372.07
397.68, 0.14, 372.54
396.86, 0.15, 373.09
395.82, 0.14, 373.78
394.81, 0.17, 374.45
392.95, 0.10, 375.69
391.79, 0.20, 376.46
391.79, 0.47, 376.44
391.79, 0.74, 376.43
391.79, 1.01, 376.41
391.79, 1.27, 376.39
404.03, 0.31, 368.37
403.89, 0.31, 368.47
403.74, 0.31, 368.58
403.58, 0.30, 368.69
403.40, 0.30, 368.81
403.22, 0.30, 368.94
402.69, 0.15, 369.30
402.46, 0.15, 369.46
402.21, 0.15, 369.63
401.95, 0.15, 369.82
401.65, 0.15, 370.02
401.33, 0.15, 370.24
400.97, 0.15, 370.48
400.58, 0.15, 370.75
400.14, 0.14, 371.06
399.65, 0.14, 371.40
399.09, 0.14, 371.78
398.45, 0.14, 372.22
397.74, 0.14, 372.70
396.91, 0.15, 373.27
395.84, 0.13, 374.01
394.85, 0.17, 374.68
393.03, 0.11, 375.94
391.94, 0.21, 376.68
391.79, 0.46, 376.77
391.79, 0.74, 376.75
391.79, 1.01, 376.73
391.79, 1.28, 376.72
404.07, 0.31, 368.43
403.92, 0.31, 368.53
403.77, 0.31, 368.64
403.61, 0.31, 368.75
403.44, 0.30, 368.87
402.95, 0.16, 369.23
402.73, 0.15, 369.38
402.51, 0.15, 369.54
402.26, 0.15, 369.72
401.99, 0.15, 369.91
401.70, 0.15, 370.11
¯401.38, 0.15, 370.34
401.03, 0.15, 370.59
400.64, 0.15, 370.87
400.20, 0.15, 371.18
399.71, 0.14, 371.52
399.15, 0.14, 371.92
398.51, 0.14, 372.37
397.81, 0.14, 372.87
396.97, 0.15, 373.46
395.86, 0.12, 374.24
394.90, 0.17, 374.92
393.10, 0.11, 376.19
392.11, 0.23, 376.89
391.79, 0.46, 377.10
391.79, 0.73, 377.08
391.79, 1.01, 377.06
391.79, 1.28, 377.05
404.10, 0.31, 368.49
403.96, 0.31, 368.59
403.81, 0.31, 368.70
403.65, 0.31, 368.81
403.48, 0.30, 368.94
402.99, 0.16, 369.30
402.78, 0.15, 369.46
402.55, 0.15, 369.62
402.31, 0.15, 369.80
402.04, 0.15, 370.00
401.75, 0.15, 370.21
401.43, 0.15, 370.44
401.08, 0.15, 370.69
400.69, 0.15, 370.98
400.26, 0.15, 371.30
399.77, 0.15, 371.65
399.21, 0.14, 372.06
398.58, 0.14, 372.52
397.87, 0.15, 373.03
397.02, 0.14, 373.65
395.90, 0.12, 374.47
394.93, 0.16, 375.17
393.18, 0.11, 376.45
392.24, 0.24, 377.13
391.79, 0.45, 377.44
391.79, 0.73, 377.42
391.79, 1.01, 377.40
391.79, 1.28, 377.38
404.13, 0.31, 368.54
403.99, 0.31, 368.65
403.85, 0.31, 368.76
403.69, 0.31, 368.88
403.52, 0.31, 369.00
403.03, 0.16, 369.38
¯402.82, 0.16, 369.54
402.60, 0.15, 369.71
402.35, 0.15, 369.89
402.09, 0.15, 370.08
401.80, 0.15, 370.30
401.49, 0.15, 370.54
401.14, 0.15, 370.80
400.75, 0.15, 371.09
400.32, 0.15, 371.41
399.83, 0.15, 371.78
399.28, 0.15, 372.19
398.65, 0.14, 372.67
397.93, 0.15, 373.20
397.06, 0.14, 373.85
395.95, 0.12, 374.69
394.96, 0.15, 375.43
393.26, 0.12, 376.71
392.35, 0.25, 377.38
391.79, 0.45, 377.78
391.79, 0.73, 377.76
391.79, 1.01, 377.74
391.79, 1.29, 377.73
404.17, 0.31, 368.60
404.03, 0.31, 368.70
403.88, 0.31, 368.82
403.73, 0.31, 368.94
403.27, 0.16, 369.30
403.08, 0.16, 369.45
402.86, 0.16, 369.61
402.64, 0.16, 369.79
402.40, 0.15, 369.97
402.14, 0.15, 370.17
401.85, 0.15, 370.39
401.54, 0.15, 370.64
401.19, 0.15, 370.90
400.80, 0.15, 371.20
400.38, 0.15, 371.53
399.89, 0.15, 371.91
399.34, 0.15, 372.33
398.72, 0.15, 372.82
398.00, 0.15, 373.37
397.11, 0.14, 374.06
396.00, 0.11, 374.91
394.82, 0.12, 375.83
393.35, 0.12, 376.96
392.46, 0.25, 377.63
391.79, 0.45, 378.14
391.79, 0.73, 378.12
391.79, 1.01, 378.10
391.79, 1.29, 378.08
404.20, 0.32, 368.65
¯404.07, 0.31, 368.76
403.92, 0.31, 368.88
403.76, 0.31, 369.00
403.32, 0.16, 369.37
403.12, 0.16, 369.52
402.91, 0.16, 369.69
402.69, 0.16, 369.86
402.45, 0.16, 370.05
402.19, 0.16, 370.26
401.91, 0.16, 370.49
401.59, 0.15, 370.73
401.25, 0.15, 371.01
400.86, 0.15, 371.32
400.44, 0.15, 371.65
399.96, 0.15, 372.04
399.41, 0.15, 372.47
398.79, 0.15, 372.97
398.06, 0.15, 373.54
397.15, 0.13, 374.27
396.04, 0.11, 375.15
394.67, 0.08, 376.24
393.53, 0.14, 377.14
392.58, 0.26, 377.89
391.79, 0.44, 378.50
391.79, 0.73, 378.48
391.79, 1.01, 378.45
391.79, 1.30, 378.43
404.24, 0.32, 368.71
404.10, 0.32, 368.82
403.96, 0.31, 368.93
403.80, 0.31, 369.06
403.36, 0.17, 369.44
403.16, 0.16, 369.59
402.96, 0.16, 369.77
402.74, 0.16, 369.94
402.50, 0.16, 370.14
402.24, 0.16, 370.35
401.96, 0.16, 370.58
401.65, 0.16, 370.83
401.31, 0.16, 371.11
400.92, 0.15, 371.43
400.50, 0.15, 371.77
400.02, 0.15, 372.16
399.48, 0.15, 372.61
398.87, 0.15, 373.11
398.12, 0.15, 373.71
397.20, 0.13, 374.48
396.08, 0.10, 375.39
394.52, 0.04, 376.67
393.72, 0.16, 377.31
392.78, 0.28, 378.07
¯391.80, 0.44, 378.87
391.80, 0.73, 378.84
391.80, 1.01, 378.82
391.80, 1.30, 378.80
404.28, 0.32, 368.76
404.14, 0.32, 368.87
404.00, 0.31, 368.99
403.58, 0.17, 369.35
403.40, 0.17, 369.51
403.21, 0.16, 369.67
403.00, 0.16, 369.84
402.79, 0.16, 370.02
402.55, 0.16, 370.22
402.30, 0.16, 370.44
402.02, 0.16, 370.67
401.71, 0.16, 370.93
401.36, 0.16, 371.22
400.98, 0.15, 371.55
400.56, 0.15, 371.90
400.09, 0.15, 372.29
399.55, 0.15, 372.75
398.96, 0.16, 373.24
398.19, 0.15, 373.89
397.24, 0.12, 374.69
396.12, 0.10, 375.64
394.51, 0.03, 376.99
393.90, 0.18, 377.49
392.99, 0.30, 378.25
391.80, 0.43, 379.24
391.80, 0.72, 379.22
391.80, 1.02, 379.20
391.80, 1.31, 379.17
404.31, 0.32, 368.81
404.18, 0.32, 368.93
404.04, 0.32, 369.05
403.62, 0.17, 369.42
403.45, 0.17, 369.57
403.26, 0.16, 369.74
403.05, 0.16, 369.92
402.84, 0.16, 370.10
402.60, 0.16, 370.30
402.35, 0.16, 370.52
402.07, 0.16, 370.76
401.77, 0.16, 371.03
401.42, 0.16, 371.33
401.04, 0.15, 371.66
400.62, 0.16, 372.02
400.16, 0.16, 372.42
399.62, 0.16, 372.88
399.05, 0.17, 373.37
398.26, 0.15, 374.06
¯397.29, 0.12, 374.90
396.16, 0.09, 375.88
395.77, 0.24, 376.20
395.75, 0.46, 376.20
395.73, 0.68, 376.20
391.80, 0.43, 379.63
391.80, 0.72, 379.60
391.80, 1.02, 379.58
391.80, 1.31, 379.56
404.35, 0.32, 368.87
404.22, 0.32, 368.98
403.83, 0.17, 369.34
403.67, 0.17, 369.49
403.49, 0.17, 369.64
403.30, 0.16, 369.81
403.10, 0.16, 369.99
402.89, 0.16, 370.18
402.66, 0.16, 370.39
402.40, 0.16, 370.61
402.13, 0.16, 370.86
401.82, 0.16, 371.13
401.48, 0.16, 371.43
401.10, 0.15, 371.77
400.69, 0.16, 372.14
400.23, 0.16, 372.55
399.69, 0.16, 373.02
399.15, 0.17, 373.50
398.33, 0.15, 374.23
397.36, 0.12, 375.10
396.20, 0.08, 376.14
396.00, 0.27, 376.30
396.00, 0.49, 376.28
396.00, 0.71, 376.27
396.00, 0.94, 376.25
396.00, 1.16, 376.23
396.00, 1.38, 376.21
395.98, 1.60, 376.20
404.39, 0.32, 368.92
404.26, 0.32, 369.04
403.87, 0.18, 369.40
403.71, 0.17, 369.55
403.54, 0.17, 369.71
403.35, 0.17, 369.88
403.15, 0.16, 370.07
402.94, 0.16, 370.26
402.71, 0.16, 370.47
402.46, 0.16, 370.70
402.19, 0.16, 370.95
401.88, 0.16, 371.23
401.54, 0.16, 371.54
401.16, 0.15, 371.89
¯400.76, 0.16, 372.26
400.30, 0.16, 372.67
399.78, 0.16, 373.15
399.25, 0.18, 373.64
398.40, 0.15, 374.41
397.43, 0.12, 375.30
396.24, 0.08, 376.39
396.00, 0.26, 376.60
396.00, 0.48, 376.58
396.00, 0.71, 376.56
396.00, 0.93, 376.54
396.00, 1.16, 376.53
396.00, 1.38, 376.51
396.00, 1.60, 376.49
404.43, 0.32, 368.97
404.30, 0.32, 369.09
403.92, 0.18, 369.46
403.76, 0.17, 369.62
403.59, 0.17, 369.78
403.40, 0.17, 369.95
403.20, 0.16, 370.14
402.99, 0.16, 370.34
402.77, 0.16, 370.55
402.52, 0.16, 370.78
402.25, 0.16, 371.04
401.94, 0.16, 371.33
401.60, 0.16, 371.65
401.23, 0.15, 372.00
400.82, 0.16, 372.38
400.37, 0.16, 372.80
399.88, 0.17, 373.27
399.34, 0.19, 373.77
398.49, 0.15, 374.57
397.51, 0.12, 375.50
396.29, 0.07, 376.65
396.00, 0.24, 376.91
396.00, 0.47, 376.89
396.00, 0.70, 376.87
396.00, 0.93, 376.85
396.00, 1.15, 376.83
396.00, 1.38, 376.81
396.00, 1.61, 376.79
404.47, 0.32, 369.02
404.11, 0.18, 369.38
403.96, 0.18, 369.53
403.81, 0.17, 369.68
403.63, 0.17, 369.84
403.45, 0.17, 370.02
403.26, 0.17, 370.21
403.05, 0.17, 370.41
402.82, 0.16, 370.63
¯402.58, 0.16, 370.87
402.31, 0.16, 371.13
402.00, 0.16, 371.43
401.67, 0.16, 371.75
401.29, 0.16, 372.11
400.89, 0.16, 372.50
400.45, 0.16, 372.93
399.97, 0.18, 373.39
399.44, 0.20, 373.90
398.59, 0.15, 374.73
397.59, 0.12, 375.69
396.28, 0.05, 376.97
396.00, 0.23, 377.23
396.00, 0.46, 377.21
396.00, 0.69, 377.19
396.00, 0.92, 377.16
396.00, 1.15, 377.14
396.00, 1.38, 377.12
396.00, 1.61, 377.10
404.51, 0.32, 369.08
404.16, 0.18, 369.44
404.01, 0.18, 369.59
403.85, 0.17, 369.74
403.68, 0.17, 369.91
403.50, 0.17, 370.09
403.31, 0.17, 370.29
403.10, 0.17, 370.49
402.88, 0.17, 370.71
402.64, 0.17, 370.96
402.37, 0.17, 371.22
402.06, 0.16, 371.52
401.73, 0.16, 371.86
401.36, 0.16, 372.22
400.97, 0.16, 372.62
400.52, 0.16, 373.06
400.06, 0.18, 373.51
399.54, 0.20, 374.03
398.69, 0.16, 374.88
397.68, 0.12, 375.89
396.43, 0.06, 377.14
396.00, 0.21, 377.55
396.00, 0.45, 377.53
396.00, 0.68, 377.51
396.00, 0.92, 377.49
396.00, 1.15, 377.46
396.00, 1.38, 377.44
396.00, 1.61, 377.42
404.55, 0.33, 369.13
404.20, 0.18, 369.50
404.06, 0.18, 369.65
403.90, 0.18, 369.81
¯403.73, 0.17, 369.98
403.55, 0.17, 370.16
403.36, 0.17, 370.36
403.16, 0.17, 370.57
402.94, 0.17, 370.79
402.70, 0.17, 371.04
402.43, 0.17, 371.32
402.13, 0.16, 371.62
401.80, 0.16, 371.96
401.43, 0.16, 372.34
401.04, 0.16, 372.74
400.59, 0.17, 373.19
400.16, 0.19, 373.63
399.64, 0.21, 374.16
398.78, 0.16, 375.04
397.76, 0.12, 376.09
396.55, 0.07, 377.33
396.00, 0.20, 377.89
396.00, 0.44, 377.86
396.00, 0.68, 377.84
396.00, 0.91, 377.82
396.00, 1.15, 377.80
396.00, 1.38, 377.77
396.00, 1.62, 377.75
404.38, 0.19, 369.41
404.25, 0.18, 369.56
404.10, 0.18, 369.71
403.95, 0.18, 369.87
403.78, 0.17, 370.04
403.61, 0.17, 370.23
403.42, 0.17, 370.43
403.22, 0.17, 370.64
403.00, 0.17, 370.87
402.76, 0.17, 371.13
402.49, 0.17, 371.41
402.19, 0.16, 371.72
401.86, 0.16, 372.07
401.50, 0.16, 372.45
401.11, 0.16, 372.86
400.67, 0.17, 373.32
400.26, 0.20, 373.75
399.75, 0.22, 374.29
398.85, 0.16, 375.24
397.85, 0.12, 376.29
396.67, 0.08, 377.54
396.00, 0.18, 378.23
396.09, 0.44, 378.11
396.07, 0.68, 378.11
396.05, 0.91, 378.11
396.00, 1.15, 378.14
396.00, 1.39, 378.11
¯396.00, 1.62, 378.09
404.43, 0.19, 369.47
404.29, 0.18, 369.61
404.15, 0.18, 369.77
404.00, 0.18, 369.93
403.84, 0.17, 370.11
403.66, 0.17, 370.30
403.47, 0.17, 370.50
403.27, 0.17, 370.72
403.06, 0.17, 370.95
402.82, 0.17, 371.21
402.55, 0.17, 371.50
402.26, 0.16, 371.82
401.93, 0.16, 372.17
401.57, 0.16, 372.56
401.19, 0.16, 372.98
400.75, 0.17, 373.45
400.35, 0.20, 373.87
399.85, 0.22, 374.42
398.92, 0.16, 375.43
397.94, 0.12, 376.50
396.78, 0.08, 377.75
396.45, 0.25, 378.09
396.07, 0.43, 378.48
396.22, 0.69, 378.30
396.26, 0.94, 378.23
396.25, 1.17, 378.22
396.24, 1.41, 378.20
396.23, 1.64, 378.19
404.48, 0.19, 369.52
404.34, 0.18, 369.67
404.20, 0.18, 369.83
404.05, 0.18, 369.99
403.89, 0.18, 370.17
403.71, 0.17, 370.37
403.53, 0.17, 370.57
403.33, 0.17, 370.79
403.12, 0.17, 371.03
402.88, 0.17, 371.30
402.62, 0.17, 371.59
402.32, 0.16, 371.92
402.00, 0.16, 372.28
401.65, 0.16, 372.67
401.26, 0.17, 373.10
400.84, 0.17, 373.57
400.45, 0.21, 374.00
399.95, 0.23, 374.55
399.00, 0.16, 375.62
398.02, 0.12, 376.71
396.90, 0.09, 377.96
396.58, 0.26, 378.30
¯396.21, 0.44, 378.69
396.25, 0.69, 378.62
396.25, 0.93, 378.59
396.24, 1.17, 378.58
396.23, 1.41, 378.56
396.22, 1.65, 378.55
404.52, 0.19, 369.57
404.39, 0.19, 369.72
404.25, 0.18, 369.89
404.10, 0.18, 370.06
403.94, 0.18, 370.24
403.77, 0.17, 370.44
403.59, 0.17, 370.65
403.39, 0.17, 370.87
403.18, 0.17, 371.11
402.94, 0.17, 371.39
402.68, 0.17, 371.68
402.39, 0.17, 372.02
402.07, 0.16, 372.38
401.72, 0.16, 372.78
401.34, 0.17, 373.22
400.92, 0.18, 373.69
400.53, 0.21, 374.14
400.06, 0.24, 374.68
399.09, 0.16, 375.79
398.11, 0.12, 376.92
397.02, 0.09, 378.17
396.58, 0.24, 378.66
396.00, 0.39, 379.30
396.00, 0.64, 379.27
396.00, 0.89, 379.25
396.00, 1.14, 379.22
396.00, 1.39, 379.19
396.00, 1.64, 379.17
404.57, 0.19, 369.63
404.44, 0.19, 369.78
404.30, 0.18, 369.94
404.16, 0.18, 370.12
404.00, 0.18, 370.30
403.83, 0.17, 370.50
403.65, 0.17, 370.72
403.45, 0.17, 370.94
403.24, 0.17, 371.19
403.01, 0.17, 371.47
402.75, 0.17, 371.78
402.46, 0.17, 372.11
402.14, 0.16, 372.49
401.80, 0.16, 372.89
401.42, 0.17, 373.34
401.01, 0.18, 373.82
400.63, 0.21, 374.27
¯400.16, 0.24, 374.81
399.18, 0.16, 375.97
398.18, 0.11, 377.16
397.14, 0.10, 378.38
396.45, 0.20, 379.19
396.00, 0.37, 379.69
396.00, 0.63, 379.66
396.00, 0.89, 379.63
396.00, 1.14, 379.60
396.00, 1.40, 379.58
396.00, 1.65, 379.55
404.62, 0.19, 369.68
404.49, 0.19, 369.83
404.35, 0.18, 370.00
404.21, 0.18, 370.18
404.05, 0.18, 370.37
403.88, 0.18, 370.57
403.71, 0.17, 370.79
403.52, 0.18, 371.02
403.30, 0.17, 371.27
403.07, 0.17, 371.56
402.82, 0.17, 371.87
402.53, 0.17, 372.21
402.22, 0.16, 372.59
401.88, 0.16, 373.01
401.50, 0.17, 373.46
401.10, 0.18, 373.94
400.72, 0.22, 374.40
400.27, 0.25, 374.94
399.28, 0.16, 376.15
398.25, 0.10, 377.40
397.26, 0.10, 378.60
396.63, 0.22, 379.35
396.01, 0.36, 380.09
396.01, 0.62, 380.06
396.01, 0.88, 380.03
396.01, 1.14, 380.00
396.01, 1.40, 379.97
396.01, 1.65, 379.94
404.67, 0.19, 369.73
404.54, 0.19, 369.89
404.41, 0.19, 370.06
404.26, 0.18, 370.24
404.11, 0.18, 370.43
403.94, 0.18, 370.64
403.77, 0.18, 370.86
403.58, 0.18, 371.09
403.37, 0.17, 371.35
403.14, 0.17, 371.64
402.88, 0.17, 371.96
402.60, 0.17, 372.31
¯402.29, 0.16, 372.70
401.95, 0.17, 373.12
401.58, 0.17, 373.58
401.19, 0.18, 374.07
400.81, 0.22, 374.54
400.36, 0.25, 375.09
399.38, 0.16, 376.33
398.32, 0.10, 377.65
397.39, 0.11, 378.81
396.85, 0.24, 379.47
396.11, 0.36, 380.37
396.01, 0.61, 380.48
396.01, 0.87, 380.44
396.01, 1.14, 380.41
396.01, 1.40, 380.38
396.01, 1.66, 380.35
404.72, 0.20, 369.78
404.60, 0.19, 369.94
404.46, 0.19, 370.11
404.32, 0.18, 370.30
404.17, 0.18, 370.49
404.00, 0.18, 370.70
403.83, 0.18, 370.93
403.64, 0.18, 371.17
403.43, 0.18, 371.43
403.21, 0.17, 371.73
402.95, 0.17, 372.05
402.68, 0.17, 372.40
402.37, 0.17, 372.80
402.03, 0.17, 373.23
401.67, 0.17, 373.70
401.28, 0.19, 374.20
400.90, 0.22, 374.67
400.43, 0.25, 375.28
399.48, 0.16, 376.51
398.40, 0.09, 377.90
397.55, 0.12, 378.99
397.06, 0.26, 379.59
396.25, 0.37, 380.62
404.77, 0.20, 369.83
404.65, 0.19, 369.99
404.52, 0.19, 370.17
404.38, 0.19, 370.36
404.22, 0.18, 370.56
404.06, 0.18, 370.77
403.89, 0.18, 371.00
403.70, 0.18, 371.24
403.50, 0.18, 371.51
403.27, 0.17, 371.81
403.03, 0.17, 372.14
402.75, 0.17, 372.50
¯402.45, 0.17, 372.90
402.12, 0.17, 373.34
401.75, 0.17, 373.82
401.37, 0.19, 374.32
401.00, 0.22, 374.81
400.49, 0.24, 375.48
399.58, 0.16, 376.69
398.47, 0.08, 378.16
397.74, 0.14, 379.13
397.28, 0.29, 379.71
394.27, 0.00, 383.72
404.82, 0.20, 369.88
404.70, 0.19, 370.05
404.57, 0.19, 370.22
404.43, 0.19, 370.41
404.28, 0.18, 370.62
404.12, 0.18, 370.84
403.95, 0.18, 371.06
403.77, 0.18, 371.32
403.57, 0.18, 371.59
403.34, 0.17, 371.89
403.10, 0.17, 372.23
402.83, 0.17, 372.60
402.53, 0.17, 373.01
402.20, 0.17, 373.45
401.84, 0.17, 373.94
401.47, 0.19, 374.45
401.10, 0.23, 374.94
400.55, 0.23, 375.68
399.68, 0.16, 376.87
398.55, 0.08, 378.42
397.92, 0.16, 379.26
397.47, 0.30, 379.85
394.38, 0.00, 384.10
404.87, 0.20, 369.93
404.76, 0.20, 370.10
404.63, 0.19, 370.28
404.49, 0.19, 370.47
404.34, 0.18, 370.68
404.18, 0.18, 370.90
404.02, 0.18, 371.13
403.83, 0.18, 371.39
403.63, 0.18, 371.67
403.42, 0.17, 371.98
403.17, 0.17, 372.32
402.91, 0.17, 372.69
402.61, 0.17, 373.11
402.29, 0.17, 373.56
401.93, 0.17, 374.06
401.56, 0.19, 374.57
401.18, 0.22, 375.10
¯400.62, 0.22, 375.89
399.78, 0.16, 377.07
398.63, 0.07, 378.69
398.11, 0.18, 379.40
397.67, 0.32, 380.00
394.50, 0.00, 384.47
404.93, 0.20, 369.98
404.81, 0.20, 370.15
404.69, 0.19, 370.33
404.55, 0.19, 370.53
404.40, 0.19, 370.74
404.25, 0.18, 370.96
404.08, 0.18, 371.20
403.90, 0.18, 371.46
403.70, 0.18, 371.75
403.49, 0.18, 372.06
403.25, 0.17, 372.41
402.98, 0.17, 372.79
402.69, 0.17, 373.21
402.37, 0.17, 373.67
402.02, 0.18, 374.18
401.66, 0.19, 374.70
401.26, 0.22, 375.27
400.69, 0.21, 376.09
399.86, 0.16, 377.30
398.73, 0.07, 378.93
398.30, 0.19, 379.54
397.87, 0.34, 380.14
394.63, 0.00, 384.86
404.98, 0.20, 370.03
404.87, 0.20, 370.20
404.74, 0.20, 370.38
404.61, 0.19, 370.58
404.47, 0.19, 370.80
404.31, 0.18, 371.03
404.15, 0.18, 371.27
403.97, 0.18, 371.54
403.77, 0.18, 371.83
403.56, 0.18, 372.14
403.33, 0.17, 372.49
403.06, 0.17, 372.88
402.77, 0.17, 373.32
402.46, 0.17, 373.78
402.11, 0.18, 374.30
401.76, 0.20, 374.82
401.33, 0.21, 375.45
400.76, 0.20, 376.30
399.95, 0.15, 377.52
398.93, 0.09, 379.04
398.49, 0.21, 379.68
398.06, 0.36, 380.29
¯394.75, 0.00, 385.25
405.04, 0.20, 370.08
404.92, 0.20, 370.25
404.80, 0.20, 370.44
404.67, 0.19, 370.64
404.53, 0.19, 370.85
404.38, 0.19, 371.09
404.21, 0.18, 371.34
404.04, 0.18, 371.61
403.85, 0.18, 371.90
403.64, 0.18, 372.23
403.40, 0.17, 372.58
403.15, 0.17, 372.98
402.86, 0.17, 373.42
402.55, 0.17, 373.89
402.20, 0.18, 374.42
401.86, 0.20, 374.95
401.41, 0.21, 375.62
400.83, 0.19, 376.52
400.04, 0.14, 377.75
399.12, 0.10, 379.16
398.68, 0.23, 379.81
398.26, 0.38, 380.43
394.88, 0.00, 385.65
405.09, 0.21, 370.12
404.98, 0.20, 370.30
404.86, 0.20, 370.49
404.73, 0.20, 370.69
404.59, 0.19, 370.91
404.44, 0.19, 371.15
404.28, 0.18, 371.41
404.11, 0.18, 371.68
403.92, 0.18, 371.98
403.71, 0.18, 372.31
403.48, 0.18, 372.67
403.23, 0.17, 373.07
402.94, 0.17, 373.52
402.64, 0.17, 374.00
402.30, 0.18, 374.54
401.94, 0.20, 375.10
401.50, 0.20, 375.80
400.91, 0.18, 376.74
400.13, 0.14, 377.97
399.31, 0.12, 379.27
398.87, 0.25, 379.95
398.46, 0.40, 380.57
395.02, 0.00, 386.06
405.15, 0.21, 370.17
405.04, 0.20, 370.35
404.92, 0.20, 370.54
404.80, 0.20, 370.75
¯404.66, 0.19, 370.97
404.51, 0.19, 371.21
404.35, 0.18, 371.47
404.18, 0.18, 371.75
403.99, 0.18, 372.06
403.79, 0.18, 372.39
403.56, 0.18, 372.76
403.31, 0.17, 373.17
403.03, 0.17, 373.62
402.73, 0.17, 374.11
402.40, 0.18, 374.66
402.03, 0.19, 375.26
401.58, 0.19, 375.99
400.99, 0.17, 376.96
400.22, 0.13, 378.20
399.50, 0.14, 379.38
399.06, 0.26, 380.09
398.66, 0.42, 380.71
395.16, 0.00, 386.48
405.20, 0.21, 370.22
405.10, 0.21, 370.40
404.98, 0.20, 370.59
404.86, 0.20, 370.80
404.73, 0.20, 371.03
404.58, 0.19, 371.27
404.42, 0.19, 371.54
404.25, 0.18, 371.82
404.07, 0.18, 372.13
403.87, 0.18, 372.47
403.65, 0.18, 372.84
403.40, 0.17, 373.26
403.12, 0.17, 373.72
402.83, 0.18, 374.22
402.49, 0.18, 374.78
402.11, 0.18, 375.42
401.67, 0.19, 376.17
401.08, 0.17, 377.16
400.32, 0.13, 378.44
399.69, 0.16, 379.50
399.25, 0.28, 380.22
398.86, 0.43, 380.86
395.30, 0.00, 386.90
405.26, 0.21, 370.26
405.16, 0.21, 370.45
405.04, 0.20, 370.64
404.92, 0.20, 370.85
404.79, 0.20, 371.08
404.65, 0.19, 371.33
404.50, 0.19, 371.60
404.33, 0.18, 371.89
404.15, 0.18, 372.21
¯403.95, 0.18, 372.55
403.73, 0.18, 372.93
403.49, 0.18, 373.35
403.21, 0.17, 373.83
402.92, 0.18, 374.33
402.60, 0.18, 374.90
402.20, 0.18, 375.59
401.76, 0.18, 376.36
401.18, 0.16, 377.36
400.42, 0.12, 378.68
399.88, 0.18, 379.61
399.44, 0.30, 380.36
397.04, 0.00, 384.58
395.45, 0.00, 387.33
405.32, 0.21, 370.31
405.22, 0.21, 370.49
405.11, 0.21, 370.69
404.99, 0.20, 370.91
404.86, 0.20, 371.14
404.72, 0.20, 371.39
404.57, 0.19, 371.66
404.40, 0.19, 371.96
404.22, 0.18, 372.28
404.03, 0.18, 372.63
403.81, 0.18, 373.02
403.57, 0.18, 373.45
403.31, 0.17, 373.93
403.02, 0.18, 374.44
402.70, 0.18, 375.01
402.29, 0.17, 375.76
401.84, 0.17, 376.55
401.28, 0.15, 377.57
400.53, 0.11, 378.93
400.08, 0.20, 379.71
399.63, 0.31, 380.49
397.19, 0.00, 384.94
405.38, 0.21, 370.35
405.28, 0.21, 370.54
405.17, 0.21, 370.74
405.05, 0.20, 370.96
404.93, 0.20, 371.19
404.79, 0.20, 371.45
404.64, 0.19, 371.72
404.48, 0.19, 372.02
404.30, 0.18, 372.36
404.11, 0.18, 372.71
403.90, 0.18, 373.10
403.66, 0.18, 373.54
403.40, 0.17, 374.03
403.12, 0.18, 374.55
402.82, 0.19, 375.11
¯402.39, 0.17, 375.89
401.93, 0.16, 376.75
401.38, 0.15, 377.77
400.68, 0.12, 379.07
400.27, 0.22, 379.82
399.83, 0.33, 380.63
397.34, 0.00, 385.30
405.44, 0.22, 370.40
405.34, 0.21, 370.59
405.23, 0.21, 370.79
405.12, 0.21, 371.01
405.00, 0.20, 371.25
404.86, 0.20, 371.50
404.72, 0.19, 371.78
404.56, 0.19, 372.09
404.38, 0.19, 372.42
404.19, 0.18, 372.79
403.99, 0.18, 373.19
403.76, 0.18, 373.63
403.50, 0.18, 374.13
403.22, 0.18, 374.66
402.94, 0.20, 375.20
402.53, 0.18, 375.97
402.02, 0.15, 376.96
401.49, 0.14, 377.98
400.85, 0.13, 379.22
400.46, 0.23, 379.95
400.02, 0.35, 380.76
397.50, 0.00, 385.66
405.50, 0.22, 370.44
405.40, 0.21, 370.63
405.30, 0.21, 370.84
405.19, 0.21, 371.06
405.07, 0.20, 371.30
404.94, 0.20, 371.56
404.79, 0.20, 371.84
404.64, 0.19, 372.15
404.47, 0.19, 372.49
404.28, 0.18, 372.87
404.08, 0.18, 373.27
403.85, 0.18, 373.72
403.59, 0.18, 374.23
403.32, 0.18, 374.77
403.06, 0.21, 375.29
402.68, 0.20, 376.05
402.13, 0.15, 377.14
401.60, 0.14, 378.20
401.01, 0.14, 379.37
400.62, 0.24, 380.11
400.15, 0.35, 381.03
397.66, 0.00, 386.04
¯405.56, 0.22, 370.48
405.47, 0.22, 370.68
405.36, 0.21, 370.88
405.26, 0.21, 371.11
405.14, 0.21, 371.35
405.01, 0.20, 371.61
404.87, 0.20, 371.90
404.72, 0.19, 372.22
404.55, 0.19, 372.56
404.37, 0.19, 372.94
404.16, 0.18, 373.36
403.94, 0.18, 373.81
403.69, 0.18, 374.33
403.43, 0.18, 374.88
403.18, 0.21, 375.38
402.82, 0.21, 376.12
402.24, 0.14, 377.33
401.70, 0.13, 378.43
401.17, 0.15, 379.52
400.79, 0.25, 380.28
400.09, 0.29, 381.71
397.83, 0.00, 386.42
405.62, 0.22, 370.52
405.53, 0.22, 370.72
405.43, 0.22, 370.93
405.32, 0.21, 371.16
405.21, 0.21, 371.40
405.08, 0.21, 371.67
404.95, 0.20, 371.96
404.80, 0.20, 372.28
404.64, 0.19, 372.63
404.46, 0.19, 373.01
404.26, 0.18, 373.44
404.04, 0.18, 373.91
403.79, 0.18, 374.43
403.53, 0.18, 374.99
403.30, 0.22, 375.47
402.96, 0.22, 376.20
402.35, 0.14, 377.52
401.81, 0.12, 378.66
401.34, 0.16, 379.67
400.97, 0.26, 380.44
400.03, 0.24, 382.44
398.01, 0.00, 386.80
405.68, 0.22, 370.56
405.59, 0.22, 370.76
405.50, 0.22, 370.98
405.39, 0.21, 371.21
405.28, 0.21, 371.45
405.16, 0.21, 371.72
405.03, 0.20, 372.02
¯404.88, 0.20, 372.34
404.72, 0.20, 372.69
404.56, 0.20, 373.06
404.46, 0.26, 373.25
404.14, 0.18, 374.00
403.90, 0.18, 374.53
403.65, 0.19, 375.07
403.43, 0.23, 375.55
403.10, 0.24, 376.27
402.47, 0.13, 377.69
401.93, 0.11, 378.90
401.51, 0.17, 379.81
401.14, 0.27, 380.60
399.37, 0.00, 384.58
398.19, 0.00, 387.20
405.75, 0.22, 370.61
405.66, 0.22, 370.81
405.57, 0.22, 371.02
405.46, 0.22, 371.25
405.36, 0.21, 371.50
405.24, 0.21, 371.78
405.11, 0.21, 372.07
404.97, 0.20, 372.40
404.81, 0.20, 372.76
404.67, 0.21, 373.09
404.59, 0.28, 373.26
404.23, 0.18, 374.09
404.00, 0.18, 374.62
403.77, 0.20, 375.15
403.55, 0.24, 375.64
403.25, 0.25, 376.33
402.60, 0.13, 377.86
402.09, 0.12, 379.04
401.68, 0.18, 379.96
401.32, 0.28, 380.77
399.54, 0.00, 384.91
398.37, 0.00, 387.60
405.81, 0.23, 370.65
405.72, 0.22, 370.85
405.63, 0.22, 371.07
405.54, 0.22, 371.30
405.43, 0.21, 371.55
405.31, 0.21, 371.83
405.19, 0.21, 372.13
405.05, 0.20, 372.46
404.90, 0.20, 372.82
404.77, 0.23, 373.12
404.70, 0.30, 373.28
404.42, 0.24, 373.96
404.11, 0.18, 374.72
403.89, 0.20, 375.24
¯403.68, 0.24, 375.73
403.40, 0.27, 376.40
402.72, 0.13, 378.04
402.25, 0.13, 379.17
401.85, 0.19, 380.11
401.48, 0.29, 380.96
399.72, 0.00, 385.24
398.56, 0.00, 388.00
405.87, 0.23, 370.69
405.79, 0.23, 370.89
405.70, 0.22, 371.11
405.61, 0.22, 371.35
405.50, 0.22, 371.60
405.39, 0.21, 371.88
405.27, 0.21, 372.19
405.14, 0.21, 372.52
404.99, 0.20, 372.89
404.88, 0.24, 373.14
404.81, 0.31, 373.31
404.72, 0.38, 373.51
404.21, 0.18, 374.82
404.01, 0.21, 375.32
403.81, 0.25, 375.82
403.54, 0.28, 376.46
402.86, 0.13, 378.21
402.41, 0.13, 379.31
402.02, 0.20, 380.26
401.64, 0.29, 381.20
399.91, 0.00, 385.57
398.76, 0.00, 388.42
405.94, 0.23, 370.72
405.86, 0.23, 370.93
405.77, 0.22, 371.15
405.68, 0.22, 371.39
405.58, 0.22, 371.65
405.47, 0.22, 371.93
405.35, 0.21, 372.24
405.22, 0.21, 372.58
405.08, 0.21, 372.95
404.99, 0.26, 373.17
404.92, 0.33, 373.34
404.84, 0.40, 373.51
404.38, 0.22, 374.76
404.13, 0.22, 375.40
403.94, 0.26, 375.90
403.69, 0.29, 376.52
402.99, 0.13, 378.38
402.57, 0.14, 379.47
402.20, 0.21, 380.41
401.79, 0.29, 381.44
400.10, 0.00, 385.91
¯398.96, 0.00, 388.85
406.00, 0.23, 370.76
405.93, 0.23, 370.97
405.84, 0.23, 371.19
405.75, 0.22, 371.44
405.66, 0.22, 371.70
405.55, 0.22, 371.98
405.44, 0.22, 372.29
405.31, 0.21, 372.64
405.17, 0.21, 373.01
405.10, 0.27, 373.19
405.03, 0.34, 373.36
404.96, 0.41, 373.54
404.71, 0.37, 374.21
404.26, 0.22, 375.48
404.07, 0.27, 375.99
403.84, 0.31, 376.58
403.13, 0.12, 378.56
402.73, 0.15, 379.62
402.38, 0.22, 380.56
401.95, 0.29, 381.69
400.29, 0.00, 386.25
406.07, 0.23, 370.80
406.00, 0.23, 371.01
405.92, 0.23, 371.23
405.83, 0.23, 371.48
405.73, 0.22, 371.74
405.63, 0.22, 372.03
405.52, 0.22, 372.35
405.40, 0.21, 372.69
405.27, 0.22, 373.06
405.21, 0.28, 373.22
405.14, 0.35, 373.39
405.07, 0.43, 373.56
405.00, 0.50, 373.75
404.54, 0.33, 375.10
404.20, 0.27, 376.07
403.99, 0.32, 376.64
403.27, 0.12, 378.74
402.90, 0.15, 379.78
402.55, 0.22, 380.73
402.12, 0.29, 381.93
400.49, 0.00, 386.60
406.14, 0.23, 370.84
406.06, 0.23, 371.05
405.99, 0.23, 371.27
405.90, 0.23, 371.52
405.81, 0.23, 371.79
405.71, 0.22, 372.08
405.61, 0.22, 372.40
405.49, 0.22, 372.75
¯405.38, 0.23, 373.08
405.31, 0.30, 373.24
405.25, 0.37, 373.41
405.18, 0.44, 373.59
405.11, 0.52, 373.77
404.71, 0.37, 375.00
404.50, 0.39, 375.63
404.13, 0.33, 376.73
403.41, 0.12, 378.91
403.06, 0.16, 379.93
402.73, 0.23, 380.89
402.29, 0.29, 382.19
400.70, 0.00, 386.96
406.20, 0.24, 370.87
406.13, 0.23, 371.08
406.06, 0.23, 371.31
405.98, 0.23, 371.56
405.89, 0.23, 371.83
405.80, 0.23, 372.13
405.69, 0.22, 372.45
405.58, 0.22, 372.80
405.48, 0.24, 373.10
405.42, 0.31, 373.27
405.36, 0.38, 373.44
405.30, 0.46, 373.61
405.23, 0.53, 373.80
405.03, 0.52, 374.42
404.77, 0.49, 375.23
404.27, 0.34, 376.82
403.57, 0.13, 379.05
403.23, 0.16, 380.09
402.92, 0.24, 381.03
402.48, 0.30, 382.36
400.91, 0.00, 387.32
406.27, 0.24, 370.91
406.21, 0.24, 371.12
406.13, 0.23, 371.35
406.06, 0.23, 371.61
405.97, 0.23, 371.88
405.88, 0.23, 372.18
405.78, 0.22, 372.50
405.67, 0.22, 372.86
405.59, 0.25, 373.13
405.53, 0.32, 373.29
405.47, 0.39, 373.46
405.41, 0.47, 373.64
405.34, 0.55, 373.82
405.28, 0.63, 374.01
404.94, 0.53, 375.13
404.83, 0.61, 375.48
403.73, 0.13, 379.18
¯403.41, 0.17, 380.24
403.11, 0.25, 381.18
402.70, 0.32, 382.50
401.13, 0.00, 387.69
406.34, 0.24, 370.93
406.28, 0.24, 371.15
406.21, 0.24, 371.39
406.13, 0.23, 371.65
406.05, 0.23, 371.92
405.97, 0.23, 372.22
405.87, 0.23, 372.55
405.76, 0.22, 372.91
405.69, 0.27, 373.15
405.64, 0.34, 373.31
405.58, 0.41, 373.48
405.52, 0.48, 373.66
405.46, 0.56, 373.84
405.40, 0.64, 374.03
405.11, 0.57, 375.03
405.01, 0.65, 375.37
404.65, 0.58, 376.61
403.58, 0.17, 380.40
403.30, 0.26, 381.32
402.91, 0.33, 382.63
401.36, 0.00, 388.06
406.41, 0.25, 370.96
406.35, 0.25, 371.17
406.28, 0.24, 371.42
406.21, 0.24, 371.69
406.13, 0.23, 371.96
406.05, 0.23, 372.27
405.96, 0.23, 372.60
405.86, 0.23, 372.96
405.80, 0.28, 373.17
405.74, 0.35, 373.33
405.69, 0.42, 373.50
405.63, 0.49, 373.68
405.57, 0.57, 373.87
405.51, 0.65, 374.06
405.36, 0.67, 374.59
405.18, 0.68, 375.26
405.07, 0.77, 375.61
403.76, 0.18, 380.56
403.50, 0.27, 381.46
403.13, 0.35, 382.77
401.59, 0.00, 388.44
406.48, 0.25, 370.98
406.43, 0.25, 371.20
406.36, 0.25, 371.44
406.29, 0.24, 371.72
406.22, 0.24, 372.01
¯406.14, 0.23, 372.31
406.05, 0.23, 372.65
405.95, 0.23, 373.01
405.90, 0.29, 373.19
405.85, 0.36, 373.36
405.80, 0.43, 373.53
405.75, 0.51, 373.70
405.69, 0.58, 373.89
405.63, 0.67, 374.08
405.57, 0.75, 374.28
405.34, 0.72, 375.16
405.25, 0.80, 375.50
405.12, 0.88, 375.95
403.70, 0.28, 381.60
402.63, 0.03, 385.75
401.83, 0.00, 388.83
406.55, 0.26, 371.01
406.50, 0.26, 371.22
406.44, 0.26, 371.46
406.38, 0.25, 371.74
406.30, 0.24, 372.03
406.22, 0.24, 372.36
406.14, 0.23, 372.69
406.05, 0.24, 373.05
406.01, 0.30, 373.21
405.96, 0.37, 373.38
405.91, 0.44, 373.55
405.86, 0.52, 373.73
405.80, 0.60, 373.91
405.75, 0.68, 374.10
405.69, 0.76, 374.30
405.51, 0.76, 375.05
405.42, 0.84, 375.39
405.32, 0.93, 375.74
404.95, 0.88, 377.23
402.91, 0.05, 385.83
402.08, 0.00, 389.22
406.63, 0.26, 371.03
406.58, 0.27, 371.24
406.52, 0.27, 371.48
406.46, 0.26, 371.75
406.39, 0.25, 372.05
406.31, 0.24, 372.38
406.23, 0.24, 372.74
406.15, 0.25, 373.07
406.11, 0.31, 373.23
406.06, 0.38, 373.40
406.02, 0.46, 373.57
405.97, 0.53, 373.75
405.92, 0.61, 373.93
405.87, 0.69, 374.12
¯405.81, 0.78, 374.32
405.71, 0.83, 374.72
405.58, 0.88, 375.28
405.49, 0.96, 375.62
405.40, 1.06, 375.99
403.19, 0.08, 385.92
402.33, 0.00, 389.62
406.70, 0.27, 371.05
406.65, 0.27, 371.27
406.60, 0.27, 371.50
406.54, 0.27, 371.77
406.48, 0.26, 372.07
406.41, 0.25, 372.40
406.33, 0.25, 372.76
406.26, 0.26, 373.09
406.21, 0.33, 373.25
406.17, 0.40, 373.42
406.13, 0.47, 373.59
406.08, 0.54, 373.77
406.03, 0.62, 373.95
405.98, 0.70, 374.14
405.93, 0.79, 374.35
405.88, 0.88, 374.56
405.74, 0.91, 375.17
405.66, 1.00, 375.51
405.57, 1.09, 375.87
405.36, 1.13, 376.80
402.59, 0.00, 390.03
406.77, 0.27, 371.07
406.73, 0.28, 371.29
406.68, 0.28, 371.51
406.63, 0.28, 371.79
406.57, 0.27, 372.09
406.50, 0.26, 372.42
406.43, 0.26, 372.78
406.36, 0.28, 373.09
406.33, 0.35, 373.24
406.28, 0.41, 373.42
406.24, 0.48, 373.61
406.19, 0.56, 373.79
406.15, 0.63, 373.97
406.10, 0.72, 374.17
406.05, 0.80, 374.37
406.00, 0.89, 374.58
405.89, 0.94, 375.07
405.82, 1.03, 375.40
405.74, 1.13, 375.75
405.65, 1.23, 376.12
405.35, 1.23, 377.63
406.85, 0.28, 371.09
406.80, 0.28, 371.31
¯406.76, 0.29, 371.53
406.71, 0.29, 371.80
406.65, 0.28, 372.11
406.59, 0.27, 372.44
406.52, 0.27, 372.80
406.47, 0.29, 373.09
406.44, 0.37, 373.22
406.40, 0.43, 373.39
406.35, 0.50, 373.58
406.31, 0.57, 373.78
406.26, 0.65, 373.99
406.22, 0.73, 374.19
406.17, 0.81, 374.39
406.12, 0.90, 374.60
406.07, 1.00, 374.82
405.98, 1.06, 375.29
405.90, 1.16, 375.63
405.82, 1.26, 376.00
405.74, 1.37, 376.39
406.92, 0.28, 371.11
406.88, 0.29, 371.33
406.84, 0.29, 371.55
406.79, 0.29, 371.82
406.74, 0.29, 372.12
406.69, 0.28, 372.45
406.62, 0.28, 372.82
406.57, 0.30, 373.10
406.54, 0.38, 373.22
406.51, 0.46, 373.36
406.47, 0.53, 373.55
406.43, 0.60, 373.74
406.39, 0.67, 373.95
406.34, 0.75, 374.16
406.30, 0.83, 374.39
406.25, 0.92, 374.62
406.20, 1.01, 374.84
406.13, 1.09, 375.18
406.06, 1.19, 375.52
405.99, 1.29, 375.87
405.91, 1.40, 376.26
405.73, 1.47, 377.25
406.99, 0.29, 371.13
406.96, 0.29, 371.34
406.92, 0.30, 371.57
406.88, 0.30, 371.83
406.83, 0.30, 372.13
406.78, 0.29, 372.47
406.72, 0.29, 372.83
406.68, 0.32, 373.10
406.65, 0.39, 373.23
406.62, 0.47, 373.35
¯406.59, 0.55, 373.52
406.55, 0.62, 373.71
406.51, 0.69, 373.91
406.47, 0.77, 374.12
406.42, 0.85, 374.34
406.38, 0.94, 374.58
406.33, 1.03, 374.82
406.28, 1.12, 375.07
406.22, 1.22, 375.40
406.15, 1.32, 375.75
406.08, 1.43, 376.12
406.01, 1.54, 376.52
405.76, 1.60, 378.02
407.07, 0.29, 371.15
407.04, 0.30, 371.36
407.00, 0.31, 371.59
406.96, 0.31, 371.84
406.92, 0.31, 372.15
406.87, 0.30, 372.48
406.82, 0.30, 372.85
406.78, 0.33, 373.11
406.75, 0.41, 373.23
406.73, 0.49, 373.36
406.70, 0.57, 373.49
406.67, 0.64, 373.67
406.63, 0.72, 373.87
406.59, 0.79, 374.08
406.55, 0.88, 374.30
406.51, 0.96, 374.53
406.47, 1.05, 374.77
406.42, 1.15, 375.02
406.37, 1.25, 375.27
406.31, 1.35, 375.62
406.25, 1.45, 376.00
406.18, 1.57, 376.39
406.11, 1.69, 376.81
407.14, 0.30, 371.16
407.11, 0.31, 371.38
407.08, 0.31, 371.61
407.05, 0.32, 371.86
407.01, 0.32, 372.16
406.97, 0.31, 372.49
406.92, 0.31, 372.86
406.88, 0.34, 373.11
406.86, 0.42, 373.23
406.83, 0.50, 373.36
406.81, 0.58, 373.49
406.78, 0.66, 373.64
406.75, 0.74, 373.84
406.71, 0.82, 374.04
406.68, 0.90, 374.26
¯406.64, 0.98, 374.49
406.60, 1.07, 374.73
406.56, 1.17, 374.98
406.52, 1.27, 375.18
406.47, 1.38, 375.48
406.41, 1.48, 375.84
406.35, 1.60, 376.23
406.28, 1.72, 376.65
406.15, 1.83, 377.60
407.22, 0.30, 371.18
407.19, 0.31, 371.39
407.16, 0.32, 371.62
407.13, 0.33, 371.87
407.10, 0.33, 372.17
407.06, 0.32, 372.50
407.02, 0.32, 372.87
406.98, 0.36, 373.11
406.96, 0.43, 373.24
406.94, 0.51, 373.36
406.92, 0.60, 373.49
406.89, 0.68, 373.63
406.86, 0.76, 373.80
406.83, 0.84, 374.00
406.80, 0.92, 374.22
406.77, 1.00, 374.44
406.73, 1.09, 374.68
406.69, 1.19, 374.93
406.66, 1.29, 375.14
406.62, 1.41, 375.35
406.57, 1.51, 375.69
406.51, 1.62, 376.07
406.46, 1.74, 376.48
406.39, 1.87, 376.92
406.21, 1.98, 378.41
407.29, 0.31, 371.19
407.27, 0.32, 371.41
407.24, 0.32, 371.64
407.22, 0.33, 371.89
407.19, 0.33, 372.18
407.15, 0.33, 372.51
407.12, 0.33, 372.88
407.09, 0.37, 373.12
407.07, 0.45, 373.24
407.05, 0.53, 373.37
407.03, 0.61, 373.50
407.00, 0.69, 373.63
406.98, 0.78, 373.77
406.95, 0.86, 373.97
406.92, 0.94, 374.18
406.89, 1.03, 374.40
406.86, 1.12, 374.63
¯406.82, 1.21, 374.88
406.79, 1.31, 375.10
406.76, 1.42, 375.31
406.72, 1.54, 375.55
406.67, 1.65, 375.91
406.62, 1.77, 376.31
406.57, 1.90, 376.73
406.44, 2.02, 377.79
407.37, 0.32, 371.20
407.35, 0.32, 371.42
407.33, 0.33, 371.65
407.30, 0.34, 371.91
407.28, 0.34, 372.18
407.25, 0.34, 372.52
407.22, 0.34, 372.89
407.19, 0.38, 373.12
407.17, 0.46, 373.24
407.15, 0.54, 373.37
407.13, 0.62, 373.50
407.11, 0.71, 373.63
407.09, 0.79, 373.77
407.07, 0.88, 373.93
407.04, 0.96, 374.13
407.02, 1.05, 374.35
406.99, 1.14, 374.58
406.96, 1.23, 374.83
406.92, 1.33, 375.06
406.90, 1.44, 375.27
406.87, 1.56, 375.48
406.83, 1.67, 375.76
406.78, 1.79, 376.14
406.73, 1.92, 376.55
406.66, 2.05, 377.27
406.51, 2.19, 378.80
407.44, 0.32, 371.21
407.42, 0.33, 371.43
407.41, 0.34, 371.67
407.39, 0.34, 371.92
407.37, 0.35, 372.19
407.34, 0.35, 372.52
407.31, 0.35, 372.89
407.29, 0.39, 373.12
407.28, 0.47, 373.24
407.26, 0.55, 373.37
407.24, 0.63, 373.50
407.22, 0.72, 373.63
407.20, 0.80, 373.77
407.18, 0.89, 373.91
407.16, 0.98, 374.09
407.14, 1.07, 374.31
407.11, 1.16, 374.54
¯407.09, 1.25, 374.78
407.06, 1.35, 375.02
407.03, 1.46, 375.22
407.00, 1.58, 375.43
406.98, 1.70, 375.65
406.94, 1.82, 375.98
406.90, 1.94, 376.38
406.85, 2.08, 376.81
406.73, 2.22, 378.25
407.52, 0.33, 371.23
407.50, 0.33, 371.44
407.49, 0.34, 371.68
407.47, 0.35, 371.93
407.46, 0.36, 372.21
407.44, 0.36, 372.53
407.41, 0.36, 372.90
407.40, 0.40, 373.12
407.38, 0.48, 373.24
407.37, 0.56, 373.37
407.35, 0.64, 373.50
407.33, 0.73, 373.63
407.32, 0.82, 373.77
407.30, 0.91, 373.91
407.28, 1.00, 374.06
407.26, 1.09, 374.27
407.24, 1.18, 374.49
407.21, 1.27, 374.73
407.19, 1.37, 374.98
407.17, 1.48, 375.18
407.14, 1.59, 375.39
407.12, 1.71, 375.61
407.09, 1.84, 375.83
407.06, 1.97, 376.21
407.02, 2.10, 376.63
406.94, 2.24, 377.75
406.78, 0.20, 360.22
406.71, 0.20, 359.98
406.63, 0.19, 359.71
406.54, 0.18, 359.41
406.45, 0.18, 359.12
406.36, 0.19, 358.80
406.26, 0.19, 358.46
406.15, 0.20, 358.10
406.03, 0.20, 357.70
405.90, 0.22, 357.27
405.76, 0.23, 356.82
405.59, 0.23, 356.24
405.39, 0.23, 355.58
405.20, 0.26, 354.95
404.99, 0.29, 354.26
404.82, 0.37, 353.73
¯404.61, 0.44, 353.04
404.34, 0.51, 352.16
404.02, 0.57, 351.11
403.57, 0.62, 349.63
402.94, 0.65, 347.53
402.72, 0.86, 346.86
402.48, 1.09, 346.14
402.29, 1.34, 345.60
402.19, 1.63, 345.35
402.08, 1.91, 345.10
401.97, 2.21, 344.84
401.86, 2.52, 344.57
406.71, 0.20, 360.25
406.63, 0.19, 360.01
406.55, 0.19, 359.74
406.46, 0.18, 359.45
406.37, 0.18, 359.15
406.27, 0.18, 358.84
406.16, 0.19, 358.51
406.05, 0.19, 358.15
405.92, 0.20, 357.75
405.79, 0.21, 357.33
405.65, 0.23, 356.90
405.48, 0.24, 356.36
405.28, 0.24, 355.71
405.07, 0.26, 355.07
404.86, 0.29, 354.40
404.64, 0.35, 353.74
404.42, 0.42, 353.05
404.15, 0.48, 352.21
403.82, 0.55, 351.20
403.36, 0.60, 349.72
402.68, 0.62, 347.57
402.44, 0.83, 346.90
402.19, 1.06, 346.16
401.98, 1.31, 345.59
401.86, 1.59, 345.30
401.74, 1.88, 345.02
401.63, 2.18, 344.76
401.51, 2.48, 344.49
406.64, 0.19, 360.28
406.56, 0.19, 360.04
406.47, 0.18, 359.78
406.38, 0.17, 359.49
406.28, 0.17, 359.19
406.18, 0.18, 358.89
406.07, 0.18, 358.56
405.95, 0.19, 358.20
405.82, 0.19, 357.81
405.68, 0.20, 357.38
405.54, 0.22, 356.96
¯405.38, 0.24, 356.48
405.17, 0.25, 355.85
404.95, 0.26, 355.20
404.73, 0.29, 354.54
404.48, 0.33, 353.79
404.24, 0.39, 353.07
403.97, 0.47, 352.28
403.63, 0.54, 351.29
403.14, 0.58, 349.81
402.41, 0.59, 347.60
402.16, 0.80, 346.92
401.89, 1.02, 346.17
401.67, 1.27, 345.59
401.55, 1.56, 345.30
401.42, 1.85, 345.00
401.29, 2.15, 344.70
401.16, 2.45, 344.41
406.56, 0.19, 360.32
406.48, 0.18, 360.07
406.39, 0.18, 359.81
406.29, 0.17, 359.53
406.19, 0.17, 359.24
406.09, 0.17, 358.94
405.98, 0.18, 358.61
405.85, 0.18, 358.26
405.72, 0.19, 357.87
405.57, 0.19, 357.44
405.42, 0.22, 357.02
405.26, 0.24, 356.56
405.06, 0.25, 355.99
404.83, 0.26, 355.32
404.60, 0.29, 354.67
404.35, 0.33, 353.94
404.06, 0.38, 353.13
403.78, 0.45, 352.34
403.44, 0.52, 351.39
402.93, 0.56, 349.90
402.14, 0.56, 347.64
401.88, 0.76, 346.93
401.60, 0.99, 346.18
401.36, 1.24, 345.59
401.23, 1.52, 345.30
401.10, 1.81, 345.00
400.96, 2.11, 344.70
400.82, 2.42, 344.38
406.49, 0.18, 360.35
406.40, 0.18, 360.11
406.31, 0.17, 359.85
406.21, 0.16, 359.57
406.11, 0.16, 359.29
406.00, 0.17, 358.99
¯405.88, 0.17, 358.67
405.76, 0.18, 358.31
405.62, 0.18, 357.93
405.46, 0.19, 357.50
405.31, 0.21, 357.08
405.14, 0.23, 356.63
404.95, 0.26, 356.12
404.71, 0.26, 355.44
404.48, 0.29, 354.81
404.20, 0.32, 354.05
403.89, 0.36, 353.20
403.59, 0.43, 352.41
403.26, 0.50, 351.49
402.71, 0.54, 350.00
401.90, 0.54, 347.75
401.59, 0.73, 346.95
401.30, 0.95, 346.20
401.05, 1.20, 345.59
400.92, 1.49, 345.30
400.78, 1.78, 345.00
400.63, 2.08, 344.69
400.49, 2.39, 344.38
406.42, 0.18, 360.38
406.33, 0.17, 360.14
406.23, 0.16, 359.89
406.13, 0.16, 359.62
406.03, 0.16, 359.34
405.91, 0.16, 359.04
405.79, 0.17, 358.72
405.66, 0.17, 358.37
405.52, 0.18, 357.99
405.36, 0.18, 357.57
405.19, 0.20, 357.14
405.02, 0.22, 356.69
404.83, 0.25, 356.19
404.60, 0.26, 355.59
404.35, 0.29, 354.94
404.05, 0.31, 354.13
403.71, 0.34, 353.26
403.41, 0.41, 352.47
403.07, 0.48, 351.58
402.51, 0.52, 350.11
401.68, 0.52, 347.93
401.31, 0.70, 346.99
400.99, 0.92, 346.21
400.74, 1.17, 345.60
400.60, 1.45, 345.30
400.45, 1.75, 345.00
400.29, 2.05, 344.66
400.11, 2.36, 344.27
406.35, 0.17, 360.42
¯406.25, 0.17, 360.18
406.16, 0.16, 359.94
406.06, 0.16, 359.68
405.95, 0.16, 359.39
405.83, 0.16, 359.10
405.70, 0.16, 358.77
405.56, 0.17, 358.43
405.42, 0.17, 358.05
405.25, 0.18, 357.63
405.08, 0.19, 357.20
404.90, 0.21, 356.76
404.71, 0.24, 356.26
404.49, 0.27, 355.72
404.22, 0.29, 355.05
403.89, 0.30, 354.21
403.54, 0.32, 353.32
403.23, 0.39, 352.54
402.87, 0.46, 351.66
402.30, 0.50, 350.23
401.47, 0.50, 348.10
401.03, 0.67, 347.04
400.70, 0.88, 346.24
400.42, 1.13, 345.60
400.25, 1.42, 345.26
400.08, 1.71, 344.90
399.90, 2.01, 344.52
399.71, 2.33, 344.13
406.27, 0.17, 360.45
406.18, 0.16, 360.23
406.09, 0.16, 359.99
405.98, 0.16, 359.73
405.87, 0.16, 359.45
405.74, 0.16, 359.15
405.61, 0.16, 358.83
405.47, 0.16, 358.49
405.32, 0.17, 358.11
405.15, 0.17, 357.70
404.97, 0.18, 357.27
404.79, 0.20, 356.82
404.58, 0.23, 356.34
404.36, 0.26, 355.79
404.08, 0.27, 355.12
403.74, 0.28, 354.30
403.37, 0.30, 353.39
403.04, 0.37, 352.61
402.67, 0.44, 351.73
402.09, 0.48, 350.32
401.26, 0.48, 348.28
400.75, 0.63, 347.09
400.40, 0.85, 346.29
400.06, 1.09, 345.50
¯399.87, 1.37, 345.13
399.69, 1.67, 344.76
399.50, 1.98, 344.38
399.30, 2.29, 343.98
406.21, 0.16, 360.49
406.11, 0.16, 360.27
406.01, 0.16, 360.04
405.91, 0.16, 359.78
405.79, 0.16, 359.51
405.66, 0.16, 359.21
405.53, 0.16, 358.90
405.38, 0.16, 358.55
405.22, 0.16, 358.18
405.05, 0.16, 357.77
404.86, 0.17, 357.33
404.67, 0.20, 356.89
404.46, 0.22, 356.41
404.22, 0.24, 355.86
403.94, 0.26, 355.19
403.59, 0.27, 354.38
403.20, 0.28, 353.46
402.86, 0.35, 352.68
402.48, 0.42, 351.81
401.88, 0.45, 350.41
401.04, 0.46, 348.43
400.47, 0.60, 347.14
399.96, 0.79, 345.99
399.69, 1.05, 345.41
399.49, 1.33, 345.03
399.29, 1.63, 344.63
399.09, 1.94, 344.24
398.89, 2.26, 343.83
406.14, 0.16, 360.54
406.04, 0.16, 360.32
405.94, 0.16, 360.09
405.83, 0.16, 359.84
405.71, 0.15, 359.57
405.58, 0.15, 359.27
405.44, 0.15, 358.96
405.29, 0.15, 358.62
405.12, 0.15, 358.24
404.94, 0.16, 357.84
404.75, 0.17, 357.40
404.55, 0.19, 356.96
404.34, 0.21, 356.48
404.08, 0.23, 355.91
403.79, 0.24, 355.24
403.44, 0.26, 354.47
403.03, 0.26, 353.53
402.68, 0.33, 352.75
402.28, 0.40, 351.88
¯401.67, 0.43, 350.50
400.80, 0.44, 348.55
400.08, 0.54, 346.94
399.51, 0.72, 345.69
399.31, 1.00, 345.31
399.11, 1.29, 344.93
398.90, 1.59, 344.52
398.68, 1.90, 344.10
398.47, 2.23, 343.71
406.07, 0.16, 360.59
405.98, 0.16, 360.37
405.87, 0.16, 360.14
405.76, 0.16, 359.89
405.63, 0.15, 359.63
405.50, 0.15, 359.34
405.36, 0.15, 359.03
405.20, 0.15, 358.69
405.03, 0.15, 358.31
404.84, 0.15, 357.91
404.64, 0.16, 357.47
404.44, 0.18, 357.03
404.21, 0.20, 356.54
403.94, 0.21, 355.96
403.64, 0.22, 355.30
403.29, 0.24, 354.55
402.87, 0.25, 353.63
402.49, 0.31, 352.83
402.08, 0.38, 351.95
401.46, 0.41, 350.60
400.57, 0.42, 348.67
399.64, 0.47, 346.65
399.13, 0.68, 345.60
398.93, 0.96, 345.22
398.71, 1.25, 344.82
398.49, 1.55, 344.41
398.26, 1.86, 343.98
398.07, 2.19, 343.64
406.01, 0.16, 360.63
405.91, 0.16, 360.42
405.80, 0.16, 360.20
405.69, 0.15, 359.95
405.56, 0.15, 359.69
405.42, 0.15, 359.40
405.28, 0.15, 359.09
405.12, 0.15, 358.76
404.94, 0.15, 358.39
404.75, 0.15, 357.98
404.54, 0.15, 357.54
404.33, 0.17, 357.10
404.08, 0.18, 356.59
403.80, 0.19, 356.01
¯403.49, 0.21, 355.36
403.13, 0.22, 354.61
402.71, 0.24, 353.73
402.31, 0.29, 352.90
401.89, 0.35, 352.02
401.26, 0.39, 350.71
400.34, 0.39, 348.79
399.17, 0.40, 346.34
398.75, 0.63, 345.50
398.53, 0.91, 345.12
398.31, 1.20, 344.71
398.07, 1.51, 344.28
397.83, 1.82, 343.83
397.66, 2.16, 343.56
405.95, 0.16, 360.68
405.84, 0.16, 360.47
405.73, 0.16, 360.25
405.61, 0.15, 360.01
405.49, 0.15, 359.75
405.35, 0.15, 359.46
405.20, 0.15, 359.16
405.03, 0.15, 358.83
404.85, 0.15, 358.47
404.66, 0.15, 358.07
404.44, 0.15, 357.62
404.21, 0.16, 357.16
403.95, 0.17, 356.64
403.67, 0.18, 356.07
403.34, 0.19, 355.41
402.97, 0.20, 354.67
402.55, 0.22, 353.81
402.13, 0.26, 352.97
401.69, 0.33, 352.09
